# .PCD v0.7 - Point Cloud Data file format
VERSION 0.7
FIELDS x y z intensity ring time
SIZE 4 4 4 4 4 4
TYPE F F F F F F
COUNT 1 1 1 1 1 1
WIDTH 531
HEIGHT 1
VIEWPOINT 0 0 0 1 0 0 0
POINTS 531
DATA ascii
0.6727346777915955 0.029842806980013847 0.1308949738740921 84.0 13 -0.05765761435031891
0.6544623970985413 0.028917798772454262 -0.03433239087462425 67.0 6 -0.05765530839562416
0.6716600656509399 0.029677685350179672 0.155216246843338 12.0 14 -0.05765300616621971
0.6512702703475952 0.028663180768489838 -0.011378969065845013 12.0 7 -0.05765070021152496
3.6380467414855957 0.1594768911600113 0.97574782371521 120.0 15 -0.057648397982120514
1.4552955627441406 0.062012929469347 -0.39029911160469055 1.0 0 -0.057627663016319275
0.6473186612129211 0.027470620349049568 0.011309158988296986 71.0 8 -0.05762535706162453
1.4991917610168457 0.06335920095443726 -0.3464246392250061 1.0 1 -0.05762305483222008
0.6485303044319153 0.02740834467113018 0.034018374979496 43.0 9 -0.05762074887752533
1.4711384773254395 0.06191640719771385 -0.2862135171890259 0.0 2 -0.05761844664812088
0.6549212336540222 0.027449123561382294 0.057348478585481644 6.0 10 -0.05761614069342613
0.6473599672317505 0.027019347995519638 -0.10262101888656616 77.0 3 -0.05761383846402168
0.6584821343421936 0.027368444949388504 0.0809212476015091 100.0 11 -0.057611532509326935
0.6485652923583984 0.02695627138018608 -0.07970255613327026 9.0 4 -0.057609230279922485
0.6651325821876526 0.02752825804054737 0.10543683916330338 100.0 12 -0.05760692432522774
0.6629029512405396 0.027320407330989838 -0.05804572254419327 100.0 5 -0.05760462209582329
0.686561107635498 0.028175415471196175 0.13356630504131317 81.0 13 -0.05760231614112854
0.6605415344238281 0.026991823688149452 -0.0346464067697525 20.0 6 -0.05760001391172409
0.6639662981033325 0.02713177166879177 0.15341663360595703 16.0 14 -0.05759771168231964
0.6533598303794861 0.026584450155496597 -0.011413874104619026 25.0 7 -0.05759540572762489
3.650137186050415 0.14788174629211426 0.9788536429405212 115.0 15 -0.057593103498220444
1.4535627365112305 0.05711040645837784 -0.38978150486946106 0.0 0 -0.057572364807128906
0.6454080939292908 0.0252455472946167 0.011274254880845547 78.0 8 -0.05757006257772446
1.4993935823440552 0.05838765203952789 -0.3464246392250061 1.0 1 -0.05756775662302971
0.6526135802268982 0.0252989474684 0.03422771766781807 41.0 9 -0.05756545439362526
0.6787761449813843 0.02631315402686596 -0.13203983008861542 3.0 2 -0.05756314843893051
0.6669540405273438 0.025738608092069626 0.05839434638619423 6.0 10 -0.05756084620952606
0.6553416848182678 0.025175929069519043 -0.10387250036001205 74.0 3 -0.057558540254831314
0.6585692763328552 0.02518450655043125 0.0809212476015091 100.0 11 -0.057556238025426865
0.6605572700500488 0.0251453947275877 -0.08116498589515686 7.0 4 -0.05755393207073212
0.665224552154541 0.025206802412867546 0.10543683916330338 100.0 12 -0.05755162984132767
0.6609989404678345 0.025046683847904205 -0.057871412485837936 100.0 5 -0.05754932761192322
0.684688925743103 0.025824354961514473 0.13318468630313873 77.0 13 -0.05754702165722847
0.6546398401260376 0.02457658387720585 -0.03433239087462425 7.0 6 -0.05754471942782402
0.667951762676239 0.024959925562143326 0.15431644022464752 16.0 14 -0.05754241347312927
0.6714334487915039 0.02497236803174019 -0.011728017590939999 68.0 7 -0.05754011124372482
3.6351871490478516 0.13456682860851288 0.974712610244751 117.0 15 -0.057537805289030075
1.4614757299423218 0.05231360346078873 -0.3918520510196686 0.0 0 -0.057517070323228836
0.6394970417022705 0.02277877740561962 0.01116954069584608 71.0 8 -0.05751476436853409
1.5190634727478027 0.053843338042497635 -0.35092365741729736 1.0 1 -0.05751246213912964
0.6586859226226807 0.02323239855468273 0.03454173356294632 43.0 9 -0.05751015618443489
0.6788638830184937 0.02394409105181694 -0.13203983008861542 3.0 2 -0.05750785395503044
0.6511104702949524 0.022851120680570602 0.05699985474348068 6.0 10 -0.05750555172562599
0.6514772772789001 0.02275015413761139 -0.10324675589799881 77.0 3 -0.057503245770931244
0.6586531400680542 0.022885970771312714 0.0809212476015091 100.0 11 -0.057500943541526794
0.6606410145759583 0.022839291021227837 -0.08116498589515686 7.0 4 -0.057498637586832047
0.6593859195709229 0.02268068492412567 0.1044982373714447 100.0 12 -0.0574963353574276
0.6431614756584167 0.022122617810964584 -0.05630260705947876 100.0 5 -0.05749402940273285
0.6788885593414307 0.02323289029300213 0.13203983008861542 72.0 13 -0.0574917271733284
0.6507294178009033 0.022155528888106346 -0.03412304446101189 5.0 6 -0.05748942121863365
0.6641395688056946 0.022496066987514496 0.15341663360595703 16.0 14 -0.0574871189892292
0.6735151410102844 0.022695962339639664 -0.011762921698391438 100.0 7 -0.057484813034534454
3.635634660720825 0.12187760323286057 0.974712610244751 117.0 15 -0.057482510805130005
1.4693728685379028 0.04746085777878761 -0.3939225971698761 0.0 0 -0.05746177211403847
0.6395726799964905 0.02054620534181595 0.01116954069584608 40.0 8 -0.05745946988463402
1.491973638534546 0.04766956344246864 -0.3446250259876251 1.0 1 -0.05745716765522957
0.6647517681121826 0.021123135462403297 0.03485574945807457 36.0 9 -0.05745486170053482
0.7181886434555054 0.02282114513218403 -0.139672189950943 3.0 2 -0.05745255947113037
0.6432207226753235 0.020326290279626846 0.05630260705947876 6.0 10 -0.05745025351643562
0.6535271406173706 0.020538123324513435 -0.10355963557958603 84.0 3 -0.057447951287031174
0.6507925391197205 0.020338496193289757 0.07994629442691803 100.0 11 -0.057445645332336426
0.6805581450462341 0.021149512380361557 -0.08360237628221512 7.0 4 -0.057443343102931976
0.6752564907073975 0.02086711674928665 0.10700118541717529 100.0 12 -0.05744103714823723
0.6432381868362427 0.019765306264162064 -0.05630260705947876 100.0 5 -0.05743873491883278
0.6671915650367737 0.020501339808106422 0.1297501176595688 74.0 13 -0.05743642896413803
0.6348321437835693 0.01939580775797367 -0.03328566998243332 7.0 6 -0.05743412673473358
0.6797967553138733 0.02065116912126541 0.1570158451795578 16.0 14 -0.057431820780038834
0.6536024212837219 0.019741252064704895 -0.011413874104619026 90.0 7 -0.057429518550634384
3.639899730682373 0.1093011200428009 0.97574782371521 117.0 15 -0.057427212595939636
1.4695369005203247 0.042075347155332565 -0.3939225971698761 0.0 0 -0.0574064776301384
0.6536325812339783 0.01871461421251297 0.011413874104619026 15.0 8 -0.05740417540073395
3.1400980949401855 0.08935640007257462 -0.7252422571182251 2.0 1 -0.0574018694460392
0.6588320732116699 0.018633022904396057 0.03454173356294632 36.0 9 -0.05739956721663475
3.1478168964385986 0.08847793936729431 -0.6121153235435486 1.0 2 -0.05739726126194
0.6811315417289734 0.019025759771466255 0.059614524245262146 31.0 10 -0.05739495903253555
0.6595218181610107 0.018306953832507133 -0.1044982373714447 71.0 3 -0.057392653077840805
0.6508595943450928 0.018066508695483208 0.07994629442691803 26.0 11 -0.057390350848436356
0.6568158268928528 0.01811712421476841 -0.08067751675844193 11.0 4 -0.05738804489374161
0.6654520630836487 0.018239116296172142 0.10543683916330338 100.0 12 -0.05738574266433716
0.6512699127197266 0.017736656591296196 -0.05699985474348068 100.0 5 -0.05738343670964241
0.6751123666763306 0.018268072977662086 0.13127659261226654 72.0 13 -0.05738113448023796
0.636895477771759 0.017122717574238777 -0.0333903431892395 5.0 6 -0.05737882852554321
3.6603775024414062 0.09776870906352997 0.8453661203384399 16.0 14 -0.05737652629613876
0.6636621952056885 0.01772642321884632 -0.01158839836716652 97.0 7 -0.057374220341444016
3.651845932006836 0.09690306335687637 0.9788536429405212 117.0 15 -0.057371918112039566
1.4773997068405151 0.037139248102903366 -0.395993173122406 0.0 0 -0.05735118314623833
0.6496986150741577 0.01621882990002632 0.011344064027071 9.0 8 -0.05734887719154358
3.12481951713562 0.0774611160159111 -0.7216430306434631 4.0 1 -0.05734657496213913
0.6489099264144897 0.016085820272564888 0.034018374979496 43.0 9 -0.05734426900744438
0.6398271322250366 0.01574893482029438 -0.12440747022628784 12.0 2 -0.05734196677803993
0.6712347865104675 0.01640447974205017 0.05874297022819519 63.0 10 -0.057339660823345184
0.6536573767662048 0.015861066058278084 -0.10355963557958603 64.0 3 -0.057337358593940735
0.6648130416870117 0.016015667468309402 0.08165246248245239 100.0 11 -0.05733505263924599
0.6529087424278259 0.01561456173658371 -0.08019004017114639 9.0 4 -0.05733275040984154
0.6615620255470276 0.015821509063243866 0.10481110215187073 100.0 12 -0.05733044445514679
0.6493359804153442 0.0154160400852561 -0.05682554095983505 100.0 5 -0.05732814222574234
0.6810601353645325 0.01605028472840786 0.13242144882678986 68.0 13 -0.05732583627104759
0.6429415941238403 0.015039383433759212 -0.03370435908436775 5.0 6 -0.05732353404164314
3.660696268081665 0.08499178290367126 0.8453661203384399 25.0 14 -0.057321228086948395
0.6577225923538208 0.01527059730142355 -0.011483684182167053 100.0 7 -0.057318925857543945
3.656024932861328 0.08424492180347443 0.9798889756202698 115.0 15 -0.057316623628139496
1.4620692729949951 0.03164779022336006 -0.3918520510196686 0.0 0 -0.05729588493704796
0.6697410941123962 0.014497141353785992 0.011693112552165985 9.0 8 -0.05729358270764351
3.1445419788360596 0.06751586496829987 -0.7261420488357544 4.0 1 -0.05729127675294876
0.6549525260925293 0.013948003761470318 0.03433239087462425 46.0 9 -0.05728897452354431
0.6359525322914124 0.013432642444968224 -0.12364423274993896 16.0 2 -0.057286668568849564
0.6633201241493225 0.013894571922719479 0.05804572254419327 100.0 10 -0.057284366339445114
0.6616060733795166 0.013858666643500328 -0.10481110215187073 61.0 3 -0.057282060384750366
0.6688318848609924 0.013893247582018375 0.08213994652032852 98.0 11 -0.05727975815534592
0.6747882962226868 0.013899482786655426 -0.08287115395069122 12.0 4 -0.05727745220065117
0.6616132259368896 0.013512269593775272 0.10481110215187073 95.0 12 -0.05727514997124672
0.6473939418792725 0.013108834624290466 -0.05665123090147972 100.0 5 -0.05727284401655197
0.6732583045959473 0.01363255176693201 0.1308949738740921 52.0 13 -0.05727054178714752
0.6629564762115479 0.013308207504451275 -0.034751079976558685 7.0 6 -0.05726823955774307
3.6668031215667725 0.07296731323003769 0.8467158079147339 21.0 14 -0.057265933603048325
0.65777188539505 0.012974448502063751 -0.011483684182167053 100.0 7 -0.057263631373643875
3.644707679748535 0.07125496119260788 0.9767830967903137 120.0 15 -0.05726132541894913
1.4621661901474 0.02679881453514099 -0.3918520510196686 0.0 0 -0.05724059045314789
0.6657888293266296 0.012086451053619385 0.011623302474617958 9.0 8 -0.05723828449845314
3.144758462905884 0.05653961002826691 -0.7261420488357544 3.0 1 -0.05723598226904869
0.6609860062599182 0.011883866973221302 0.0346464067697525 48.0 9 -0.05723367631435394
0.6242159605026245 0.011113803833723068 -0.12135452777147293 25.0 2 -0.05723137408494949
0.6673467755317688 0.011765220202505589 0.05839434638619423 100.0 10 -0.057229068130254745
0.65770024061203 0.011480333283543587 -0.10418536514043808 87.0 3 -0.057226765900850296
0.6708611249923706 0.011592945083975792 0.08238368481397629 42.0 11 -0.05722446367144585
0.6728479266166687 0.011509816162288189 -0.08262742310762405 24.0 4 -0.0572221577167511
0.65770423412323 0.01125076599419117 0.10418536514043808 61.0 12 -0.05721985548734665
0.6314969658851624 0.010692219249904156 -0.055256739258766174 100.0 5 -0.0572175495326519
0.6595609188079834 0.01105224434286356 0.12822365760803223 49.0 13 -0.05721524730324745
0.6590049266815186 0.010927884839475155 -0.03454173356294632 7.0 6 -0.057212941348552704
0.6878127455711365 0.011285516433417797 0.15881545841693878 22.0 14 -0.057210639119148254
0.6558118462562561 0.010760451667010784 -0.011448778212070465 100.0 7 -0.057208333164453506
3.637197732925415 0.05904358997941017 0.974712610244751 117.0 15 -0.05720603093504906
1.450661063194275 0.02152240090072155 -0.3887462317943573 0.0 0 -0.05718529224395752
0.6498295068740845 0.00964104663580656 0.011344064027071 9.0 8 -0.05718299001455307
1.4847804307937622 0.02176942117512226 -0.34282541275024414 1.0 1 -0.05718068778514862
0.6690115928649902 0.009692391380667686 0.03506509214639664 48.0 9 -0.05717838183045387
0.6340662837028503 0.009075132198631763 -0.12326261401176453 33.0 2 -0.05717607960104942
0.6594151258468628 0.009322834201157093 0.057697102427482605 92.0 10 -0.057173773646354675
0.6597099304199219 0.009327001869678497 -0.1044982373714447 100.0 3 -0.057171471416950226
0.6669260263442993 0.009312924928963184 0.08189620822668076 35.0 11 -0.05716916546225548
0.6609728932380676 0.009114103391766548 -0.08116498589515686 50.0 4 -0.05716686323285103
0.6695907115936279 0.009116053581237793 0.10606258362531662 53.0 12 -0.05716455727815628
0.6434836983680725 0.008648606948554516 -0.05630260705947876 100.0 5 -0.05716225504875183
0.651741623878479 0.008759595453739166 0.12669718265533447 46.0 13 -0.05715994909405708
0.655043363571167 0.008689320646226406 -0.03433239087462425 7.0 6 -0.057157646864652634
0.6897949576377869 0.009029903449118137 0.15926535427570343 24.0 14 -0.057155340909957886
0.6638435125350952 0.008574621751904488 -0.01158839836716652 100.0 7 -0.057153038680553436
3.6489715576171875 0.04649375006556511 0.9778183698654175 117.0 15 -0.05715073272585869
1.423680305480957 0.016400465741753578 -0.3814992904663086 0.0 0 -0.05712999776005745
0.6598570346832275 0.007486224640160799 0.011518588289618492 6.0 8 -0.057127695530653
1.453669548034668 0.01623847335577011 -0.3356269896030426 2.0 1 -0.05712538957595825
0.6610515713691711 0.007384393829852343 0.0346464067697525 48.0 9 -0.0571230873465538
0.846111536026001 0.009303954429924488 -0.1644773632287979 65.0 2 -0.057120781391859055
0.6713959574699402 0.007265571970492601 0.05874297022819519 82.0 10 -0.057118479162454605
0.6557878851890564 0.006982204969972372 -0.10387250036001205 100.0 3 -0.05711617320775986
0.668939471244812 0.0070054722018539906 0.08213994652032852 21.0 11 -0.05711387097835541
0.655045747756958 0.006745637860149145 -0.08043377101421356 84.0 4 -0.05711156502366066
0.6735677123069763 0.006936376914381981 0.10668832063674927 53.0 12 -0.05710926279425621
0.6574548482894897 0.006655693985521793 -0.057522788643836975 100.0 5 -0.05710695683956146
0.6596208214759827 0.006562490947544575 0.12822365760803223 45.0 13 -0.05710465461015701
0.6630584001541138 0.0064809611067175865 -0.034751079976558685 20.0 6 -0.057102348655462265
0.6781303882598877 0.00650991965085268 0.15656594932079315 26.0 14 -0.057100046426057816
0.6678675413131714 0.00641139829531312 -0.011658207513391972 99.0 7 -0.05709774047136307
3.6529693603515625 0.034430209547281265 0.9788536429405212 115.0 15 -0.05709543824195862
1.3058897256851196 0.010484965518116951 -0.34992337226867676 4.0 0 -0.05707470327615738
0.673875629901886 0.005410535726696253 0.011762921698391438 8.0 8 -0.05707239732146263
1.4381259679794312 0.011295686475932598 -0.332027792930603 1.0 1 -0.05707009509205818
0.6510872840881348 0.00499998452141881 0.03412304446101189 50.0 9 -0.057067789137363434
0.9423355460166931 0.007072589360177517 -0.18317663669586182 100.0 2 -0.057065486907958984
0.6674325466156006 0.004892848897725344 0.05839434638619423 71.0 10 -0.057063180953264236
0.6577827334403992 0.004822107497602701 -0.10418536514043808 94.0 3 -0.05706087872385979
0.6729291081428528 0.004815374501049519 0.08262742310762405 13.0 11 -0.05705857276916504
0.6411691904067993 0.004476201720535755 -0.0787276029586792 73.0 4 -0.05705627053976059
0.6676619052886963 0.004544946830719709 0.1057497188448906 57.0 12 -0.05705396458506584
0.6495046615600586 0.004307677503675222 -0.05682554095983505 34.0 5 -0.05705166235566139
0.6792710423469543 0.004505095537751913 0.13203983008861542 48.0 13 -0.057049356400966644
0.685045599937439 0.0044238329865038395 -0.0359024703502655 33.0 6 -0.057047054171562195
0.668404757976532 0.004200033377856016 0.15431644022464752 20.0 14 -0.05704474821686745
0.6498889327049255 0.003969951532781124 -0.011344064027071 90.0 7 -0.057042445987463
3.660794734954834 0.021723642945289612 0.9809242486953735 115.0 15 -0.05704014003276825
1.2325177192687988 -0.003011615015566349 -0.33025309443473816 54.0 0 -0.05782726779580116
0.667896032333374 -0.0017485514981672168 0.011658207513391972 39.0 8 -0.05782496556639671
1.2354965209960938 -0.0034501657355576754 -0.2852379381656647 50.0 1 -0.057822659611701965
0.6630871295928955 -0.0019674249924719334 0.034751079976558685 63.0 9 -0.057820357382297516
1.0169612169265747 -0.0030173936393111944 -0.1976781189441681 65.0 2 -0.05781805142760277
0.659477710723877 -0.002071817172691226 0.057697102427482605 79.0 10 -0.05781574919819832
0.6577968001365662 -0.002181344898417592 -0.10418536514043808 100.0 3 -0.05781344324350357
0.6709572076797485 -0.0023420918732881546 0.08238368481397629 49.0 11 -0.05781114101409912
0.6630163788795471 -0.002430092776194215 -0.08140873163938522 73.0 4 -0.05780883505940437
0.6656970381736755 -0.002556105609983206 0.10543683916330338 42.0 12 -0.057806532829999924
0.6574832201004028 -0.0026393206790089607 -0.057522788643836975 11.0 5 -0.057804226875305176
0.6576849222183228 -0.002640130463987589 0.1278420239686966 51.0 13 -0.057801924645900726
0.6690759658813477 -0.0028026350773870945 -0.03506509214639664 100.0 6 -0.05779961869120598
3.685032606124878 -0.016079088672995567 0.8507649302482605 58.0 14 -0.05779731646180153
0.6558933854103088 -0.002976370044052601 -0.011448778212070465 10.0 7 -0.05779501423239708
3.656954765319824 -0.017233120277523994 0.9798889756202698 113.0 15 -0.05779270827770233
1.22283935546875 -0.007469993084669113 -0.32766491174697876 71.0 0 -0.05777197331190109
0.6638864874839783 -0.004055501893162727 0.01158839836716652 78.0 8 -0.057769667357206345
1.2159899473190308 -0.00764038972556591 -0.2807389199733734 69.0 1 -0.057767365127801895
0.6630762219429016 -0.004282019101083279 0.034751079976558685 56.0 9 -0.05776505917310715
1.1131408214569092 -0.007382737938314676 -0.2163774073123932 61.0 2 -0.0577627569437027
0.683373749256134 -0.004651649389415979 0.059788838028907776 73.0 10 -0.05776045098900795
0.6538338661193848 -0.004564695060253143 -0.10355963557958603 100.0 3 -0.0577581487596035
0.664989709854126 -0.004642579238861799 0.08165246248245239 64.0 11 -0.05775584280490875
0.6471235156059265 -0.0046307980082929134 -0.0794588178396225 78.0 4 -0.0577535405755043
0.6775360107421875 -0.00496668741106987 0.10731405764818192 44.0 12 -0.057751238346099854
0.6634470224380493 -0.004979207180440426 -0.05804572254419327 11.0 5 -0.057748932391405106
0.6635604500770569 -0.005095878150314093 0.1289868950843811 45.0 13 -0.057746630162000656
0.6570780277252197 -0.005160784348845482 -0.034437064081430435 100.0 6 -0.05774432420730591
3.679102897644043 -0.029538363218307495 0.8494152426719666 73.0 14 -0.05774202197790146
0.649880051612854 -0.005217683035880327 -0.011344064027071 7.0 7 -0.05773971602320671
3.6645994186401367 -0.03006155602633953 0.9819594621658325 115.0 15 -0.05773741379380226
1.228601098060608 -0.01179408747702837 -0.3292178511619568 85.0 0 -0.057716675102710724
0.6658667922019958 -0.00650828517973423 0.011623302474617958 100.0 8 -0.057714372873306274
1.2042618989944458 -0.011980846524238586 -0.27803951501846313 73.0 1 -0.057712066918611526
0.6650543808937073 -0.006616429891437292 0.03485574945807457 20.0 9 -0.05770976468920708
1.071881890296936 -0.010850933380424976 -0.20836342871189117 88.0 2 -0.05770745873451233
0.6574536561965942 -0.006770330481231213 0.057522788643836975 53.0 10 -0.05770515650510788
0.6617149114608765 -0.006929714698344469 -0.10481110215187073 100.0 3 -0.05770285427570343
0.6729081869125366 -0.00716439401730895 0.08262742310762405 61.0 11 -0.05770054832100868
0.6451172232627869 -0.006981112994253635 -0.07921507954597473 73.0 4 -0.05769824609160423
0.6834403872489929 -0.00739582534879446 0.10825265944004059 48.0 12 -0.057695940136909485
0.65545654296875 -0.007207411807030439 -0.057348478585481644 11.0 5 -0.057693637907505035
0.6694279909133911 -0.007477893494069576 0.13013173639774323 37.0 13 -0.05769133195281029
0.671035885810852 -0.007612987421452999 -0.03516976535320282 100.0 6 -0.05768902972340584
3.659491539001465 -0.04215617477893829 0.8449162244796753 79.0 14 -0.05768672376871109
0.6278626918792725 -0.007232778239995241 -0.010960111394524574 7.0 7 -0.05768442153930664
3.668335437774658 -0.04289838671684265 0.9829947352409363 113.0 15 -0.05768211558461189
1.2053722143173218 -0.01577918790280819 -0.32300618290901184 78.0 0 -0.057661380618810654
0.6498453617095947 -0.00850694254040718 0.011344064027071 100.0 8 -0.057659074664115906
1.2042155265808105 -0.0159742571413517 -0.27803951501846313 75.0 1 -0.057656772434711456
0.6670243144035339 -0.008964703418314457 0.03496042266488075 8.0 9 -0.05765447020530701
1.140545129776001 -0.015527847222983837 -0.22172006964683533 60.0 2 -0.05765216425061226
0.6653949022293091 -0.009175113402307034 0.0582200363278389 58.0 10 -0.05764986202120781
0.6636635065078735 -0.00915123987942934 -0.10512397438287735 100.0 3 -0.05764755606651306
0.6689109206199646 -0.00934036448597908 0.08213994652032852 98.0 11 -0.05764525383710861
0.6530301570892334 -0.009232611395418644 -0.08019004017114639 69.0 4 -0.057642947882413864
0.6774848699569702 -0.009696622379124165 0.10731405764818192 62.0 12 -0.057640645653009415
0.6494508385658264 -0.009408754296600819 -0.05682554095983505 11.0 5 -0.05763833969831467
0.665473461151123 -0.00964087713509798 0.12936849892139435 28.0 13 -0.05763603746891022
0.6670128703117371 -0.009779619984328747 -0.03496042266488075 100.0 6 -0.05763373151421547
3.674919605255127 -0.05452252924442291 0.8485153913497925 100.0 14 -0.05763142928481102
0.6318325996398926 -0.009484412148594856 -0.011029920540750027 7.0 7 -0.05762912333011627
3.6604371070861816 -0.05558568239212036 0.9809242486953735 115.0 15 -0.05762682110071182
1.201449990272522 -0.019712872803211212 -0.3219709098339081 78.0 0 -0.057606086134910583
0.6438134908676147 -0.010675810277462006 0.011239349842071533 100.0 8 -0.057603780180215836
1.2119463682174683 -0.020308254286646843 -0.2798391282558441 77.0 1 -0.057601477950811386
0.6689878702163696 -0.011210047639906406 0.03506509214639664 7.0 9 -0.05759917199611664
1.152265191078186 -0.019509360194206238 -0.22400976717472076 66.0 2 -0.05759686976671219
0.6773133277893066 -0.011586048640310764 0.059265900403261185 100.0 10 -0.05759456381201744
0.649802029132843 -0.011228889226913452 -0.10293389111757278 81.0 3 -0.05759226158261299
0.6629198789596558 -0.011571308597922325 0.08140873163938522 100.0 11 -0.05758995562791824
0.6549786925315857 -0.011547046713531017 -0.08043377101421356 58.0 4 -0.057587653398513794
0.6754738688468933 -0.01190836913883686 0.10700118541717529 57.0 12 -0.057585347443819046
0.6354715824127197 -0.011314086616039276 -0.05560535937547684 12.0 5 -0.0575830452144146
3.678544044494629 -0.06613591313362122 0.7151521444320679 6.0 13 -0.05758073925971985
0.6849470138549805 -0.012434129603207111 -0.0359024703502655 100.0 6 -0.0575784370303154
3.6708099842071533 -0.06727863848209381 0.8476155996322632 97.0 14 -0.05757613107562065
0.6437938809394836 -0.011799459345638752 -0.011239349842071533 7.0 7 -0.0575738288462162
3.6602325439453125 -0.0677238181233406 0.9809242486953735 115.0 15 -0.057571522891521454
1.2033054828643799 -0.023945029824972153 -0.32248854637145996 72.0 0 -0.057550787925720215
0.6437745690345764 -0.012810713611543179 0.011239349842071533 100.0 8 -0.057548485696315765
1.1962854862213135 -0.024014215916395187 -0.27623990178108215 80.0 1 -0.05754617974162102
0.6769320964813232 -0.013706916943192482 0.03548378124833107 7.0 9 -0.05754387751221657
1.110970377922058 -0.022689558565616608 -0.21599580347537994 73.0 2 -0.05754157155752182
0.6712928414344788 -0.01382715255022049 0.05874297022819519 100.0 10 -0.05753926932811737
0.6398863196372986 -0.013180247507989407 -0.10136953741312027 42.0 3 -0.05753696337342262
0.6628778576850891 -0.01376956608146429 0.08140873163938522 100.0 11 -0.05753466114401817
0.6688293814659119 -0.01400997769087553 -0.08213994652032852 42.0 4 -0.057532355189323425
0.6695034503936768 -0.01414099894464016 0.10606258362531662 53.0 12 -0.057530052959918976
0.6553475856781006 -0.013956436887383461 -0.057348478585481644 11.0 5 -0.05752774700522423
3.6547510623931885 -0.07783244550228119 0.7105727195739746 16.0 13 -0.05752544477581978
0.6749180555343628 -0.014491063542664051 -0.035379111766815186 100.0 6 -0.05752313882112503
3.686152935028076 -0.07978849112987518 0.8512148261070251 100.0 14 -0.05752083659172058
0.6437487602233887 -0.01404664758592844 -0.011239349842071533 5.0 7 -0.05751853436231613
3.6638364791870117 -0.08058496564626694 0.9819594621658325 113.0 15 -0.057516228407621384
1.197425365447998 -0.027800682932138443 -0.32093560695648193 62.0 0 -0.057495493441820145
0.6517224311828613 -0.015244878828525543 0.011378969065845013 100.0 8 -0.0574931874871254
1.1884015798568726 -0.028006237000226974 -0.27444028854370117 84.0 1 -0.05749088525772095
0.6609066128730774 -0.01569054089486599 0.0346464067697525 7.0 9 -0.0574885793030262
1.1285532712936401 -0.026792913675308228 -0.2194303572177887 66.0 2 -0.05748627707362175
0.6732351779937744 -0.016100803390145302 0.05891728401184082 100.0 10 -0.057483971118927
0.6477356553077698 -0.015604083426296711 -0.10262101888656616 20.0 3 -0.05748166888952255
0.6548877358436584 -0.01589074358344078 0.08043377101421356 100.0 11 -0.057479362934827805
0.6588538885116577 -0.01610204391181469 -0.0809212476015091 43.0 4 -0.057477060705423355
3.6632144451141357 -0.09016676247119904 0.5803719758987427 36.0 12 -0.05747475475072861
0.6752155423164368 -0.016619829460978508 -0.05909159407019615 14.0 5 -0.05747245252132416
3.6564197540283203 -0.09063807874917984 0.7109543085098267 27.0 13 -0.05747015029191971
0.678856611251831 -0.016946563497185707 -0.035588450729846954 100.0 6 -0.05746784433722496
3.672215461730957 -0.0923122689127922 0.8480655550956726 94.0 14 -0.05746554210782051
0.6516919732093811 -0.016496069729328156 -0.011378969065845013 7.0 7 -0.05746323615312576
3.6673951148986816 -0.09347208589315414 0.9829947352409363 115.0 15 -0.057460933923721313
1.1992522478103638 -0.032031890004873276 -0.3214532732963562 69.0 0 -0.057440195232629776
0.6476672887802124 -0.01741223968565464 0.011309158988296986 100.0 8 -0.05743789300322533
1.1941406726837158 -0.03231249749660492 -0.2757900059223175 83.0 1 -0.05743558704853058
0.6548582315444946 -0.017834320664405823 0.03433239087462425 6.0 9 -0.05743328481912613
1.0421017408370972 -0.028380457311868668 -0.2026391625404358 80.0 2 -0.05743097886443138
0.6891079545021057 -0.018887436017394066 0.06031177192926407 100.0 10 -0.05742867663502693
0.6437279582023621 -0.01775607280433178 -0.10199528187513351 13.0 3 -0.057426370680332184
0.6587969064712524 -0.018286792561411858 0.0809212476015091 100.0 11 -0.057424068450927734
0.6468877792358398 -0.018069211393594742 -0.0794588178396225 56.0 4 -0.057421766221523285
3.6648521423339844 -0.10300872474908829 0.5806847810745239 48.0 12 -0.05741946026682854
0.6691786050796509 -0.01880873739719391 -0.05856866016983986 32.0 5 -0.05741715803742409
3.665893316268921 -0.10367832332849503 0.7128624320030212 55.0 13 -0.05741485208272934
0.6688110828399658 -0.019032051786780357 -0.03506509214639664 100.0 6 -0.05741254985332489
3.6699225902557373 -0.10507436096668243 0.8476155996322632 91.0 14 -0.05741024389863014
0.6456338167190552 -0.018598059192299843 -0.011274254880845547 7.0 7 -0.05740794166922569
3.678632974624634 -0.10660889744758606 0.9861006140708923 113.0 15 -0.057405635714530945
1.183685302734375 -0.03575129061937332 -0.3173121511936188 72.0 0 -0.057384900748729706
0.6555976867675781 -0.019915791228413582 0.011448778212070465 100.0 8 -0.05738259479403496
1.1901248693466187 -0.03636160492897034 -0.2748901844024658 89.0 1 -0.05738029256463051
0.6627772450447083 -0.020365461707115173 0.034751079976558685 6.0 9 -0.05737798660993576
1.075355887413025 -0.03304295614361763 -0.20912668108940125 61.0 2 -0.05737568438053131
0.6850550174713135 -0.02116967737674713 0.05996314808726311 100.0 10 -0.05737338215112686
0.6436620354652405 -0.020002996549010277 -0.10199528187513351 6.0 3 -0.057371076196432114
0.6626973152160645 -0.020710324868559837 0.08140873163938522 100.0 11 -0.057368773967027664
0.6626936793327332 -0.020825987681746483 -0.08140873163938522 68.0 4 -0.057366468012332916
3.6605215072631836 -0.11567603796720505 0.5800590515136719 57.0 12 -0.05736416578292847
0.6770706176757812 -0.02151438035070896 -0.059265900403261185 100.0 5 -0.05736185982823372
3.673358201980591 -0.1167234554886818 0.714388906955719 68.0 13 -0.05735955759882927
0.6687405705451965 -0.02136652171611786 -0.03506509214639664 100.0 6 -0.05735725164413452
3.6753766536712646 -0.11807183921337128 0.8489653468132019 94.0 14 -0.05735494941473007
0.6495622992515564 -0.02098074182868004 -0.011344064027071 15.0 7 -0.057352643460035324
3.670515298843384 -0.1191982701420784 0.9840300679206848 115.0 15 -0.057350341230630875
1.1738927364349365 -0.039762482047080994 -0.3147239685058594 78.0 0 -0.057329606264829636
0.643532931804657 -0.021797960624098778 0.011239349842071533 100.0 8 -0.05732730031013489
1.1938860416412354 -0.040648315101861954 -0.2757900059223175 87.0 1 -0.05732499808073044
0.6746786236763 -0.023088717833161354 0.035379111766815186 6.0 9 -0.05732269212603569
1.0281373262405396 -0.03536437079310417 -0.19996784627437592 55.0 2 -0.05732038989663124
0.6770079135894775 -0.023405032232403755 0.059265900403261185 100.0 10 -0.05731808394193649
0.6337135434150696 -0.022019026800990105 -0.1004309356212616 7.0 3 -0.05731578171253204
0.6665887832641602 -0.023161310702562332 0.08189620822668076 26.0 11 -0.057313475757837296
0.6566653847694397 -0.022931259125471115 -0.08067751675844193 69.0 4 -0.057311173528432846
3.6679916381835938 -0.12873007357120514 0.581310510635376 78.0 12 -0.0573088675737381
0.6610622406005859 -0.02331584319472313 -0.057871412485837936 100.0 5 -0.05730656534433365
3.6670196056365967 -0.12997755408287048 0.7132440805435181 85.0 13 -0.0573042593896389
0.6686577796936035 -0.023817434906959534 -0.03506509214639664 42.0 6 -0.05730195716023445
3.682708978652954 -0.13182082772254944 0.8507649302482605 94.0 14 -0.0572996512055397
0.6734660863876343 -0.024106398224830627 -0.011762921698391438 26.0 7 -0.057297348976135254
3.6623542308807373 -0.1317322552204132 0.9819594621658325 113.0 15 -0.057295043021440506
1.1776076555252075 -0.0440041609108448 -0.31575924158096313 85.0 0 -0.05727430805563927
0.6554383635520935 -0.024606598541140556 0.011448778212070465 100.0 8 -0.05727200582623482
1.1898342370986938 -0.044876955449581146 -0.2748901844024658 89.0 1 -0.05726969987154007
0.6765897870063782 -0.02551892399787903 0.03548378124833107 7.0 9 -0.05726739764213562
0.8867546916007996 -0.03360069543123245 -0.17249134182929993 92.0 2 -0.05726509168744087
0.6729403138160706 -0.025616515427827835 0.05891728401184082 100.0 10 -0.05726278945803642
0.6494243144989014 -0.024834854528307915 -0.10293389111757278 6.0 3 -0.057260483503341675
0.6724503040313721 -0.02583293616771698 0.08262742310762405 100.0 11 -0.057258181273937225
0.6684785485267639 -0.025797201320528984 -0.08213994652032852 68.0 4 -0.05725587531924248
3.665546417236328 -0.14145681262016296 0.5809977054595947 87.0 12 -0.05725357308983803
0.6669495105743408 -0.025854771956801414 -0.05839434638619423 100.0 5 -0.05725126713514328
3.664581775665283 -0.1427006721496582 0.7128624320030212 90.0 13 -0.05724896490573883
0.6565961837768555 -0.02568296156823635 -0.034437064081430435 17.0 6 -0.05724665895104408
3.6861212253570557 -0.14482811093330383 0.8516647815704346 94.0 14 -0.05724435672163963
0.6873648762702942 -0.027006641030311584 -0.012007256038486958 80.0 7 -0.057242050766944885
3.6734542846679688 -0.1449725478887558 0.9850653409957886 115.0 15 -0.057239748537540436
1.185167908668518 -0.04843002185225487 -0.31782978773117065 89.0 0 -0.0572190135717392
0.6533551812171936 -0.026698332279920578 0.011413874104619026 100.0 8 -0.05721670761704445
1.177996277809143 -0.048342909663915634 -0.27219077944755554 85.0 1 -0.05721440538764
0.6625276207923889 -0.02730480395257473 0.034751079976558685 10.0 9 -0.05721209943294525
0.8297462463378906 -0.03434146195650101 -0.1614244133234024 85.0 2 -0.0572097972035408
0.6808094382286072 -0.02829630672931671 0.059614524245262146 100.0 10 -0.057207491248846054
0.631575345993042 -0.026250002905726433 -0.10011807084083557 7.0 3 -0.057205189019441605
0.676327645778656 -0.0282282792031765 0.08311489969491959 100.0 11 -0.05720288306474686
0.6584725379943848 -0.027598174288868904 -0.0809212476015091 75.0 4 -0.05720058083534241
3.6630566120147705 -0.1541679948568344 0.5806847810745239 96.0 12 -0.05719827488064766
0.6728271245956421 -0.028435084968805313 -0.05891728401184082 100.0 5 -0.05719597265124321
3.6758573055267334 -0.15534944832324982 0.7151521444320679 93.0 13 -0.05719366669654846
0.6505209803581238 -0.027606122195720673 -0.03412304446101189 15.0 6 -0.05719136446714401
3.6758859157562256 -0.1566361039876938 0.8494152426719666 91.0 14 -0.05718906223773956
0.6892643570899963 -0.029491309076547623 -0.012042161077260971 99.0 7 -0.057186756283044815
3.6845061779022217 -0.15829190611839294 0.9881711006164551 111.0 15 -0.057184454053640366
1.1888606548309326 -0.05253046378493309 -0.3188650906085968 89.0 0 -0.05716371536254883
0.6652443408966064 -0.02951052226126194 0.011623302474617958 60.0 8 -0.05716141313314438
1.1933948993682861 -0.05314820259809494 -0.2757900059223175 81.0 1 -0.05715910717844963
0.6763951182365417 -0.030241752043366432 0.03548378124833107 26.0 9 -0.05715680494904518
0.7747114896774292 -0.03463749587535858 -0.15073911845684052 100.0 2 -0.05715449899435043
0.690663754940033 -0.031000491231679916 0.0604860819876194 100.0 10 -0.057152196764945984
0.6354266405105591 -0.02863229624927044 -0.10074380785226822 7.0 3 -0.057149890810251236
0.6742419600486755 -0.030499227344989777 0.08287115395069122 100.0 11 -0.057147588580846786
0.6464738845825195 -0.029356207698583603 -0.0794588178396225 80.0 4 -0.05714528262615204
3.666442632675171 -0.1671334058046341 0.581310510635376 96.0 12 -0.05714298039674759
0.6727291345596313 -0.030666105449199677 -0.05891728401184082 90.0 5 -0.05714067816734314
3.6792151927948 -0.16835914552211761 0.7159153819084167 93.0 13 -0.05713837221264839
0.6544109582901001 -0.03005998767912388 -0.03433239087462425 15.0 6 -0.05713606998324394
3.681156635284424 -0.1697356402873993 0.8507649302482605 94.0 14 -0.057133764028549194
0.6771718263626099 -0.03134237974882126 -0.011832731775939465 100.0 7 -0.057131461799144745
3.687790870666504 -0.17133159935474396 0.9892064332962036 113.0 15 -0.05712915584445
1.180951476097107 -0.056311991065740585 -0.3167945444583893 87.0 0 -0.05710842087864876
0.6751244068145752 -0.032310448586940765 0.011797827668488026 14.0 8 -0.05710611492395401
1.1951485872268677 -0.05740710347890854 -0.27623990178108215 75.0 1 -0.05710381269454956
0.676285445690155 -0.03260262683033943 0.03548378124833107 70.0 9 -0.05710150673985481
0.8040005564689636 -0.03875957056879997 -0.1564633846282959 128.0 2 -0.05709920451045036
0.6706507205963135 -0.032448310405015945 0.05874297022819519 100.0 10 -0.057096902281045914
0.647161066532135 -0.03142501786351204 -0.10262101888656616 6.0 3 -0.057094596326351166
0.6622349619865417 -0.032272834330797195 0.08140873163938522 100.0 11 -0.057092294096946716
0.6562811732292175 -0.032097503542900085 -0.08067751675844193 86.0 4 -0.05708998814225197
3.657945156097412 -0.17954333126544952 0.5800590515136719 96.0 12 -0.05708768591284752
0.6686379313468933 -0.032818831503391266 -0.05856866016983986 100.0 5 -0.05708537995815277
3.6903703212738037 -0.18178048729896545 0.7182050943374634 93.0 13 -0.05708307772874832
0.6562969088554382 -0.032442741096019745 -0.034437064081430435 12.0 6 -0.057080771774053574
3.6883270740509033 -0.18297046422958374 0.8525645732879639 100.0 14 -0.057078469544649124
0.6690694093704224 -0.033308245241642 -0.011693112552165985 100.0 7 -0.057076163589954376
3.675593614578247 -0.1836249828338623 0.9861006140708923 115.0 15 -0.05707386136054993
1.1807477474212646 -0.06043393909931183 -0.3167945444583893 87.0 0 -0.05705312266945839
0.6650221347808838 -0.03415404632687569 0.011623302474617958 18.0 8 -0.05705082044005394
1.2027255296707153 -0.06197976693511009 -0.27803951501846313 75.0 1 -0.05704851821064949
0.6701837778091431 -0.03465369716286659 0.03516976535320282 73.0 9 -0.05704621225595474
0.7822933793067932 -0.04045063257217407 -0.15226559340953827 100.0 2 -0.05704391002655029
0.6665539741516113 -0.034582655876874924 0.05839434638619423 91.0 10 -0.057041604071855545
0.645074725151062 -0.033581145107746124 -0.10230815410614014 6.0 3 -0.057039301842451096
0.6740126013755798 -0.035205546766519547 0.08287115395069122 100.0 11 -0.05703699588775635
0.6660769581794739 -0.034907616674900055 -0.08189620822668076 91.0 4 -0.0570346936583519
3.6651864051818848 -0.19272573292255402 0.581310510635376 96.0 12 -0.05703238770365715
0.658571183681488 -0.03462950885295868 -0.057697102427482605 100.0 5 -0.0570300854742527
3.677950143814087 -0.19404058158397675 0.7159153819084167 96.0 13 -0.05702777951955795
0.6761242747306824 -0.03578917309641838 -0.03548378124833107 11.0 6 -0.0570254772901535
3.6896119117736816 -0.19594737887382507 0.8530144691467285 91.0 14 -0.057023171335458755
0.6749396920204163 -0.03596273064613342 -0.011797827668488026 100.0 7 -0.057020869106054306
3.678788661956787 -0.1966603398323059 0.9871358871459961 113.0 15 -0.05701856315135956
1.184387445449829 -0.06476610898971558 -0.31782978773117065 81.0 0 -0.05699782818555832
0.6569121479988098 -0.03603706136345863 0.011483684182167053 15.0 8 -0.05699552595615387
1.202501893043518 -0.06617768108844757 -0.27803951501846313 80.0 1 -0.05699322000145912
0.6680644750595093 -0.03688276559114456 0.03506509214639664 70.0 9 -0.05699091777205467
0.6863226294517517 -0.03801092132925987 0.06013746187090874 36.0 10 -0.056986309587955475
0.6469259262084961 -0.03594224900007248 -0.10262101888656616 23.0 3 -0.05698400363326073
0.6758676171302795 -0.037668533623218536 0.08311489969491959 100.0 11 -0.05698170140385628
0.6718970537185669 -0.037564873695373535 -0.08262742310762405 92.0 4 -0.05697939544916153
3.668436288833618 -0.20573970675468445 0.5819362998008728 96.0 12 -0.05697709321975708
0.6803281307220459 -0.03815535828471184 -0.059614524245262146 100.0 5 -0.05697478726506233
3.677250385284424 -0.20687785744667053 0.7159153819084167 93.0 13 -0.05697248503565788
0.6520662307739258 -0.036798663437366486 -0.03422771766781807 12.0 6 -0.056970179080963135
3.6986336708068848 -0.2093760222196579 0.8552640080451965 94.0 14 -0.056967876851558685
0.6708170771598816 -0.0380917526781559 -0.011728017590939999 100.0 7 -0.05696557089686394
3.6857943534851074 -0.20993994176387787 0.9892064332962036 115.0 15 -0.05696326866745949
1.1822255849838257 -0.06878778338432312 -0.3173121511936188 72.0 0 -0.05694253370165825
0.6727526783943176 -0.03926192596554756 0.011762921698391438 11.0 8 -0.0569402277469635
1.2139359712600708 -0.07105804234743118 -0.2807389199733734 91.0 1 -0.05693792551755905
0.6599631309509277 -0.03863110393285751 0.0346464067697525 70.0 9 -0.056935619562864304
0.881945788860321 -0.0517793707549572 -0.17172810435295105 64.0 2 -0.056933317333459854
0.6623184084892273 -0.03900095820426941 0.05804572254419327 13.0 10 -0.056931011378765106
0.6625720858573914 -0.03913193941116333 -0.10512397438287735 52.0 3 -0.05692870914936066
0.657897412776947 -0.038971077650785446 0.0809212476015091 100.0 11 -0.05692640319466591
0.6559090614318848 -0.03896817937493324 -0.08067751675844193 95.0 4 -0.05692410096526146
3.6775929927825928 -0.21848928928375244 0.5835006237030029 98.0 12 -0.05692179501056671
0.6782019138336182 -0.04041140526533127 -0.05944021791219711 98.0 5 -0.05691949278116226
3.684345245361328 -0.22018107771873474 0.7174418568611145 92.0 13 -0.056917186826467514
0.6479464769363403 -0.03883558139204979 -0.034018374979496 15.0 6 -0.056914884597063065
3.6939895153045654 -0.22205151617527008 0.8543641567230225 94.0 14 -0.05691257864236832
0.6846596598625183 -0.041155967861413956 -0.011972350999712944 100.0 7 -0.05691027641296387
3.6889350414276123 -0.22239382565021515 0.9902417063713074 113.0 15 -0.05690797418355942
1.1974037885665894 -0.07386567443609238 -0.3214532732963562 67.0 0 -0.05688723549246788
0.664635181427002 -0.04100014269351959 0.011623302474617958 12.0 8 -0.05688493326306343
1.2156386375427246 -0.07520353049039841 -0.28118881583213806 90.0 1 -0.05688262730836868
0.6518505811691284 -0.04043989256024361 0.03422771766781807 73.0 9 -0.05688032507896423
0.7661511898040771 -0.047665178775787354 -0.14921264350414276 85.0 2 -0.056878019124269485
0.6780864596366882 -0.04230514541268349 0.05944021791219711 12.0 10 -0.056875716894865036
0.6762394309043884 -0.042189911007881165 -0.10731405764818192 93.0 3 -0.05687341094017029
0.6656894683837891 -0.041648346930742264 0.08189620822668076 26.0 11 -0.05687110871076584
0.6577574014663696 -0.041267331689596176 -0.0809212476015091 75.0 4 -0.05686880275607109
3.6768081188201904 -0.23132513463497162 0.5835006237030029 98.0 12 -0.05686650052666664
0.6720914840698242 -0.042402178049087524 -0.05891728401184082 90.0 5 -0.05686419457197189
3.6875133514404297 -0.23264481127262115 0.7182050943374634 92.0 13 -0.056861892342567444
0.6617670059204102 -0.04186676815152168 -0.034751079976558685 17.0 6 -0.056859590113162994
3.687398672103882 -0.23392988741397858 0.8530144691467285 97.0 14 -0.056857284158468246
0.6805205345153809 -0.043291714042425156 -0.011902541853487492 100.0 7 -0.0568549819290638
3.6997036933898926 -0.23600716888904572 0.9933475852012634 111.0 15 -0.05685267597436905
1.1971522569656372 -0.07783601433038712 -0.3214532732963562 67.0 0 -0.05683194100856781
0.6644880175590515 -0.04331989958882332 0.011623302474617958 15.0 8 -0.05682963505387306
1.2192579507827759 -0.07970067858695984 -0.28208863735198975 92.0 1 -0.05682733282446861
0.6616703271865845 -0.04336816817522049 0.034751079976558685 68.0 9 -0.056825026869773865
0.720930814743042 -0.04725230485200882 -0.14043542742729187 100.0 2 -0.056822724640369415
0.656073272228241 -0.043116312474012375 0.057522788643836975 13.0 10 -0.05682041868567467
0.6721458435058594 -0.04429040476679802 -0.10668832063674927 100.0 3 -0.05681811645627022
0.6754438877105713 -0.04462612420320511 0.08311489969491959 100.0 11 -0.05681581422686577
0.6655323505401611 -0.04408793896436691 -0.08189620822668076 35.0 4 -0.05681350827217102
3.6680941581726074 -0.24363456666469574 0.5822491645812988 98.0 12 -0.05681120604276657
0.6520594358444214 -0.04342405125498772 -0.057174164801836014 60.0 5 -0.05680890008807182
3.702349901199341 -0.24655885994434357 0.7212580442428589 92.0 13 -0.056806597858667374
0.681545078754425 -0.045507125556468964 -0.03579779714345932 21.0 6 -0.056804291903972626
3.696281671524048 -0.24745073914527893 0.8552640080451965 100.0 14 -0.056801989674568176
0.666398823261261 -0.04472946748137474 -0.011658207513391972 100.0 7 -0.05679968371987343
3.6911470890045166 -0.24840126931667328 0.9912769794464111 111.0 15 -0.05679738149046898
1.1968590021133423 -0.08222326636314392 -0.3214532732963562 72.0 0 -0.05677664279937744
0.668322741985321 -0.045913245528936386 0.011693112552165985 15.0 8 -0.05677434056997299
1.2267489433288574 -0.0844918042421341 -0.2838882505893707 92.0 1 -0.05677203834056854
0.6714774370193481 -0.04636547341942787 0.035274438560009 73.0 9 -0.056769732385873795
0.7344627380371094 -0.05084339529275894 -0.14310675859451294 95.0 2 -0.056767430156469345
0.6439851522445679 -0.0446930006146431 0.05647691711783409 13.0 10 -0.0567651242017746
0.6739495396614075 -0.0468907468020916 -0.10700118541717529 100.0 3 -0.05676282197237015
0.6772642731666565 -0.04712137207388878 0.08335863798856735 100.0 11 -0.0567605160176754
0.6792363524436951 -0.047377705574035645 -0.08360237628221512 12.0 4 -0.05675821378827095
3.673133134841919 -0.2568504810333252 0.5831877589225769 60.0 12 -0.0567559078335762
0.6697914600372314 -0.04695385321974754 -0.05874297022819519 79.0 5 -0.05675360560417175
3.6935877799987793 -0.2595764696598053 0.7197315692901611 90.0 13 -0.056751299649477005
0.7032891511917114 -0.04954882711172104 -0.03694918751716614 40.0 6 -0.056748997420072556
3.701181173324585 -0.2614085078239441 0.8566136360168457 97.0 14 -0.05674669146537781
0.6802017092704773 -0.048041556030511856 -0.011902541853487492 100.0 7 -0.05674438923597336
3.686403751373291 -0.2610113322734833 0.9902417063713074 113.0 15 -0.05674208328127861
1.2100523710250854 -0.0873745009303093 -0.32507672905921936 76.0 0 -0.05672134831547737
0.6681499481201172 -0.04836245998740196 0.011693112552165985 15.0 8 -0.05671904608607292
1.2186564207077026 -0.08842338621616364 -0.28208863735198975 92.0 1 -0.056716740131378174
0.6713030338287354 -0.048826247453689575 0.035274438560009 70.0 9 -0.056714437901973724
0.6422508358955383 -0.04671318084001541 -0.12517070770263672 100.0 2 -0.056712131947278976
0.6597222089767456 -0.048099689185619354 0.057871412485837936 13.0 10 -0.05670982971787453
0.6639311909675598 -0.048523057252168655 -0.10543683916330338 100.0 3 -0.05670752376317978
0.6632285118103027 -0.04858808219432831 0.08165246248245239 100.0 11 -0.05670522153377533
0.6909366846084595 -0.050739217549562454 -0.08506480604410172 12.0 4 -0.05670291557908058
0.6775628924369812 -0.049994904547929764 -0.05944021791219711 100.0 5 -0.056698307394981384
3.6730797290802 -0.2710232138633728 0.7159153819084167 96.0 13 -0.056696005165576935
0.6871774792671204 -0.05082491785287857 -0.03611181303858757 73.0 6 -0.05669369921088219
3.7080202102661133 -0.27490273118019104 0.8584132790565491 97.0 14 -0.05669139698147774
0.6760327219963074 -0.05023790895938873 -0.011832731775939465 95.0 7 -0.05668909102678299
3.6931281089782715 -0.2750949263572693 0.9923122525215149 113.0 15 -0.05668678879737854
1.2251346111297607 -0.09297851473093033 -0.3292178511619568 81.0 0 -0.0566660538315773
0.677946925163269 -0.051451075822114944 0.011867635883390903 20.0 8 -0.05666374787688255
1.2163972854614258 -0.09252893924713135 -0.2816387414932251 94.0 1 -0.056661445647478104
0.6691370606422424 -0.0510174036026001 0.03516976535320282 79.0 9 -0.056659139692783356
0.6812262535095215 -0.05205871909856796 -0.1328030675649643 100.0 2 -0.056656837463378906
0.6635146737098694 -0.0508216992020607 0.0582200363278389 13.0 10 -0.05665453150868416
0.6696576476097107 -0.051409780979156494 -0.10637544840574265 100.0 3 -0.05665222927927971
0.6571170687675476 -0.05044703558087349 0.0809212476015091 25.0 11 -0.05664992332458496
0.6808591485023499 -0.05238926038146019 -0.08384611457586288 8.0 4 -0.05664762109518051
0.6753976941108704 -0.05220618471503258 -0.059265900403261185 100.0 5 -0.056643012911081314
3.6955506801605225 -0.28630363941192627 0.72049480676651 93.0 13 -0.056640706956386566
0.6830040216445923 -0.053033966571092606 -0.0359024703502655 100.0 6 -0.05663840472698212
3.6972732543945312 -0.2877354621887207 0.8561637997627258 94.0 14 -0.05663609877228737
0.6579102277755737 -0.051201000809669495 -0.011518588289618492 57.0 7 -0.05663379654288292
3.6998493671417236 -0.2885856330394745 0.9943828582763672 111.0 15 -0.05663149058818817
1.226762294769287 -0.09697916358709335 -0.32973548769950867 89.0 0 -0.05690622329711914
