# .PCD v0.7 - Point Cloud Data file format
VERSION 0.7
FIELDS x y z intensity ring time
SIZE 4 4 4 4 4 4
TYPE F F F F F F
COUNT 1 1 1 1 1 1
WIDTH 542
HEIGHT 1
VIEWPOINT 0 0 0 1 0 0 0
POINTS 542
DATA ascii
-1.8046656847000122 0.10152847319841385 -0.09472808986902237 44.0 6 -0.0496966578066349
-3.044933557510376 0.17183764278888702 0.7040968537330627 7.0 14 -0.049694355577230453
-1.7868666648864746 0.10115237534046173 -0.031239807605743408 45.0 7 -0.049692049622535706
-3.045488119125366 0.1729353666305542 0.8173506259918213 9.0 15 -0.049689747393131256
-1.7607533931732178 0.10244928300380707 0.030786044895648956 50.0 8 -0.04966670647263527
-1.8909580707550049 0.11035636067390442 -0.43730488419532776 36.0 1 -0.04966440424323082
-1.7625600099563599 0.10317171365022659 0.09252998232841492 47.0 9 -0.04966209828853607
-1.8913031816482544 0.11070770770311356 -0.3682613670825958 35.0 2 -0.04965979605913162
-1.7502888441085815 0.10276034474372864 0.15339410305023193 47.0 10 -0.049657490104436874
-1.8773068189620972 0.11054595559835434 -0.2978512644767761 53.0 3 -0.049655187875032425
-1.7418609857559204 0.10287521779537201 0.21424633264541626 45.0 11 -0.04965288192033768
-1.8587583303451538 0.11010520905256271 -0.22862690687179565 42.0 4 -0.04965057969093323
-3.0840513706207275 0.18322594463825226 0.489327073097229 8.0 12 -0.04964827373623848
-1.823805332183838 0.10835371911525726 -0.15984363853931427 38.0 5 -0.04964597150683403
-3.0709726810455322 0.182986781001091 0.597995400428772 7.0 13 -0.04964366555213928
-1.8082878589630127 0.1080656573176384 -0.09493743628263474 44.0 6 -0.04964136332273483
-3.026808023452759 0.18141545355319977 0.7000477313995361 8.0 14 -0.04963906109333038
-1.7865025997161865 0.10738956183195114 -0.031239807605743408 45.0 7 -0.049636755138635635
-3.0197970867156982 0.182053804397583 0.8106213212013245 12.0 15 -0.049634452909231186
-1.7683687210083008 0.10908737778663635 0.03092566505074501 51.0 8 -0.0496114119887352
-1.7661759853363037 0.10957137495279312 0.09273932129144669 46.0 9 -0.049606803804636
-1.9986770153045654 0.12399545311927795 -0.38925039768218994 21.0 2 -0.049604497849941254
-1.7538964748382568 0.10911642760038376 0.1537427306175232 45.0 10 -0.049602195620536804
-1.8808525800704956 0.11734436452388763 -0.2984769940376282 30.0 3 -0.049599889665842056
-1.7454537153244019 0.10920319706201553 0.2147337943315506 45.0 11 -0.04959758743643761
-1.8682687282562256 0.11721392720937729 -0.22984559834003448 54.0 4 -0.04959528148174286
-3.041991949081421 0.19138553738594055 0.4827568233013153 15.0 12 -0.04959297925233841
-1.8452891111373901 0.11609551310539246 -0.1617610603570938 32.0 5 -0.04959067702293396
-3.0291690826416016 0.1911102682352066 0.5899814367294312 13.0 13 -0.04958837106823921
-1.821852445602417 0.11525944620370865 -0.09567013382911682 43.0 6 -0.04958606883883476
-3.0144872665405273 0.19123966991901398 0.6973482966423035 42.0 14 -0.049583762884140015
-1.7960951328277588 0.11425978690385818 -0.03141433000564575 43.0 7 -0.049581460654735565
-2.9805846214294434 0.1901334524154663 0.8002685308456421 53.0 15 -0.04957915470004082
-1.7759590148925781 0.11577988415956497 0.031065283343195915 50.0 8 -0.04955611377954483
-3.0024468898773193 0.19626367092132568 -0.6946488618850708 3.0 1 -0.04955381155014038
-1.7817267179489136 0.11678044497966766 0.09357669949531555 45.0 9 -0.04955150559544563
-2.9503307342529297 0.19337475299835205 -0.5747166872024536 7.0 2 -0.049549203366041183
-1.7614574432373047 0.1157606765627861 0.15443997085094452 45.0 10 -0.049546901136636734
-1.7609080076217651 0.11634188145399094 0.21668371558189392 46.0 11 -0.04954229295253754
-1.8876558542251587 0.12504689395427704 -0.23228299617767334 9.0 4 -0.04953998699784279
-2.9959716796875 0.19899262487888336 0.47556084394454956 60.0 12 -0.04953768476843834
-1.8508366346359253 0.12293268740177155 -0.1622839868068695 49.0 5 -0.04953537881374359
-3.0069353580474854 0.20024722814559937 0.5857836604118347 65.0 13 -0.04953307658433914
-1.8353888988494873 0.12254969030618668 -0.0964028462767601 44.0 6 -0.049530770629644394
-3.0040793418884277 0.20111098885536194 0.6950988173484802 75.0 14 -0.049528468400239944
-1.7976807355880737 0.12066218256950378 -0.03144923597574234 47.0 7 -0.0495261624455452
-2.958700180053711 0.19910968840122223 0.794574499130249 50.0 15 -0.04952386021614075
-2.9565272331237793 0.20259271562099457 -0.7940568327903748 13.0 0 -0.04950312152504921
-1.7715541124343872 0.12170396000146866 0.030995475128293037 47.0 8 -0.04950081929564476
-3.005632162094116 0.20701159536838531 -0.6955487132072449 101.0 1 -0.04949851706624031
-1.7853145599365234 0.12296275794506073 0.09378603845834732 45.0 9 -0.04949621111154556
-2.9731409549713135 0.205295130610466 -0.5792961716651917 100.0 2 -0.04949390888214111
-1.761042594909668 0.12190823256969452 0.15443997085094452 47.0 10 -0.049491602927446365
-1.774353265762329 0.12345241010189056 0.21838988363742828 48.0 11 -0.04948699474334717
-3.004122734069824 0.20901484787464142 -0.36975163221359253 123.0 4 -0.04948469251394272
-3.0169715881347656 0.21043789386749268 0.4790023863315582 100.0 12 -0.04948238655924797
-1.854371190071106 0.1296701282262802 -0.16263261437416077 31.0 5 -0.04948008432984352
-3.00817608833313 0.21087953448295593 0.5861652493476868 90.0 13 -0.04947777837514877
-1.8608503341674805 0.13077591359615326 -0.09776357561349869 51.0 6 -0.049475476145744324
-2.987844467163086 0.20997823774814606 0.6914995908737183 62.0 14 -0.049473170191049576
-1.7992655038833618 0.1267634481191635 -0.03148414194583893 43.0 7 -0.049470867961645126
-2.9327168464660645 0.21073439717292786 -0.7878451943397522 11.0 0 -0.04944782704114914
-1.7711408138275146 0.1275780349969864 0.030995475128293037 48.0 8 -0.04944552481174469
-3.0088162422180176 0.21725758910179138 -0.6964485049247742 100.0 1 -0.04944321885704994
-1.794857382774353 0.12960125505924225 0.09430939704179764 45.0 9 -0.04944091662764549
-3.0018157958984375 0.21727943420410156 -0.5850204229354858 100.0 2 -0.049438610672950745
-1.7725515365600586 0.12861299514770508 0.1554858386516571 45.0 10 -0.049436308443546295
-2.986781120300293 0.21723848581314087 -0.47430935502052307 1.0 3 -0.04943400248885155
-1.7679946422576904 0.12890271842479706 0.21765866875648499 52.0 11 -0.0494317002594471
-2.983614683151245 0.21753235161304474 -0.36731424927711487 59.0 4 -0.04942939430475235
-3.006406545639038 0.21972157061100006 0.4774380326271057 85.0 12 -0.0494270920753479
-2.9878804683685303 0.21941611170768738 0.5823490619659424 75.0 13 -0.0494224838912487
-1.8384958505630493 0.13533321022987366 -0.09661218523979187 43.0 6 -0.049420177936553955
-3.0046231746673584 0.22117282450199127 0.6955487132072449 71.0 14 -0.049417875707149506
-1.830743670463562 0.13508379459381104 -0.032042618840932846 55.0 7 -0.04941556975245476
-2.9727275371551514 0.21986821293830872 0.7987156510353088 34.0 15 -0.04941326752305031
-2.9088847637176514 0.2187204360961914 -0.7816335558891296 7.0 0 -0.04939253255724907
-1.7946363687515259 0.13525409996509552 0.03141433000564575 47.0 8 -0.04939022660255432
-2.9944770336151123 0.22620655596256256 -0.6932992339134216 39.0 1 -0.04938792437314987
-1.7924025058746338 0.13571536540985107 0.09420473128557205 47.0 9 -0.049385618418455124
-2.9795446395874023 0.22560222446918488 -0.5808225870132446 28.0 2 -0.049383316189050674
-1.7919822931289673 0.13599808514118195 0.1572289615869522 47.0 10 -0.049381010234355927
-2.9564993381500244 0.2248944789171219 -0.4696163237094879 9.0 3 -0.04937870800495148
-1.7754747867584229 0.13536860048770905 0.21863360702991486 47.0 11 -0.04937640205025673
-2.961064577102661 0.2262820452451706 -0.36463311314582825 26.0 4 -0.04937409982085228
-3.0154693126678467 0.23096820712089539 0.4790023863315582 91.0 12 -0.04937179386615753
-2.9520440101623535 0.22611017525196075 -0.2590268552303314 22.0 5 -0.04936949163675308
-3.0008392333984375 0.23037514090538025 0.5850204229354858 73.0 13 -0.049367185682058334
-2.3338887691497803 0.17958292365074158 -0.12267549335956573 40.0 6 -0.049364883452653885
-2.9980039596557617 0.231209397315979 0.6941990256309509 83.0 14 -0.04936257749795914
-1.830260992050171 0.14147351682186127 -0.032042618840932846 42.0 7 -0.04936027526855469
-2.970015525817871 0.23009446263313293 0.7981979846954346 80.0 15 -0.04935797303915024
-2.8541786670684814 0.22462838888168335 -0.767139732837677 18.0 0 -0.0493372343480587
-1.8021273612976074 0.1421467363834381 0.031553950160741806 48.0 8 -0.04933493211865425
-2.9742422103881836 0.2351221889257431 -0.6888001561164856 19.0 1 -0.0493326261639595
-1.8058550357818604 0.14307546615600586 0.09493743628263474 44.0 9 -0.049330323934555054
-2.9376392364501953 0.2327452003955841 -0.5728086233139038 15.0 2 -0.049328017979860306
-1.7994410991668701 0.14288288354873657 0.15792620182037354 60.0 10 -0.049325715750455856
-2.9300971031188965 0.2331768423318863 -0.4655490219593048 13.0 3 -0.04932340979576111
-1.7868643999099731 0.14251232147216797 0.22009605169296265 17.0 11 -0.04932110756635666
-2.902872085571289 0.2320292741060257 -0.35756468772888184 15.0 4 -0.04931880161166191
-3.000861167907715 0.24038942158222198 0.47681230306625366 85.0 12 -0.04931649938225746
-2.9075443744659424 0.23291410505771637 -0.25519201159477234 14.0 5 -0.049314193427562714
-3.0078444480895996 0.2414771467447281 0.5865468978881836 78.0 13 -0.049311891198158264
-2.4049174785614014 0.193494513630867 -0.12644368410110474 38.0 6 -0.049309588968753815
-2.997178554534912 0.2416737824678421 0.6941990256309509 90.0 14 -0.04930728301405907
-1.8297560214996338 0.147861510515213 -0.032042618840932846 10.0 7 -0.04930498078465462
-2.9845988750457764 0.24170728027820587 0.8023390769958496 70.0 15 -0.04930267482995987
-2.8379743099212646 0.23332369327545166 -0.7629985809326172 40.0 0 -0.04928193986415863
-1.8454649448394775 0.15204891562461853 0.032321859151124954 8.0 8 -0.04927963390946388
-2.922908067703247 0.24133436381816864 -0.6771027445793152 14.0 1 -0.04927733168005943
-2.887894868850708 0.23895017802715302 -0.5632681846618652 14.0 2 -0.049272723495960236
-1.8207727670669556 0.1509743332862854 0.15984363853931427 22.0 10 -0.04927041754126549
-2.8859565258026123 0.23980475962162018 -0.4586659073829651 14.0 3 -0.04926811531186104
-2.866436719894409 0.23918958008289337 -0.35317739844322205 12.0 4 -0.04926350712776184
-3.0059094429016113 0.2513568103313446 0.4777509272098541 62.0 12 -0.04926120489835739
-2.839207887649536 0.2374170869588852 -0.2492654174566269 12.0 5 -0.04925889894366264
-3.008939743041992 0.25213831663131714 0.5869284868240356 45.0 13 -0.049256596714258194
-2.4241299629211426 0.2035599797964096 -0.12749040126800537 37.0 6 -0.049254290759563446
-3.0176773071289062 0.2539319097995758 0.6991478800773621 28.0 14 -0.049251988530159
-2.5126986503601074 0.21187995374202728 -0.04401496797800064 16.0 7 -0.04924968257546425
-3.0049121379852295 0.25391408801078796 0.8080331087112427 34.0 15 -0.0492473803460598
-2.8332929611206055 0.24289871752262115 -0.7619633078575134 16.0 0 -0.04922664165496826
-2.6299118995666504 0.2259245365858078 0.04607435315847397 64.0 8 -0.04922433942556381
-2.875450372695923 0.2475239336490631 -0.6663050651550293 12.0 1 -0.04922203719615936
-2.98679518699646 0.25763383507728577 0.15711255371570587 2.0 9 -0.049219731241464615
-2.847923517227173 0.2456550896167755 -0.5556358098983765 12.0 2 -0.049217429012060165
-2.83786940574646 0.24578580260276794 -0.4511570334434509 14.0 3 -0.04921282082796097
-3.043617010116577 0.26414060592651367 0.3751138746738434 31.0 11 -0.04921051487326622
-2.824054002761841 0.24558308720588684 -0.34805887937545776 11.0 4 -0.04920821264386177
-3.0305967330932617 0.26407647132873535 0.48181819915771484 31.0 12 -0.04920590668916702
-2.8026342391967773 0.2442125529050827 -0.24612781405448914 12.0 5 -0.04920360445976257
-3.031510829925537 0.26468920707702637 0.5915079116821289 25.0 13 -0.049201298505067825
-2.431363105773926 0.21271687746047974 -0.1279090791940689 33.0 6 -0.049198996275663376
-3.042009115219116 0.26667577028274536 0.704996645450592 28.0 14 -0.04919669032096863
-2.4800713062286377 0.21785001456737518 -0.04345649108290672 18.0 7 -0.04919438809156418
-3.0001583099365234 0.26406291127204895 0.8069977760314941 29.0 15 -0.04919208213686943
-2.8054890632629395 0.2503824532032013 -0.7547163367271423 6.0 0 -0.04917134717106819
-2.573338031768799 0.23011690378189087 0.04509701952338219 53.0 8 -0.04916904494166374
-2.8066351413726807 0.2514728903770447 -0.6505585312843323 11.0 1 -0.049166738986968994
-3.0356087684631348 0.27252283692359924 0.15972934663295746 3.0 9 -0.049164436757564545
-2.804029703140259 0.251732736825943 -0.5472401976585388 12.0 2 -0.0491621308028698
-2.768206834793091 0.24900375306606293 0.243164524435997 1.0 10 -0.04915982857346535
-2.7720699310302734 0.2498389631509781 -0.44083237648010254 12.0 3 -0.0491575226187706
-3.0525615215301514 0.27565595507621765 0.376332551240921 28.0 11 -0.04915522038936615
-2.773754358291626 0.2509668171405792 -0.3419654071331024 12.0 4 -0.0491529144346714
-3.0571987628936768 0.27715054154396057 0.486198365688324 31.0 12 -0.04915061220526695
-2.750174045562744 0.24931718409061432 -0.24159571528434753 12.0 5 -0.049148306250572205
-3.0325238704681396 0.2754479646682739 0.5918895602226257 26.0 13 -0.049146004021167755
-2.428617000579834 0.2210211157798767 -0.12780441343784332 39.0 6 -0.04914369806647301
-3.0430006980895996 0.27746981382369995 0.7054465413093567 22.0 14 -0.04914139583706856
-2.4534075260162354 0.22414129972457886 -0.04300273209810257 17.0 7 -0.04913908988237381
-3.006913661956787 0.2752375900745392 0.8090683817863464 14.0 15 -0.04913678765296936
-2.746890068054199 0.2548212707042694 -0.7391872406005859 9.0 0 -0.04911605268716812
-2.5864570140838623 0.24039363861083984 0.04534135013818741 56.0 8 -0.04911374673247337
-2.755290985107422 0.25657063722610474 -0.6388610601425171 10.0 1 -0.049111444503068924
-3.024696111679077 0.28218987584114075 0.15920598804950714 3.0 9 -0.049109138548374176
-2.7484006881713867 0.2564128041267395 -0.5365549325942993 12.0 2 -0.04910683631896973
-2.707808494567871 0.25310245156288147 0.2379351705312729 1.0 10 -0.04910453036427498
-2.7397124767303467 0.2565669119358063 -0.43582645058631897 12.0 3 -0.04910222813487053
-3.0496044158935547 0.2861243784427643 0.37608882784843445 16.0 11 -0.04909992218017578
-2.7115933895111084 0.2548884153366089 -0.3344095051288605 11.0 4 -0.04909761995077133
-3.0581791400909424 0.2880057394504547 0.48651123046875 10.0 12 -0.049095313996076584
-2.7155654430389404 0.2557399272918701 -0.2386324256658554 11.0 5 -0.049093011766672134
-3.0393621921539307 0.2867687940597534 0.5934159755706787 6.0 13 -0.049090705811977386
-2.429818868637085 0.2296852320432663 -0.1279090791940689 42.0 6 -0.04908840358257294
-3.055593729019165 0.2893763780593872 0.708595871925354 1.0 14 -0.04908609762787819
-2.4466378688812256 0.23213674128055573 -0.042898017913103104 14.0 7 -0.04908379539847374
-3.0501677989959717 0.28993672132492065 0.8209740519523621 1.0 15 -0.04908148944377899
-2.7152163982391357 0.26144567131996155 -0.7309049963951111 9.0 0 -0.04907035827636719
-2.6174492835998535 0.2524928152561188 0.045899830758571625 70.0 8 -0.04906805604696274
-2.703946590423584 0.26131242513656616 -0.6271635890007019 10.0 1 -0.04906575009226799
-3.0256805419921875 0.29293888807296753 0.15931066870689392 3.0 9 -0.04906344786286354
-2.6790947914123535 0.25938329100608826 -0.5231983065605164 11.0 2 -0.04906114190816879
-2.6236190795898438 0.2544744610786438 0.2306140959262848 1.0 10 -0.04905883967876434
-2.6778507232666016 0.2602063715457916 -0.426127552986145 11.0 3 -0.049056533724069595
-3.165156602859497 0.3081153929233551 0.39046943187713623 1.0 11 -0.049054231494665146
-2.659318447113037 0.25934258103370667 -0.32807230949401855 11.0 4 -0.0490519255399704
-2.657150983810425 0.25959935784339905 -0.23357738554477692 12.0 5 -0.0490473173558712
-2.4627938270568848 0.2414788454771042 -0.12968851625919342 25.0 6 -0.049042709171772
-2.483624219894409 0.24439653754234314 -0.04356120526790619 24.0 7 -0.049038100987672806
-9.70494556427002 0.9567077159881592 2.613037347793579 0.0 15 -0.049035798758268356
-2.6489288806915283 0.26439839601516724 -0.7133052945137024 10.0 0 -0.04901506379246712
-2.6526029109954834 0.26570022106170654 -0.6154661178588867 10.0 1 -0.04901045560836792
-3.0266270637512207 0.30369821190834045 0.1594153493642807 2.0 9 -0.04900814965367317
-2.6195695400238037 0.26285320520401 -0.5117497444152832 11.0 2 -0.04900584742426872
-2.590996265411377 0.26044219732284546 0.2278251051902771 1.0 10 -0.049003541469573975
-2.637617588043213 0.26559409499168396 -0.41987013816833496 12.0 3 -0.049001239240169525
-2.6228461265563965 0.2650308907032013 -0.3236849904060364 11.0 4 -0.04899663105607033
-2.6165831089019775 0.26485997438430786 -0.2300911545753479 12.0 5 -0.04899202287197113
-2.4857802391052246 0.25249621272087097 -0.13094457983970642 30.0 6 -0.04898741468787193
-2.5324907302856445 0.25813397765159607 -0.044433824717998505 23.0 7 -0.048982806503772736
-9.643890380859375 0.9846940636634827 2.597507953643799 0.0 15 -0.04898050054907799
-2.594184637069702 0.26808249950408936 -0.698811411857605 10.0 0 -0.04895976558327675
-2.9100048542022705 0.30123257637023926 0.05106574296951294 5.0 8 -0.0489574633538723
-2.6051390171051025 0.27013418078422546 -0.6046684980392456 11.0 1 -0.04895515739917755
-3.0255486965179443 0.3142606317996979 0.1594153493642807 2.0 9 -0.0489528551697731
-2.5776283740997314 0.2677356004714966 -0.5037357807159424 12.0 2 -0.048950549215078354
-2.55440092086792 0.2657742202281952 0.22468750178813934 1.0 10 -0.048948246985673904
-2.5796971321105957 0.2688612639904022 -0.41079697012901306 12.0 3 -0.048945941030979156
-2.580444574356079 0.2698496878147125 -0.3185664713382721 12.0 4 -0.04894133284687996
-2.5700671672821045 0.26921790838241577 -0.2260819971561432 11.0 5 -0.04893672466278076
-2.4769387245178223 0.26033666729927063 -0.1305258870124817 28.0 6 -0.048932116478681564
-2.5534496307373047 0.2692788243293762 -0.04481777921319008 17.0 7 -0.048927512019872665
-9.640395164489746 1.018349528312683 2.597507953643799 0.0 15 -0.04892520606517792
-2.5624988079071045 0.27385175228118896 -0.6905292868614197 9.0 0 -0.04890447109937668
-2.769751787185669 0.29649028182029724 0.04862240329384804 4.0 8 -0.04890216514468193
-2.561552047729492 0.27465495467185974 -0.594770610332489 10.0 1 -0.04889986291527748
-3.0462770462036133 0.3271659314632416 0.16056673228740692 2.0 9 -0.04889755696058273
-2.5395898818969727 0.2727484107017517 -0.49648505449295044 11.0 2 -0.048895254731178284
-2.5217623710632324 0.27127957344055176 0.22189851105213165 1.0 10 -0.048892948776483536
-2.5374984741210938 0.2734197676181793 -0.404226690530777 11.0 3 -0.048890646547079086
-2.543962001800537 0.27501511573791504 -0.3141791820526123 13.0 4 -0.04888603836297989
-2.5314764976501465 0.2741117477416992 -0.2227700799703598 12.0 5 -0.04888143017888069
-2.4521875381469727 0.2663928270339966 -0.1292698234319687 28.0 6 -0.048876821994781494
-9.754331588745117 1.0613796710968018 2.2652573585510254 1.0 14 -0.048874519765377045
-2.5206871032714844 0.2747245132923126 -0.04425930231809616 18.0 7 -0.0488722138106823
-9.598372459411621 1.0478019714355469 2.587155342102051 0.0 15 -0.04886991158127785
-2.526963710784912 0.27897974848747253 -0.6812117695808411 9.0 0 -0.04884917289018631
-2.6295695304870605 0.2907714247703552 0.046179067343473434 3.0 8 -0.04884687066078186
-2.514092445373535 0.27844637632369995 -0.5839729905128479 11.0 1 -0.04884456470608711
-3.033205986022949 0.33647701144218445 0.15993870794773102 2.0 9 -0.04884226247668266
-2.499596118927002 0.27728304266929626 -0.4888526499271393 11.0 2 -0.048839956521987915
-2.5049586296081543 0.2783198654651642 0.220504030585289 1.0 10 -0.048837654292583466
-2.4992268085479736 0.27812460064888 -0.39828217029571533 12.0 3 -0.048835352063179016
-2.4877471923828125 0.2777262032032013 -0.30735450983047485 13.0 4 -0.04883074387907982
-2.479022979736328 0.27719032764434814 -0.2182379812002182 13.0 5 -0.04882613569498062
-2.4353644847869873 0.2731693983078003 -0.12843245267868042 24.0 6 -0.048821527510881424
-2.4839439392089844 0.2794969975948334 -0.04363101348280907 15.0 7 -0.04881691932678223
-9.625372886657715 1.0847597122192383 2.595437526702881 0.0 15 -0.04881461337208748
-2.4875857830047607 0.28342440724372864 -0.6708589792251587 9.0 0 -0.04879387840628624
-2.584829092025757 0.2949608564376831 0.045411162078380585 5.0 8 -0.04879157245159149
-2.4705100059509277 0.28235241770744324 -0.5740751028060913 10.0 1 -0.04878927022218704
-3.002248764038086 0.34365519881248474 0.15836863219738007 2.0 9 -0.04878696799278259
-2.4615533351898193 0.2817639708518982 -0.4816019535064697 12.0 2 -0.048784662038087845
-2.416877031326294 0.27707740664482117 0.21283432841300964 1.0 10 -0.048782359808683395
-2.458991050720215 0.2823408544063568 -0.39202481508255005 13.0 3 -0.04878005385398865
-2.451265335083008 0.282320111989975 -0.30296722054481506 13.0 4 -0.04877544566988945
-2.4542887210845947 0.28310295939445496 -0.21614623069763184 13.0 5 -0.04877083748579025
-2.426460027694702 0.2807505428791046 -0.1280137598514557 19.0 6 -0.048766229301691055
-9.746684074401855 1.1294541358947754 2.2652573585510254 1.0 14 -0.048763927072286606
-2.4352807998657227 0.2826331555843353 -0.04279330000281334 15.0 7 -0.04876162111759186
-9.636878967285156 1.1201364994049072 2.599578619003296 0.0 15 -0.04875931888818741
-2.444370746612549 0.2871474623680115 -0.6594709753990173 10.0 0 -0.04873858392238617
-2.4824976921081543 0.2920655310153961 0.04363101348280907 1.0 8 -0.04873627796769142
-2.426931619644165 0.2859576642513275 -0.5641772747039795 11.0 1 -0.04873397573828697
-2.3682949542999268 0.27946776151657104 0.12497827410697937 2.0 9 -0.048731669783592224
-2.417660713195801 0.2852931022644043 -0.4732063114643097 12.0 2 -0.048729367554187775
-2.368408203125 0.2799002230167389 0.2086508423089981 1.0 10 -0.04872706159949303
-2.4324886798858643 0.287903755903244 -0.38795751333236694 13.0 3 -0.04872475937008858
-2.426610231399536 0.28806689381599426 -0.30004236102104187 12.0 4 -0.04872015118598938
-2.415645122528076 0.28762027621269226 -0.21283432841300964 11.0 5 -0.04871554300189018
-2.3996832370758057 0.2861451208591461 -0.1266530305147171 21.0 6 -0.048710934817790985
-9.742682456970215 1.163469910621643 2.2652573585510254 1.0 14 -0.04870862886309624
-2.38464093208313 0.2851950228214264 -0.041920680552721024 15.0 7 -0.04870632663369179
-9.671272277832031 1.158366084098816 2.609931468963623 0.0 15 -0.04870402067899704
-2.3972742557525635 0.2905259430408478 -0.6470476388931274 18.0 0 -0.0486832857131958
-2.338531017303467 0.2834068238735199 0.041117873042821884 17.0 8 -0.04868098348379135
-2.4085075855255127 0.29231441020965576 -0.5601281523704529 21.0 1 -0.0486786775290966
-2.3613574504852295 0.2870101034641266 0.12466426193714142 58.0 9 -0.048676375299692154
-2.389314889907837 0.2908313274383545 -0.46786367893218994 27.0 2 -0.048674069344997406
-2.3436334133148193 0.28568601608276367 0.20655910670757294 24.0 10 -0.04867176711559296
-2.4020047187805176 0.29322683811187744 -0.3832644820213318 32.0 3 -0.04866946116089821
-2.3822405338287354 0.2912360727787018 -0.294680118560791 41.0 4 -0.04866485297679901
-2.3651866912841797 0.2899891138076782 -0.20847654342651367 46.0 5 -0.048660244792699814
-2.384742259979248 0.293231725692749 -0.12592032551765442 84.0 6 -0.048655636608600616
-9.73835277557373 1.1991685628890991 2.2652573585510254 1.0 14 -0.04865333437919617
-2.359814167022705 0.2905845642089844 -0.04150182008743286 66.0 7 -0.04865103214979172
-9.636491775512695 1.1883352994918823 2.601649045944214 0.0 15 -0.04864872619509697
-2.4096643924713135 0.3005666732788086 -0.650671124458313 30.0 0 -0.04862799122929573
-2.3454134464263916 0.29296809434890747 0.04125748947262764 74.0 8 -0.04862568527460098
-2.4016194343566895 0.30041393637657166 -0.5587784647941589 41.0 1 -0.04862338304519653
-2.3702502250671387 0.29649004340171814 0.12518762052059174 78.0 9 -0.048621077090501785
-2.392181158065796 0.299657940864563 -0.4686269164085388 51.0 2 -0.048618774861097336
-2.352506399154663 0.29510506987571716 0.2074306607246399 82.0 10 -0.04861646890640259
-2.3970468044281006 0.3011167049407959 -0.38263875246047974 60.0 3 -0.04861416667699814
-2.3772177696228027 0.2994692623615265 -0.2941926121711731 54.0 4 -0.04860955849289894
-2.3661367893218994 0.2984933853149414 -0.2086508423089981 64.0 5 -0.048604950308799744
-2.387667179107666 0.30205562710762024 -0.12612967193126678 86.0 6 -0.048600342124700546
-9.73410701751709 1.2331570386886597 2.2652573585510254 1.0 14 -0.0485980398952961
-2.366720676422119 0.2998260259628296 -0.041641443967819214 96.0 7 -0.04859573394060135
-9.67444896697998 1.2273125648498535 2.613037347793579 0.0 15 -0.0485934317111969
-2.435426712036133 0.31241747736930847 -0.6579180359840393 37.0 0 -0.04857269302010536
-2.35434627532959 0.3020164370536804 0.041432011872529984 90.0 8 -0.04857039079070091
-2.4373340606689453 0.31309396028518677 -0.5673266053199768 50.0 1 -0.048568084836006165
-2.3573150634765625 0.30323365330696106 0.12455958873033524 44.0 9 -0.048565782606601715
-2.441746711730957 0.3145277500152588 -0.4785490036010742 61.0 2 -0.04856347665190697
-2.3554139137268066 0.3038243353366852 0.20777928829193115 65.0 10 -0.04856117442250252
-2.425421953201294 0.3128546476364136 -0.3873317837715149 68.0 3 -0.04855886846780777
-2.4175543785095215 0.3126983046531677 -0.2993111312389374 63.0 4 -0.04855426400899887
-2.392742395401001 0.31033819913864136 -0.21109120547771454 40.0 5 -0.04854965582489967
-2.364865303039551 0.3071421980857849 -0.12497827410697937 44.0 6 -0.048545047640800476
-9.729965209960938 1.2654255628585815 2.2652573585510254 1.0 14 -0.04854274168610573
-2.516364097595215 0.32771164178848267 -0.04429420828819275 47.0 7 -0.04854043945670128
-9.650949478149414 1.2585773468017578 2.607860803604126 0.0 15 -0.04853813350200653
-2.579941987991333 0.3396559953689575 -0.6972585916519165 67.0 0 -0.04851739853620529
-3.033289670944214 0.3998781740665436 0.05340436473488808 42.0 8 -0.048515092581510544
-2.556009292602539 0.3374122083187103 -0.5952205061912537 74.0 1 -0.048512790352106094
-3.0354647636413574 0.40070387721061707 0.16046206653118134 32.0 9 -0.048510484397411346
-2.5613627433776855 0.3385743498802185 -0.5022093057632446 89.0 2 -0.0485081821680069
-2.5711841583251953 0.34078577160835266 -0.41079697012901306 86.0 3 -0.0485035739839077
-2.5364832878112793 0.33708685636520386 -0.3141791820526123 54.0 4 -0.0484989657998085
-2.7353463172912598 0.3640012741088867 -0.2414214164018631 11.0 5 -0.048494357615709305
-2.4093122482299805 0.3214707672595978 -0.1273857206106186 18.0 6 -0.04848974943161011
-9.72548770904541 1.2993842363357544 2.2652573585510254 1.0 14 -0.04848744720220566
-3.0008738040924072 0.40093496441841125 -0.05284588783979416 83.0 7 -0.04848514124751091
-9.715655326843262 1.299796462059021 2.626495838165283 0.0 15 -0.04848283901810646
-2.5787408351898193 0.34865906834602356 -0.6972585916519165 78.0 0 -0.04846210405230522
-3.029965400695801 0.40966692566871643 0.05336945876479149 48.0 8 -0.048459798097610474
-2.556807279586792 0.34614792466163635 -0.5956704616546631 70.0 1 -0.048457495868206024
-3.043942928314209 0.41263946890830994 0.16098542511463165 31.0 9 -0.048455189913511276
-2.556274175643921 0.3469843864440918 -0.5014460682868958 86.0 2 -0.04845288768410683
-2.9870219230651855 0.4059842824935913 0.26373329758644104 2.0 10 -0.04845058172941208
-2.5543808937072754 0.34718140959739685 -0.4082939922809601 77.0 3 -0.04844827950000763
-2.541252374649048 0.3463004529476166 -0.3149104118347168 63.0 4 -0.04844367131590843
-2.7616958618164062 0.3773232400417328 -0.24386176466941833 9.0 5 -0.048439063131809235
-2.400317907333374 0.32837581634521484 -0.12696704268455505 19.0 6 -0.04843445494771004
-2.9895501136779785 0.4100489318370819 -0.05267136171460152 65.0 7 -0.04842984676361084
-9.734025955200195 1.3368571996688843 2.6327075958251953 0.0 15 -0.04842754080891609
-2.569916248321533 0.3561478853225708 -0.6951879858970642 72.0 0 -0.04840680584311485
-3.036439895629883 0.4213404655456543 0.05350907891988754 45.0 8 -0.0484045036137104
-2.5690948963165283 0.35694804787635803 -0.5988197326660156 66.0 1 -0.048402197659015656
-3.0484189987182617 0.424087256193161 0.1612994372844696 30.0 9 -0.048399895429611206
-2.5569920539855957 0.3561762869358063 -0.5018276572227478 82.0 2 -0.04839758947491646
-2.96987247467041 0.4136884808540344 0.262338787317276 2.0 10 -0.04839528724551201
-2.5531535148620605 0.35609644651412964 -0.4082939922809601 77.0 3 -0.04839298129081726
-2.543959856033325 0.35571885108947754 -0.31539788842201233 63.0 4 -0.04838837310671806
-2.748522996902466 0.38530153036117554 -0.24281588196754456 9.0 5 -0.048383764922618866
-2.4030535221099854 0.33772721886634827 -0.12717638909816742 21.0 6 -0.04837915673851967
-2.9940412044525146 0.4213179349899292 -0.05277607962489128 69.0 7 -0.04837454855442047
-9.713995933532715 1.368668556213379 2.628566265106201 0.0 15 -0.04837224632501602
-2.572418689727783 0.36610913276672363 -0.696223258972168 72.0 0 -0.04835151135921478
-3.0309154987335205 0.43190252780914307 0.053439266979694366 43.0 8 -0.048349205404520035
-3.0547525882720947 0.436387300491333 0.16171811521053314 30.0 9 -0.04834459722042084
-2.5653865337371826 0.3669362962245941 -0.5037357807159424 86.0 2 -0.04834229499101639
-2.982142210006714 0.4265463054180145 0.263558954000473 2.0 10 -0.04833998903632164
-2.559652805328369 0.36657142639160156 -0.4095454514026642 86.0 3 -0.04833768680691719
-2.5485339164733887 0.36588752269744873 -0.31612908840179443 60.0 4 -0.04833307862281799
-9.72555923461914 1.3980075120925903 1.5562102794647217 0.0 12 -0.048330772668123245
-2.758925199508667 0.3970758020877838 -0.24386176466941833 9.0 5 -0.048328470438718796
-9.76060676574707 1.4065252542495728 1.9168672561645508 1.0 13 -0.04832616448402405
-2.389939069747925 0.3448207974433899 -0.12654836475849152 19.0 6 -0.0483238622546196
-9.711347579956055 1.4011547565460205 2.2652573585510254 1.0 14 -0.04832156002521515
-3.004351854324341 0.4340043365955353 -0.05298550799489021 76.0 7 -0.0483192540705204
-9.689794540405273 1.4015002250671387 2.623389959335327 0.0 15 -0.04831695184111595
-2.5787060260772705 0.3766520023345947 -0.6982938051223755 69.0 0 -0.048296213150024414
-3.021397590637207 0.4418511390686035 0.05329965054988861 33.0 8 -0.048293910920619965
-3.053210735321045 0.44704851508140564 0.16171811521053314 29.0 9 -0.04828930273652077
-2.569917678833008 0.3767426609992981 -0.5048806071281433 78.0 2 -0.04828699678182602
-2.9726736545562744 0.43631550669670105 0.2628616988658905 2.0 10 -0.04828469455242157
-2.5543830394744873 0.37537679076194763 -0.40891972184181213 77.0 3 -0.04828238859772682
-2.543247938156128 0.37464672327041626 -0.3156416416168213 60.0 4 -0.048277780413627625
-9.708893775939941 1.4302204847335815 1.5543330907821655 0.0 12 -0.048275478184223175
-2.765406608581543 0.40786677598953247 -0.24455901980400085 9.0 5 -0.048273175954818726
-9.825555801391602 1.450910210609436 1.930605411529541 1.0 13 -0.04827087000012398
-2.3808176517486572 0.35199272632598877 -0.12612967193126678 17.0 6 -0.04826856777071953
-3.0107312202453613 0.44566017389297485 -0.05312512442469597 69.0 7 -0.04826395958662033
-9.703953742980957 1.438145399093628 2.628566265106201 0.0 15 -0.04826165363192558
-2.5792858600616455 0.3859369456768036 -0.698811411857605 67.0 0 -0.048240918666124344
-3.0238711833953857 0.45245999097824097 0.05336945876479149 38.0 8 -0.048238612711429596
-3.0476813316345215 0.45711037516593933 0.16150878369808197 28.0 9 -0.0482340045273304
-2.5608208179473877 0.3845449388027191 -0.5033541321754456 68.0 2 -0.04823170229792595
-2.9947755336761475 0.45024481415748596 0.26495346426963806 2.0 10 -0.0482294000685215
-2.5707054138183594 0.3864886462688446 -0.41173556447029114 78.0 3 -0.04822709411382675
-2.5400285720825195 0.38278263807296753 -0.31539788842201233 63.0 4 -0.048222485929727554
-2.752145528793335 0.41573119163513184 -0.24351313710212708 9.0 5 -0.04821787774562836
-9.820690155029297 1.483485221862793 1.930605411529541 1.0 13 -0.04821557551622391
-2.399385452270508 0.36287257075309753 -0.12717638909816742 16.0 6 -0.04821326956152916
-2.9972944259643555 0.4543679356575012 -0.05291569605469704 69.0 7 -0.04820866137742996
-9.73707389831543 1.4778075218200684 2.638918876647949 0.0 15 -0.04820635914802551
-2.576082468032837 0.3941959738731384 -0.6982938051223755 14.0 0 -0.048185620456933975
-3.0361099243164062 0.46513158082962036 0.05361378937959671 32.0 8 -0.048183318227529526
-3.0579118728637695 0.46956488490104675 0.16213680803775787 28.0 9 -0.04817871004343033
-2.9932661056518555 0.4601728022098541 0.26495346426963806 2.0 10 -0.04817410185933113
-2.583007335662842 0.397562712430954 -0.4139256477355957 86.0 3 -0.04817179962992668
-2.5406391620635986 0.39194944500923157 -0.3156416416168213 60.0 4 -0.048167191445827484
-9.854851722717285 1.5220884084701538 1.5793626308441162 0.0 12 -0.048164885491132736
-2.7506775856018066 0.425335556268692 -0.24351313710212708 9.0 5 -0.04816258326172829
-2.4099466800689697 0.37307974696159363 -0.12780441343784332 19.0 6 -0.04815797507762909
-2.997666358947754 0.4651343822479248 -0.052950602024793625 67.0 7 -0.04815336689352989
-9.731855392456055 1.5117899179458618 2.638918876647949 0.0 15 -0.048151060938835144
-2.547900438308716 0.39944562315940857 -0.6910468935966492 1.0 0 -0.048130325973033905
-3.024589776992798 0.474178284406662 0.053439266979694366 28.0 8 -0.048128023743629456
-3.0602004528045654 0.4808562994003296 0.16234615445137024 27.0 9 -0.04812341555953026
-2.4533462524414062 0.3859386742115021 -0.48274680972099304 1.0 2 -0.04812110960483551
-2.9679417610168457 0.4674210250377655 0.2628616988658905 2.0 10 -0.04811880737543106
-2.5522637367248535 0.40241244435310364 -0.40923261642456055 57.0 3 -0.04811650142073631
-2.5431771278381348 0.40143463015556335 -0.31612908840179443 58.0 4 -0.048111893236637115
-2.749176263809204 0.43493470549583435 -0.24351313710212708 9.0 5 -0.04810728505253792
-2.400672435760498 0.38065844774246216 -0.1273857206106186 18.0 6 -0.04810267686843872
-3.005899429321289 0.4771629571914673 -0.05312512442469597 74.0 7 -0.04809806868433952
-9.726518630981445 1.5457490682601929 2.638918876647949 0.0 15 -0.048095766454935074
-2.4244117736816406 0.388761967420578 -0.6579180359840393 2.0 0 -0.048075031489133835
-3.0149338245391846 0.4839937090873718 0.05329965054988861 27.0 8 -0.04807272553443909
-2.4377732276916504 0.3917767405509949 -0.5700260400772095 1.0 1 -0.04807042330503464
-3.0644187927246094 0.49248549342155457 0.1626601666212082 25.0 9 -0.04806811735033989
-2.989896535873413 0.48158031702041626 0.26495346426963806 2.0 10 -0.04806350916624069
-2.5495994091033936 0.411575049161911 -0.3171040713787079 58.0 4 -0.048056598752737045
-2.7437076568603516 0.44389212131500244 -0.243164524435997 9.0 5 -0.04805199056863785
-2.3914430141448975 0.38775745034217834 -0.12696704268455505 18.0 6 -0.04804738238453865
-3.0042154788970947 0.4876527190208435 -0.05312512442469597 69.0 7 -0.04804277420043945
-3.027125597000122 0.4962535798549652 0.05354398116469383 29.0 8 -0.04801743105053902
-2.409538507461548 0.3954402506351471 -0.5637273788452148 2.0 1 -0.04801512509584427
-3.0588271617889404 0.5019979476928711 0.16245082020759583 25.0 9 -0.04801282286643982
-2.9705891609191895 0.48858243227005005 0.2633846402168274 3.0 10 -0.04800821468234062
-2.4909915924072266 0.41014736890792847 -0.39984655380249023 1.0 3 -0.048005908727645874
-2.5403854846954346 0.41873621940612793 -0.31612908840179443 58.0 4 -0.04800130054354668
-2.7343575954437256 0.4516887068748474 -0.2424672693014145 9.0 5 -0.04799669235944748
-2.3862032890319824 0.3950333297252655 -0.1267576962709427 18.0 6 -0.04799208790063858
-3.014418601989746 0.4995734691619873 -0.0533345565199852 69.0 7 -0.04798747971653938
-2.444645404815674 0.40865442156791687 -0.6641297340393066 1.0 0 -0.047964438796043396
-3.0294079780578613 0.5069493651390076 0.05361378937959671 25.0 8 -0.04796213284134865
-3.057055950164795 0.5126723051071167 0.16245082020759583 24.0 9 -0.04795752465724945
-2.429880380630493 0.40793073177337646 -0.47893062233924866 1.0 2 -0.047955222427845
-2.9984261989593506 0.5033787488937378 0.26599931716918945 2.0 10 -0.04795291647315025
-2.4740333557128906 0.4157865345478058 -0.39734360575675964 1.0 3 -0.047950614243745804
-2.542823553085327 0.4282606840133667 -0.31661656498908997 57.0 4 -0.047946006059646606
-2.746516466140747 0.46355244517326355 -0.2436874657869339 8.0 5 -0.04794139787554741
-2.396625518798828 0.4053582549095154 -0.1273857206106186 15.0 6 -0.04793678969144821
-3.000826358795166 0.5080904960632324 -0.05312512442469597 69.0 7 -0.047932181507349014
-2.446939468383789 0.4182627499103546 -0.6651650071144104 1.0 0 -0.04790914058685303
-3.035413980484009 0.5193977355957031 0.05375341325998306 24.0 8 -0.04790683835744858
-2.4028773307800293 0.411594957113266 -0.5628275871276855 1.0 1 -0.04790453612804413
-3.0649993419647217 0.5255613327026367 0.16297417879104614 23.0 9 -0.04790223017334938
-2.9828155040740967 0.5120050311088562 0.26477915048599243 2.0 10 -0.04789762198925018
-2.4919612407684326 0.42819744348526 -0.4004722833633423 1.0 3 -0.047895319759845734
-2.5412368774414062 0.43757715821266174 -0.31661656498908997 57.0 4 -0.047890711575746536
-2.7290921211242676 0.47090500593185425 -0.24229297041893005 8.0 5 -0.04788610339164734
-2.3951234817504883 0.4141402244567871 -0.1273857206106186 18.0 6 -0.04788149520754814
-2.991062641143799 0.5177208185195923 -0.05298550799489021 63.0 7 -0.047876887023448944
-2.399717330932617 0.4192490875720978 -0.6527416706085205 1.0 0 -0.04785384610295296
-3.0177314281463623 0.5277636647224426 0.053474172949790955 23.0 8 -0.04785154387354851
-2.3859963417053223 0.41771024465560913 -0.5592283606529236 2.0 1 -0.04784923791885376
-3.0669867992401123 0.5374819040298462 0.1631835252046585 22.0 9 -0.04784693568944931
-2.9828813076019287 0.5232784748077393 0.26495346426963806 2.0 10 -0.04784232750535011
-2.547436237335205 0.4482645094394684 -0.3175915479660034 57.0 4 -0.04783541336655617
-2.7155747413635254 0.4788292646408081 -0.24124708771705627 8.0 5 -0.04783080518245697
-2.405390501022339 0.42500051856040955 -0.1280137598514557 15.0 6 -0.04782619699835777
-2.997021436691284 0.5300739407539368 -0.05312512442469597 56.0 7 -0.047821588814258575
-3.0197136402130127 0.5395241379737854 0.05354398116469383 20.0 8 -0.04779624566435814
-2.4228153228759766 0.4333142042160034 -0.5682263970375061 1.0 1 -0.04779394343495369
-3.07482647895813 0.5504785180091858 0.16370689868927002 22.0 9 -0.04779163748025894
-2.9829044342041016 0.5345592498779297 0.2651277482509613 2.0 10 -0.047787029296159744
-2.5496835708618164 0.4583013355731964 -0.31807902455329895 54.0 4 -0.0477801188826561
-2.7177233695983887 0.48948484659194946 -0.24159571528434753 8.0 5 -0.0477755106985569
-2.3979198932647705 0.4327497184276581 -0.12769974768161774 18.0 6 -0.0477709025144577
-3.002929925918579 0.5424762964248657 -0.05326474457979202 56.0 7 -0.047766294330358505
-2.396883726119995 0.4351554214954376 -0.6527416706085205 1.0 0 -0.04774951934814453
-3.0240020751953125 0.5495542287826538 0.0536486990749836 18.0 8 -0.04774721711874008
-2.4291882514953613 0.4418962299823761 -0.5700260400772095 1.0 1 -0.047744911164045334
-3.0692496299743652 0.5588838458061218 0.16349753737449646 21.0 9 -0.047742608934640884
-2.4355366230010986 0.4439293444156647 -0.4812203049659729 1.0 2 -0.047740302979946136
-3.002866268157959 0.5473374724388123 0.26704519987106323 2.0 10 -0.04773800075054169
-2.5561234951019287 0.46729183197021484 -0.3190539479255676 54.0 4 -0.04773108661174774
-3.5792102813720703 0.654970645904541 0.5763046741485596 1.0 12 -0.04772878438234329
-2.7240984439849854 0.4989824593067169 -0.24229297041893005 8.0 5 -0.047726478427648544
-3.5203278064727783 0.6454654932022095 0.6956896185874939 1.0 13 -0.047724176198244095
-2.4005541801452637 0.44058382511138916 -0.1279090791940689 18.0 6 -0.04772187024354935
-3.521024465560913 0.6462284326553345 0.8264702558517456 1.0 14 -0.0477195680141449
-3.0072073936462402 0.552467942237854 -0.05336945876479149 27.0 7 -0.04771726205945015
-3.5301859378814697 0.6491836905479431 0.9617716073989868 2.0 15 -0.0477149598300457
-3.0141031742095947 0.5591751337051392 0.05350907891988754 13.0 8 -0.04769191890954971
-2.4582083225250244 0.4564889371395111 -0.5772244930267334 1.0 1 -0.047689616680145264
-3.059326171875 0.5686694979667664 0.16307885944843292 20.0 9 -0.047687310725450516
-2.403010845184326 0.44710710644721985 -0.4751144051551819 1.0 2 -0.047685008496046066
-3.0282628536224365 0.5634422898292542 0.26948556303977966 3.0 10 -0.04768270254135132
-3.4989891052246094 0.652289867401123 0.4370235204696655 2.0 11 -0.04767809435725212
-2.5504908561706543 0.4759291112422943 -0.3185664713382721 51.0 4 -0.04767579212784767
-3.5010554790496826 0.6539396047592163 0.5641027688980103 2.0 12 -0.047673486173152924
-2.718334197998047 0.5082311034202576 -0.2419443279504776 8.0 5 -0.047671183943748474
-3.5102193355560303 0.6569193005561829 0.6941632032394409 2.0 13 -0.047668877989053726
-2.4126651287078857 0.451954185962677 -0.12864179909229279 19.0 6 -0.04766657575964928
-3.487985372543335 0.6533892750740051 0.8192718029022217 1.0 14 -0.04766426980495453
-3.434746503829956 0.6446564793586731 0.9364073872566223 4.0 15 -0.04765966162085533
-2.393629789352417 0.4527131915092468 -0.6527416706085205 1.0 0 -0.04763892665505409
-3.013998031616211 0.570590615272522 0.05354398116469383 12.0 8 -0.04763662442564964
-2.4565184116363525 0.4654962420463562 -0.5772244930267334 1.0 1 -0.047634318470954895
-3.069096565246582 0.5815763473510742 0.16370689868927002 19.0 9 -0.047632016241550446
-2.401435613632202 0.45549193024635315 -0.4751144051551819 1.0 2 -0.0476297102868557
-3.0203051567077637 0.5734227895736694 0.2689626216888428 2.0 10 -0.04762740805745125
-3.539477825164795 0.6732699871063232 0.442385733127594 2.0 11 -0.04762279987335205
-2.556614637374878 0.4863123595714569 -0.31954145431518555 50.0 4 -0.0476204939186573
-3.20573353767395 0.6103665232658386 0.5168595314025879 2.0 12 -0.04761819168925285
-2.7126290798187256 0.5169708728790283 -0.24159571528434753 8.0 5 -0.047615885734558105
-3.1357080936431885 0.5981688499450684 0.6205108761787415 3.0 13 -0.047613583505153656
-2.4110729694366455 0.4603727161884308 -0.12864179909229279 19.0 6 -0.04761127755045891
-3.0339419841766357 0.5793039202690125 0.7130948901176453 2.0 14 -0.04760897532105446
-3.037806987762451 0.5811417102813721 0.8287386298179626 17.0 15 -0.04760436713695526
-2.392115354537964 0.4606483578681946 -0.6527416706085205 1.0 0 -0.04758363217115402
-3.0160164833068848 0.5813385844230652 0.05361378937959671 11.0 8 -0.047581326216459274
-2.4549612998962402 0.47363990545272827 -0.5772244930267334 1.0 1 -0.047579023987054825
-3.071073293685913 0.5925074219703674 0.1639162302017212 18.0 9 -0.04757671803236008
-2.399911880493164 0.4634529650211334 -0.4751144051551819 1.0 2 -0.04757441580295563
-3.020343065261841 0.5838135480880737 0.2691369354724884 9.0 10 -0.04757210984826088
-3.0655956268310547 0.5936698913574219 0.38340097665786743 21.0 11 -0.04756750166416168
-2.554987907409668 0.4947878122329712 -0.31954145431518555 51.0 4 -0.04756519943475723
-3.062124252319336 0.5935528874397278 0.49402010440826416 41.0 12 -0.04756289720535278
-2.7050321102142334 0.5248250365257263 -0.24107277393341064 8.0 5 -0.047560591250658035
-3.0508358478546143 0.5924689173698425 0.604101300239563 41.0 13 -0.047558289021253586
-2.417375087738037 0.4698900282382965 -0.12906047701835632 22.0 6 -0.04755598306655884
-3.0626111030578613 0.595311164855957 0.7202933430671692 40.0 14 -0.04755368083715439
-3.007420063018799 0.5856718420982361 0.8209740519523621 29.0 15 -0.04754907265305519
-3.004260540008545 0.5894120335578918 0.053439266979694366 10.0 8 -0.047526031732559204
-2.4533770084381104 0.4817783534526825 -0.5772244930267334 1.0 1 -0.047523725777864456
-3.0885841846466064 0.6070752739906311 0.16496294736862183 19.0 9 -0.04752142354846001
-2.3983616828918457 0.4714089334011078 -0.4751144051551819 1.0 2 -0.04751911759376526
-3.0633535385131836 0.6026713848114014 0.2731460928916931 28.0 10 -0.04751681536436081
-3.067505359649658 0.6046003699302673 0.38388845324516296 48.0 11 -0.04751220718026161
-2.5688252449035645 0.5067771077156067 -0.3214913308620453 50.0 4 -0.04750990495085716
-3.056157350540161 0.6034727692604065 0.4933943450450897 42.0 12 -0.047507598996162415
-2.7070930004119873 0.5350362658500671 -0.2414214164018631 7.0 5 -0.047505296766757965
-3.0372982025146484 0.6002987623214722 0.6018115878105164 42.0 13 -0.04750299081206322
-2.4158036708831787 0.4779038429260254 -0.12906047701835632 27.0 6 -0.04750068858265877
-3.0490448474884033 0.6037270426750183 0.7175939083099365 33.0 14 -0.04749838262796402
-2.677507162094116 0.5306456685066223 -0.047645069658756256 1.0 7 -0.04749608039855957
-3.012936592102051 0.5976704359054565 0.8230445981025696 33.0 15 -0.04749377444386482
-2.388840913772583 0.4773378074169159 -0.6527416706085205 1.0 0 -0.04747303947806358
-3.01591157913208 0.6026389598846436 0.053683605045080185 10.0 8 -0.047470733523368835
-3.074695587158203 0.6155005097389221 0.16433492302894592 19.0 9 -0.047466129064559937
-2.3966176509857178 0.4801968038082123 -0.4751144051551819 1.0 2 -0.04746382310986519
-3.0669846534729004 0.6150704622268677 0.27366903424263 25.0 10 -0.04746152088046074
-3.0439672470092773 0.611007034778595 0.38120734691619873 35.0 11 -0.04745691269636154
-2.563148260116577 0.5149595737457275 -0.32100388407707214 47.0 4 -0.047454606741666794
-3.050159454345703 0.6133576035499573 0.49276861548423767 30.0 12 -0.047452304512262344
-2.6954429149627686 0.5425170063972473 -0.24054984748363495 7.0 5 -0.047449998557567596
-3.0331530570983887 0.6110401153564453 0.6014299988746643 35.0 13 -0.04744769632816315
-2.4081621170043945 0.48557066917419434 -0.12874646484851837 23.0 6 -0.0474453903734684
-3.0238888263702393 0.6102714538574219 0.712195098400116 28.0 14 -0.04744308814406395
-2.7109217643737793 0.5471094250679016 -0.04827335476875305 31.0 7 -0.0474407821893692
-3.0089385509490967 0.6078014969825745 0.8225269913673401 35.0 15 -0.04743847995996475
-3.015641927719116 0.6140871047973633 0.053718507289886475 9.0 8 -0.047415439039468765
-2.449866771697998 0.4993213713169098 -0.5772244930267334 1.0 1 -0.047413136810064316
-3.068505048751831 0.6259673237800598 0.16412557661533356 20.0 9 -0.04741083085536957
-3.055058479309082 0.6237796545028687 0.27279746532440186 49.0 10 -0.04740622267127037
-3.0280933380126953 0.6193750500679016 0.3795011639595032 48.0 11 -0.04740161448717117
-2.5651330947875977 0.5251461863517761 -0.3214913308620453 44.0 4 -0.047399312257766724
-3.032409429550171 0.6213613748550415 0.4902656674385071 41.0 12 -0.047397006303071976
-2.709050178527832 0.5555955767631531 -0.2419443279504776 7.0 5 -0.047394704073667526
-3.029078245162964 0.6212296485900879 0.6010483503341675 41.0 13 -0.04739239811897278
-2.4064526557922363 0.4939732849597931 -0.12874646484851837 23.0 6 -0.04739009588956833
-3.023648977279663 0.6212160587310791 0.7126449942588806 30.0 14 -0.04738778993487358
-3.0275049209594727 0.6231089234352112 0.8282209634780884 32.0 15 -0.047383181750774384
