# .PCD v0.7 - Point Cloud Data file format
VERSION 0.7
FIELDS x y z intensity ring time
SIZE 4 4 4 4 4 4
TYPE F F F F F F
COUNT 1 1 1 1 1 1
WIDTH 547
HEIGHT 1
VIEWPOINT 0 0 0 1 0 0 0
POINTS 547
DATA ascii
2.5372908115386963 -2.042952299118042 0.1707199066877365 72.0 9 -0.062478408217430115
1.8194677829742432 -1.4655057191848755 -0.45412543416023254 1.0 2 -0.062476105988025665
2.5334959030151367 -2.0413548946380615 0.28465065360069275 72.0 10 -0.06247380003333092
1.7609788179397583 -1.4194090366363525 -0.3582349717617035 1.0 3 -0.06247149780392647
2.5389602184295654 -2.0472195148468018 0.40046271681785583 73.0 11 -0.06246919184923172
1.7706868648529053 -1.4282540082931519 -0.27932456135749817 1.0 4 -0.06246688961982727
2.536940813064575 -2.0463223457336426 0.5162338018417358 85.0 12 -0.06246458366513252
2.5227670669555664 -2.035616159439087 -0.28360477089881897 63.0 5 -0.06246228143572807
2.5298283100128174 -2.0420432090759277 0.6319594383239746 71.0 13 -0.062459975481033325
2.5266664028167725 -2.040219306945801 -0.1701965481042862 86.0 6 -0.062457673251628876
2.548316717147827 -2.058436393737793 0.7562854886054993 81.0 14 -0.06245536729693413
2.516947031021118 -2.033097267150879 -0.056475985795259476 73.0 7 -0.06245306506752968
2.5258758068084717 -2.0410377979278564 0.8701496720314026 86.0 15 -0.06245075911283493
2.510643243789673 -2.0345304012298584 0.0564061775803566 69.0 8 -0.06242772191762924
1.8226313591003418 -1.4775184392929077 -0.5416821837425232 1.0 1 -0.062425415962934494
2.5177338123321533 -2.0417327880859375 0.16988252103328705 72.0 9 -0.062423113733530045
1.799094557762146 -1.4594794511795044 -0.45030924677848816 1.0 2 -0.0624208077788353
2.526355028152466 -2.0501861572265625 0.28465065360069275 74.0 10 -0.06241850554943085
1.7654653787612915 -1.4327093362808228 -0.36011216044425964 1.0 3 -0.0624161995947361
2.521368980407715 -2.046869993209839 0.3987565040588379 75.0 11 -0.06241389736533165
1.735121726989746 -1.4090898036956787 -0.27444979548454285 1.0 4 -0.0624115914106369
2.520583391189575 -2.047692060470581 0.5143565535545349 85.0 12 -0.06240928918123245
2.5048224925994873 -2.035614013671875 -0.28238460421562195 67.0 5 -0.062406983226537704
2.521519184112549 -2.049182891845703 0.6315777897834778 77.0 13 -0.062404680997133255
2.50593900680542 -2.037247896194458 -0.16925449669361115 82.0 6 -0.06240237504243851
2.526357889175415 -2.054579973220825 0.751786470413208 81.0 14 -0.06240007281303406
2.514488697052002 -2.045656204223633 -0.05658069998025894 74.0 7 -0.06239777058362961
2.512742280960083 -2.0449647903442383 0.8680790662765503 86.0 15 -0.06239546462893486
2.4973294734954834 -2.0382239818573 0.05626656115055084 69.0 8 -0.06237242370843887
1.8295387029647827 -1.493731141090393 -0.5452813506126404 1.0 1 -0.062370121479034424
2.4982166290283203 -2.0404014587402344 0.16904516518115997 66.0 9 -0.062367815524339676
1.7820806503295898 -1.4555021524429321 -0.44725629687309265 1.0 2 -0.062365513294935226
2.5102851390838623 -2.0509889125823975 0.28360477089881897 69.0 10 -0.06236320734024048
1.739040493965149 -1.4213618040084839 -0.3557320237159729 1.0 3 -0.06236090511083603
2.5111351013183594 -2.05314564704895 0.39826905727386475 77.0 11 -0.06235859915614128
1.7240463495254517 -1.4101108312606812 -0.2734748423099518 1.0 4 -0.06235629692673683
2.5057759284973145 -2.0502235889434814 0.5127922296524048 87.0 12 -0.062353990972042084
2.496516466140747 -2.04264760017395 -0.2822102904319763 63.0 5 -0.062351688742637634
2.511312246322632 -2.055485248565674 0.6308146119117737 77.0 13 -0.062349386513233185
2.492631196975708 -2.040921449661255 -0.1688358038663864 82.0 6 -0.06234708055853844
2.5071098804473877 -2.0535075664520264 0.748187243938446 83.0 14 -0.06234477832913399
2.499598979949951 -2.0480844974517822 -0.0564061775803566 81.0 7 -0.06234247237443924
2.5026004314422607 -2.051274061203003 0.8670438528060913 86.0 15 -0.06234017014503479
2.487109899520874 -2.044389486312866 0.056196752935647964 69.0 8 -0.0623171292245388
1.806251049041748 -1.4852558374404907 -0.5398825407028198 1.0 1 -0.062314823269844055
2.4849090576171875 -2.044034242630005 0.16862647235393524 68.0 9 -0.062312521040439606
1.7860864400863647 -1.4691972732543945 -0.44954603910446167 1.0 2 -0.06231021508574486
2.490802526473999 -2.0496113300323486 0.2822102904319763 72.0 10 -0.06230791285634041
1.7340683937072754 -1.4274235963821411 -0.3557320237159729 1.0 3 -0.06230560690164566
2.4947586059570312 -2.0543270111083984 0.39680659770965576 75.0 11 -0.06230330467224121
1.7773367166519165 -1.4640815258026123 -0.2827368974685669 1.0 4 -0.06230100244283676
2.484884023666382 -2.047652006149292 0.5099764466285706 85.0 12 -0.062298696488142014
2.4739952087402344 -2.0386788845062256 -0.2804671823978424 60.0 5 -0.062296394258737564
2.5010921955108643 -2.061741352081299 0.63005131483078 77.0 13 -0.062294088304042816
2.487032890319824 -2.0508806705474854 -0.1689404845237732 88.0 6 -0.06229178607463837
2.492410182952881 -2.0560460090637207 0.7459377646446228 76.0 14 -0.06228948011994362
2.47701096534729 -2.044069528579712 -0.05605712905526161 81.0 7 -0.06228717789053917
2.4775474071502686 -2.045239210128784 0.8608322143554688 84.0 15 -0.06228487193584442
2.4614744186401367 -2.0377562046051025 0.055777888745069504 72.0 8 -0.062261831015348434
1.7920502424240112 -1.4840937852859497 -0.5371831059455872 1.0 1 -0.062259528785943985
2.4750406742095947 -2.049715280532837 0.16841712594032288 70.0 9 -0.06225722283124924
1.7597811222076416 -1.4578880071640015 -0.44420334696769714 1.0 2 -0.06225492060184479
2.4698264598846436 -2.0468509197235107 0.28064149618148804 65.0 10 -0.06225261837244034
1.7108263969421387 -1.4183388948440552 -0.3519775867462158 1.0 3 -0.06225031241774559
2.4845163822174072 -2.060488700866699 0.39631912112236023 76.0 11 -0.06224801018834114
1.750826120376587 -1.4525318145751953 -0.27932456135749817 1.0 4 -0.06224570423364639
2.475039005279541 -2.0533580780029297 0.5093506574630737 85.0 12 -0.06224340200424194
2.4515321254730225 -2.034578323364258 -0.2787240743637085 61.0 5 -0.062241096049547195
2.4787750244140625 -2.0579185485839844 0.6262351274490356 76.0 13 -0.062238793820142746
2.4721763134002686 -2.0531692504882812 -0.16841712594032288 82.0 6 -0.062236487865448
2.4807214736938477 -2.060997724533081 0.7445880174636841 78.0 14 -0.06223418563604355
2.4686808586120605 -2.050994396209717 -0.056022223085165024 74.0 7 -0.0622318796813488
2.4618372917175293 -2.046035051345825 0.8577263355255127 82.0 15 -0.06222957745194435
2.4424145221710205 -2.0356650352478027 0.055498652160167694 72.0 8 -0.062206536531448364
1.7721513509750366 -1.4775491952896118 -0.5326840877532959 1.0 1 -0.062204234302043915
2.4648032188415527 -2.055783987045288 0.1682077795267105 68.0 9 -0.06220192834734917
1.77578604221344 -1.4816306829452515 -0.44954603910446167 1.0 2 -0.06219962611794472
2.4596071243286133 -2.0529062747955322 0.2802928686141968 65.0 10 -0.06219732016324997
1.7212791442871094 -1.4366623163223267 -0.35510629415512085 1.0 3 -0.06219501793384552
2.4593846797943115 -2.0534491539001465 0.39339426159858704 80.0 11 -0.06219271197915077
2.4316022396087646 -2.030972480773926 -0.38900697231292725 1.0 4 -0.06219040974974632
2.464824914932251 -2.0594518184661865 0.5087249279022217 85.0 12 -0.062188103795051575
2.4352428913116455 -2.035456895828247 -0.2776781916618347 61.0 5 -0.062185801565647125
2.4583797454833984 -2.054795503616333 0.6228005886077881 71.0 13 -0.06218349561095238
2.4500319957733154 -2.0485446453094482 -0.16737040877342224 85.0 6 -0.06218119338154793
2.4723782539367676 -2.067962408065796 0.7441381216049194 81.0 14 -0.06217888742685318
2.4569056034088135 -2.0557491779327393 -0.055917512625455856 81.0 7 -0.06217658519744873
2.4517173767089844 -2.052136182785034 0.8566910624504089 82.0 15 -0.06217427924275398
2.435293674468994 -2.0441782474517822 0.055498652160167694 72.0 8 -0.062151242047548294
1.7848917245864868 -1.4987640380859375 -0.5380829572677612 1.0 1 -0.062148936092853546
2.4453775882720947 -2.05409836769104 0.16737040877342224 74.0 9 -0.0621466338634491
1.7555726766586304 -1.4751901626586914 -0.4457298517227173 1.0 2 -0.06214432790875435
2.449735403060913 -2.058488130569458 0.2799442410469055 65.0 10 -0.0621420256793499
1.7011324167251587 -1.4299511909484863 -0.3519775867462158 1.0 3 -0.06213971972465515
2.4430856704711914 -2.0543558597564697 0.39193183183670044 80.0 11 -0.0621374174952507
2.448552370071411 -2.0604119300842285 0.5068477392196655 85.0 12 -0.062132809311151505
2.4189772605895996 -2.0362465381622314 -0.2766323387622833 59.0 5 -0.06213050335645676
2.4448251724243164 -2.0587339401245117 0.6212741136550903 75.0 13 -0.06212820112705231
2.431814670562744 -2.0485036373138428 -0.16663770377635956 77.0 6 -0.06212589517235756
2.453221321105957 -2.0665361881256104 0.7405388951301575 86.0 14 -0.06212359294295311
2.4420690536499023 -2.0578701496124268 -0.055742986500263214 76.0 7 -0.06212128698825836
2.4356768131256104 -2.053210973739624 0.8535852432250977 80.0 15 -0.06211898475885391
2.4247312545776367 -2.0505077838897705 0.055428843945264816 71.0 8 -0.062095943838357925
1.7377285957336426 -1.4700548648834229 -0.5254856944084167 1.0 1 -0.062093641608953476
2.425635814666748 -2.0527255535125732 0.16653302311897278 70.0 9 -0.06209133565425873
1.7231824398040771 -1.4587817192077637 -0.4388607144355774 1.0 2 -0.06208903342485428
2.436091661453247 -2.0623040199279785 0.2792470157146454 67.0 10 -0.06208672747015953
1.6898503303527832 -1.4310702085494995 -0.35072609782218933 1.0 3 -0.06208442524075508
2.429481267929077 -2.05816388130188 0.3909568786621094 77.0 11 -0.06208211928606033
2.4289300441741943 -2.0591537952423096 0.5043447613716125 85.0 12 -0.062077511101961136
2.4114980697631836 -2.0450987815856934 -0.2766323387622833 63.0 5 -0.062075208872556686
2.432771921157837 -2.063870429992676 0.6201292872428894 77.0 13 -0.06207290291786194
2.4166762828826904 -2.050941228866577 -0.16611434519290924 82.0 6 -0.06207060068845749
2.4292869567871094 -2.061643600463867 0.7355900406837463 83.0 14 -0.06206829845905304
2.4162168502807617 -2.051276683807373 -0.05532412603497505 76.0 7 -0.06206599250435829
2.4310801029205322 -2.0646252632141113 0.8546205163002014 82.0 15 -0.06206369027495384
2.4111106395721436 -2.0541939735412598 0.05528922379016876 76.0 8 -0.062040649354457855
1.7412277460098267 -1.483998417854309 -0.5281850695610046 1.0 1 -0.06203834339976311
2.4123752117156982 -2.0559980869293213 0.16611434519290924 76.0 9 -0.06203604117035866
1.7180798053741455 -1.4647879600524902 -0.4388607144355774 1.0 2 -0.06203373521566391
2.4133572578430176 -2.0582897663116455 0.2775038778781891 67.0 10 -0.06203143298625946
1.684593915939331 -1.4372540712356567 -0.35072609782218933 1.0 3 -0.06202912703156471
2.4204113483428955 -2.065765619277954 0.3907131552696228 85.0 11 -0.06202682480216026
2.4142158031463623 -2.061206340789795 0.5027804374694824 76.0 12 -0.062022216618061066
2.3891942501068115 -2.04056453704834 -0.274889200925827 61.0 5 -0.062019914388656616
2.424060106277466 -2.0710744857788086 0.6197476387023926 72.0 13 -0.06201760843396187
2.4095022678375244 -2.0593645572662354 -0.16611434519290924 82.0 6 -0.06201530620455742
2.4161500930786133 -2.0650460720062256 0.733790397644043 78.0 14 -0.06201300024986267
2.3999226093292236 -2.0519015789031982 -0.05511470139026642 74.0 7 -0.06201069802045822
2.406240940093994 -2.058030843734741 0.8484088778495789 78.0 15 -0.062008392065763474
2.3860714435577393 -2.046555519104004 0.0548703633248806 74.0 8 -0.06198535114526749
1.7215076684951782 -1.4770746231079102 -0.5236860513687134 1.0 1 -0.06198304891586304
2.3994810581207275 -2.058784246444702 0.1656956523656845 74.0 9 -0.06198074296116829
1.70725417137146 -1.4653624296188354 -0.43733423948287964 1.0 2 -0.06197844073176384
2.395936965942383 -2.0571956634521484 0.2762836813926697 74.0 10 -0.06197613850235939
1.664833426475525 -1.4299616813659668 -0.3475974202156067 1.0 3 -0.06197383254766464
2.398491382598877 -2.0608439445495605 0.38827574253082275 85.0 11 -0.06197153031826019
1.6501861810684204 -1.4178813695907593 -0.2671376168727875 1.0 4 -0.061969224363565445
2.39837908744812 -2.0614752769470215 0.5009031891822815 77.0 12 -0.061966922134160995
2.3793928623199463 -2.0458781719207764 -0.27454057335853577 63.0 5 -0.06196461617946625
2.405271291732788 -2.068859815597534 0.6166946887969971 71.0 13 -0.0619623139500618
2.399631977081299 -2.0647377967834473 -0.16590499877929688 82.0 6 -0.06196000799536705
2.412243366241455 -2.075589179992676 0.7346901893615723 83.0 14 -0.0619577057659626
2.390073776245117 -2.057239294052124 -0.05504488945007324 74.0 7 -0.06195539981126785
2.3906195163726807 -2.0584359169006348 0.8453030586242676 76.0 15 -0.0619530975818634
2.370190382003784 -2.0466153621673584 0.05466093868017197 71.0 8 -0.061930056661367416
1.7342966794967651 -1.4980615377426147 -0.5290848612785339 1.0 1 -0.06192775443196297
2.3892574310302734 -2.064535617828369 0.16548630595207214 76.0 9 -0.06192544847726822
1.6934722661972046 -1.4633140563964844 -0.4350445568561554 1.0 2 -0.06192314624786377
2.38608717918396 -2.06252384185791 0.2759350836277008 74.0 10 -0.06192084029316902
1.6600823402404785 -1.4354746341705322 -0.3475974202156067 1.0 3 -0.06191853806376457
2.38563871383667 -2.063591957092285 0.3873008191585541 83.0 11 -0.061916232109069824
2.388181447982788 -2.067248582839966 0.5002774596214294 77.0 12 -0.06191162392497063
2.366569995880127 -2.048541307449341 -0.27384334802627563 61.0 5 -0.06190932169556618
2.390976905822754 -2.070399045944214 0.6147866249084473 76.0 13 -0.06190701574087143
2.379185199737549 -2.060914993286133 -0.16496294736862183 86.0 6 -0.06190471351146698
2.399092435836792 -2.0788919925689697 0.7328906059265137 83.0 14 -0.06190240755677223
2.376833915710449 -2.060330629348755 -0.05490526929497719 74.0 7 -0.06190010532736778
2.3775813579559326 -2.0617058277130127 0.8432324528694153 78.0 15 -0.061897799372673035
2.3600142002105713 -2.0522522926330566 0.05459113046526909 76.0 8 -0.061874762177467346
1.7172948122024536 -1.4938743114471436 -0.5254856944084167 1.0 1 -0.0618724562227726
2.366969585418701 -2.0597522258758545 0.1644395887851715 76.0 9 -0.06187015399336815
1.6972402334213257 -1.4769492149353027 -0.43733423948287964 1.0 2 -0.0618678480386734
2.3728621006011963 -2.065607786178589 0.2752378284931183 74.0 10 -0.06186554580926895
1.6550614833831787 -1.441260814666748 -0.3475974202156067 1.0 3 -0.061863239854574203
2.3634531497955322 -2.0588674545288086 0.3848634362220764 81.0 11 -0.061860937625169754
2.3779728412628174 -2.0729763507843018 0.4996517598628998 77.0 12 -0.06185632944107056
2.356400966644287 -2.054171562194824 -0.2734947204589844 63.0 5 -0.06185402348637581
2.373377561569214 -2.069700002670288 0.6121153235435486 71.0 13 -0.06185172125697136
2.359936237335205 -2.0587034225463867 -0.16412557661533356 86.0 6 -0.06184941530227661
2.377138376235962 -2.0744407176971436 0.7283915877342224 83.0 14 -0.06184711307287216
2.366614580154419 -2.0659847259521484 -0.05483546108007431 74.0 7 -0.061844807118177414
2.3616397380828857 -2.0623679161071777 0.840126633644104 82.0 15 -0.061842504888772964
2.346818447113037 -2.0552077293395996 0.054451506584882736 72.0 8 -0.06181946396827698
1.6827534437179565 -1.4741770029067993 -0.5164876580238342 1.0 1 -0.06181716173887253
2.352254867553711 -2.06141996383667 0.1639162302017212 78.0 9 -0.06181485578417778
1.6832151412963867 -1.4751009941101074 -0.4350445568561554 1.0 2 -0.06181255355477333
2.3641390800476074 -2.0725643634796143 0.27506351470947266 78.0 10 -0.06181024760007858
1.6381391286849976 -1.4366093873977661 -0.3450944721698761 1.0 3 -0.06180794537067413
2.3562517166137695 -2.0671048164367676 0.3848634362220764 85.0 11 -0.061805639415979385
2.3573617935180664 -2.069535255432129 0.4968359172344208 82.0 12 -0.06180103123188019
2.346221685409546 -2.059755325317383 -0.2731460928916931 63.0 5 -0.06179872900247574
2.3705639839172363 -2.0818583965301514 0.6132601499557495 76.0 13 -0.06179642304778099
2.346733808517456 -2.0616557598114014 -0.16370689868927002 86.0 6 -0.06179412081837654
2.35378098487854 -2.068575143814087 0.7234426140785217 76.0 14 -0.06179181486368179
2.3473737239837646 -2.0636706352233887 -0.0545562244951725 76.0 7 -0.061789512634277344
2.354426383972168 -2.07059907913208 0.840126633644104 82.0 15 -0.061787210404872894
2.3366308212280273 -2.060741901397705 0.05438169836997986 71.0 8 -0.06176416948437691
1.7068238258361816 -1.5058268308639526 -0.5254856944084167 1.0 1 -0.06176186352968216
2.3435473442077637 -2.0682969093322754 0.1638115644454956 74.0 9 -0.06175956130027771
1.6545041799545288 -1.4601820707321167 -0.4289386570453644 1.0 2 -0.06175725534558296
2.3449413776397705 -2.0702550411224365 0.27366903424263 78.0 10 -0.06175495311617851
1.659765362739563 -1.4658563137054443 -0.35072609782218933 1.0 3 -0.061752647161483765
2.3430709838867188 -2.0700597763061523 0.38388845324516296 87.0 11 -0.061750344932079315
2.3382840156555176 -2.067284345626831 0.4943329691886902 85.0 12 -0.06174573674798012
2.3255834579467773 -2.056055784225464 -0.27157729864120483 67.0 5 -0.06174343079328537
2.3500468730926514 -2.0784146785736084 0.6098255515098572 71.0 13 -0.06174112856388092
2.336531162261963 -2.067188024520874 -0.16349753737449646 88.0 6 -0.06173882633447647
2.346545934677124 -2.0767788887023926 0.7234426140785217 86.0 14 -0.06173652037978172
2.332670211791992 -2.0652241706848145 -0.05438169836997986 81.0 7 -0.061734218150377274
2.3298299312591553 -2.0634348392486572 0.8339149951934814 84.0 15 -0.061731912195682526
2.31447172164917 -2.0556066036224365 0.05403264984488487 74.0 8 -0.06170887127518654
1.6899025440216064 -1.5014209747314453 -0.5218864679336548 1.0 1 -0.06170656904578209
2.3318350315093994 -2.072484016418457 0.16349753737449646 82.0 9 -0.06170426309108734
1.6464625597000122 -1.4633400440216064 -0.4281754195690155 1.0 2 -0.06170196086168289
2.322810649871826 -2.0651893615722656 0.2719258964061737 78.0 10 -0.061699654906988144
1.651686429977417 -1.4690152406692505 -0.3501003682613373 1.0 3 -0.061697352677583694
2.3298985958099365 -2.0729482173919678 0.3829135298728943 83.0 11 -0.061695050448179245
2.3310534954071045 -2.0754337310791016 0.4943329691886902 85.0 12 -0.06169044226408005
2.306487798690796 -2.0535619258880615 -0.2701827883720398 75.0 5 -0.0616881363093853
2.336913585662842 -2.0813825130462646 0.6082991361618042 82.0 13 -0.06168583407998085
2.3263185024261475 -2.07267427444458 -0.1632881909608841 88.0 6 -0.0616835281252861
2.337827682495117 -2.083660364151001 0.7229927778244019 83.0 14 -0.06168122589588165
2.3045506477355957 -2.054723024368286 -0.05389302968978882 84.0 7 -0.061678919941186905
2.3081955909729004 -2.0586962699890137 0.8287386298179626 86.0 15 -0.061676617711782455
2.3013203144073486 -2.058340549468994 0.05389302968978882 71.0 8 -0.06165357679128647
1.6730331182479858 -1.496915340423584 -0.5182872414588928 1.0 1 -0.06165127456188202
2.317145347595215 -2.073951005935669 0.16297417879104614 76.0 9 -0.06164896860718727
1.6618244647979736 -1.487408995628357 -0.43351805210113525 1.0 2 -0.06164666637778282
2.318556308746338 -2.0759429931640625 0.27227452397346497 78.0 10 -0.061644360423088074
1.6465485095977783 -1.4747718572616577 -0.3501003682613373 1.0 3 -0.061642058193683624
2.3137779235839844 -2.0731201171875 0.3814510703086853 85.0 11 -0.061639752238988876
1.6201304197311401 -1.4521293640136719 -0.2671376168727875 1.0 4 -0.06163745000958443
2.32232403755188 -2.0822393894195557 0.49402010440826416 91.0 12 -0.06163514405488968
2.2948551177978516 -2.057610273361206 -0.2696598470211029 70.0 5 -0.06163284182548523
2.315018892288208 -2.076418399810791 0.6044829487800598 85.0 13 -0.06163053587079048
2.3056905269622803 -2.068777322769165 -0.16234615445137024 85.0 6 -0.06162823364138603
2.3261892795562744 -2.0879032611846924 0.7216430306434631 86.0 14 -0.061625927686691284
2.2973642349243164 -2.0627548694610596 -0.05389302968978882 83.0 7 -0.061623625457286835
2.3038694858551025 -2.0693225860595703 0.8297739028930664 88.0 15 -0.06162131950259209
1.1154965162277222 -1.0043976306915283 -0.40220481157302856 0.0 0 -0.06160058453679085
2.291149616241455 -2.0636844635009766 0.05382322147488594 71.0 8 -0.0615982823073864
1.6793797016143799 -1.5131820440292358 -0.5218864679336548 1.0 1 -0.06159597635269165
2.2935726642608643 -2.067317485809326 0.16182279586791992 82.0 9 -0.0615936741232872
1.6449559926986694 -1.4826853275299072 -0.43046510219573975 1.0 2 -0.06159136816859245
2.302417516708374 -2.076018810272217 0.2712286710739136 76.0 10 -0.061589065939188004
1.6061865091323853 -1.4487566947937012 -0.3425915241241455 1.0 3 -0.061586759984493256
2.294736862182617 -2.0705454349517822 0.3795011639595032 83.0 11 -0.061584457755088806
2.3062446117401123 -2.0823898315429688 0.4921428859233856 91.0 12 -0.06157984957098961
2.286180257797241 -2.064272880554199 -0.26948556303977966 66.0 5 -0.06157754361629486
2.304842710494995 -2.0818545818328857 0.6037196516990662 82.0 13 -0.06157524138689041
2.286599636077881 -2.066101312637329 -0.16150878369808197 91.0 6 -0.06157293543219566
2.3044300079345703 -2.0829432010650635 0.7171440124511719 81.0 14 -0.061570633202791214
2.2797670364379883 -2.061373233795166 -0.0536486990749836 78.0 7 -0.061568327248096466
2.2909018993377686 -2.0721683502197266 0.8277033567428589 86.0 15 -0.06156602501869202
1.0890858173370361 -0.9875227212905884 -0.3939225971698761 0.0 0 -0.06154529005289078
2.275045156478882 -2.063608407974243 0.05361378937959671 72.0 8 -0.06154298409819603
1.6481101512908936 -1.4954637289047241 -0.5137882828712463 1.0 1 -0.06154068186879158
2.2804267406463623 -2.069941520690918 0.1614041030406952 82.0 9 -0.06153837591409683
1.6223260164260864 -1.4725841283798218 -0.42588570713996887 1.0 2 -0.06153607368469238
2.2951571941375732 -2.08404278755188 0.2712286710739136 78.0 10 -0.061533767729997635
1.6011195182800293 -1.4543546438217163 -0.3425915241241455 1.0 3 -0.061531465500593185
2.290433645248413 -2.0812129974365234 0.3799886405467987 87.0 11 -0.06152915954589844
2.2872698307037354 -2.079796075820923 0.48963993787765503 87.0 12 -0.06152455136179924
2.276012420654297 -2.0695600509643555 -0.2691369354724884 68.0 5 -0.06152224913239479
2.2975616455078125 -2.0898873805999756 0.6037196516990662 82.0 13 -0.06151994317770004
2.280850648880005 -2.0754144191741943 -0.16161344945430756 88.0 6 -0.06151764094829559
2.2827343940734863 -2.0778563022613525 0.7126449942588806 76.0 14 -0.061515334993600845
2.265164852142334 -2.062587261199951 -0.053474172949790955 84.0 7 -0.061513032764196396
2.2807981967926025 -2.0775506496429443 0.8266680836677551 88.0 15 -0.06151072680950165
1.0998979806900024 -1.0043447017669678 -0.3990989923477173 2.0 0 -0.061516523361206055
2.2678277492523193 -2.071537494659424 0.05361378937959671 69.0 8 -0.061514221131801605
1.6572660207748413 -1.5143530368804932 -0.5182872414588928 1.0 1 -0.06151191517710686
2.2702391147613525 -2.0751941204071045 0.16119475662708282 82.0 9 -0.06150961294770241
1.6026852130889893 -1.4649922847747803 -0.4220695197582245 1.0 2 -0.06150730699300766
2.270224094390869 -2.0759077072143555 0.2691369354724884 78.0 10 -0.06150500476360321
1.610608696937561 -1.4732674360275269 -0.34572020173072815 1.0 3 -0.06150269880890846
2.278761386871338 -2.0851752758026123 0.3792574405670166 80.0 11 -0.06150039657950401
1.6048352718353271 -1.46901535987854 -0.2671376168727875 1.0 4 -0.061498090624809265
2.2668840885162354 -2.075761079788208 0.4868241250514984 93.0 12 -0.061495788395404816
2.254080057144165 -2.0640368461608887 -0.2673937976360321 70.0 5 -0.06149348244071007
2.290252447128296 -2.0978946685791016 0.6037196516990662 85.0 13 -0.06149118021130562
2.2662296295166016 -2.0766167640686035 -0.16109009087085724 91.0 6 -0.06148887425661087
2.2725939750671387 -2.0831782817840576 0.7117451429367065 76.0 14 -0.06148657202720642
2.257951259613037 -2.070481538772583 -0.053474172949790955 84.0 7 -0.06148426607251167
2.26214337348938 -2.075052499771118 0.8225269913673401 88.0 15 -0.061481963843107224
1.0921193361282349 -1.0042551755905151 -0.39754605293273926 4.0 0 -0.061461228877305984
2.2458655834198 -2.0659029483795166 0.05326474457979202 71.0 8 -0.06145892292261124
1.6261577606201172 -1.496376633644104 -0.5101890563964844 1.0 1 -0.06145662069320679
2.262981653213501 -2.08310604095459 0.16119475662708282 78.0 9 -0.06145431473851204
1.6062284708023071 -1.4785555601119995 -0.4243592619895935 1.0 2 -0.06145201250910759
2.257101535797119 -2.078421115875244 0.2684396803379059 76.0 10 -0.06144970655441284
1.576398491859436 -1.452113389968872 -0.3394628167152405 1.0 3 -0.06144740432500839
2.264169692993164 -2.086390972137451 0.3780387341976166 81.0 11 -0.061445098370313644
1.5996975898742676 -1.4746084213256836 -0.2671376168727875 1.0 4 -0.061442796140909195
2.258172035217285 -2.082322359085083 0.48651123046875 91.0 12 -0.06144049018621445
2.2380733489990234 -2.063788890838623 -0.2663479447364807 66.0 5 -0.06143818795681
2.2627129554748535 -2.087240219116211 0.5983770489692688 82.0 13 -0.06143588200211525
2.2560315132141113 -2.081805944442749 -0.16088074445724487 93.0 6 -0.0614335797727108
2.265308380126953 -2.0910985469818115 0.7117451429367065 76.0 14 -0.06143127381801605
2.238957166671753 -2.067497491836548 -0.053194932639598846 81.0 7 -0.0614289715886116
2.2435336112976074 -2.072449207305908 0.8183858394622803 88.0 15 -0.061426665633916855
1.0999468564987183 -1.0185619592666626 -0.4016871750354767 6.0 0 -0.061405930668115616
2.22690486907959 -2.0628583431243896 0.05298550799489021 71.0 8 -0.061403628438711166
1.6209245920181274 -1.5020439624786377 -0.5101890563964844 1.0 1 -0.06140132248401642
2.2502012252807617 -2.0851688385009766 0.1607760637998581 78.0 9 -0.06139902025461197
1.5981776714324951 -1.481483817100525 -0.42359596490859985 1.0 2 -0.06139671429991722
2.246910572052002 -2.083577871322632 0.2680910527706146 78.0 10 -0.06139441207051277
1.5481483936309814 -1.4361125230789185 -0.3344569206237793 1.0 3 -0.061392106115818024
2.245232105255127 -2.083479404449463 0.37608882784843445 83.0 11 -0.061389803886413574
1.5945405960083008 -1.4801833629608154 -0.2671376168727875 1.0 4 -0.061387497931718826
2.2498068809509277 -2.0884552001953125 0.486198365688324 96.0 12 -0.06138519570231438
2.230855941772461 -2.0715882778167725 -0.2663479447364807 70.0 5 -0.06138288974761963
2.2410292625427246 -2.0817642211914062 0.5945608615875244 85.0 13 -0.06138058751821518
2.237046241760254 -2.078791618347168 -0.1600433737039566 91.0 6 -0.06137828156352043
2.256568193435669 -2.0976665019989014 0.7112953066825867 78.0 14 -0.06137597933411598
2.2262301445007324 -2.069464921951294 -0.05305531620979309 81.0 7 -0.06137367710471153
2.2338197231292725 -2.07724666595459 0.8173506259918213 88.0 15 -0.061371371150016785
1.0879075527191162 -1.0144902467727661 -0.3985813558101654 6.0 0 -0.061350636184215546
2.2200520038604736 -2.0702319145202637 0.05298550799489021 71.0 8 -0.0613483302295208
1.6159347295761108 -1.5074107646942139 -0.5101890563964844 1.0 1 -0.06134602800011635
2.231227159500122 -2.0821096897125244 0.15993870794773102 78.0 9 -0.0613437220454216
1.5843861103057861 -1.4790154695510864 -0.421306312084198 1.0 2 -0.06134141981601715
2.230886936187744 -2.08324933052063 0.26704519987106323 81.0 10 -0.0613391138613224
1.563590168952942 -1.460113525390625 -0.3388370871543884 1.0 3 -0.061336811631917953
2.228156328201294 -2.081427574157715 0.3743826448917389 80.0 11 -0.061334505677223206
1.5461117029190063 -1.4448024034500122 -0.2598254680633545 1.0 4 -0.061332203447818756
2.2381739616394043 -2.0922491550445557 0.4852597713470459 91.0 12 -0.06132990121841431
2.2148795127868652 -2.071197748184204 -0.26530206203460693 68.0 5 -0.06132759526371956
2.231245517730713 -2.0865020751953125 0.5937976241111755 85.0 13 -0.06132529303431511
2.2213892936706543 -2.078012228012085 -0.1594153493642807 93.0 6 -0.06132298707962036
2.2382164001464844 -2.0944859981536865 0.7076960802078247 83.0 14 -0.06132068485021591
2.2189929485321045 -2.077223300933838 -0.05305531620979309 81.0 7 -0.061318378895521164
2.220914363861084 -2.079749584197998 0.815280020236969 88.0 15 -0.061316076666116714
1.09298837184906 -1.0260252952575684 -0.4016871750354767 6.0 0 -0.06129533797502518
2.2128119468688965 -2.0779688358306885 0.05298550799489021 72.0 8 -0.06129303574562073
1.5964595079421997 -1.4996998310089111 -0.5056900382041931 1.0 1 -0.06129072979092598
2.2137575149536133 -2.0803110599517822 0.15920598804950714 76.0 9 -0.06128842756152153
1.5794727802276611 -1.4842612743377686 -0.421306312084198 1.0 2 -0.06128612160682678
2.2225146293640137 -2.089270830154419 0.2668708562850952 74.0 10 -0.06128381937742233
1.526825189590454 -1.4357914924621582 -0.3319540023803711 1.0 3 -0.06128151714801788
2.220877170562744 -2.0891926288604736 0.3743826448917389 80.0 11 -0.061279211193323135
1.5121458768844604 -1.4229822158813477 -0.2549506723880768 1.0 4 -0.061276908963918686
2.213597059249878 -2.083801031112671 0.4815053343772888 91.0 12 -0.06127460300922394
2.2079989910125732 -2.078531265258789 -0.26530206203460693 65.0 5 -0.06127230077981949
2.221090316772461 -2.0915863513946533 0.5930343866348267 87.0 13 -0.06126999482512474
2.2141218185424805 -2.0857536792755127 -0.1594153493642807 91.0 6 -0.06126769259572029
2.2252187728881836 -2.096940040588379 0.7058964967727661 83.0 14 -0.06126538664102554
2.194267511367798 -2.0684962272644043 -0.05263645574450493 81.0 7 -0.061263084411621094
2.2136411666870117 -2.087489366531372 0.815280020236969 88.0 15 -0.061260778456926346
1.0753614902496338 -1.0165634155273438 -0.3965107798576355 6.0 0 -0.06124004349112511
2.199733018875122 -2.0801842212677 0.05284588783979416 74.0 8 -0.06123773753643036
1.6195282936096191 -1.5320473909378052 -0.5146880745887756 1.0 1 -0.06123543530702591
2.2006797790527344 -2.0825347900390625 0.1587873101234436 76.0 9 -0.06123313307762146
1.5913937091827393 -1.5059586763381958 -0.42588570713996887 1.0 2 -0.06123082712292671
2.2079737186431885 -2.090167999267578 0.26599931716918945 76.0 10 -0.06122852489352226
1.547621488571167 -1.465560793876648 -0.33758559823036194 1.0 3 -0.061226218938827515
2.2034831047058105 -2.0873758792877197 0.3726764917373657 83.0 11 -0.061223916709423065
1.4956425428390503 -1.4173285961151123 -0.25300079584121704 1.0 4 -0.06122161075472832
2.2020087242126465 -2.0874381065368652 0.48056671023368835 96.0 12 -0.06121930852532387
2.1862707138061523 -2.0725185871124268 -0.263558954000473 68.0 5 -0.06121700257062912
2.213775634765625 -2.0993266105651855 0.5930343866348267 83.0 13 -0.06121470034122467
2.198133945465088 -2.085222005844116 -0.1587873101234436 93.0 6 -0.06121239438652992
2.210817813873291 -2.097987651824951 0.7036469578742981 86.0 14 -0.06121009215712547
2.1783320903778076 -2.067882537841797 -0.052427031099796295 81.0 7 -0.061207786202430725
2.1923322677612305 -2.0819008350372314 0.8101036548614502 88.0 15 -0.061205483973026276
1.07180655002594 -1.020310878753662 -0.3965107798576355 6.0 0 -0.06118474900722504
2.1808736324310303 -2.076817512512207 0.05256664752960205 72.0 8 -0.06118244305253029
1.5661969184875488 -1.491990566253662 -0.4993913471698761 1.0 1 -0.06118014082312584
2.190505266189575 -2.0874483585357666 0.15857796370983124 76.0 9 -0.06117783486843109
1.5577021837234497 -1.4844167232513428 -0.4182533621788025 1.0 2 -0.06117553263902664
2.1804745197296143 -2.07861590385437 0.263558954000473 78.0 10 -0.061173226684331894
1.528200626373291 -1.4573214054107666 -0.3344569206237793 1.0 3 -0.061170924454927444
2.1990561485290527 -2.097795248031616 0.37316393852233887 83.0 11 -0.0611686185002327
1.4763247966766357 -1.4088361263275146 -0.250563383102417 1.0 4 -0.06116631627082825
2.1918509006500244 -2.092383861541748 0.4799409806728363 96.0 12 -0.0611640103161335
2.1700143814086914 -2.0722620487213135 -0.26251310110092163 68.0 5 -0.06116170808672905
2.1922359466552734 -2.093482494354248 0.5892181992530823 83.0 13 -0.0611594021320343
2.1850650310516357 -2.0873639583587646 -0.15836863219738007 91.0 6 -0.06115709990262985
2.2006630897521973 -2.102999210357666 0.702747106552124 86.0 14 -0.061154793947935104
2.172545909881592 -2.076855421066284 -0.052461933344602585 78.0 7 -0.061152491718530655
2.1794674396514893 -2.084200143814087 0.8080331087112427 86.0 15 -0.06115018576383591
1.0680596828460693 -1.0242323875427246 -0.3965107798576355 6.0 0 -0.06112945079803467
2.162064552307129 -2.0733449459075928 0.05228740721940994 74.0 8 -0.06112714856863022
1.6284815073013306 -1.562203049659729 -0.5209866762161255 1.0 1 -0.06112484261393547
2.1803231239318848 -2.0923163890838623 0.15836863219738007 74.0 9 -0.06112254038453102
1.5409207344055176 -1.4792392253875732 -0.415200412273407 1.0 2 -0.06112023442983627
2.174278736114502 -2.0879740715026855 0.26373329758644104 74.0 10 -0.061117932200431824
1.5171507596969604 -1.4574388265609741 -0.3332054615020752 1.0 3 -0.061115626245737076
2.1774044036865234 -2.0917065143585205 0.3707265555858612 83.0 11 -0.061113324016332626
1.4971617460250854 -1.4387391805648804 -0.2549506723880768 1.0 4 -0.06111101806163788
2.1816861629486084 -2.0972840785980225 0.47931525111198425 93.0 12 -0.06110871583223343
2.1627676486968994 -2.0798239707946777 -0.26251310110092163 68.0 5 -0.06110640987753868
2.1703994274139404 -2.087892532348633 0.5854020118713379 83.0 13 -0.06110410764813423
2.1716432571411133 -2.0898187160491943 -0.15794992446899414 91.0 6 -0.061101801693439484
2.1943442821502686 -2.1124024391174316 0.7031970620155334 90.0 14 -0.061099499464035034
2.160961389541626 -2.080265998840332 -0.05235722288489342 83.0 7 -0.061097197234630585
2.1638295650482178 -2.0837550163269043 0.8049272894859314 86.0 15 -0.06109489127993584
1.07003653049469 -1.0333223342895508 -0.3985813558101654 6.0 0 -0.0610741563141346
2.1515743732452393 -2.078476905822754 0.052217599004507065 76.0 8 -0.06107185035943985
1.5722967386245728 -1.5194101333618164 -0.5047902464866638 1.0 1 -0.0610695481300354
2.158644199371338 -2.0860350131988525 0.15732190012931824 74.0 9 -0.06106724217534065
1.5470401048660278 -1.4955253601074219 -0.4182533621788025 1.0 2 -0.0610649399459362
2.162680149078369 -2.091395616531372 0.26321035623550415 78.0 10 -0.061062633991241455
1.5120540857315063 -1.4627258777618408 -0.3332054615020752 1.0 3 -0.061060331761837006
2.158311605453491 -2.0886294841766357 0.36877667903900146 87.0 11 -0.06105802580714226
1.4690583944320679 -1.4221258163452148 -0.2510508894920349 3.0 4 -0.06105572357773781
2.1686747074127197 -2.099391222000122 0.47806379199028015 93.0 12 -0.06105341762304306
2.146906852722168 -2.079044818878174 -0.26146721839904785 70.0 5 -0.06105111539363861
2.158867597579956 -2.091357946395874 0.5842571258544922 78.0 13 -0.06104881316423416
2.1528608798980713 -2.0862672328948975 -0.15711255371570587 91.0 6 -0.06104650720953941
2.1701669692993164 -2.1037726402282715 0.6977982521057129 90.0 14 -0.061044204980134964
2.156558036804199 -2.0905802249908447 -0.052427031099796295 84.0 7 -0.061041899025440216
2.1565427780151367 -2.0912954807281494 0.8049272894859314 86.0 15 -0.06103959679603577
1.0705779790878296 -1.0410916805267334 -0.40013426542282104 6.0 0 -0.06101885810494423
2.144670009613037 -2.0856006145477295 0.052217599004507065 76.0 8 -0.06101655587553978
1.556074857711792 -1.5137449502944946 -0.5011910200119019 1.0 1 -0.06101424992084503
2.1470553874969482 -2.089378595352173 0.15700788795948029 78.0 9 -0.06101194769144058
1.541810154914856 -1.5009164810180664 -0.4182533621788025 1.0 2 -0.061009641736745834
2.158221483230591 -2.1017119884490967 0.263558954000473 78.0 10 -0.061007339507341385
1.518517017364502 -1.4787571430206299 -0.3357084095478058 1.0 3 -0.06100503355264664
2.148529529571533 -2.0930047035217285 0.36828917264938354 85.0 11 -0.06100273132324219
1.4671777486801147 -1.4297603368759155 -0.25153833627700806 3.0 4 -0.06100042909383774
2.1514315605163574 -2.0972962379455566 0.4758736789226532 91.0 12 -0.06099812313914299
2.142489433288574 -2.089308261871338 -0.2618158459663391 66.0 5 -0.06099582090973854
2.156137466430664 -2.1026175022125244 0.5854020118713379 83.0 13 -0.06099351495504379
2.143071413040161 -2.0906054973602295 -0.1569032073020935 84.0 6 -0.06099121272563934
2.1548104286193848 -2.1027913093566895 0.6950988173484802 90.0 14 -0.060988906770944595
2.1349384784698486 -2.0841264724731445 -0.05207798257470131 72.0 7 -0.060986604541540146
2.1464650630950928 -2.0961110591888428 0.8038920164108276 86.0 15 -0.0609842985868454
1.0629781484603882 -1.0405818223953247 -0.3985813558101654 6.0 0 -0.06096356362104416
2.1288046836853027 -2.084679365158081 0.05200817435979843 76.0 8 -0.06096125766634941
1.5424288511276245 -1.510985255241394 -0.4984915554523468 1.0 1 -0.06095895543694496
2.134042978286743 -2.09126877784729 0.15658919513225555 70.0 9 -0.060956649482250214
1.522802472114563 -1.4922798871994019 -0.4144371747970581 1.0 2 -0.060954347252845764
2.1341664791107178 -2.09212064743042 0.26146721839904785 76.0 10 -0.060952045023441315
1.5020626783370972 -1.4729840755462646 -0.3332054615020752 1.0 3 -0.06094973906874657
2.1412103176116943 -2.100491762161255 0.36828917264938354 87.0 11 -0.06094743683934212
1.466428518295288 -1.4390442371368408 -0.25226956605911255 6.0 4 -0.06094513088464737
2.134230136871338 -2.095106601715088 0.473683625459671 93.0 12 -0.06094282865524292
2.125232458114624 -2.0870022773742676 -0.2605956792831421 72.0 5 -0.06094052270054817
2.148784637451172 -2.110131025314331 0.5854020118713379 82.0 13 -0.06093822047114372
2.13433575630188 -2.0966737270355225 -0.15679854154586792 90.0 6 -0.060935914516448975
2.1502368450164795 -2.1130318641662598 0.6959986090660095 100.0 14 -0.060933612287044525
2.124798536300659 -2.0887625217437744 -0.05200817435979843 74.0 7 -0.06093130633234978
2.1281158924102783 -2.092754364013672 0.7997508645057678 84.0 15 -0.06092900410294533
1.0481529235839844 -1.0336190462112427 -0.394440233707428 6.0 0 -0.06090826913714409
2.110124111175537 -2.080864906311035 0.05172893404960632 79.0 8 -0.06090596318244934
1.5454689264297485 -1.5245715379714966 -0.5011910200119019 1.0 1 -0.06090366095304489
2.1238865852355957 -2.0958995819091797 0.1563798487186432 73.0 9 -0.06090135499835014
1.5145283937454224 -1.495092749595642 -0.41367393732070923 1.0 2 -0.060899052768945694
2.116560697555542 -2.0901288986206055 0.26024702191352844 66.0 10 -0.060896746814250946
1.460115909576416 -1.442385196685791 -0.325070858001709 1.0 3 -0.0608944445848465
2.1310408115386963 -2.1051628589630127 0.367801696062088 88.0 11 -0.06089213863015175
1.458572268486023 -1.4413634538650513 -0.25178205966949463 4.0 4 -0.0608898364007473
2.1254990100860596 -2.1011548042297363 0.473370760679245 91.0 12 -0.06088753044605255
2.1066009998321533 -2.083200454711914 -0.25920116901397705 72.0 5 -0.0608852282166481
2.1312663555145264 -2.108327627182007 0.5827307105064392 78.0 13 -0.060882922261953354
2.120958089828491 -2.098863124847412 -0.1563798487186432 79.0 6 -0.060880620032548904
2.1217041015625 -2.1003341674804688 0.6892500519752502 87.0 14 -0.060878314077854156
2.1103885173797607 -2.08913254737854 -0.05183364450931549 70.0 7 -0.06087601184844971
2.109816789627075 -2.0892953872680664 0.7956097722053528 84.0 15 -0.06087370589375496
1.0431677103042603 -1.0359102487564087 -0.3939225971698761 6.0 0 -0.06085297092795372
2.0968081951141357 -2.0829477310180664 0.05158931389451027 81.0 8 -0.06085066869854927
1.5315771102905273 -1.5219838619232178 -0.4984915554523468 1.0 1 -0.06084836274385452
2.110891103744507 -2.0976693630218506 0.15596117079257965 70.0 9 -0.06084606051445007
1.4981614351272583 -1.4892973899841309 -0.4106209874153137 1.0 2 -0.060843754559755325
2.1078391075134277 -2.096099615097046 0.2600727379322052 68.0 10 -0.060841452330350876
1.4494704008102417 -1.4419008493423462 -0.3238193988800049 1.0 3 -0.06083914637565613
2.1064255237579346 -2.096156597137451 0.3648768663406372 78.0 11 -0.06083684414625168
1.450717806816101 -1.4436455965042114 -0.2512946128845215 3.0 4 -0.06083453819155693
2.115351676940918 -2.105774164199829 0.47274500131607056 87.0 12 -0.06083223596215248
2.097904682159424 -2.08913516998291 -0.2590268552303314 70.0 5 -0.06082993000745773
2.1155483722686768 -2.107440948486328 0.5804409980773926 81.0 13 -0.060827627778053284
2.1023011207580566 -2.094975233078003 -0.15554247796535492 79.0 6 -0.060825321823358536
2.124390125274658 -2.1169872283935547 0.6923993825912476 90.0 14 -0.060823019593954086
2.104499340057373 -2.097898244857788 -0.05186855047941208 72.0 7 -0.06082071363925934
2.0997748374938965 -2.093919277191162 0.794574499130249 84.0 15 -0.06081841140985489
1.0492905378341675 -1.0489243268966675 -0.39754605293273926 6.0 0 -0.06079767644405365
2.084233522415161 -2.084233522415161 0.051449693739414215 81.0 8 -0.0607953704893589
1.543054223060608 -1.5435928106307983 -0.5038903951644897 1.0 1 -0.06079306825995445
2.0982751846313477 -2.0990073680877686 0.15554247796535492 79.0 9 -0.060790762305259705
1.4571330547332764 -1.4581507444381714 -0.4006989300251007 1.0 2 -0.060788460075855255
2.0966525077819824 -2.098849296569824 0.2595497965812683 66.0 10 -0.06078615412116051
1.4474725723266602 -1.44949471950531 -0.32444512844085693 2.0 3 -0.06078385189175606
2.091048002243042 -2.094700813293457 0.3634144067764282 79.0 11 -0.06078154593706131
1.4403128623962402 -1.442828893661499 -0.2503196597099304 3.0 4 -0.06077924370765686
2.1083571910858154 -2.1127772331237793 0.47274500131607056 91.0 12 -0.06077693775296211
2.0867438316345215 -2.0918490886688232 -0.25850391387939453 72.0 5 -0.06077463552355766
2.1030032634735107 -2.108883857727051 0.5789145231246948 77.0 13 -0.060772329568862915
2.088292121887207 -2.094862699508667 -0.1550191193819046 82.0 6 -0.060770027339458466
2.1104791164398193 -2.117119789123535 0.6901498436927795 100.0 14 -0.060767725110054016
2.0918848514556885 -2.0991997718811035 -0.05172893404960632 75.0 7 -0.06076541915535927
2.0928194522857666 -2.1008708477020264 0.794574499130249 82.0 15 -0.06076311692595482
1.0526151657104492 -1.059249758720398 -0.40013426542282104 6.0 0 -0.06074237823486328
2.0801289081573486 -2.093970775604248 0.05151950567960739 79.0 8 -0.06074007600545883
1.4802546501159668 -1.490625023841858 -0.484994500875473 1.0 1 -0.060737770050764084
2.079678773880005 -2.0949795246124268 0.15470509231090546 79.0 9 -0.060735467821359634
1.4409711360931396 -1.4520797729492188 -0.3976459801197052 1.0 2 -0.060733161866664886
2.08547043800354 -2.1015474796295166 0.2590268552303314 70.0 10 -0.06073085963726044
1.437092900276184 -1.4486771821975708 -0.32319363951683044 2.0 3 -0.06072855368256569
2.0784995555877686 -2.0959854125976562 0.36243945360183716 82.0 11 -0.06072625145316124
1.4338701963424683 -1.4464378356933594 -0.25007590651512146 1.0 4 -0.06072394549846649
2.085674285888672 -2.104689836502075 0.4693034589290619 93.0 12 -0.06072164326906204
2.0794291496276855 -2.0991203784942627 -0.25850391387939453 75.0 5 -0.06071934103965759
2.0928661823272705 -2.113422155380249 0.578151285648346 81.0 13 -0.060717035084962845
2.0753467082977295 -2.0964620113372803 -0.15460044145584106 82.0 6 -0.060714732855558395
2.0756566524505615 -2.0967752933502197 0.681151807308197 85.0 14 -0.06071242690086365
2.071885347366333 -2.093696355819702 -0.05141478776931763 77.0 7 -0.0607101246714592
2.0800390243530273 -2.1026697158813477 0.7925038933753967 78.0 15 -0.06070781871676445
1.028375267982483 -1.042471170425415 -0.39236968755722046 6.0 0 -0.06068708375096321
2.066824197769165 -2.0958855152130127 0.05137988552451134 86.0 8 -0.06068477779626846
1.4747813940048218 -1.4960405826568604 -0.484994500875473 2.0 1 -0.060682475566864014
2.0691823959350586 -2.0997426509857178 0.15449576079845428 79.0 9 -0.060680169612169266
1.4507949352264404 -1.4727362394332886 -0.401843786239624 2.0 2 -0.060677867382764816
2.069364547729492 -2.100660800933838 0.25798097252845764 70.0 10 -0.06067556515336037
1.434545874595642 -1.4567499160766602 -0.3238193988800049 2.0 3 -0.06067325919866562
2.070803165435791 -2.1035897731781006 0.36243945360183716 79.0 11 -0.06067095696926117
2.0592973232269287 -2.0926315784454346 -0.36048954725265503 64.0 4 -0.06066865101456642
2.068249225616455 -2.1024622917175293 0.46711334586143494 82.0 12 -0.06066634878516197
2.0549581050872803 -2.0896806716918945 -0.25641217827796936 77.0 5 -0.060664042830467224
2.0823535919189453 -2.118278741836548 0.5773880481719971 81.0 13 -0.060661740601062775
2.0648486614227295 -2.101205348968506 -0.1543910801410675 84.0 6 -0.06065943464636803
2.0802507400512695 -2.1168785095214844 0.6852009892463684 90.0 14 -0.06065713241696358
2.0543882846832275 -2.0912904739379883 -0.051170457154512405 84.0 7 -0.06065482646226883
2.064196825027466 -2.1020092964172363 0.7893981337547302 82.0 15 -0.06065252423286438
1.02725088596344 -1.0489940643310547 -0.3934049606323242 6.0 0 -0.06063178554177284
2.050734758377075 -2.0948729515075684 0.051170457154512405 84.0 8 -0.06062948331236839
1.4638361930847168 -1.4958645105361938 -0.48319488763809204 2.0 1 -0.060627181082963943
2.06044340133667 -2.105525255203247 0.1543910801410675 81.0 9 -0.060624875128269196
1.43603515625 -1.4679675102233887 -0.39917242527008057 1.0 2 -0.060622572898864746
2.0546865463256836 -2.101109266281128 0.2571094334125519 76.0 10 -0.06062026694417
1.4430056810379028 -1.4761234521865845 -0.3269480764865875 1.0 3 -0.06061796471476555
2.0575296878814697 -2.1054861545562744 0.3614645004272461 79.0 11 -0.0606156587600708
2.0505924224853516 -2.0983872413635254 -0.36024579405784607 60.0 4 -0.06061335653066635
2.0567567348480225 -2.1054301261901855 0.46617478132247925 76.0 12 -0.0606110505759716
2.0420830249786377 -2.091139554977417 -0.25571495294570923 77.0 5 -0.060608748346567154
2.0722036361694336 -2.1227245330810547 0.5766248106956482 81.0 13 -0.060606442391872406
2.0575015544891357 -2.1084001064300537 -0.1543910801410675 84.0 6 -0.06060414016246796
2.068765640258789 -2.1199429035186768 0.6838512420654297 95.0 14 -0.06060183420777321
2.041490077972412 -2.0927231311798096 -0.05103083327412605 84.0 7 -0.06059953197836876
2.0433595180511475 -2.0953710079193115 0.7842217683792114 84.0 15 -0.06059722602367401
1.029154896736145 -1.0579335689544678 -0.3954755365848541 6.0 0 -0.06057649105787277
2.032623767852783 -2.090193033218384 0.0508912168443203 86.0 8 -0.06057418882846832
1.464301347732544 -1.5062998533248901 -0.484994500875473 2.0 1 -0.060571882873773575
2.052057981491089 -2.1109142303466797 0.15428641438484192 79.0 9 -0.060569580644369125
1.4311591386795044 -1.4727214574813843 -0.39917242527008057 1.0 2 -0.06056727468967438
2.0463192462921143 -2.1064820289611816 0.25693511962890625 72.0 10 -0.06056497246026993
2.0229766368865967 -2.0831806659698486 -0.4599173665046692 60.0 3 -0.06056266650557518
2.0422401428222656 -2.1037516593933105 0.3600020706653595 82.0 11 -0.06056036427617073
2.0394747257232666 -2.100902795791626 -0.35951459407806396 75.0 4 -0.06055805832147598
2.0538902282714844 -2.1164917945861816 0.46711334586143494 78.0 12 -0.06055575609207153
2.037911891937256 -2.100759744644165 -0.2560635805130005 77.0 5 -0.060553450137376785
2.050119161605835 -2.114081382751465 0.5724270343780518 83.0 13 -0.060551147907972336
2.0421576499938965 -2.106607437133789 -0.1537630558013916 84.0 6 -0.06054884195327759
2.0481603145599365 -2.1127994060516357 0.6793522238731384 83.0 14 -0.06054653972387314
2.034539222717285 -2.0994815826416016 -0.05103083327412605 84.0 7 -0.06054423376917839
