# .PCD v0.7 - Point Cloud Data file format
VERSION 0.7
FIELDS x y z intensity ring time
SIZE 4 4 4 4 4 4
TYPE F F F F F F
COUNT 1 1 1 1 1 1
WIDTH 536
HEIGHT 1
VIEWPOINT 0 0 0 1 0 0 0
POINTS 536
DATA ascii
-0.1070430725812912 1.8286856412887573 -0.4229080080986023 90.0 1 -0.025194907560944557
-0.10632357001304626 1.8163938522338867 0.09535612165927887 100.0 9 -0.02519260346889496
-0.10648849606513977 1.8246852159500122 -0.3552863597869873 97.0 2 -0.02519029937684536
-0.39198437333106995 6.7368292808532715 0.5903929471969604 87.0 10 -0.02518799528479576
-0.10684926062822342 1.8419053554534912 -0.2922196090221405 100.0 3 -0.025185691192746162
-0.38808801770210266 6.710309982299805 0.8252992630004883 97.0 11 -0.025183387100696564
-0.10512891411781311 1.823256492614746 -0.22423960268497467 92.0 4 -0.025181084871292114
-0.3871869444847107 6.715004920959473 1.0653188228607178 88.0 12 -0.025178780779242516
-0.10565337538719177 1.8379336595535278 -0.1610638052225113 100.0 5 -0.025176476687192917
-0.38427549600601196 6.705291271209717 1.3055152893066406 100.0 13 -0.025174172595143318
-0.10788882523775101 1.8883247375488281 -0.09912431240081787 23.0 6 -0.02517186850309372
-0.3808876872062683 6.686981201171875 1.5463136434555054 100.0 14 -0.02516956441104412
-0.10530240833759308 1.8487215042114258 -0.032321859151124954 29.0 7 -0.025167260318994522
-0.37982186675071716 6.688886642456055 1.7951689958572388 63.0 15 -0.025164956226944923
-0.10170198231935501 1.8363085985183716 -0.49279147386550903 90.0 0 -0.025144219398498535
-0.101292684674263 1.8289183378219604 0.03197281062602997 27.0 8 -0.025141915306448936
-0.10119267553091049 1.8329219818115234 -0.4238077998161316 89.0 1 -0.025139611214399338
-0.10042103379964828 1.8247307538986206 0.095774807035923 100.0 9 -0.02513730712234974
-0.09968873858451843 1.8172045946121216 -0.35375988483428955 97.0 2 -0.02513500303030014
-0.3687906265258789 6.744124412536621 0.5909159183502197 63.0 10 -0.02513270080089569
-0.10084804892539978 1.844222068786621 -0.2925325036048889 100.0 3 -0.025130396708846092
-0.36626723408699036 6.719488143920898 0.8262742161750793 93.0 11 -0.025128092616796494
-0.09972788393497467 1.8354883193969727 -0.22570204734802246 92.0 4 -0.025125788524746895
-0.36352941393852234 6.712369918823242 1.0646930932998657 85.0 12 -0.025123484432697296
-0.09880705177783966 1.8303332328796387 -0.16036656498908997 100.0 5 -0.025121180340647697
-0.3628857731819153 6.7222113609313965 1.3085681200027466 100.0 13 -0.0251188762485981
-0.10012341290712357 1.8607510328292847 -0.0976589024066925 18.0 6 -0.0251165721565485
-0.3593350946903229 6.699882984161377 1.5490130186080933 100.0 14 -0.0251142680644989
-0.09820754081010818 1.8370966911315918 -0.032112427055835724 27.0 7 -0.025111963972449303
-0.3562667965888977 6.686313152313232 1.7941336631774902 63.0 15 -0.025109659880399704
-0.09541063010692596 1.8327773809432983 -0.4917562007904053 90.0 0 -0.025088923051953316
-0.09470023214817047 1.825266718864441 0.03190299868583679 28.0 8 -0.025086620822548866
-0.09479348361492157 1.8332642316818237 -0.4238077998161316 89.0 1 -0.025084316730499268
-0.09457522630691528 1.8290431499481201 0.09598415344953537 100.0 9 -0.02508201263844967
-0.0944707915186882 1.8332103490829468 -0.35681283473968506 100.0 2 -0.02507970854640007
-0.3455059230327606 6.727402687072754 0.5893471240997314 66.0 10 -0.02507740445435047
-0.0940055176615715 1.8366717100143433 -0.2912810146808624 100.0 3 -0.025075100362300873
-0.3432154953479767 6.728655815124512 0.8272491693496704 97.0 11 -0.025072796270251274
-0.0938432514667511 1.8397738933563232 -0.226189523935318 88.0 4 -0.025070492178201675
-0.3416708707809448 6.72143030166626 1.0659445524215698 88.0 12 -0.025068188086152077
-0.09243400394916534 1.8246815204620361 -0.15984363853931427 100.0 5 -0.025065883994102478
-0.33882617950439453 6.711672306060791 1.3062784671783447 100.0 13 -0.02506357990205288
-0.09412971138954163 1.8710627555847168 -0.09818226099014282 16.0 6 -0.02506127581000328
-0.3377043306827545 6.712715148925781 1.5517125129699707 100.0 14 -0.025058971717953682
-0.09291546791791916 1.853389859199524 -0.03239166736602783 30.0 7 -0.025056667625904083
-0.3340935707092285 6.687458038330078 1.7941336631774902 63.0 15 -0.025054363533854485
-0.08933189511299133 1.8330836296081543 -0.4917562007904053 89.0 0 -0.025033628568053246
-0.08835544437170029 1.8195786476135254 0.031798284500837326 26.0 8 -0.025031324476003647
-0.08890324085950851 1.8374613523483276 -0.4247076213359833 90.0 1 -0.025029020383954048
-0.08870366215705872 1.8333364725112915 0.09619349241256714 100.0 9 -0.02502671629190445
-0.08848515897989273 1.8354744911193848 -0.3571944534778595 99.0 2 -0.02502441219985485
-0.32453155517578125 6.756372928619385 0.5917875170707703 48.0 10 -0.025022108107805252
-0.08772674947977066 1.8330268859863281 -0.290655255317688 100.0 3 -0.025019804015755653
-0.3207096457481384 6.7257914543151855 0.8267617225646973 97.0 11 -0.025017499923706055
-0.0881195142865181 1.8480063676834106 -0.22716447710990906 92.0 4 -0.025015195831656456
-0.3199405372142792 6.734364986419678 1.067821741104126 85.0 12 -0.025012891739606857
-0.08647719770669937 1.8269680738449097 -0.1600179374217987 100.0 5 -0.02501058764755726
-0.3163807988166809 6.708837509155273 1.3055152893066406 100.0 13 -0.02500828355550766
-0.08792401105165482 1.871364712715149 -0.09818226099014282 19.0 6 -0.02500597946345806
-0.31571483612060547 6.719638824462891 1.5530622005462646 100.0 14 -0.025003675371408463
-0.08676926046609879 1.8536877632141113 -0.03239166736602783 29.0 7 -0.025001371279358864
-0.31209346652030945 6.692388534545898 1.7951689958572388 63.0 15 -0.024999067187309265
-0.08360359072685242 1.8410893678665161 -0.4938267767429352 90.0 0 -0.024978332221508026
-0.08286356925964355 1.8318476676940918 0.03200771287083626 25.0 8 -0.024976028129458427
-0.0822826623916626 1.8260654211044312 -0.4220081865787506 90.0 1 -0.02497372403740883
-0.08158664405345917 1.8176729679107666 0.09535612165927887 100.0 9 -0.02497141994535923
-0.08213428407907486 1.8298739194869995 -0.3560495972633362 97.0 2 -0.02496911585330963
-0.30159223079681396 6.745469570159912 0.5907416343688965 46.0 10 -0.024966811761260033
-0.08199877291917801 1.8412015438079834 -0.2919067442417145 100.0 3 -0.024964507669210434
-0.2980538010597229 6.71888542175293 0.8257867693901062 99.0 11 -0.024962203577160835
-0.08079234510660172 1.828471064567566 -0.2247270941734314 92.0 4 -0.024959899485111237
-0.2966063916683197 6.7393879890441895 1.0684475898742676 88.0 12 -0.024957595393061638
-0.0803615152835846 1.8332303762435913 -0.1605408787727356 100.0 5 -0.02495529130101204
-0.29413309693336487 6.709849834442139 1.3055152893066406 100.0 13 -0.02495298720896244
-0.08224096149206161 1.8836182355880737 -0.09881030023097992 22.0 6 -0.024950683116912842
-0.2919197678565979 6.712912082672119 1.551262617111206 100.0 14 -0.024948380887508392
-0.08038506656885147 1.8559770584106445 -0.03242656961083412 28.0 7 -0.024946076795458794
-0.2888987064361572 6.6972975730896 1.7962043285369873 63.0 15 -0.024943772703409195
-0.07701662182807922 1.8452436923980713 -0.49486202001571655 89.0 0 -0.024923035874962807
-0.07655249536037445 1.8341237306594849 0.032042618840932846 22.0 8 -0.024920731782913208
-0.07606936991214752 1.8302357196807861 -0.4229080080986023 90.0 1 -0.02491842769086361
-0.07540597766637802 1.8219376802444458 0.09556546807289124 82.0 9 -0.02491612359881401
-0.07526562362909317 1.8262395858764648 -0.3552863597869873 97.0 2 -0.024913819506764412
-0.2769467830657959 6.7485198974609375 0.5909159183502197 82.0 10 -0.024911515414714813
-0.07541071623563766 1.8454371690750122 -0.2925325036048889 100.0 3 -0.024909211322665215
-0.27508318424224854 6.731785297393799 0.8272491693496704 93.0 11 -0.024906907230615616
-0.07440967857837677 1.8287419080734253 -0.2247270941734314 90.0 4 -0.024904603138566017
-0.27259811758995056 6.72853946685791 1.0665702819824219 88.0 12 -0.02490229904651642
-0.0742022842168808 1.8394718170166016 -0.1610638052225113 100.0 5 -0.02489999681711197
-0.2700124979019165 6.722652435302734 1.307804822921753 100.0 13 -0.02489769272506237
-0.07565534114837646 1.8918895721435547 -0.09922898560762405 28.0 6 -0.02489538863301277
-0.26731202006340027 6.713936805725098 1.551262617111206 100.0 14 -0.024893084540963173
-0.07382596284151077 1.854248285293579 -0.03239166736602783 30.0 7 -0.024890780448913574
-0.2658264935016632 6.705986499786377 1.7982748746871948 63.0 15 -0.024888476356863976
-0.07042691856622696 1.8416404724121094 -0.4938267767429352 89.0 0 -0.024867739528417587
-0.06967698037624359 1.8303955793380737 0.03197281062602997 21.0 8 -0.02486543543636799
-0.06965626776218414 1.8382916450500488 -0.4247076213359833 90.0 1 -0.02486313134431839
-0.06887868791818619 1.8261934518814087 0.095774807035923 73.0 9 -0.02486082725226879
-0.0689639151096344 1.8284530639648438 -0.35566797852516174 99.0 2 -0.024858523160219193
-0.2530907988548279 6.741481781005859 0.5902186632156372 88.0 10 -0.024856219068169594
-0.06896886974573135 1.8456891775131226 -0.2925325036048889 100.0 3 -0.024853916838765144
-0.2504096031188965 6.732748508453369 0.8272491693496704 99.0 11 -0.024851612746715546
-0.06785290688276291 1.8329699039459229 -0.22521455585956573 92.0 4 -0.024849308654665947
-0.24808190762996674 6.7334418296813965 1.0671961307525635 88.0 12 -0.02484700456261635
-0.0672677680850029 1.8257825374603271 -0.15984363853931427 100.0 5 -0.02484470047056675
-0.24697427451610565 6.735325813293457 1.3100945949554443 100.0 13 -0.02484239637851715
-0.068759985268116 1.8841583728790283 -0.09881030023097992 24.0 6 -0.024840092286467552
-0.24401724338531494 6.718723773956299 1.5521622896194458 100.0 14 -0.024837788194417953
-0.06674079596996307 1.8465129137039185 -0.03225204721093178 27.0 7 -0.024835484102368355
-0.24110223352909088 6.703054428100586 1.7972395420074463 63.0 15 -0.024833180010318756
-0.06373000890016556 1.8341522216796875 -0.4917562007904053 89.0 0 -0.024812443181872368
-0.06314948946237564 1.8266304731369019 0.03190299868583679 20.0 8 -0.02481013908982277
-0.06337250024080276 1.8424186706542969 -0.4256074130535126 92.0 1 -0.02480783686041832
-0.06263979524374008 1.83041512966156 0.09598415344953537 68.0 9 -0.02480553276836872
-0.06258051097393036 1.8286826610565186 -0.35566797852516174 99.0 2 -0.024803228676319122
-0.22969411313533783 6.746306896209717 0.5905672907829285 90.0 10 -0.024800924584269524
-0.062257811427116394 1.8380217552185059 -0.2912810146808624 100.0 3 -0.024798620492219925
-0.22703833878040314 6.737549304962158 0.8277366757392883 99.0 11 -0.024796316400170326
-0.06172065809369087 1.8411314487457275 -0.226189523935318 96.0 4 -0.024794012308120728
-0.2249695509672165 6.74611234664917 1.06907320022583 88.0 12 -0.02479170821607113
-0.060760896652936935 1.822023630142212 -0.15949499607086182 100.0 5 -0.02478940412402153
-0.22319993376731873 6.728298187255859 1.3085681200027466 100.0 13 -0.02478710003197193
-0.06211715564131737 1.8823907375335693 -0.09870561957359314 22.0 6 -0.024784795939922333
-0.2209448218345642 6.731220722198486 1.5548617839813232 100.0 14 -0.024782491847872734
-0.06042487174272537 1.8507318496704102 -0.032321859151124954 27.0 7 -0.024780187755823135
-0.21745651960372925 6.696131706237793 1.7951689958572388 63.0 15 -0.024777883663773537
-0.05744743347167969 1.8382253646850586 -0.49279147386550903 89.0 0 -0.024757148697972298
-0.05639979615807533 1.8148473501205444 0.03169357031583786 21.0 8 -0.0247548446059227
-0.05688194930553436 1.8406808376312256 -0.4251575171947479 90.0 1 -0.0247525405138731
-0.05675588920712471 1.8366014957427979 0.09629816561937332 60.0 9 -0.0247502364218235
-0.05631781369447708 1.8328144550323486 -0.3564312160015106 99.0 2 -0.024747932329773903
-0.20644612610340118 6.757024765014648 0.5914388298988342 87.0 10 -0.024745628237724304
-0.0558428019285202 1.8382277488708496 -0.2912810146808624 100.0 3 -0.024743324145674706
-0.20346002280712128 6.736317157745361 0.8274929523468018 100.0 11 -0.024741020053625107
-0.05541221424937248 1.845304250717163 -0.22667700052261353 92.0 4 -0.024738715961575508
-0.20259873569011688 6.74682092666626 1.06907320022583 88.0 12 -0.02473641186952591
-0.05445944517850876 1.8242162466049194 -0.15966932475566864 100.0 5 -0.02473410777747631
-0.19948087632656097 6.721187114715576 1.3070416450500488 100.0 13 -0.024731803685426712
-0.05507428199052811 1.8666250705718994 -0.09786824882030487 23.0 6 -0.024729499593377113
-0.19773100316524506 6.7416911125183105 1.5571112632751465 100.0 14 -0.024727195501327515
-0.05422816053032875 1.8489234447479248 -0.032286953181028366 24.0 7 -0.024724891409277916
-0.19558611512184143 6.708402633666992 1.7982748746871948 63.0 15 -0.024722587317228317
-0.05113719776272774 1.842276930809021 -0.4938267767429352 90.0 0 -0.024701852351427078
-0.05065815895795822 1.8250190019607544 0.031868092715740204 20.0 8 -0.02469954825937748
-0.05056227743625641 1.8330672979354858 -0.42335790395736694 89.0 1 -0.02469724416732788
-0.05023467540740967 1.83279550075531 0.09608882665634155 52.0 9 -0.024694940075278282
-0.049972716718912125 1.8349626064300537 -0.35681283473968506 97.0 2 -0.024692635983228683
-0.1830754429101944 6.765670299530029 0.5921360850334167 87.0 10 -0.024690331891179085
-0.049746204167604446 1.8384028673171997 -0.2912810146808624 100.0 3 -0.024688027799129486
-0.18106845021247864 6.734969615936279 0.8272491693496704 95.0 11 -0.024685723707079887
-0.04918614402413368 1.8415089845657349 -0.226189523935318 90.0 4 -0.02468341961503029
-0.17936252057552338 6.759335517883301 1.0709505081176758 88.0 12 -0.02468111552298069
-0.048092663288116455 1.8243951797485352 -0.15966932475566864 100.0 5 -0.02467881143093109
-0.17739981412887573 6.729661464691162 1.3085681200027466 100.0 13 -0.024676507338881493
-0.0491449199616909 1.8767802715301514 -0.09839160740375519 27.0 6 -0.024674203246831894
-0.17507418990135193 6.730620861053467 1.5544118881225586 100.0 14 -0.024671899154782295
-0.0476718507707119 1.8451032638549805 -0.03221714124083519 23.0 7 -0.024669595062732697
-0.17236466705799103 6.716769218444824 1.8003453016281128 63.0 15 -0.024667292833328247
-0.045216869562864304 1.8501615524291992 -0.4958973228931427 90.0 0 -0.02464655600488186
-0.04453114792704582 1.835180401802063 0.032042618840932846 18.0 8 -0.02464425191283226
-0.04435060918331146 1.8410253524780273 -0.4251575171947479 90.0 1 -0.02464194782078266
-0.0436452217400074 1.8249728679656982 0.09567013382911682 46.0 9 -0.024639643728733063
-0.043840911239385605 1.8331553936004639 -0.3564312160015106 99.0 2 -0.024637339636683464
-0.1607346087694168 6.770224094390869 0.592484712600708 87.0 10 -0.024635035544633865
-0.043514348566532135 1.8464646339416504 -0.2925325036048889 100.0 3 -0.024632731452584267
-0.15788108110427856 6.749453067779541 0.828955352306366 96.0 11 -0.024630427360534668
-0.04248258098959923 1.8297621011734009 -0.2247270941734314 92.0 4 -0.02462812326848507
-0.1554010957479477 6.74412202835083 1.0684475898742676 85.0 12 -0.02462581917643547
-0.04204240441322327 1.838494896888733 -0.16088949143886566 100.0 5 -0.024623515084385872
-0.1539958119392395 6.734165668487549 1.3093314170837402 100.0 13 -0.024621212854981422
-0.04241346940398216 1.8689534664154053 -0.09797292202711105 24.0 6 -0.024618908762931824
-0.15144546329975128 6.725346565246582 1.5530622005462646 100.0 14 -0.024616604670882225
-0.04109644517302513 1.8392606973648071 -0.032112427055835724 21.0 7 -0.024614300578832626
-0.14892233908176422 6.717329502105713 1.8003453016281128 63.0 15 -0.024611996486783028
-0.03827531263232231 1.842589020729065 -0.4938267767429352 89.0 0 -0.02459125965833664
-0.03808287903666496 1.8333252668380737 0.03200771287083626 18.0 8 -0.02458895556628704
-0.0380839966237545 1.8489623069763184 -0.4269571304321289 90.0 1 -0.024586651474237442
-0.03751968964934349 1.8370951414108276 0.09629816561937332 36.0 9 -0.024584347382187843
-0.037042681127786636 1.8293782472610474 -0.35566797852516174 99.0 2 -0.024582043290138245
-0.1357944905757904 6.764791965484619 0.5919618010520935 90.0 10 -0.024579739198088646
-0.03678613528609276 1.8485867977142334 -0.29284536838531494 100.0 3 -0.024577435106039047
-0.13444003462791443 6.755916595458984 0.8296865224838257 92.0 11 -0.024575132876634598
-0.036329664289951324 1.84180748462677 -0.226189523935318 92.0 4 -0.024572828784585
-0.13201141357421875 6.752522945404053 1.0696990489959717 88.0 12 -0.0245705246925354
-0.035316213965415955 1.8226944208145142 -0.15949499607086182 100.0 5 -0.0245682206004858
-0.129389688372612 6.73861026763916 1.3100945949554443 100.0 13 -0.024565916508436203
-0.035789720714092255 1.8810776472091675 -0.09860094636678696 24.0 6 -0.024563612416386604
-0.12690649926662445 6.731700897216797 1.5544118881225586 100.0 14 -0.024561308324337006
-0.034638673067092896 1.8373936414718628 -0.032077521085739136 21.0 7 -0.024559004232287407
-0.1253274828195572 6.710082530975342 1.7982748746871948 63.0 15 -0.024556700140237808
-0.03171011433005333 1.8349850177764893 -0.4917562007904053 90.0 0 -0.02453596331179142
-0.031363558024168015 1.833452582359314 0.03200771287083626 18.0 8 -0.02453365921974182
-0.0313403494656086 1.8510379791259766 -0.42740702629089355 94.0 1 -0.024531355127692223
-0.031072501093149185 1.835218071937561 0.09619349241256714 24.0 9 -0.024529051035642624
-0.030722033232450485 1.8334221839904785 -0.3564312160015106 99.0 2 -0.024526748806238174
-0.11211872100830078 6.761240482330322 0.5916131734848022 90.0 10 -0.024524444714188576
-0.030235422775149345 1.8427784442901611 -0.2919067442417145 100.0 3 -0.024522140622138977
-0.10974016785621643 6.760334014892578 0.8301740288734436 90.0 11 -0.02451983653008938
-0.02996428683400154 1.8458927869796753 -0.22667700052261353 88.0 4 -0.02451753243803978
-0.10822252929210663 6.73911714553833 1.0675089359283447 86.0 12 -0.02451522834599018
-0.029111335054039955 1.832767128944397 -0.16036656498908997 100.0 5 -0.024512924253940582
-0.10592664778232574 6.742947101593018 1.310857892036438 100.0 13 -0.024510620161890984
-0.029410753399133682 1.893173336982727 -0.09922898560762405 27.0 6 -0.024508316069841385
-0.1048867329955101 6.751570224761963 1.558910846710205 100.0 14 -0.024506011977791786
-0.028254985809326172 1.8395028114318848 -0.032112427055835724 20.0 7 -0.024503707885742188
-0.10190237313508987 6.710479736328125 1.7982748746871948 63.0 15 -0.02450140379369259
-0.02578623965382576 1.846670150756836 -0.49486202001571655 89.0 0 -0.02448066882789135
-0.0251726433634758 1.8255484104156494 0.031868092715740204 19.0 8 -0.02447836473584175
-0.02501658722758293 1.8374916315078735 -0.42425769567489624 90.0 1 -0.024476060643792152
-0.025068465620279312 1.8413021564483643 0.09650751203298569 21.0 9 -0.024473756551742554
-0.024721534922719002 1.8394032716751099 -0.35757607221603394 97.0 2 -0.024471452459692955
-0.08977442979812622 6.767551422119141 0.5921360850334167 85.0 10 -0.024469148367643356
-0.024098897352814674 1.8408935070037842 -0.29159387946128845 100.0 3 -0.024466844275593758
-0.08722029626369476 6.752721309661865 0.8291990756988525 92.0 11 -0.02446454018354416
-0.023945841938257217 1.85392165184021 -0.2276519387960434 88.0 4 -0.02446223609149456
-0.08602336049079895 6.7512898445129395 1.0693861246109009 86.0 12 -0.02445993199944496
-0.023083942010998726 1.8368381261825562 -0.16071519255638123 100.0 5 -0.024457627907395363
-0.08346647024154663 6.735409259796143 1.3093314170837402 100.0 13 -0.024455323815345764
-0.022961271926760674 1.8792805671691895 -0.09849628061056137 25.0 6 -0.024453019723296165
-0.08244765549898148 6.747983455657959 1.5580110549926758 100.0 14 -0.024450715631246567
-0.022179270163178444 1.8415859937667847 -0.03214733302593231 19.0 7 -0.024448411539196968
-0.07973890751600266 6.718506813049316 1.8003453016281128 63.0 15 -0.02444610744714737
-0.019662687554955482 1.846745491027832 -0.49486202001571655 87.0 0 -0.02442537248134613
-0.01916101574897766 1.8296209573745728 0.03193790465593338 18.0 8 -0.02442306838929653
-0.018882466480135918 1.8336673974990845 -0.42335790395736694 92.0 1 -0.024420764297246933
-0.018702011555433273 1.8473700284957886 0.09682153165340424 11.0 9 -0.024418460205197334
-0.01866183616220951 1.8434014320373535 -0.3583393096923828 94.0 2 -0.024416156113147736
-0.06745220720767975 6.779766082763672 0.5931819677352905 87.0 10 -0.024413852021098137
-0.01810946874320507 1.8528149127960205 -0.293471097946167 100.0 3 -0.024411547929048538
-0.06479021906852722 6.749002933502197 0.8287115693092346 95.0 11 -0.02440924383699894
-0.01734372414648533 1.8400989770889282 -0.22594578564167023 90.0 4 -0.02440693974494934
-0.06245464086532593 6.751549243927002 1.0693861246109009 87.0 12 -0.024404635652899742
-0.01712113991379738 1.8508507013320923 -0.16193535923957825 100.0 5 -0.024402331560850143
-0.061170775443315506 6.739574909210205 1.3100945949554443 100.0 13 -0.024400027468800545
-0.016729602590203285 1.8793463706970215 -0.09849628061056137 25.0 6 -0.024397723376750946
-0.0588734932243824 6.746281623840332 1.5575611591339111 100.0 14 -0.024395419284701347
-0.015836698934435844 1.851650357246399 -0.032321859151124954 21.0 7 -0.02439311519265175
-0.05632023885846138 6.7226080894470215 1.8013806343078613 63.0 15 -0.02439081110060215
-0.01324338000267744 1.8506665229797363 -0.4958973228931427 90.0 0 -0.02437007613480091
-0.012843643315136433 1.839674949645996 0.032112427055835724 16.0 8 -0.024367772042751312
-0.012535101734101772 1.8415168523788452 -0.4251575171947479 92.0 1 -0.024365467950701714
-0.01210716925561428 1.825454592704773 0.09567013382911682 5.0 9 -0.024363163858652115
-0.012161453254520893 1.8336392641067505 -0.3564312160015106 99.0 2 -0.024360859766602516
-0.043809924274683 6.783944606781006 0.5935305953025818 85.0 10 -0.024358555674552917
-0.011592571623623371 1.8449655771255493 -0.2922196090221405 100.0 3 -0.02435625158250332
-0.04129024222493172 6.759113788604736 0.829930305480957 96.0 11 -0.02435394749045372
-0.010896425694227219 1.836178183555603 -0.2254583090543747 88.0 4 -0.02435164339840412
-0.03886561840772629 6.747775554656982 1.0687603950500488 87.0 12 -0.024349339306354523
-0.010591896250844002 1.8389450311660767 -0.16088949143886566 100.0 5 -0.024347035214304924
-0.037686966359615326 6.747600078582764 1.3116211891174316 100.0 13 -0.024344731122255325
-0.010212082415819168 1.8873822689056396 -0.0989149659872055 22.0 6 -0.024342428892850876
-0.035315435379743576 6.744497299194336 1.5571112632751465 100.0 14 -0.024340124800801277
-0.009301790967583656 1.8376965522766113 -0.032077521085739136 15.0 7 -0.02433782070875168
-0.032911673188209534 6.7343549728393555 1.8044863939285278 63.0 15 -0.02433551661670208
-0.0067544542253017426 1.8429741859436035 -0.4938267767429352 89.0 0 -0.02431477978825569
-0.006422288250178099 1.8397085666656494 0.032112427055835724 13.0 8 -0.024312475696206093
-0.006133170798420906 1.8493443727493286 -0.4269571304321289 90.0 1 -0.024310171604156494
-0.005784777458757162 1.8414638042449951 0.09650751203298569 1.0 9 -0.024307867512106895
-0.005754128098487854 1.831707239151001 -0.3560495972633362 94.0 2 -0.024305563420057297
-0.020101139321923256 6.774094104766846 0.592659056186676 93.0 10 -0.024303259328007698
-0.005180342122912407 1.8548717498779297 -0.293783962726593 100.0 3 -0.0243009552359581
-0.017720462754368782 6.769142150878906 0.8311489820480347 92.0 11 -0.0242986511439085
-0.004516393877565861 1.8481155633926392 -0.2269207388162613 84.0 4 -0.024296347051858902
-0.015309453010559082 6.747869968414307 1.0687603950500488 84.0 12 -0.024294044822454453
-0.004163185600191355 1.8349862098693848 -0.1605408787727356 100.0 5 -0.024291740730404854
-0.01415608637034893 6.759469985961914 1.313910722732544 100.0 13 -0.024289436638355255
-0.003620388451963663 1.8854092359542847 -0.09881030023097992 19.0 6 -0.024287132546305656
-0.011777535080909729 6.748476505279541 1.5580110549926758 100.0 14 -0.024284828454256058
-0.002911614254117012 1.8537155389785767 -0.032356761395931244 21.0 7 -0.02428252436220646
-0.009400210343301296 6.730565071105957 1.8034511804580688 63.0 15 -0.02428022027015686
-0.0003209461865480989 1.8391227722167969 -0.49279147386550903 89.0 0 -0.024259483441710472
2.1819207773887683e-08 1.8297213315963745 0.03193790465593338 12.0 8 -0.024257179349660873
0.0003218939818907529 1.8493545055389404 -0.4269571304321289 89.0 1 -0.024254875257611275
0.0006434756214730442 1.8434699773788452 0.09661218523979187 1.0 9 -0.024252571165561676
0.0006414287490770221 1.8376060724258423 -0.3571944534778595 99.0 2 -0.024250268936157227
0.003545746672898531 6.772130966186523 0.592484712600708 87.0 10 -0.02424796298146248
0.0012921355664730072 1.8509275913238525 -0.29315823316574097 100.0 3 -0.02424566075205803
0.005910398904234171 6.773132801055908 0.8316364884376526 90.0 11 -0.02424335666000843
0.001926938071846962 1.840179681777954 -0.22594578564167023 89.0 4 -0.024241052567958832
0.008272639475762844 6.7715864181518555 1.0725148916244507 89.0 12 -0.024238748475909233
0.0022368822246789932 1.8310045003890991 -0.16019225120544434 100.0 5 -0.024236444383859634
0.009437530301511288 6.7594780921936035 1.313910722732544 100.0 13 -0.024234140291810036
0.0029739905148744583 1.8933993577957153 -0.09922898560762405 21.0 6 -0.024231836199760437
0.011794702149927616 6.758220672607422 1.5602606534957886 100.0 14 -0.02422953210771084
0.0035663654562085867 1.8577135801315308 -0.03242656961083412 18.0 7 -0.02422722801566124
0.014087604358792305 6.7266926765441895 1.8024158477783203 63.0 15 -0.02422492392361164
0.005789576563984156 1.842977523803711 -0.4938267767429352 90.0 0 -0.02420663833618164
0.006067230366170406 1.8297113180160522 0.03193790465593338 12.0 8 -0.024204334244132042
0.006441480480134487 1.8454457521438599 -0.4260573089122772 90.0 1 -0.024202030152082443
0.0068441093899309635 1.867424726486206 0.09786824882030487 0.0 9 -0.024199726060032845
0.006741974037140608 1.8395569324493408 -0.35757607221603394 97.0 2 -0.024197421967983246
0.02605070173740387 6.784036159515381 0.5935305953025818 87.0 10 -0.024195117875933647
0.007413797080516815 1.8469624519348145 -0.2925325036048889 100.0 3 -0.02419281378388405
0.02833626978099346 6.765135765075684 0.8306615352630615 92.0 11 -0.02419050969183445
0.008081664331257343 1.8520735502243042 -0.22740821540355682 88.0 4 -0.02418820559978485
0.030645959079265594 6.753743648529053 1.0696990489959717 88.0 12 -0.024185901507735252
0.008344496600329876 1.838956594467163 -0.16088949143886566 100.0 5 -0.024183597415685654
0.03179585933685303 6.747630596160889 1.3116211891174316 100.0 13 -0.024181295186281204
0.009165390394628048 1.8754040002822876 -0.0982869416475296 18.0 6 -0.024178991094231606
0.034256890416145325 6.767887592315674 1.5625101327896118 100.0 14 -0.024176687002182007
0.009694965556263924 1.8516926765441895 -0.032321859151124954 16.0 7 -0.024174382910132408
0.03643771633505821 6.7343363761901855 1.8044863939285278 63.0 15 -0.02417207881808281
0.0123000992462039 1.8545368909835815 -0.49693259596824646 89.0 0 -0.02415134198963642
0.012508135288953781 1.8376775979995728 0.032077521085739136 12.0 8 -0.024149037897586823
0.012856530956923962 1.8415145874023438 -0.4251575171947479 89.0 1 -0.024146733805537224
0.01333450898528099 1.8633949756622314 0.0976589024066925 0.0 9 -0.024144429713487625
0.013191772624850273 1.8434487581253052 -0.3583393096923828 94.0 2 -0.024142125621438026
0.049785006791353226 6.791873455047607 0.5942278504371643 85.0 10 -0.024139821529388428
0.013831695541739464 1.8429746627807617 -0.2919067442417145 100.0 3 -0.02413751743733883
0.051952630281448364 6.764995098114014 0.8306615352630615 90.0 11 -0.02413521520793438
0.014545285142958164 1.852034091949463 -0.22740821540355682 86.0 4 -0.02413291111588478
0.054317690432071686 6.76544713973999 1.0715762376785278 87.0 12 -0.024130607023835182
0.014748096466064453 1.8369239568710327 -0.16071519255638123 100.0 5 -0.024128302931785583
0.05538329482078552 6.751404762268066 1.3123843669891357 100.0 13 -0.024125998839735985
0.015576578676700592 1.8593829870224 -0.09744956344366074 14.0 6 -0.024123694747686386
0.05781293660402298 6.759932041168213 1.5607105493545532 100.0 14 -0.024121390655636787
0.01622881554067135 1.8596460819244385 -0.03246147558093071 14.0 7 -0.02411908656358719
0.06000886857509613 6.74189567565918 1.806557059288025 63.0 15 -0.02411678247153759
0.018851397559046745 1.8622095584869385 -0.499003142118454 90.0 0 -0.024096045643091202
0.018902650102972984 1.8356232643127441 0.032042618840932846 11.0 8 -0.024093741551041603
0.019325843080878258 1.845355749130249 -0.4260573089122772 90.0 1 -0.024091437458992004
0.019923551008105278 1.8713257312774658 0.09807758778333664 0.0 9 -0.024089135229587555
0.01954253762960434 1.8355388641357422 -0.35681283473968506 94.0 2 -0.024086831137537956
0.07360237091779709 6.801620006561279 0.5950994491577148 90.0 10 -0.024084527045488358
0.020287005230784416 1.8448904752731323 -0.2922196090221405 100.0 3 -0.02408222295343876
0.07569816708564758 6.7766828536987305 0.8321239948272705 92.0 11 -0.02407991886138916
0.020920418202877045 1.8440320491790771 -0.22643324732780457 86.0 4 -0.02407761476933956
0.07786671817302704 6.759291172027588 1.070637583732605 87.0 12 -0.024075310677289963
0.02122940868139267 1.8428380489349365 -0.16123811900615692 100.0 5 -0.024073006585240364
0.07908608019351959 6.762948989868164 1.3146740198135376 100.0 13 -0.024070702493190765
0.022114843130111694 1.863311529159546 -0.0976589024066925 14.0 6 -0.024068398401141167
0.0813874825835228 6.7577409744262695 1.5602606534957886 100.0 14 -0.024066094309091568
0.02269526943564415 1.8575783967971802 -0.03242656961083412 15.0 7 -0.02406379021704197
0.08363965153694153 6.749371528625488 1.8086276054382324 63.0 15 -0.02406148612499237
0.025194309651851654 1.850542426109314 -0.4958973228931427 90.0 0 -0.02404075115919113
0.025475971400737762 1.8475428819656372 0.03225204721093178 12.0 8 -0.024038447067141533
0.02582036890089512 1.8491742610931396 -0.4269571304321289 92.0 1 -0.024036142975091934
0.027585469186306 1.9511271715164185 0.10226447135210037 0.0 9 -0.024033838883042336
0.025977887213230133 1.837422490119934 -0.3571944534778595 99.0 2 -0.024031534790992737
0.09723175317049026 6.7933526039123535 0.5944021344184875 90.0 10 -0.024029230698943138
0.02692578174173832 1.8586345911026 -0.29440969228744507 100.0 3 -0.02402692660689354
0.09935455769300461 6.7763776779174805 0.8321239948272705 92.0 11 -0.02402462251484394
0.027239862829446793 1.8360084295272827 -0.2254583090543747 82.0 4 -0.024022318422794342
0.1014559268951416 6.758977890014648 1.070637583732605 87.0 12 -0.024020014330744743
0.027630815282464027 1.8407604694366455 -0.1610638052225113 100.0 5 -0.024017710238695145
0.1028137356042862 6.77048397064209 1.3162004947662354 100.0 13 -0.024015406146645546
0.02858869917690754 1.861225962638855 -0.09755422919988632 14.0 6 -0.024013102054595947
0.10518313944339752 6.771055221557617 1.5634099245071411 100.0 14 -0.02401079796254635
0.028991328552365303 1.8454912900924683 -0.03221714124083519 14.0 7 -0.02400849387049675
0.10713928192853928 6.745175361633301 1.8075922727584839 63.0 15 -0.02400618977844715
0.03158640116453171 1.8465800285339355 -0.49486202001571655 87.0 0 -0.023985454812645912
0.03161360323429108 1.8294482231140137 0.03193790465593338 12.0 8 -0.023983150720596313
0.0323435477912426 1.8529696464538574 -0.4278569221496582 92.0 1 -0.023980846628546715
0.0323556624352932 1.8353577852249146 -0.35681283473968506 97.0 2 -0.023976238444447517
0.12087203562259674 6.78898811340332 0.5940535664558411 93.0 10 -0.02397393435239792
0.033271923661231995 1.8506289720535278 -0.29315823316574097 100.0 3 -0.02397163026034832
0.12322589755058289 6.787897109985352 0.8335863351821899 90.0 11 -0.02396932616829872
0.03375730291008949 1.8418563604354858 -0.226189523935318 85.0 4 -0.023967022076249123
0.12394322454929352 6.76255464553833 1.0712634325027466 87.0 12 -0.023964717984199524
0.034056589007377625 1.8406528234481812 -0.1610638052225113 100.0 5 -0.023962413892149925
0.1263749897480011 6.766158103942871 1.3154373168945312 100.0 13 -0.023960109800100327
0.03519796207547188 1.8671057224273682 -0.09786824882030487 10.0 6 -0.023957805708050728
0.12878262996673584 6.768698692321777 1.5629600286483765 100.0 14 -0.02395550161600113
0.03537694737315178 1.8593803644180298 -0.03246147558093071 16.0 7 -0.02395319752395153
0.12936002016067505 6.737057209014893 1.8055217266082764 63.0 15 -0.023950893431901932
0.038112036883831024 1.8503215312957764 -0.4958973228931427 85.0 0 -0.023930158466100693
0.037885632365942 1.8393296003341675 0.032112427055835724 10.0 8 -0.023927854374051094
0.03840760886669159 1.8489556312561035 -0.4269571304321289 89.0 1 -0.023925550282001495
0.03884546086192131 1.8391591310501099 -0.35757607221603394 97.0 2 -0.023920942097902298
0.14461351931095123 6.790516376495361 0.5942278504371643 87.0 10 -0.0239186380058527
0.03928298130631447 1.8445837497711182 -0.2922196090221405 100.0 3 -0.0239163339138031
0.1456448882818222 6.783482074737549 0.8330988883972168 92.0 11 -0.023914029821753502
0.04012230783700943 1.8536421060562134 -0.2276519387960434 85.0 4 -0.023911725729703903
0.1478516310453415 6.775904655456543 1.073453426361084 87.0 12 -0.023909421637654305
0.04039345309138298 1.8365390300750732 -0.16071519255638123 100.0 5 -0.023907117545604706
0.1488071084022522 6.765701770782471 1.3154373168945312 100.0 13 -0.023904813453555107
0.04143320396542549 1.8689754009246826 -0.09797292202711105 13.0 6 -0.023902511224150658
0.15157786011695862 6.783820152282715 1.5665591955184937 100.0 14 -0.02390020713210106
0.04177763685584068 1.855247139930725 -0.03239166736602783 14.0 7 -0.02389790304005146
0.1530466228723526 6.744289875030518 1.8075922727584839 63.0 15 -0.02389559894800186
0.044294413179159164 1.8521161079406738 -0.4964149594306946 63.0 0 -0.023874862119555473
0.044306349009275436 1.839186191558838 0.032112427055835724 9.0 8 -0.023872558027505875
0.04467107728123665 1.8410176038742065 -0.4251575171947479 79.0 1 -0.023870253935456276
0.04523242637515068 1.8507962226867676 -0.35986578464508057 94.0 2 -0.02386564575135708
0.167472705245018 6.80394172668457 0.5954480171203613 93.0 10 -0.02386334165930748
0.04576922208070755 1.8464101552963257 -0.2925325036048889 100.0 3 -0.02386103756725788
0.1694236546754837 6.786901473999023 0.8335863351821899 90.0 11 -0.023858733475208282
0.04614401236176491 1.8356306552886963 -0.2254583090543747 79.0 4 -0.023856431245803833
0.1717015653848648 6.783246994018555 1.074704885482788 88.0 12 -0.023854127153754234
0.046905938535928726 1.8403701782226562 -0.1610638052225113 100.0 5 -0.023851823061704636
0.17242470383644104 6.765141010284424 1.3154373168945312 100.0 13 -0.023849518969655037
0.04790615662932396 1.8668228387832642 -0.09786824882030487 30.0 6 -0.023847214877605438
0.17495346069335938 6.771561145782471 1.5638598203659058 100.0 14 -0.02384491078555584
0.048668988049030304 1.8710821866989136 -0.03267090395092964 19.0 7 -0.02384260669350624
0.17689287662506104 6.7553019523620605 1.81069815158844 63.0 15 -0.023840302601456642
0.05124184861779213 1.8577347993850708 -0.4979678690433502 59.0 0 -0.023819565773010254
0.050725650042295456 1.8390202522277832 0.032112427055835724 10.0 8 -0.023817261680960655
0.05131393298506737 1.8486424684524536 -0.4269571304321289 69.0 1 -0.023814957588911057
0.05151878669857979 1.8329557180404663 -0.3564312160015106 75.0 2 -0.02381034940481186
0.19274571537971497 6.815231800079346 0.5964938998222351 93.0 10 -0.02380804717540741
0.052874840795993805 1.8580774068832397 -0.29440969228744507 100.0 3 -0.02380574308335781
0.1932845264673233 6.792221546173096 0.8343175649642944 88.0 11 -0.023803438991308212
0.05255088955163956 1.8354583978652954 -0.2254583090543747 79.0 4 -0.023801134899258614
0.19509264826774597 6.772733211517334 1.0731405019760132 87.0 12 -0.023798830807209015
0.053503382951021194 1.8461699485778809 -0.16158674657344818 100.0 5 -0.023796526715159416
0.19767524302005768 6.780162811279297 1.3184902667999268 100.0 13 -0.023794222623109818
0.05427923798561096 1.850663423538208 -0.097030870616436 98.0 6 -0.02379191853106022
0.19983050227165222 6.772822380065918 1.5643097162246704 100.0 14 -0.02378961443901062
0.05455176159739494 1.8489137887954712 -0.032286953181028366 47.0 7 -0.02378731034696102
0.2008146345615387 6.766229152679443 1.8138039112091064 47.0 15 -0.023785006254911423
0.05760672315955162 1.8536827564239502 -0.49693259596824646 44.0 0 -0.023764269426465034
0.058215685188770294 1.862806797027588 0.032531287521123886 51.0 8 -0.023761967197060585
0.05815088376402855 1.8503897190093994 -0.42740702629089355 61.0 1 -0.023759663105010986
0.058289237320423126 1.8445384502410889 -0.35872092843055725 80.0 2 -0.02375505492091179
0.21628284454345703 6.806551933288574 0.5957966446876526 93.0 10 -0.02375275082886219
0.05923387035727501 1.8539328575134277 -0.293783962726593 100.0 3 -0.02375044673681259
0.21836769580841064 6.797419548034668 0.8350487947463989 88.0 11 -0.023748142644762993
0.05953463166952133 1.8431894779205322 -0.22643324732780457 89.0 4 -0.023745838552713394
0.21860696375370026 6.768062114715576 1.0725148916244507 86.0 12 -0.023743534460663795
0.05994700640439987 1.845971941947937 -0.16158674657344818 100.0 5 -0.023741230368614197
0.221599280834198 6.787280082702637 1.320016622543335 100.0 13 -0.023738926276564598
0.06146017089486122 1.8724206686019897 -0.09818226099014282 100.0 6 -0.023736622184515
0.22346942126750946 6.772083759307861 1.5643097162246704 100.0 14 -0.0237343180924654
0.0602794848382473 1.8267273902893066 -0.03190299868583679 100.0 7 -0.023732014000415802
0.22417758405208588 6.757763862609863 1.8117334842681885 63.0 15 -0.023729709908366203
0.063943050801754 1.8496090173721313 -0.4958973228931427 53.0 0 -0.023708974942564964
0.0636322945356369 1.8406200408935547 0.03214733302593231 100.0 8 -0.023706670850515366
0.06455698609352112 1.857977032661438 -0.42920663952827454 47.0 1 -0.023704366758465767
0.0646582767367363 1.8423616886138916 -0.3583393096923828 61.0 2 -0.02369975857436657
0.2401798516511917 6.809737682342529 0.5961452722549438 93.0 10 -0.02369745448231697
0.06510251760482788 1.8458296060562134 -0.2925325036048889 93.0 3 -0.023695150390267372
0.2409765124320984 6.798642158508301 0.8352925181388855 88.0 11 -0.023692846298217773
0.06592971086502075 1.8509173393249512 -0.22740821540355682 92.0 4 -0.023690542206168175
0.24258247017860413 6.777128219604492 1.074079155921936 87.0 12 -0.023688238114118576
0.06617504358291626 1.839778184890747 -0.1610638052225113 100.0 5 -0.023685934022068977
0.24396300315856934 6.7825846672058105 1.3192534446716309 100.0 13 -0.02368362993001938
0.06673166900873184 1.8462591171264648 -0.09682153165340424 100.0 6 -0.02368132583796978
0.24634826183319092 6.782989978790283 1.5670092105865479 100.0 14 -0.02367902174592018
0.06774910539388657 1.8564813137054443 -0.03242656961083412 100.0 7 -0.023676717653870583
0.24776698648929596 6.756939888000488 1.8117334842681885 63.0 15 -0.023674413561820984
0.0702221468091011 1.8532477617263794 -0.49693259596824646 50.0 0 -0.023653678596019745
0.06975308805704117 1.8323936462402344 0.03200771287083626 100.0 8 -0.023651374503970146
0.07059583067893982 1.8460564613342285 -0.42650723457336426 69.0 1 -0.023649070411920547
0.2624400854110718 6.831578731536865 0.35829198360443115 5.0 9 -0.02364676631987095
0.07069167494773865 1.8401752710342407 -0.3579576909542084 60.0 2 -0.02364446222782135
0.262992799282074 6.814876556396484 0.5966681838035583 96.0 10 -0.02364215813577175
0.07108663767576218 1.8337476253509521 -0.290655255317688 61.0 3 -0.023639854043722153
0.2646280527114868 6.795775890350342 0.8350487947463989 90.0 11 -0.023637549951672554
0.07301053404808044 1.866544485092163 -0.22935812175273895 72.0 4 -0.023635245859622955
0.26654961705207825 6.784135818481445 1.0753307342529297 87.0 12 -0.023632941767573357
0.07235433161258698 1.8415395021438599 -0.16123811900615692 100.0 5 -0.023630637675523758
0.2676357328891754 6.781691551208496 1.3192534446716309 100.0 13 -0.02362833358347416
0.0727008655667305 1.834040641784668 -0.09619349241256714 97.0 6 -0.02362602949142456
0.27041324973106384 6.791824817657471 1.569258689880371 100.0 14 -0.02362372726202011
0.07367020100355148 1.8422467708587646 -0.0321822389960289 100.0 7 -0.023621423169970512
0.27166029810905457 6.763754844665527 1.8138039112091064 47.0 15 -0.023619119077920914
0.07693091779947281 1.8587819337844849 -0.4984855055809021 40.0 0 -0.023598382249474525
0.07631460577249527 1.836134910583496 0.032077521085739136 100.0 8 -0.023596078157424927
0.07687641680240631 1.841904640197754 -0.4256074130535126 45.0 1 -0.023593774065375328
0.28662148118019104 6.8386030197143555 0.3587106764316559 49.0 9 -0.02359146997332573
0.0777728408575058 1.8556095361709595 -0.3610106408596039 80.0 2 -0.02358916588127613
0.2870294749736786 6.819889068603516 0.5971911549568176 90.0 10 -0.023586861789226532
0.07840429246425629 1.8551981449127197 -0.29409682750701904 92.0 3 -0.023584557697176933
0.2883499264717102 6.7948102951049805 0.8350487947463989 88.0 11 -0.023582253605127335
0.07893356680870056 1.8523952960968018 -0.2276519387960434 57.0 4 -0.023579949513077736
0.29090315103530884 6.798952102661133 1.077833652496338 88.0 12 -0.023577645421028137
0.07912235707044601 1.8492379188537598 -0.16193535923957825 84.0 5 -0.023575343191623688
0.29164549708366394 6.788561820983887 1.3207799196243286 100.0 13 -0.02357303909957409
0.0797906219959259 1.8497390747070312 -0.097030870616436 96.0 6 -0.02357073500752449
0.29411807656288147 6.790839672088623 1.569258689880371 100.0 14 -0.02356843091547489
0.08062125742435455 1.8539652824401855 -0.03239166736602783 100.0 7 -0.023566126823425293
0.2957727313041687 6.774346351623535 1.8169097900390625 47.0 15 -0.023563822731375694
0.08385242521762848 1.8681515455245972 -0.5010737180709839 53.0 0 -0.023543085902929306
0.08245302736759186 1.829864501953125 0.03197281062602997 100.0 8 -0.023540781810879707
0.08392231911420822 1.8552522659301758 -0.4287567436695099 53.0 1 -0.02353847771883011
0.309028685092926 6.831629276275635 0.3583966791629791 59.0 9 -0.02353617362678051
0.08335956186056137 1.8357144594192505 -0.3571944534778595 43.0 2 -0.02353386953473091
0.3110136091709137 6.822826385498047 0.5975397825241089 90.0 10 -0.023531565442681313
0.08397718518972397 1.8351800441741943 -0.2909681499004364 81.0 3 -0.023529263213276863
0.312705934047699 6.807643890380859 0.8367549777030945 88.0 11 -0.023526959121227264
0.08398336172103882 1.8283272981643677 -0.2247270941734314 92.0 4 -0.023524655029177666
0.3131733536720276 6.7920308113098145 1.076894998550415 87.0 12 -0.023522350937128067
0.0854852944612503 1.846960186958313 -0.1617610603570938 72.0 5 -0.02352004684507847
0.3162531554698944 6.8071136474609375 1.3245961666107178 100.0 13 -0.02351774275302887
0.08596742898225784 1.8434638977050781 -0.09671685099601746 58.0 6 -0.02351543866097927
0.31627121567726135 6.782040596008301 1.5674591064453125 100.0 14 -0.023513134568929672
0.08574078977108002 1.8317152261734009 -0.03200771287083626 100.0 7 -0.023510830476880074
0.3186001777648926 6.7810468673706055 1.81898033618927 47.0 15 -0.023508526384830475
0.08976664394140244 1.862074375152588 -0.49952077865600586 54.0 0 -0.023487789556384087
0.08919759094715118 1.843562364578247 0.03221714124083519 100.0 8 -0.023485485464334488
0.09054630249738693 1.8646960258483887 -0.4310062527656555 69.0 1 -0.02348318323493004
0.3321644365787506 6.840541362762451 0.35892000794410706 52.0 9 -0.02348087914288044
0.09001954644918442 1.8471934795379639 -0.35948416590690613 83.0 2 -0.02347857505083084
0.33354172110557556 6.819766998291016 0.5973654389381409 100.0 10 -0.023476270958781242
0.09064307808876038 1.8467296361923218 -0.29284536838531494 45.0 3 -0.023473966866731644
0.33537548780441284 6.808552265167236 0.8369987607002258 88.0 11 -0.023471662774682045
0.09151042997837067 1.8577790260314941 -0.2283831685781479 47.0 4 -0.023469358682632446
0.3354041278362274 6.785035610198975 1.0759563446044922 87.0 12 -0.023467054590582848
0.09170790761709213 1.8486565351486206 -0.16193535923957825 99.0 5 -0.02346475049853325
0.33901846408843994 6.809948921203613 1.3253593444824219 100.0 13 -0.02346244640648365
0.09357544034719467 1.8730905055999756 -0.0982869416475296 100.0 6 -0.02346014231443405
0.3393448293209076 6.792632579803467 1.5701584815979004 100.0 14 -0.023457838222384453
0.09161388874053955 1.8274264335632324 -0.03193790465593338 74.0 7 -0.023455534130334854
0.3408929407596588 6.776093482971191 1.8179450035095215 47.0 15 -0.023453230038285255
0.09584210813045502 1.8598371744155884 -0.499003142118454 76.0 0 -0.023432495072484016
0.0954134613275528 1.8452534675598145 0.03225204721093178 63.0 8 -0.023430190980434418
0.09662890434265137 1.8624393939971924 -0.4305563271045685 69.0 1 -0.02342788688838482
0.3561427891254425 6.841335296630859 0.35902467370033264 49.0 9 -0.02342558279633522
0.09624626487493515 1.848845362663269 -0.35986578464508057 87.0 2 -0.02342327870428562
0.3563615679740906 6.822603225708008 0.5977140665054321 96.0 10 -0.023420974612236023
0.09707722067832947 1.8523367643356323 -0.293783962726593 85.0 3 -0.023418670520186424
0.3585756719112396 6.819296836853027 0.8384611010551453 90.0 11 -0.023416366428136826
0.09736684709787369 1.8455543518066406 -0.2269207388162613 70.0 4 -0.023414062336087227
0.3596101701259613 6.793686866760254 1.077520728111267 87.0 12 -0.023411758244037628
0.09762764722108841 1.8443629741668701 -0.16158674657344818 40.0 5 -0.02340945415198803
0.36118465662002563 6.800945281982422 1.3238328695297241 100.0 13 -0.02340715005993843
0.0989357978105545 1.8568143844604492 -0.09744956344366074 48.0 6 -0.023404845967888832
0.36357539892196655 6.801136016845703 1.5724079608917236 100.0 14 -0.023402541875839233
0.09959916770458221 1.8570479154586792 -0.03246147558093071 100.0 7 -0.023400237783789635
0.3645392060279846 6.774862766265869 1.8179450035095215 47.0 15 -0.023397933691740036
0.10233405977487564 1.859491229057312 -0.499003142118454 78.0 0 -0.023377198725938797
0.10086242109537125 1.8269392251968384 0.03193790465593338 100.0 8 -0.0233748946338892
0.10280488431453705 1.8562536239624023 -0.42920663952827454 80.0 1 -0.0233725905418396
0.38024473190307617 6.844038486480713 0.3592340350151062 49.0 9 -0.02337028644979
0.10269983857870102 1.8484981060028076 -0.35986578464508057 87.0 2 -0.023367982357740402
0.38039830327033997 6.825296878814697 0.5980626940727234 96.0 10 -0.023365678265690804
0.10310013592243195 1.8440974950790405 -0.2925325036048889 93.0 3 -0.023363374173641205
0.3816009759902954 6.8041300773620605 0.8367549777030945 86.0 11 -0.023361070081591606
0.10447793453931808 1.8570948839187622 -0.2283831685781479 96.0 4 -0.023358765989542007
0.38409680128097534 6.806196212768555 1.079710841178894 87.0 12 -0.02335646189749241
0.10484962910413742 1.8579356670379639 -0.1628069132566452 99.0 5 -0.02335415780544281
0.3846988379955292 6.7957234382629395 1.32306969165802 100.0 13 -0.02335185371339321
0.10643624514341354 1.8744041919708252 -0.09839160740375519 86.0 6 -0.023349549621343613
0.38764137029647827 6.805662631988525 1.5737576484680176 100.0 14 -0.023347245529294014
0.1055101528763771 1.8467068672180176 -0.032286953181028366 45.0 7 -0.023344941437244415
0.38862958550453186 6.781263828277588 1.8200156688690186 47.0 15 -0.023342639207839966
