# .PCD v0.7 - Point Cloud Data file format
VERSION 0.7
FIELDS x y z intensity ring time
SIZE 4 4 4 4 4 4
TYPE F F F F F F
COUNT 1 1 1 1 1 1
WIDTH 545
HEIGHT 1
VIEWPOINT 0 0 0 1 0 0 0
POINTS 545
DATA ascii
1.6516640186309814 -1.4840359687805176 -0.43160995841026306 1.0 2 -0.04930657893419266
2.3090016841888428 -2.074660062789917 0.27157729864120483 78.0 10 -0.04930427297949791
1.6425029039382935 -1.476322889328003 -0.34978750348091125 1.0 3 -0.04930197075009346
2.3027753829956055 -2.070519208908081 0.38023239374160767 80.0 11 -0.04929966479539871
2.3054699897766113 -2.0743978023529053 0.49120426177978516 96.0 12 -0.049295056611299515
2.2894198894500732 -2.0606794357299805 -0.26948556303977966 72.0 5 -0.049292754381895065
2.31978178024292 -2.0887410640716553 0.6067726016044617 83.0 13 -0.04929044842720032
2.3031980991363525 -2.0745368003845215 -0.16245082020759583 86.0 6 -0.04928814619779587
2.3080620765686035 -2.0789177417755127 0.7171440124511719 81.0 14 -0.04928584024310112
2.2833611965179443 -2.057391405105591 -0.0536486990749836 84.0 7 -0.04928353801369667
2.2945148944854736 -2.068166732788086 0.8277033567428589 88.0 15 -0.04928123205900192
1.0906356573104858 -0.9858108162879944 -0.3939225971698761 0.0 0 -0.049260497093200684
2.281250476837158 -2.0627145767211914 0.053683605045080185 71.0 8 -0.049258194863796234
1.6764715909957886 -1.516403317451477 -0.5218864679336548 1.0 1 -0.049255888909101486
2.2910804748535156 -2.073057174682617 0.1619274616241455 82.0 9 -0.04925358667969704
1.6258362531661987 -1.4716349840164185 -0.4262673258781433 1.0 2 -0.04925128072500229
2.289564847946167 -2.0724127292633057 0.2701827883720398 81.0 10 -0.04924897849559784
1.6458667516708374 -1.4902883768081665 -0.3516647219657898 1.0 3 -0.04924667254090309
2.30252742767334 -2.08560848236084 0.3814510703086853 88.0 11 -0.04924437031149864
2.2963881492614746 -2.081507444381714 0.4908914268016815 91.0 12 -0.049239762127399445
2.271519899368286 -2.0596883296966553 -0.26826536655426025 68.0 5 -0.0492374561727047
2.3033859729766846 -2.089315414428711 0.6044829487800598 83.0 13 -0.04923515394330025
2.2881836891174316 -2.07625412940979 -0.1619274616241455 93.0 6 -0.0492328479886055
2.2975406646728516 -2.084744453430176 0.7162442207336426 76.0 14 -0.04923054575920105
2.2698826789855957 -2.060370683670044 -0.05350907891988754 83.0 7 -0.0492282435297966
2.281198263168335 -2.0713679790496826 0.8256327509880066 86.0 15 -0.04922593757510185
1.0827299356460571 -0.9858995079994202 -0.39236968755722046 1.0 0 -0.04920520260930061
2.2648048400878906 -2.0629825592041016 0.053474172949790955 71.0 8 -0.049202896654605865
1.633450984954834 -1.4884120225906372 -0.5101890563964844 1.0 1 -0.049200594425201416
2.2808775901794434 -2.0783517360687256 0.16171811521053314 82.0 9 -0.04919828847050667
1.607630968093872 -1.4653979539871216 -0.42283275723457336 1.0 2 -0.04919598624110222
2.2790093421936035 -2.0781056880950928 0.2698341906070709 78.0 10 -0.04919368028640747
1.6082860231399536 -1.4670233726501465 -0.3447815775871277 1.0 3 -0.04919137805700302
2.274338722229004 -2.075301170349121 0.3780387341976166 85.0 11 -0.04918907210230827
1.6068847179412842 -1.4667731523513794 -0.2671376168727875 1.0 4 -0.049186769872903824
2.2803544998168945 -2.0815200805664062 0.489014208316803 91.0 12 -0.049184463918209076
2.2599024772644043 -2.0635743141174316 -0.26774242520332336 72.0 5 -0.049182161688804626
2.27868390083313 -2.081453800201416 0.5999035239219666 83.0 13 -0.04917985945940018
2.2661781311035156 -2.070756196975708 -0.16088074445724487 91.0 6 -0.04917755350470543
2.285569190979004 -2.0892069339752197 0.7148945331573486 78.0 14 -0.04917525127530098
2.2612009048461914 -2.066932201385498 -0.053474172949790955 86.0 7 -0.04917294532060623
2.26967716217041 -2.0754075050354004 0.8240798711776733 91.0 15 -0.04917064309120178
1.0906728506088257 -1.0001181364059448 -0.3965107798576355 3.0 0 -0.049149904400110245
2.257951259613037 -2.070481538772583 0.053474172949790955 68.0 8 -0.049147602170705795
1.6399948596954346 -1.5043588876724243 -0.5137882828712463 1.0 1 -0.04914529621601105
2.261836051940918 -2.075497627258301 0.16088074445724487 82.0 9 -0.0491429939866066
1.6227543354034424 -1.489587664604187 -0.4281754195690155 1.0 2 -0.04914068803191185
2.2717416286468506 -2.0860483646392822 0.2698341906070709 81.0 10 -0.0491383858025074
1.6063226461410522 -1.4750210046768188 -0.3454073667526245 1.0 3 -0.04913607984781265
2.2572107315063477 -2.0734314918518066 0.376332551240921 77.0 11 -0.0491337776184082
2.2730748653411865 -2.0894672870635986 0.489014208316803 91.0 12 -0.049129169434309006
2.2512190341949463 -2.070101737976074 -0.2675681412220001 68.0 5 -0.049126867204904556
2.2602081298828125 -2.0783679485321045 0.596850574016571 85.0 13 -0.04912456125020981
2.2534189224243164 -2.0728511810302734 -0.16046206653118134 91.0 6 -0.04912225902080536
2.268590211868286 -2.0875375270843506 0.7117451429367065 81.0 14 -0.04911995306611061
2.2525007724761963 -2.073458194732666 -0.053439266979694366 83.0 7 -0.04911765083670616
2.262418746948242 -2.083317518234253 0.8240798711776733 91.0 15 -0.049115344882011414
1.0916088819503784 -1.0076605081558228 -0.3980637192726135 5.0 0 -0.049094609916210175
2.2418954372406006 -2.0702109336853027 0.05326474457979202 69.0 8 -0.04909230396151543
1.6347336769104004 -1.510074257850647 -0.5137882828712463 1.0 1 -0.04909000173211098
2.24467134475708 -2.073500156402588 0.1601480394601822 76.0 9 -0.04908769577741623
1.5918515920639038 -1.4709773063659668 -0.421306312084198 1.0 2 -0.04908539354801178
2.2574961185455322 -2.0868079662323 0.2689626216888428 74.0 10 -0.04908309131860733
1.586660623550415 -1.467207670211792 -0.3422786593437195 1.0 3 -0.04908078536391258
2.247044801712036 -2.0786020755767822 0.3758450746536255 80.0 11 -0.04907848313450813
1.5968636274337769 -1.4776768684387207 -0.2671376168727875 1.0 4 -0.049076177179813385
2.253084659576416 -2.084918737411499 0.486198365688324 93.0 12 -0.049073874950408936
2.241417407989502 -2.0748488903045654 -0.26721951365470886 68.0 5 -0.04907156899571419
2.2558205127716064 -2.0889127254486084 0.5976138114929199 83.0 13 -0.04906926676630974
2.244704484939575 -2.0793466567993164 -0.16035738587379456 88.0 6 -0.04906696081161499
2.249854803085327 -2.0848474502563477 0.7081459760665894 81.0 14 -0.04906465858221054
2.2338786125183105 -2.0700430870056152 -0.05316003039479256 83.0 7 -0.04906235262751579
2.246997117996216 -2.082928419113159 0.8209740519523621 94.0 15 -0.04906005039811134
1.0880848169326782 -1.0114648342132568 -0.3980637192726135 5.0 0 -0.049039315432310104
2.2262301445007324 -2.069464921951294 0.05305531620979309 71.0 8 -0.049037009477615356
1.6183005571365356 -1.5048706531524658 -0.5101890563964844 1.0 1 -0.04903470724821091
2.233032703399658 -2.077242136001587 0.15983402729034424 82.0 9 -0.04903240129351616
1.5637115240097046 -1.4551260471343994 -0.415200412273407 1.0 2 -0.04903009906411171
2.2399895191192627 -2.085172653198242 0.26774242520332336 76.0 10 -0.04902779310941696
1.5702195167541504 -1.4616936445236206 -0.3397757112979889 1.0 3 -0.04902549088001251
2.2415924072265625 -2.0873947143554688 0.37608882784843445 85.0 11 -0.049023184925317764
1.5919547080993652 -1.482964038848877 -0.2671376168727875 1.0 4 -0.049020882695913315
2.2327864170074463 -2.080650568008423 0.48338255286216736 87.0 12 -0.04901857674121857
2.219587564468384 -2.069074869155884 -0.26547640562057495 68.0 5 -0.04901627451181412
2.24600887298584 -2.0937044620513916 0.596850574016571 83.0 13 -0.04901396855711937
2.229032516479492 -2.078606367111206 -0.15972934663295746 88.0 6 -0.04901166632771492
2.2429287433624268 -2.092296838760376 0.7081459760665894 86.0 14 -0.04900936037302017
2.2120189666748047 -2.06418514251709 -0.05281098559498787 81.0 7 -0.04900705814361572
2.225590944290161 -2.0775766372680664 0.8157976865768433 94.0 15 -0.049004752188920975
1.088956356048584 -1.0190273523330688 -0.3996165990829468 6.0 0 -0.048984017223119736
2.210233688354492 -2.069023609161377 0.05284588783979416 72.0 8 -0.048981714993715286
1.6130377054214478 -1.5105104446411133 -0.5101890563964844 1.0 1 -0.04897940903902054
2.222853183746338 -2.0822932720184326 0.15962468087673187 78.0 9 -0.04897710680961609
1.5617430210113525 -1.4629876613616943 -0.41596361994743347 1.0 2 -0.04897480085492134
2.218524694442749 -2.078965663909912 0.26599931716918945 76.0 10 -0.04897249862551689
1.5478135347366333 -1.4509538412094116 -0.3360212445259094 1.0 3 -0.048970192670822144
2.2285001277923584 -2.089775323867798 0.3751138746738434 81.0 11 -0.048967890441417694
1.5143792629241943 -1.4206053018569946 -0.2549506723880768 1.0 4 -0.048965584486722946
2.2298314571380615 -2.09248685836792 0.4843211770057678 93.0 12 -0.0489632822573185
2.2036359310150146 -2.0686280727386475 -0.26443052291870117 66.0 5 -0.04896097630262375
2.2243731021881104 -2.088094711303711 0.5930343866348267 87.0 13 -0.0489586740732193
2.226130962371826 -2.0904762744903564 -0.1600433737039566 93.0 6 -0.04895636811852455
2.2341909408569336 -2.0987789630889893 0.7076960802078247 83.0 14 -0.0489540658891201
2.2004284858703613 -2.0677855014801025 -0.052706267684698105 76.0 7 -0.048951759934425354
2.2098796367645264 -2.0773935317993164 0.8126918077468872 92.0 15 -0.048949457705020905
1.0824027061462402 -1.0203614234924316 -0.3985813558101654 6.0 0 -0.048928722739219666
2.1971778869628906 -2.071239471435547 0.052706267684698105 72.0 8 -0.04892641678452492
1.5907419919967651 -1.500088095664978 -0.5047902464866638 1.0 1 -0.04892411455512047
2.211212396621704 -2.085927963256836 0.15931066870689392 74.0 9 -0.04892180860042572
1.5849275588989258 -1.4956506490707397 -0.42359596490859985 1.0 2 -0.04891950637102127
2.2079920768737793 -2.0843474864959717 0.2656506896018982 81.0 10 -0.04891720041632652
1.5482300519943237 -1.4620423316955566 -0.3372727632522583 1.0 3 -0.04891489818692207
2.2096457481384277 -2.0866379737854004 0.37316393852233887 83.0 11 -0.048912592232227325
1.5469300746917725 -1.4613256454467773 -0.2612878978252411 1.0 4 -0.048910290002822876
2.2110280990600586 -2.0894036293029785 0.48181819915771484 93.0 12 -0.04890798404812813
2.1935060024261475 -2.073570489883423 -0.2640818953514099 66.0 5 -0.04890568181872368
2.2024402618408203 -2.0827441215515137 0.5892181992530823 82.0 13 -0.04890337586402893
2.2068467140197754 -2.0876410007476807 -0.15920598804950714 93.0 6 -0.04890107363462448
2.2222373485565186 -2.1029350757598877 0.706346333026886 81.0 14 -0.04889877140522003
2.207721710205078 -2.089198589324951 -0.05305531620979309 95.0 7 -0.048896465450525284
2.194197177886963 -2.0771265029907227 0.8095860481262207 92.0 15 -0.048894163221120834
1.0732300281524658 -1.0188133716583252 -0.3965107798576355 6.0 0 -0.0488734245300293
2.186671257019043 -2.0765247344970703 0.05263645574450493 72.0 8 -0.04887112230062485
1.5880588293075562 -1.5085926055908203 -0.5056900382041931 1.0 1 -0.0488688163459301
2.1865410804748535 -2.077126979827881 0.15805460512638092 76.0 9 -0.04886651411652565
1.5597732067108154 -1.4822404384613037 -0.4182533621788025 1.0 2 -0.0488642081618309
2.2007031440734863 -2.0920422077178955 0.2656506896018982 78.0 10 -0.04886190593242645
1.5803353786468506 -1.5028303861618042 -0.3454073667526245 1.0 3 -0.048859599977731705
2.190477132797241 -2.0837771892547607 0.3712140619754791 85.0 11 -0.048857297748327255
1.5159308910369873 -1.4420887231826782 -0.2569005787372589 1.0 4 -0.04885499179363251
2.203721284866333 -2.097108840942383 0.48181819915771484 93.0 12 -0.04885268956422806
2.189140558242798 -2.0839622020721436 -0.26443052291870117 72.0 5 -0.04885038733482361
2.198000431060791 -2.0931272506713867 0.5899814367294312 83.0 13 -0.04884808138012886
2.185084819793701 -2.0815556049346924 -0.1581592708826065 93.0 6 -0.04884577915072441
2.2053747177124023 -2.100883960723877 0.7031970620155334 90.0 14 -0.04884347319602966
2.181596279144287 -2.078958511352539 -0.05260155349969864 81.0 7 -0.048841170966625214
2.1869332790374756 -2.084773063659668 0.8095860481262207 94.0 15 -0.048838865011930466
1.075432300567627 -1.027705430984497 -0.3985813558101654 6.0 0 -0.04881813004612923
2.171100616455078 -2.0754737854003906 0.052427031099796295 74.0 8 -0.04881582409143448
1.5802308320999146 -1.5111567974090576 -0.5047902464866638 1.0 1 -0.04881352186203003
2.1767542362213135 -2.0816054344177246 0.15784525871276855 76.0 9 -0.04881121590733528
1.5661985874176025 -1.4982616901397705 -0.421306312084198 1.0 2 -0.04880891367793083
2.187995672225952 -2.093818426132202 0.26495346426963806 76.0 10 -0.04880661144852638
1.529680848121643 -1.4643508195877075 -0.3353955149650574 1.0 3 -0.048804305493831635
2.1778202056884766 -2.0855376720428467 0.3702390789985657 85.0 11 -0.048802003264427185
1.4738638401031494 -1.4114104509353638 -0.250563383102417 1.0 4 -0.04879969730973244
2.185343027114868 -2.093473196029663 0.47931525111198425 96.0 12 -0.04879739508032799
2.175025224685669 -2.084317207336426 -0.263558954000473 66.0 5 -0.04879508912563324
2.191046953201294 -2.100404739379883 0.5899814367294312 82.0 13 -0.04879278689622879
2.1752872467041016 -2.0860252380371094 -0.15794992446899414 93.0 6 -0.04879048094153404
2.1871438026428223 -2.097395181655884 0.6995978355407715 90.0 14 -0.04878817871212959
2.1660315990448 -2.0778753757476807 -0.05239212512969971 83.0 7 -0.048785872757434845
2.1744322776794434 -2.086663246154785 0.8075154423713684 88.0 15 -0.048783570528030396
1.0720183849334717 -1.0312659740447998 -0.3985813558101654 6.0 0 -0.04876283183693886
2.164206027984619 -2.0826618671417236 0.052427031099796295 81.0 8 -0.04876052960753441
1.5920579433441162 -1.532606840133667 -0.5101890563964844 1.0 1 -0.04875822737812996
2.166597366333008 -2.0864202976226807 0.1576359122991562 76.0 9 -0.04875592142343521
1.558131217956543 -1.5009952783584595 -0.42054301500320435 1.0 2 -0.04875361919403076
2.168126106262207 -2.0886220932006836 0.2633846402168274 74.0 10 -0.048751313239336014
1.5077476501464844 -1.4529666900634766 -0.3316411077976227 1.0 3 -0.048749011009931564
2.1680338382720947 -2.0899927616119385 0.36975163221359253 85.0 11 -0.048746705055236816
1.480359435081482 -1.4275704622268677 -0.2525132894515991 2.0 4 -0.04874440282583237
2.172335386276245 -2.0956029891967773 0.47806379199028015 93.0 12 -0.04874209687113762
2.162001609802246 -2.086362600326538 -0.2628616988658905 66.0 5 -0.04873979464173317
2.1808769702911377 -2.1053125858306885 0.5892181992530823 83.0 13 -0.04873748868703842
2.165118932723999 -2.0908312797546387 -0.15774059295654297 93.0 6 -0.04873518645763397
2.1798088550567627 -2.1050171852111816 0.6995978355407715 90.0 14 -0.048732880502939224
2.1501362323760986 -2.077087640762329 -0.052182696759700775 75.0 7 -0.048730578273534775
2.1629679203033447 -2.0902130603790283 0.8059625029563904 88.0 15 -0.04872827231884003
1.0557457208633423 -1.0230885744094849 -0.3939225971698761 5.0 0 -0.04870753735303879
2.1450717449188232 -2.0794451236724854 0.05214779078960419 81.0 8 -0.04870523512363434
1.6060154438018799 -1.5574246644973755 -0.5164876580238342 1.0 1 -0.04870292916893959
2.150334596633911 -2.086003303527832 0.15700788795948029 76.0 9 -0.04870062693953514
1.552619218826294 -1.5066958665847778 -0.42054301500320435 1.0 2 -0.04869832098484039
2.1533074378967285 -2.0896167755126953 0.26251310110092163 76.0 10 -0.048696018755435944
1.5279247760772705 -1.4832496643066406 -0.3372727632522583 1.0 3 -0.048693712800741196
2.1632072925567627 -2.1006908416748047 0.3702390789985657 85.0 11 -0.048691410571336746
1.4679977893829346 -1.4260705709457397 -0.2512946128845215 3.0 4 -0.048689104616642
2.1575567722320557 -2.0966672897338867 0.47649943828582764 87.0 12 -0.04868680238723755
2.140054225921631 -2.0803849697113037 -0.2611185908317566 70.0 5 -0.0486844964325428
2.161885976791382 -2.102342367172241 0.5861652493476868 82.0 13 -0.04868219420313835
2.1545779705047607 -2.0959672927856445 -0.1575312465429306 91.0 6 -0.048679888248443604
2.173475980758667 -2.1143510341644287 0.7000477313995361 95.0 14 -0.048677586019039154
2.1367762088775635 -2.079375743865967 -0.05204307660460472 74.0 7 -0.048675280064344406
2.1442182064056396 -2.0873465538024902 0.8018214106559753 86.0 15 -0.04867297783493996
1.0616652965545654 -1.0363974571228027 -0.39754605293273926 6.0 0 -0.04865224286913872
2.1288516521453857 -2.0789105892181396 0.051938362419605255 79.0 8 -0.04864993691444397
1.552901029586792 -1.517000675201416 -0.5011910200119019 1.0 1 -0.04864763468503952
2.145897388458252 -2.096287965774536 0.15721723437309265 76.0 9 -0.04864532873034477
1.5305007696151733 -1.4956406354904175 -0.41596361994743347 1.0 2 -0.04864302650094032
2.14136004447937 -2.0933170318603516 0.26199015974998474 72.0 10 -0.048640720546245575
1.5027055740356445 -1.4695043563842773 -0.3328925669193268 1.0 3 -0.048638418316841125
2.141303062438965 -2.094723701477051 0.367801696062088 87.0 11 -0.04863611236214638
1.4715250730514526 -1.439515233039856 -0.2527570426464081 5.0 4 -0.04863381013274193
2.1474013328552246 -2.1014227867126465 0.4758736789226532 91.0 12 -0.04863150417804718
2.127084255218506 -2.0822677612304688 -0.26042136549949646 70.0 5 -0.04862920194864273
2.1391048431396484 -2.0947659015655518 0.5819674730300903 81.0 13 -0.04862689599394798
2.132981300354004 -2.08949875831604 -0.15648452937602997 84.0 6 -0.04862459376454353
2.1619060039520264 -2.1178340911865234 0.6986980438232422 100.0 14 -0.048622287809848785
2.1280770301818848 -2.0854222774505615 -0.05200817435979843 68.0 7 -0.048619985580444336
2.1314005851745605 -2.089409112930298 0.7997508645057678 88.0 15 -0.048617683351039886
1.0664900541305542 -1.048036813735962 -0.4006519019603729 6.0 0 -0.04859694465994835
2.119094133377075 -2.0831551551818848 0.05186855047941208 81.0 8 -0.0485946424305439
1.5339672565460205 -1.5084782838821411 -0.4966919720172882 1.0 1 -0.04859233647584915
2.1289656162261963 -2.093590021133423 0.15648452937602997 73.0 9 -0.0485900342464447
1.5255327224731445 -1.500707745552063 -0.41596361994743347 1.0 2 -0.048587728291749954
2.128726005554199 -2.0948164463043213 0.2612929046154022 66.0 10 -0.048585426062345505
1.4696696996688843 -1.446763515472412 -0.3266351819038391 1.0 3 -0.04858312010765076
2.123029947280884 -2.090669870376587 0.3658517897129059 87.0 11 -0.04858081787824631
1.4610857963562012 -1.4388154745101929 -0.25178205966949463 7.0 4 -0.04857851192355156
2.1418280601501465 -2.1099185943603516 0.4761865735054016 93.0 12 -0.04857620969414711
2.1230056285858154 -2.092106819152832 -0.26076996326446533 68.0 5 -0.04857390373945236
2.1321465969085693 -2.1018481254577637 0.5819674730300903 77.0 13 -0.04857160151004791
2.118929862976074 -2.0895485877990723 -0.15596117079257965 77.0 6 -0.04856929928064346
2.128507614135742 -2.0989935398101807 0.6901498436927795 85.0 14 -0.048566993325948715
2.1211495399475098 -2.092468023300171 -0.05200817435979843 81.0 7 -0.048564691096544266
2.11896014213562 -2.0910379886627197 0.7976803779602051 84.0 15 -0.04856238514184952
1.0657554864883423 -1.0542848110198975 -0.4016871750354767 6.0 0 -0.04854165017604828
2.1121745109558105 -2.0901708602905273 0.05186855047941208 79.0 8 -0.04853934422135353
1.542805790901184 -1.5272666215896606 -0.5011910200119019 1.0 1 -0.04853704199194908
2.1102914810180664 -2.089765787124634 0.1556471586227417 73.0 9 -0.048534736037254333
1.5038080215454102 -1.4891812801361084 -0.4113842248916626 1.0 2 -0.048532433807849884
2.117521286010742 -2.0976574420928955 0.26076996326446533 70.0 10 -0.048530127853155136
1.450832724571228 -1.4377247095108032 -0.32350650429725647 1.0 3 -0.04852782562375069
2.1132655143737793 -2.0949037075042725 0.36536431312561035 82.0 11 -0.04852552339434624
1.4560543298721313 -1.4439069032669067 -0.25178205966949463 4.0 4 -0.04852321743965149
2.1232306957244873 -2.106252670288086 0.473683625459671 93.0 12 -0.04852091521024704
2.107569456100464 -2.090716600418091 -0.25972411036491394 70.0 5 -0.04851860925555229
2.1279520988464355 -2.111672878265381 0.5827307105064392 82.0 13 -0.04851630702614784
2.1105716228485107 -2.095156669616699 -0.15585649013519287 82.0 6 -0.048514001071453094
2.1239333152770996 -2.109156847000122 0.6910496354103088 95.0 14 -0.048511698842048645
2.102483034133911 -2.0885848999023438 -0.05172893404960632 77.0 7 -0.0485093928873539
2.114388942718506 -2.1011452674865723 0.7987156510353088 84.0 15 -0.04850709065794945
1.0429078340530396 -1.0389111042022705 -0.394440233707428 6.0 0 -0.04848635196685791
2.0991997718811035 -2.0918848514556885 0.05172893404960632 81.0 8 -0.04848404973745346
1.5319445133209229 -1.52713942527771 -0.4993913471698761 1.0 1 -0.04848174750804901
2.1029839515686035 -2.0971193313598633 0.1556471586227417 73.0 9 -0.04847944155335426
1.4707971811294556 -1.4666956663131714 -0.4037518799304962 1.0 2 -0.048477139323949814
2.1003124713897705 -2.095186471939087 0.2595497965812683 66.0 10 -0.048474833369255066
1.4500000476837158 -1.446966290473938 -0.32444512844085693 2.0 3 -0.048472531139850616
2.105940103530884 -2.1022677421569824 0.36536431312561035 79.0 11 -0.04847022518515587
1.451005220413208 -1.448980689048767 -0.25178205966949463 3.0 4 -0.04846792295575142
2.1046855449676514 -2.102482318878174 0.47118064761161804 85.0 12 -0.04846561700105667
2.0875728130340576 -2.0853874683380127 -0.25815531611442566 77.0 5 -0.04846331477165222
2.1164016723632812 -2.114924430847168 0.5815858244895935 82.0 13 -0.048461008816957474
2.101832628250122 -2.1010990142822266 -0.15575182437896729 79.0 6 -0.048458706587553024
2.115180015563965 -2.115180015563965 0.690599799156189 90.0 14 -0.048456400632858276
2.0852835178375244 -2.0860114097595215 -0.051484595984220505 75.0 7 -0.04845409840345383
2.093385934829712 -2.0948479175567627 0.7935392260551453 80.0 15 -0.04845179244875908
1.047458291053772 -1.0507540702819824 -0.39754605293273926 6.0 0 -0.04843105748295784
2.080592632293701 -2.0878679752349854 0.051449693739414215 81.0 8 -0.04842875525355339
1.4908462762832642 -1.496581792831421 -0.4876939356327057 1.0 1 -0.04842644929885864
2.092832088470459 -2.101616859436035 0.15543779730796814 76.0 9 -0.04842414706945419
1.4545859098434448 -1.4606915712356567 -0.4006989300251007 1.0 2 -0.048421841114759445
2.0859580039978027 -2.095445156097412 0.25867822766304016 70.0 10 -0.048419538885354996
1.4449403285980225 -1.4520189762115479 -0.32444512844085693 2.0 3 -0.04841723293066025
2.092989206314087 -2.1039767265319824 0.3643893897533417 78.0 11 -0.0484149307012558
1.447338581085205 -1.455444574356079 -0.2520258128643036 1.0 4 -0.04841262474656105
2.0917630195617676 -2.104212760925293 0.46992918848991394 85.0 12 -0.0484103225171566
2.071852684020996 -2.084183931350708 -0.2571094334125519 75.0 5 -0.04840801656246185
2.0993192195892334 -2.112551212310791 0.5789145231246948 81.0 13 -0.048405714333057404
2.0902628898620605 -2.1041722297668457 -0.15543779730796814 82.0 6 -0.048403408378362656
2.1050374507904053 -2.1197848320007324 0.6897000074386597 100.0 14 -0.048401106148958206
2.0723540782928467 -2.0876009464263916 -0.05134497955441475 75.0 7 -0.04839880019426346
2.080617666244507 -2.0966572761535645 0.7914686799049377 80.0 15 -0.04839649796485901
1.04106605052948 -1.051658272743225 -0.3965107798576355 7.0 0 -0.04837576299905777
2.064852476119995 -2.0865895748138428 0.05124026536941528 81.0 8 -0.04837345704436302
1.4773902893066406 -1.4934641122817993 -0.484994500875473 2.0 1 -0.04837115481495857
2.082674741744995 -2.1060690879821777 0.15522846579551697 79.0 9 -0.048368848860263824
1.4398152828216553 -1.4559886455535889 -0.39802759885787964 2.0 2 -0.048366546630859375
2.07582950592041 -2.099879741668701 0.2583296298980713 70.0 10 -0.04836424067616463
1.4245895147323608 -1.4415981769561768 -0.3210035562515259 2.0 3 -0.04836193844676018
2.0744717121124268 -2.0999720096588135 0.36243945360183716 82.0 11 -0.04835963249206543
2.083017349243164 -2.110095739364624 0.4696163237094879 91.0 12 -0.04835502430796623
2.061765432357788 -2.0885674953460693 -0.2567608058452606 75.0 5 -0.04835272207856178
2.083658456802368 -2.1114819049835205 0.5766248106956482 81.0 13 -0.048350416123867035
2.067476511001587 -2.0958151817321777 -0.15428641438484192 90.0 6 -0.048348113894462585
2.0812056064605713 -2.110469102859497 0.6843011379241943 90.0 14 -0.04834580793976784
2.066458225250244 -2.0962464809417725 -0.05137988552451134 77.0 7 -0.04834350571036339
2.065150499343872 -2.095651388168335 0.7883628606796265 84.0 15 -0.04834119975566864
1.037204384803772 -1.055466890335083 -0.3965107798576355 6.0 0 -0.049642086029052734
2.0543882846832275 -2.0912904739379883 0.051170457154512405 84.0 8 -0.049639783799648285
1.4582524299621582 -1.4849649667739868 -0.48049548268318176 2.0 1 -0.04963747784495354
2.065514326095581 -2.103350877761841 0.15449576079845428 81.0 9 -0.04963517561554909
1.444096326828003 -1.4710630178451538 -0.4006989300251007 1.0 2 -0.04963286966085434
2.0653281211853027 -2.1046299934387207 0.25798097252845764 70.0 10 -0.04963056743144989
1.4358965158462524 -1.4637317657470703 -0.32475799322128296 1.0 3 -0.04962826147675514
2.0584216117858887 -2.099057197570801 0.36097702383995056 83.0 11 -0.04962595924735069
2.0566651821136475 -2.097998857498169 -0.3607332706451416 70.0 4 -0.049623653292655945
2.0701076984405518 -2.1117117404937744 0.4683648645877838 78.0 12 -0.049621351063251495
2.0513076782226562 -2.093264102935791 -0.25641217827796936 77.0 5 -0.04961904510855675
2.0717837810516357 -2.1148974895477295 0.5754799246788025 82.0 13 -0.0496167428791523
2.0527939796447754 -2.0962440967559814 -0.1537630558013916 84.0 6 -0.04961443692445755
2.0720930099487305 -2.1166906356811523 0.6838512420654297 95.0 14 -0.0496121346950531
2.0563302040100098 -2.100588798522949 -0.05131007358431816 79.0 7 -0.04960982874035835
2.0605251789093018 -2.1056087017059326 0.7893981337547302 82.0 15 -0.0496075265109539
1.034862995147705 -1.060463547706604 -0.3970284163951874 6.0 0 -0.049586791545152664
2.0474417209625244 -2.0980916023254395 0.051170457154512405 84.0 8 -0.049584485590457916
1.4587631225585938 -1.4953721761703491 -0.48229509592056274 2.0 1 -0.04958218336105347
2.045610189437866 -2.0976791381835938 0.15355370938777924 79.0 9 -0.04957987740635872
1.4334708452224731 -1.4704716205596924 -0.39917242527008057 1.0 2 -0.04957757517695427
2.055187940597534 -2.1089727878570557 0.25763237476348877 72.0 10 -0.04957526922225952
1.4558502435684204 -1.4939502477645874 -0.3303896188735962 1.0 3 -0.04957296699285507
2.0459086894989014 -2.100184202194214 0.3600020706653595 83.0 11 -0.049570661038160324
2.0427722930908203 -2.097696542739868 -0.35951459407806396 75.0 4 -0.049568358808755875
2.0544564723968506 -2.1104319095611572 0.4664876163005829 78.0 12 -0.04956605285406113
2.0412094593048096 -2.0975561141967773 -0.2560635805130005 77.0 5 -0.04956375062465668
2.063390016555786 -2.1203489303588867 0.5750983357429504 81.0 13 -0.04956144466996193
2.043045997619629 -2.1001765727996826 -0.15355370938777924 84.0 6 -0.04955914244055748
2.058269500732422 -2.116564989089966 0.6816017627716064 90.0 14 -0.04955683648586273
2.036440849304199 -2.0948493480682373 -0.05099593102931976 84.0 7 -0.04955453425645828
2.0477771759033203 -2.1072466373443604 0.7873275279998779 82.0 15 -0.049552228301763535
1.0246175527572632 -1.056954026222229 -0.394440233707428 6.0 0 -0.049531493335962296
2.034539222717285 -2.0994815826416016 0.05103083327412605 84.0 8 -0.049529191106557846
1.4453990459442139 -1.492057204246521 -0.47959569096565247 2.0 1 -0.0495268851518631
2.040032148361206 -2.1058855056762695 0.15365837514400482 81.0 9 -0.04952458292245865
1.455902099609375 -1.5034239292144775 -0.4068048298358917 1.0 2 -0.0495222769677639
2.039868116378784 -2.107187271118164 0.2565865218639374 72.0 10 -0.04951997473835945
2.028953790664673 -2.096644878387451 -0.46210747957229614 79.0 3 -0.0495176687836647
2.041325569152832 -2.110166549682617 0.36048954725265503 79.0 11 -0.049515366554260254
2.0299177169799805 -2.099106550216675 -0.3585396409034729 76.0 4 -0.049513060599565506
2.037834405899048 -2.107293128967285 0.4642975628376007 84.0 12 -0.049510758370161057
2.028703212738037 -2.098583459854126 -0.25536632537841797 80.0 5 -0.04950845241546631
2.0546116828918457 -2.126127004623413 0.5747166872024536 82.0 13 -0.04950615018606186
2.0301520824432373 -2.1015493869781494 -0.1531350165605545 84.0 6 -0.04950384423136711
2.0508687496185303 -2.12373685836792 0.6816017627716064 100.0 14 -0.04950154200196266
2.0183699131011963 -2.090083122253418 -0.050716694444417953 84.0 7 -0.04949923977255821
2.027360677719116 -2.1001267433166504 0.7821511626243591 84.0 15 -0.049496933817863464
1.0115432739257812 -1.0507818460464478 -0.3908167779445648 6.0 0 -0.049476198852062225
2.019244909286499 -2.0975730419158936 0.05082140862941742 84.0 8 -0.04947389289736748
1.4728734493255615 -1.530542016029358 -0.4903933107852936 1.0 1 -0.04947159066796303
2.027130365371704 -2.10723614692688 0.15323969721794128 81.0 9 -0.04946928471326828
1.466975212097168 -1.5254780054092407 -0.4113842248916626 1.0 2 -0.04946698248386383
2.0228347778320312 -2.1042404174804688 0.25536632537841797 76.0 10 -0.04946467652916908
2.0151453018188477 -2.0962414741516113 -0.46054312586784363 99.0 3 -0.04946237429976463
2.0288150310516357 -2.111198663711548 0.35951459407806396 83.0 11 -0.049460068345069885
2.0229456424713135 -2.1058263778686523 -0.3585396409034729 78.0 4 -0.049457766115665436
2.0263614654541016 -2.110119104385376 0.46335893869400024 82.0 12 -0.049455463886260986
2.0130867958068848 -2.0970282554626465 -0.2543204724788666 80.0 5 -0.04945315793156624
2.036673069000244 -2.1215980052948 0.5716637372970581 74.0 13 -0.04945085570216179
2.02593731880188 -2.111152172088623 -0.15334436297416687 95.0 6 -0.04944854974746704
2.0262773036956787 -2.112244129180908 0.6757529973983765 83.0 14 -0.04944624751806259
2.0096776485443115 -2.095672369003296 -0.050681788474321365 77.0 7 -0.049443941563367844
2.0146701335906982 -2.1016128063201904 0.7800806164741516 86.0 15 -0.049441639333963394
1.0214048624038696 -1.0680924654006958 -0.395993173122406 6.0 0 -0.04942090064287186
2.003619909286499 -2.095935821533203 0.05061197653412819 84.0 8 -0.04941859841346741
1.472907543182373 -1.5413095951080322 -0.49219295382499695 1.0 1 -0.04941629245877266
2.022521734237671 -2.1171875 0.15344904363155365 81.0 9 -0.04941399022936821
1.4998801946640015 -1.5700832605361938 -0.4220695197582245 5.0 2 -0.04941168427467346
2.0103418827056885 -2.105173110961914 0.25466907024383545 79.0 10 -0.04940938204526901
1.9996315240859985 -2.0946896076202393 -0.4586659073829651 97.0 3 -0.04940707981586456
2.010469436645508 -2.106778860092163 0.35756468772888184 83.0 11 -0.049404773861169815
2.0128424167633057 -2.110002279281616 -0.35805216431617737 83.0 4 -0.049402471631765366
2.0189833641052246 -2.1171798706054688 0.46335893869400024 82.0 12 -0.04940016567707062
2.003371477127075 -2.10080885887146 -0.25397181510925293 80.0 5 -0.04939786344766617
2.019772529602051 -2.1187474727630615 0.5689924359321594 81.0 13 -0.04939555749297142
2.004777193069458 -2.103752374649048 -0.15229764580726624 94.0 6 -0.04939325526356697
2.0296449661254883 -2.1305923461914062 0.6793522238731384 86.0 14 -0.04939094930887222
2.00510835647583 -2.1055712699890137 -0.05075160041451454 88.0 7 -0.04938864707946777
2.0046579837799072 -2.1058337688446045 0.7790454030036926 86.0 15 -0.049386341124773026
1.0243217945098877 -1.0786556005477905 -0.3985813558101654 6.0 0 -0.049365606158971786
1.9935380220413208 -2.1000163555145264 0.05054216831922531 81.0 8 -0.04936330020427704
1.463494062423706 -1.5422008037567139 -0.4908432364463806 9.0 1 -0.04936099797487259
1.9986242055892944 -2.106846809387207 0.15219298005104065 84.0 9 -0.04935869574546814
1.517359972000122 -1.5995228290557861 -0.42855700850486755 5.0 2 -0.04935638979077339
2.005722999572754 -2.1150693893432617 0.2550176978111267 79.0 10 -0.04935408756136894
1.9895896911621094 -2.098789691925049 -0.45804017782211304 97.0 3 -0.049351781606674194
1.9976414442062378 -2.108020067214966 0.35658973455429077 83.0 11 -0.049349479377269745
1.9945430755615234 -2.1054866313934326 -0.35610225796699524 78.0 4 -0.049347173422575
2.0102224349975586 -2.1227798461914062 0.46304604411125183 84.0 12 -0.04934487119317055
1.9932864904403687 -2.10489559173584 -0.25362318754196167 83.0 5 -0.0493425652384758
2.008315324783325 -2.1215078830718994 0.5678476095199585 78.0 13 -0.04934026300907135
1.989184856414795 -2.1020336151123047 -0.15166962146759033 99.0 6 -0.0493379570543766
2.0074641704559326 -2.122091770172119 0.6744033098220825 81.0 14 -0.04933565482497215
1.9922505617141724 -2.106745719909668 -0.05061197653412819 81.0 7 -0.049333348870277405
1.9972949028015137 -2.112818717956543 0.7790454030036926 88.0 15 -0.049331046640872955
1.0125980377197266 -1.0737916231155396 -0.3954755365848541 7.0 0 -0.049310311675071716
1.98619544506073 -2.106962203979492 0.05054216831922531 81.0 8 -0.04930800572037697
1.9806660413742065 -2.1018319129943848 -0.666754961013794 90.0 1 -0.04930570349097252
1.9857796430587769 -2.1079952716827393 0.15177428722381592 87.0 9 -0.04930339753627777
1.487536072731018 -1.5790871381759644 -0.42168790102005005 5.0 2 -0.04930109530687332
1.9983282089233398 -2.1220576763153076 0.2550176978111267 79.0 10 -0.049298789352178574
1.9808971881866455 -2.104283571243286 -0.4577272832393646 100.0 3 -0.049296487122774124
1.984829306602478 -2.1091978549957275 0.3556147813796997 82.0 11 -0.049294181168079376
1.9763002395629883 -2.1008689403533936 -0.3541523516178131 80.0 4 -0.04929187893867493
1.9919747114181519 -2.118271827697754 0.46054312586784363 86.0 12 -0.04928957298398018
1.9831972122192383 -2.108937978744507 -0.2532745897769928 80.0 5 -0.04928727075457573
2.0022425651550293 -2.1299357414245605 0.5682291984558105 81.0 13 -0.04928496479988098
1.9777319431304932 -2.104597806930542 -0.15135560929775238 100.0 6 -0.04928266257047653
1.9867020845413208 -2.114882707595825 0.6699042916297913 75.0 14 -0.049280356615781784
1.9753023386001587 -2.103483200073242 -0.05036764591932297 91.0 7 -0.049278054386377335
1.9846187829971313 -2.1141436100006104 0.7769747972488403 88.0 15 -0.04927574843168259
1.0009207725524902 -1.0688589811325073 -0.39236968755722046 7.0 0 -0.04925501346588135
1.970629096031189 -2.105123519897461 0.05033273994922638 81.0 8 -0.0492527112364769
1.9666597843170166 -2.1016182899475098 -0.6645054817199707 71.0 1 -0.04925040528178215
1.9756805896759033 -2.11199688911438 0.15156494081020355 81.0 9 -0.0492481030523777
1.4887210130691528 -1.5914385318756104 -0.42359596490859985 5.0 2 -0.04924579709768295
1.9773000478744507 -2.1144678592681885 0.2532745897769928 79.0 10 -0.0492434948682785
1.9681440591812134 -2.1054131984710693 -0.4564758241176605 100.0 3 -0.049241188913583755
1.977454662322998 -2.1161134243011475 0.3556147813796997 83.0 11 -0.049238886684179306
1.9689548015594482 -2.107754707336426 -0.3541523516178131 85.0 4 -0.04923658072948456
1.9764788150787354 -2.1165497303009033 0.4586659073829651 86.0 12 -0.04923427850008011
1.9676642417907715 -2.1071105003356934 -0.252228707075119 80.0 5 -0.04923197254538536
1.992116093635559 -2.1340415477752686 0.5674660205841064 81.0 13 -0.04922967031598091
1.971736192703247 -2.1129488945007324 -0.15146027505397797 100.0 6 -0.04922736436128616
1.9832954406738281 -2.126079559326172 0.6712539792060852 77.0 14 -0.049225062131881714
1.9611287117004395 -2.103053092956543 -0.050193123519420624 95.0 7 -0.049222759902477264
1.9640541076660156 -2.1069273948669434 0.7717984318733215 86.0 15 -0.049220453947782516
0.9945525527000427 -1.0695170164108276 -0.3913344144821167 6.0 0 -0.04919971898198128
1.9550999402999878 -2.1032018661499023 0.05012331157922745 81.0 8 -0.04919741302728653
1.9606382846832275 -2.1098978519439697 -0.6649553775787354 81.0 1 -0.04919511079788208
1.9682961702346802 -2.1188805103302 0.15156494081020355 84.0 9 -0.04919280484318733
1.4818205833435059 -1.5951871871948242 -0.4232143759727478 5.0 2 -0.04919050261378288
1.9644839763641357 -2.1155169010162354 0.2525773346424103 83.0 10 -0.049188196659088135
1.9540634155273438 -2.105031728744507 -0.4549115002155304 97.0 3 -0.049185894429683685
1.967355489730835 -2.1200926303863525 0.3551272749900818 82.0 11 -0.04918358847498894
1.9561853408813477 -2.1087934970855713 -0.35317739844322205 80.0 4 -0.04918128624558449
1.9677354097366333 -2.1219873428344727 0.4583530128002167 92.0 12 -0.04917898029088974
1.954878330230713 -2.1081223487854004 -0.2515314817428589 83.0 5 -0.04917667806148529
1.9699733257293701 -2.1251444816589355 0.5632681846618652 78.0 13 -0.04917437583208084
1.9562034606933594 -2.1110289096832275 -0.15083225071430206 96.0 6 -0.04917206987738609
1.9771860837936401 -2.1344194412231445 0.6717038750648499 81.0 14 -0.049169767647981644
1.9483407735824585 -2.1040167808532715 -0.05005349963903427 88.0 7 -0.049167461693286896
1.9501259326934814 -2.1066818237304688 0.7692102193832397 91.0 15 -0.049165159463882446
0.9881919026374817 -1.0701435804367065 -0.39029911160469055 7.0 0 -0.04914442077279091
1.9368956089019775 -2.0982584953308105 0.04984407499432564 84.0 8 -0.04914211854338646
1.9426888227462769 -2.105271816253662 -0.6613561511039734 83.0 1 -0.04913981258869171
1.9608879089355469 -2.1257381439208984 0.15156494081020355 84.0 9 -0.04913751035928726
1.476243257522583 -1.6003497838974 -0.4232143759727478 5.0 2 -0.049135204404592514
1.951684832572937 -2.116502523422241 0.25188007950782776 79.0 10 -0.049132902175188065
1.9453644752502441 -2.1103873252868652 -0.454598605632782 107.0 3 -0.04913059622049332
1.9491816759109497 -2.1152689456939697 0.35317739844322205 82.0 11 -0.04912829399108887
1.9515022039413452 -2.1185290813446045 -0.3536648750305176 83.0 4 -0.04912599176168442
1.9563020467758179 -2.124483823776245 0.4574144184589386 86.0 12 -0.04912368580698967
1.942109227180481 -2.1090707778930664 -0.25083422660827637 83.0 5 -0.04912138357758522
1.9492466449737549 -2.117563486099243 0.5594519972801208 78.0 13 -0.04911907762289047
1.9434130191802979 -2.1119656562805176 -0.15041354298591614 100.0 6 -0.04911677539348602
1.9631270170211792 -2.134136915206909 0.6694543957710266 77.0 14 -0.049114469438791275
1.9450453519821167 -2.115220785140991 -0.05015821382403374 98.0 7 -0.049112167209386826
1.941452980041504 -2.1120541095733643 0.7686925530433655 88.0 15 -0.04910986125469208
0.9896729588508606 -1.0792819261550903 -0.39236968755722046 7.0 0 -0.04908912628889084
1.9295594692230225 -2.105006694793701 0.04984407499432564 79.0 8 -0.04908682033419609
1.9221627712249756 -2.097672462463379 -0.6568571329116821 81.0 1 -0.04908451810479164
1.940334677696228 -2.1175036430358887 0.15051822364330292 84.0 9 -0.04908221215009689
1.4786046743392944 -1.6141791343688965 -0.42550405859947205 5.0 2 -0.049079909920692444
1.9442851543426514 -2.123302459716797 0.25188007950782776 85.0 10 -0.049077607691287994
1.9246482849121094 -2.1025941371917725 -0.45146992802619934 100.0 3 -0.049075301736593246
1.931065320968628 -2.1103439331054688 0.3512274920940399 79.0 11 -0.0490729995071888
1.928017258644104 -2.1077511310577393 -0.350739985704422 83.0 4 -0.04907069355249405
1.9479131698608398 -2.1295018196105957 0.4571015536785126 88.0 12 -0.0490683913230896
1.9320464134216309 -2.112896203994751 -0.2504855990409851 83.0 5 -0.04906608536839485
1.941843032836914 -2.124354839324951 0.5594519972801208 78.0 13 -0.0490637831389904
1.9279454946517944 -2.1098902225494385 -0.14978553354740143 100.0 6 -0.049061477184295654
1.9464654922485352 -2.1309046745300293 0.6663050651550293 75.0 14 -0.049059174954891205
1.932625651359558 -2.115753412246704 -0.05001859739422798 88.0 7 -0.04905686900019646
1.9344384670257568 -2.1184802055358887 0.7686925530433655 88.0 15 -0.04905456677079201
0.9885008931159973 -1.0855869054794312 -0.3934049606323242 6.0 0 -0.04903383180499077
1.9198756217956543 -2.1084368228912354 0.04977426677942276 79.0 8 -0.04903152585029602
1.9151960611343384 -2.1040351390838623 -0.6568571329116821 81.0 1 -0.04902922362089157
1.9194895029067993 -2.1094915866851807 0.14947150647640228 81.0 9 -0.04902691766619682
1.4610718488693237 -1.606260061264038 -0.4220695197582245 5.0 2 -0.049024615436792374
1.9368616342544556 -2.1300761699676514 0.25188007950782776 79.0 10 -0.049022309482097626
1.9176653623580933 -2.1089649200439453 -0.45146992802619934 100.0 3 -0.049020007252693176
1.9213858842849731 -2.113797903060913 0.350739985704422 85.0 11 -0.04901770129799843
1.9156771898269653 -2.1082565784454346 -0.34976503252983093 83.0 4 -0.04901539906859398
1.9338269233703613 -2.1289772987365723 0.45553722977638245 86.0 12 -0.04901309311389923
1.921980381011963 -2.1166775226593018 -0.25013697147369385 85.0 5 -0.04901079088449478
1.9361077547073364 -2.1322360038757324 0.5598336458206177 87.0 13 -0.049008484929800034
1.9169108867645264 -2.111835241317749 -0.14947150647640228 100.0 6 -0.049006182700395584
1.927603006362915 -2.124359130859375 0.6622559428215027 77.0 14 -0.049003876745700836
1.9198545217514038 -2.1165618896484375 -0.04987897723913193 95.0 7 -0.04900157451629639
1.9218412637710571 -2.1194956302642822 0.7666220664978027 88.0 15 -0.04899926856160164
0.9874873161315918 -1.091724157333374 -0.394440233707428 8.0 0 -0.0489785335958004
1.9098217487335205 -2.112159013748169 0.049704451113939285 79.0 8 -0.04897623136639595
1.9026130437850952 -2.1049246788024902 -0.6550575494766235 83.0 1 -0.0489739254117012
1.914792537689209 -2.119142532348633 0.14968085289001465 81.0 9 -0.04897162318229675
1.454421043395996 -1.6096394062042236 -0.42168790102005005 5.0 2 -0.048969317227602005
1.9191033840179443 -2.1246590614318848 0.2504855990409851 81.0 10 -0.048967014998197556
1.9155869483947754 -2.1215102672576904 -0.45272138714790344 107.0 3 -0.04896470904350281
1.9166560173034668 -2.123439073562622 0.3512274920940399 83.0 11 -0.04896240681409836
1.908306360244751 -2.1149306297302246 -0.34976503252983093 80.0 4 -0.04896010085940361
1.9171222448349 -2.1254470348358154 0.4533471465110779 88.0 12 -0.04895779862999916
1.9012380838394165 -2.108576774597168 -0.24839386343955994 80.0 5 -0.04895549267530441
1.9233942031860352 -2.1331489086151123 0.5583071708679199 83.0 13 -0.04895319044589996
1.9108648300170898 -2.119997024536133 -0.14957617223262787 96.0 6 -0.048950884491205215
1.9214800596237183 -2.1325225830078125 0.6627058386802673 81.0 14 -0.048948582261800766
1.903086543083191 -2.112849712371826 -0.04963464289903641 84.0 7 -0.04894627630710602
1.9079678058624268 -2.1190130710601807 0.764033854007721 91.0 15 -0.04894397407770157
0.970572829246521 -1.0809615850448608 -0.3892638683319092 7.0 0 -0.04892323911190033
1.8944215774536133 -2.1098849773406982 0.04949502646923065 76.0 8 -0.04892093315720558
1.8978573083877563 -2.1144537925720215 -0.6559573411941528 83.0 1 -0.04891863092780113
1.9073835611343384 -2.1258137226104736 0.14968085289001465 87.0 9 -0.048916324973106384
1.4563766717910767 -1.6237285137176514 -0.4239776134490967 5.0 2 -0.048914022743701935
1.9059830904006958 -2.1257448196411133 0.24978835880756378 81.0 10 -0.04891171678900719
1.8959325551986694 -2.1152782440185547 -0.4499055743217468 111.0 3 -0.04890941455960274
1.906582236289978 -2.12716007232666 0.350739985704422 78.0 11 -0.04890710860490799
1.8982629776000977 -2.118622303009033 -0.3492775857448578 83.0 4 -0.04890480637550354
1.9044195413589478 -2.1262400150299072 0.4520956575870514 88.0 12 -0.04890250042080879
1.8912081718444824 -2.112231492996216 -0.24804525077342987 83.0 5 -0.04890019819140434
1.9129443168640137 -2.137258529663086 0.557543933391571 85.0 13 -0.048897892236709595
1.9030816555023193 -2.126986503601074 -0.14957617223262787 100.0 6 -0.048895590007305145
1.909753680229187 -2.135193109512329 0.6613561511039734 85.0 14 -0.048893287777900696
1.89436674118042 -2.1179897785186768 -0.04959974065423012 95.0 7 -0.04889098182320595
1.8954088687896729 -2.1198995113372803 0.7619633078575134 91.0 15 -0.0488886795938015
0.9745074510574341 -1.0929946899414062 -0.39236968755722046 6.0 0 -0.04886794090270996
1.876031517982483 -2.1048717498779297 0.049215786159038544 79.0 8 -0.04886563867330551
1.8797236680984497 -2.109755516052246 -0.6523581147193909 83.0 1 -0.048863332718610764
1.894636869430542 -2.1264939308166504 0.14926216006278992 84.0 9 -0.048861030489206314
1.44417142868042 -1.621471881866455 -0.4220695197582245 5.0 2 -0.048858724534511566
1.8932515382766724 -2.1264328956604004 0.24909110367298126 79.0 10 -0.04885642230510712
1.8819706439971924 -2.1145055294036865 -0.4483412504196167 107.0 3 -0.04885411635041237
1.88557767868042 -2.1193032264709473 0.34830260276794434 79.0 11 -0.04885181412100792
1.88784658908844 -2.122598648071289 -0.34879010915756226 80.0 4 -0.04884950816631317
1.9035500288009644 -2.1402549743652344 0.4536600112915039 100.0 12 -0.04884720593690872
1.8838236331939697 -2.1188204288482666 -0.24804525077342987 80.0 5 -0.04884490370750427
1.8924299478530884 -2.1292483806610107 0.5537277460098267 81.0 13 -0.048842597752809525
1.8823798894882202 -2.118685483932495 -0.14852945506572723 94.0 6 -0.048840295523405075
1.9035829305648804 -2.143303394317627 0.661806046962738 81.0 14 -0.04883798956871033
1.8803222179412842 -2.1171133518218994 -0.049425214529037476 91.0 7 -0.04883568733930588
1.8803019523620605 -2.11783504486084 0.7588574886322021 92.0 15 -0.04883338138461113
0.970686137676239 -1.0963897705078125 -0.39236968755722046 6.0 0 -0.04881264641880989
1.869041085243225 -2.11108136177063 0.049215786159038544 81.0 8 -0.04881034046411514
1.864968180656433 -2.1072216033935547 -0.649658739566803 83.0 1 -0.04880803823471069
1.8805854320526123 -2.125615119934082 0.1487388014793396 84.0 9 -0.048805732280015945
1.450208067893982 -1.6397385597229004 -0.42550405859947205 6.0 2 -0.048803430050611496
1.8831781148910522 -2.1300435066223145 0.24874247610569 83.0 10 -0.048801127821207047
1.8736399412155151 -2.1192548274993896 -0.4480283558368683 111.0 3 -0.0487988218665123
1.8759104013442993 -2.1225693225860596 0.3478151261806488 76.0 11 -0.04879651963710785
1.8676543235778809 -2.1139707565307617 -0.3463527262210846 78.0 4 -0.0487942136824131
1.8829909563064575 -2.132080316543579 0.4505313038825989 86.0 12 -0.04879191145300865
1.8711415529251099 -2.11940860748291 -0.24734798073768616 80.0 5 -0.048789605498313904
1.8827600479125977 -2.132568597793579 0.5529645085334778 85.0 13 -0.048787303268909454
1.870057463645935 -2.1189262866973877 -0.1481107771396637 100.0 6 -0.048784997314214706
1.8861513137817383 -2.137913465499878 0.6582068204879761 91.0 14 -0.04878269508481026
1.8729206323623657 -2.123664140701294 -0.049425214529037476 91.0 7 -0.04878038913011551
1.8728978633880615 -2.1243855953216553 0.7588574886322021 94.0 15 -0.04877808690071106
0.968320906162262 -1.101053237915039 -0.3928873538970947 6.0 0 -0.04875734820961952
1.8590198755264282 -2.114588975906372 0.049145977944135666 81.0 8 -0.04875504598021507
1.852455496788025 -2.107863426208496 -0.6478590965270996 81.0 1 -0.04875274375081062
1.86524498462677 -2.123163938522339 0.1481107771396637 81.0 9 -0.048750437796115875
1.4382838010787964 -1.6371641159057617 -0.42359596490859985 5.0 2 -0.048748135566711426
1.87873375415802 -2.139270544052124 0.24909110367298126 75.0 10 -0.04874582961201668
1.8597147464752197 -2.1183598041534424 -0.44646400213241577 107.0 3 -0.04874352738261223
1.8658711910247803 -2.1261205673217773 0.34732764959335327 78.0 11 -0.04874122142791748
1.8524090051651 -2.1115238666534424 -0.3448902666568756 73.0 4 -0.04873891919851303
