# .PCD v0.7 - Point Cloud Data file format
VERSION 0.7
FIELDS x y z intensity ring time
SIZE 4 4 4 4 4 4
TYPE F F F F F F
COUNT 1 1 1 1 1 1
WIDTH 542
HEIGHT 1
VIEWPOINT 0 0 0 1 0 0 0
POINTS 542
DATA ascii
-2.500622272491455 6.348203659057617 -0.11909522116184235 1.0 7 -0.009274889715015888
-2.532196283340454 6.431641578674316 1.8521090745925903 47.0 15 -0.00927258562296629
-0.9456751942634583 2.4118406772613525 -0.6941527128219604 19.0 0 -0.009251849725842476
-0.8182931542396545 2.0869667530059814 0.039128296077251434 3.0 8 -0.009249545633792877
-0.9535189867019653 2.433091163635254 -0.6033187508583069 13.0 1 -0.009247242473065853
-0.8078274130821228 2.0623927116394043 0.11608116328716278 2.0 9 -0.009244938381016254
-0.8538392782211304 2.1809823513031006 -0.45527029037475586 7.0 2 -0.009242634288966656
-0.8124006986618042 2.0761992931365967 0.1950545459985733 1.0 10 -0.009240330196917057
-0.9227922558784485 2.3583195209503174 -0.40109801292419434 2.0 3 -0.009238026104867458
-2.5284130573272705 6.465034008026123 0.8523542881011963 86.0 11 -0.00923572201281786
-0.8795268535614014 2.2500665187835693 -0.29662999510765076 2.0 4 -0.009233417920768261
-2.5238595008850098 6.460027694702148 1.0984829664230347 67.0 12 -0.009231113828718662
-0.8819716572761536 2.258645534515381 -0.21213705837726593 1.0 5 -0.009228809736669064
-2.52010178565979 6.453741073608398 1.3467299938201904 100.0 13 -0.009226505644619465
-0.8706613183021545 2.230829954147339 -0.1255016326904297 1.0 6 -0.00922420248389244
-2.519775390625 6.459549903869629 1.6007517576217651 100.0 14 -0.009221898391842842
-2.4711849689483643 6.33826208114624 -0.11874617636203766 1.0 7 -0.009219594299793243
-2.5055201053619385 6.429642200469971 1.8490034341812134 47.0 15 -0.009217290207743645
-0.9698373079299927 2.497803211212158 -0.7179640531539917 1.0 0 -0.009196554310619831
-0.8081099390983582 2.082353353500366 0.03898867964744568 3.0 8 -0.009194250218570232
-0.9520666599273682 2.454573631286621 -0.6078177690505981 2.0 1 -0.009191946126520634
-0.7955703139305115 2.052164316177368 0.1153484508395195 2.0 9 -0.009189642034471035
-0.844473659992218 2.178309917449951 -0.45412543416023254 8.0 2 -0.009187337942421436
-0.8026313781738281 2.071450710296631 0.19435729086399078 1.0 10 -0.009185033850371838
-0.9145539402961731 2.3615267276763916 -0.40109801292419434 2.0 3 -0.009182729758322239
-2.501532554626465 6.462711811065674 0.8508918285369873 82.0 11 -0.00918042566627264
-0.8716678023338318 2.2531228065490723 -0.29662999510765076 3.0 4 -0.009178122505545616
-2.5005805492401123 6.466956615447998 1.0981700420379639 65.0 12 -0.009175818413496017
-0.8744773268699646 2.2615578174591064 -0.21213705837726593 1.0 5 -0.009173514321446419
-2.4933135509490967 6.451510429382324 1.3444403409957886 97.0 13 -0.00917121022939682
-0.8628694415092468 2.2338554859161377 -0.1255016326904297 1.0 6 -0.009168906137347221
-2.494403123855591 6.461035251617432 1.5989521741867065 100.0 14 -0.009166602045297623
-2.4260101318359375 6.287148952484131 -0.11762922257184982 1.0 7 -0.009164297953248024
-2.4802815914154053 6.431138038635254 1.8469327688217163 47.0 15 -0.009161993861198425
-0.9430965185165405 2.45428729057312 -0.704505443572998 1.0 0 -0.009141257964074612
-0.8115909695625305 2.1131625175476074 0.03951225057244301 7.0 8 -0.009138953872025013
-0.7905487418174744 2.0605227947235107 0.11566247045993805 2.0 9 -0.009134345687925816
-0.8424912095069885 2.195908308029175 -0.45717838406562805 11.0 2 -0.009132042527198792
-0.7953961491584778 2.074239730834961 0.19435729086399078 2.0 10 -0.009129738435149193
-0.9034767150878906 2.3573267459869385 -0.39984655380249023 2.0 3 -0.009127434343099594
-2.4754090309143066 6.462135314941406 0.8496730923652649 88.0 11 -0.009125130251049995
-0.8602492213249207 2.246882200241089 -0.29541128873825073 3.0 4 -0.009122826159000397
-2.477283477783203 6.473801612854004 1.097857117652893 67.0 12 -0.009120522066950798
-0.8722735643386841 2.2794833183288574 -0.21353155374526978 1.0 5 -0.0091182179749012
-2.469377040863037 6.456506252288818 1.343677043914795 100.0 13 -0.0091159138828516
-0.8365241885185242 2.1883485317230225 -0.12278016656637192 1.0 6 -0.009113609790802002
-2.4669642448425293 6.456960678100586 1.595802903175354 100.0 14 -0.009111305698752403
-2.422595262527466 6.344151020050049 -0.11853674799203873 1.0 7 -0.009109001606702805
-2.4578161239624023 6.439757347106934 1.8469327688217163 47.0 15 -0.00910669844597578
-1.1961344480514526 3.145538091659546 -0.9017255902290344 4.0 0 -0.009085961617529392
-0.8027881979942322 2.112244129180908 0.03944243863224983 8.0 8 -0.009083658456802368
-0.7833508253097534 2.063270092010498 0.11566247045993805 2.0 9 -0.00907905027270317
-0.8292456269264221 2.184152603149414 -0.45412543416023254 11.0 2 -0.009076746180653572
-0.7938052415847778 2.0919060707092285 0.19575178623199463 1.0 10 -0.009074442088603973
-0.8861365914344788 2.3364551067352295 -0.39577925205230713 2.0 3 -0.009072137996554375
-2.452131509780884 6.468881130218506 0.8494293689727783 86.0 11 -0.009069833904504776
-0.8488837480545044 2.2405898571014404 -0.2941926121711731 3.0 4 -0.009067529812455177
-2.450474739074707 6.471324920654297 1.0959800481796265 67.0 12 -0.009065225720405579
-0.8512192368507385 2.2491235733032227 -0.21039395034313202 1.0 5 -0.00906292162835598
-2.4468228816986084 6.465087413787842 1.343677043914795 100.0 13 -0.009060618467628956
-0.8529062271118164 2.2547695636749268 -0.12633900344371796 1.0 6 -0.009058314375579357
-2.440276622772217 6.45459508895874 1.5931034088134766 100.0 14 -0.009056010283529758
-2.4075047969818115 6.371273994445801 -0.11888579279184341 1.0 7 -0.00905370619148016
-2.435323476791382 6.448296546936035 1.8469327688217163 47.0 15 -0.009051402099430561
-1.1920784711837769 3.1697912216186523 -0.9074196219444275 5.0 0 -0.009030666202306747
-0.7982263565063477 2.1225202083587646 0.039582058787345886 8.0 8 -0.009028362110257149
-1.358269453048706 3.613614797592163 -0.8912561535835266 1.0 1 -0.00902605801820755
-0.7789539694786072 2.0734705924987793 0.11608116328716278 2.0 9 -0.009023753926157951
-0.8191648721694946 2.1816630363464355 -0.45298057794570923 13.0 2 -0.009021449834108353
-0.7749326229095459 2.064955234527588 0.19296279549598694 1.0 10 -0.009019145742058754
-0.8838110566139221 2.356332778930664 -0.39859506487846375 2.0 3 -0.009016841650009155
-2.42814302444458 6.473683834075928 0.8489419221878052 88.0 11 -0.009014538489282131
-0.8375728130340576 2.234245777130127 -0.29297390580177307 3.0 4 -0.009012234397232533
-2.4244067668914795 6.470589637756348 1.0944156646728516 78.0 12 -0.009009930305182934
-0.8629269599914551 2.3043253421783447 -0.21527467668056488 1.0 5 -0.009007626213133335
-2.4217326641082764 6.470335006713867 1.3429137468338013 100.0 13 -0.009005322121083736
-0.8334404826164246 2.227949857711792 -0.12466426193714142 1.0 6 -0.009003018029034138
-2.4166014194488525 6.463496208190918 1.5931034088134766 100.0 14 -0.009000713936984539
-2.40738844871521 6.442282676696777 1.8427916765213013 46.0 15 -0.008996105752885342
-1.17965829372406 3.1703121662139893 -0.906384289264679 6.0 0 -0.008975369855761528
-0.7876527309417725 2.1179347038269043 0.03944243863224983 9.0 8 -0.00897306576371193
-1.3477307558059692 3.62587571144104 -0.8930557370185852 3.0 1 -0.00897076167166233
-0.7654480934143066 2.059328079223633 0.11513911187648773 8.0 9 -0.008968458510935307
-0.8149623274803162 2.193711280822754 -0.4548886716365814 12.0 2 -0.008966154418885708
-0.7677192687988281 2.067647933959961 0.19296279549598694 1.0 10 -0.00896385032683611
-0.8645836710929871 2.3297722339630127 -0.3935891389846802 1.0 3 -0.00896154623478651
-2.403017282485962 6.478817939758301 0.848454475402832 86.0 11 -0.008959242142736912
-0.8307588696479797 2.241023302078247 -0.293461412191391 3.0 4 -0.008956938050687313
-2.3997437953948975 6.473457336425781 1.0934770107269287 76.0 12 -0.008954633958637714
-0.8521096706390381 2.2998499870300293 -0.21457743644714355 1.0 5 -0.008952329866588116
-2.396406650543213 6.471384525299072 1.3413872718811035 100.0 13 -0.008950025774538517
-0.8312036395072937 2.2458302974700928 -0.1255016326904297 1.0 6 -0.008947721682488918
-2.392673969268799 6.468236923217773 1.5922037363052368 100.0 14 -0.008945418521761894
-2.3822076320648193 6.4433979988098145 1.8407211303710938 45.0 15 -0.008940810337662697
-1.147896409034729 3.1182100772857666 -0.8903375267982483 4.0 0 -0.008920074440538883
-0.779934823513031 2.1186585426330566 0.03940753638744354 9.0 8 -0.008917770348489285
-1.2663918733596802 3.4419503211975098 -0.8467158079147339 3.0 1 -0.008915466256439686
-0.7623914480209351 2.0732345581054688 0.11576715111732483 8.0 9 -0.008913162164390087
-0.8059457540512085 2.192857027053833 -0.45412543416023254 11.0 2 -0.008910858072340488
-0.7687405943870544 2.0927579402923584 0.1950545459985733 1.0 10 -0.00890855398029089
-0.8554902076721191 2.32891845703125 -0.3929634094238281 2.0 3 -0.008906249888241291
-2.3760476112365723 6.471842288970947 0.8465045094490051 88.0 11 -0.008903945796191692
-0.8260584473609924 2.2512199878692627 -0.29443636536598206 3.0 4 -0.008901641704142094
-2.3771309852600098 6.481794834136963 1.0934770107269287 76.0 12 -0.00889933854341507
-2.3708808422088623 6.468235492706299 1.3390976190567017 97.0 13 -0.008894730359315872
-0.8292483687400818 2.2635772228240967 -0.12633900344371796 1.0 6 -0.008892426267266273
-2.3718795776367188 6.47796630859375 1.5926536321640015 100.0 14 -0.008890122175216675
-0.8232839703559875 2.2497270107269287 -0.04181596636772156 1.0 7 -0.008887818083167076
-2.3597028255462646 6.45167350769043 1.8407211303710938 46.0 15 -0.008885513991117477
-1.1064647436141968 3.036689281463623 -0.8660085797309875 33.0 0 -0.008864778093993664
-0.7725350260734558 2.121367931365967 0.03940753638744354 9.0 8 -0.008862474001944065
-1.1057372093200684 3.0379889011383057 -0.7463876008987427 60.0 1 -0.008860169909894466
-0.7524181604385376 2.068375587463379 0.1153484508395195 9.0 9 -0.008857865817844868
-0.7993401885032654 2.1973628997802734 -0.45450708270072937 9.0 2 -0.008855561725795269
-0.7522668838500977 2.0690805912017822 0.19261418282985687 1.0 10 -0.00885325763374567
-0.84330815076828 2.3207507133483887 -0.3910861909389496 1.0 3 -0.008850954473018646
-2.3527626991271973 6.478231430053711 0.8462607860565186 88.0 11 -0.008848650380969048
-0.8161637187004089 2.2484915256500244 -0.29370513558387756 3.0 4 -0.008846346288919449
-2.351123809814453 6.480768203735352 1.0919127464294434 78.0 12 -0.00884404219686985
-2.3476171493530273 6.474626541137695 1.3387160301208496 87.0 13 -0.008839434012770653
-0.8158974647521973 2.251436233520508 -0.1255016326904297 1.0 6 -0.008837129920721054
-2.3452723026275635 6.475212097167969 1.589954137802124 100.0 14 -0.008834825828671455
-2.3358516693115234 6.456238746643066 1.8396857976913452 46.0 15 -0.008830217644572258
-1.0965136289596558 3.0423502922058105 -0.866526186466217 36.0 0 -0.008809481747448444
-0.7671579122543335 2.1296958923339844 0.03951225057244301 7.0 8 -0.008807177655398846
-1.09710693359375 3.047330379486084 -0.7477373480796814 63.0 1 -0.008804874494671822
-0.7384318709373474 2.0521962642669678 0.11430173367261887 9.0 9 -0.008802570402622223
-0.7910008430480957 2.1982920169830322 -0.45412543416023254 10.0 2 -0.008800266310572624
-0.7517817616462708 2.090442419052124 0.19435729086399078 1.0 10 -0.008797962218523026
-0.8519067168235779 2.3701536655426025 -0.39890795946121216 2.0 3 -0.008795658126473427
-2.3281233310699463 6.480800151824951 0.8455295562744141 88.0 11 -0.008793354034423828
-0.8083094358444214 2.2513267993927 -0.29370513558387756 3.0 4 -0.00879104994237423
-2.3278214931488037 6.487074851989746 1.0915998220443726 76.0 12 -0.00878874585032463
-0.8351120948791504 2.3272554874420166 -0.21632054448127747 1.0 5 -0.008786441758275032
-2.3256664276123047 6.484629154205322 1.3390976190567017 92.0 13 -0.008784137666225433
-0.797251284122467 2.2241883277893066 -0.12382689118385315 1.0 6 -0.00878183450549841
-2.318713426589966 6.47235107421875 1.5872547626495361 100.0 14 -0.00877953041344881
-2.3133022785186768 6.464352607727051 1.8396857976913452 46.0 15 -0.008774922229349613
-1.0806983709335327 3.031601667404175 -0.862385094165802 24.0 0 -0.0087541863322258
-0.7590474486351013 2.1304771900177 0.03947734460234642 3.0 8 -0.0087518822401762
-1.0831952095031738 3.041961908340454 -0.7454878091812134 60.0 1 -0.008749578148126602
-0.739662766456604 2.07721209526062 0.11555780470371246 3.0 9 -0.008747274056077003
-0.7839812636375427 2.2028892040252686 -0.45450708270072937 9.0 2 -0.008744969964027405
-0.7444796562194824 2.0930540561676025 0.19435729086399078 1.0 10 -0.008742665871977806
-0.8489208221435547 2.388003349304199 -0.40141090750694275 2.0 3 -0.008740361779928207
-2.3068175315856934 6.49262809753418 0.846017062664032 86.0 11 -0.008738057687878609
-0.8037667274475098 2.263488292694092 -0.2949238419532776 3.0 4 -0.00873575359582901
-2.3003458976745605 6.478006362915039 1.0887839794158936 78.0 12 -0.008733450435101986
-0.8269827365875244 2.3301565647125244 -0.21632054448127747 1.0 5 -0.008731146343052387
-2.3030147552490234 6.492708683013916 1.3390976190567017 95.0 13 -0.008728842251002789
-0.8001596331596375 2.257077217102051 -0.1255016326904297 1.0 6 -0.00872653815895319
-2.293501615524292 6.473058700561523 1.5854551792144775 100.0 14 -0.008724234066903591
-2.2866926193237305 6.457420825958252 1.8355448246002197 46.0 15 -0.008719625882804394
-1.0707510709762573 3.037177562713623 -0.8629027009010315 3.0 0 -0.00869888998568058
-0.750649094581604 2.1292107105255127 0.03940753638744354 3.0 8 -0.008696585893630981
-1.0705103874206543 3.0381858348846436 -0.7436882257461548 59.0 1 -0.008694281801581383
-0.7357238531112671 2.089200735092163 0.11608116328716278 2.0 9 -0.008691977709531784
-0.7762864232063293 2.2056126594543457 -0.45450708270072937 9.0 2 -0.008689673617482185
-0.7345249056816101 2.0881221294403076 0.19366006553173065 1.0 10 -0.008687370456755161
-0.8364092707633972 2.377760887145996 -0.3992207944393158 1.0 3 -0.008685066364705563
-2.284614324569702 6.4983696937561035 0.8457733392715454 90.0 11 -0.008682762272655964
-0.79691481590271 2.2680139541625977 -0.29516759514808655 3.0 4 -0.008680458180606365
-2.2783753871917725 6.487860202789307 1.0890969038009644 76.0 12 -0.008678154088556767
-0.8188443779945374 2.33302903175354 -0.21632054448127747 1.0 5 -0.008675849996507168
-2.2762715816497803 6.485490322113037 1.3360446691513062 95.0 13 -0.008673545904457569
-0.7794488072395325 2.222024917602539 -0.12340819090604782 1.0 6 -0.00867124181240797
-2.273959159851074 6.48614501953125 1.5868048667907715 100.0 14 -0.008668937720358372
-0.7591239213943481 2.166504144668579 -0.04007072374224663 1.0 7 -0.008666634559631348
-2.262223482131958 6.459892749786377 1.8339918851852417 46.0 15 -0.008664330467581749
-1.0536751747131348 3.020646810531616 -0.8572087287902832 10.0 0 -0.00864359363913536
-0.7438697814941406 2.1337060928344727 0.03944243863224983 2.0 8 -0.008641290478408337
-1.0554108619689941 3.029022216796875 -0.7405388951301575 64.0 1 -0.008638986386358738
-0.7303977608680725 2.09741473197937 0.11639518290758133 2.0 9 -0.00863668229430914
-0.7721967101097107 2.217444896697998 -0.4564151465892792 9.0 2 -0.00863437820225954
-0.7275958061218262 2.0905466079711914 0.19366006553173065 1.0 10 -0.008632074110209942
-0.8099331259727478 2.328425645828247 -0.39046046137809753 1.0 3 -0.008629770018160343
-2.2560484409332275 6.4894304275512695 0.8435796499252319 82.0 11 -0.008627465926110744
-0.7909471392631531 2.2764077186584473 -0.29589879512786865 3.0 4 -0.008625161834061146
-2.256363868713379 6.497638702392578 1.0894097089767456 78.0 12 -0.008622857742011547
-0.7888817191123962 2.2717385292053223 -0.21039395034313202 1.0 5 -0.008620553649961948
-2.2497551441192627 6.482268333435059 1.3337548971176147 97.0 13 -0.008618250489234924
-0.7782323360443115 2.2436017990112305 -0.12445490807294846 1.0 6 -0.008615946397185326
-2.2506675720214844 6.492202281951904 1.5863549709320068 100.0 14 -0.008613642305135727
-0.7685775756835938 2.2182681560516357 -0.04097824916243553 1.0 7 -0.008611338213086128
-2.2390267848968506 6.4659247398376465 1.8334741592407227 46.0 15 -0.00860903412103653
-1.046903133392334 3.035264015197754 -0.8603145480155945 2.0 0 -0.008588298223912716
-0.7383728623390198 2.1419613361358643 0.0395471528172493 3.0 8 -0.008585994131863117
-1.042291283607483 3.0253183841705322 -0.7387393116950989 61.0 1 -0.008583690039813519
-0.7198200225830078 2.0905089378356934 0.11587180942296982 1.0 9 -0.00858138594776392
-0.7644510865211487 2.2201268672943115 -0.4564151465892792 6.0 2 -0.008579081855714321
-0.7280744314193726 2.1156809329986572 0.19575178623199463 1.0 10 -0.008576777763664722
-0.8069395422935486 2.3461825847625732 -0.3929634094238281 1.0 3 -0.008574473671615124
-2.230802536010742 6.4897565841674805 0.8426047563552856 86.0 11 -0.0085721705108881
-0.7778368592262268 2.2641353607177734 -0.2939488887786865 3.0 4 -0.008569866418838501
-2.2311012744903564 6.498003005981445 1.0881582498550415 78.0 12 -0.008567562326788902
-0.7990629076957703 2.327242136001587 -0.21527467668056488 1.0 5 -0.008565258234739304
-2.2258410453796387 6.486367702484131 1.3329917192459106 100.0 13 -0.008562954142689705
-0.7872428297996521 2.295424699783325 -0.12717638909816742 1.0 6 -0.008560650050640106
-2.2223029136657715 6.483428001403809 1.5823057889938354 100.0 14 -0.008558345958590508
-0.7763838171958923 2.2663400173187256 -0.04181596636772156 1.0 7 -0.008556041866540909
-2.215818405151367 6.4718732833862305 1.8329565525054932 46.0 15 -0.00855373777449131
-1.0356789827346802 3.037071466445923 -0.859796941280365 1.0 0 -0.008533001877367496
-0.7315370440483093 2.146418333053589 0.039582058787345886 7.0 8 -0.008530697785317898
-1.031725287437439 3.028937816619873 -0.7387393116950989 60.0 1 -0.008528393693268299
-0.7138062119483948 2.096790313720703 0.11608116328716278 1.0 9 -0.008526090532541275
-0.7529010772705078 2.2116305828094482 -0.45412543416023254 6.0 2 -0.008523786440491676
-0.728386402130127 2.1408438682556152 0.197843536734581 1.0 10 -0.008521482348442078
-0.8000162839889526 2.3527257442474365 -0.3935891389846802 2.0 3 -0.008519178256392479
-2.208136796951294 6.497503280639648 0.8426047563552856 86.0 11 -0.00851687416434288
-0.7692908048629761 2.2649567127227783 -0.29370513558387756 2.0 4 -0.008514570072293282
-2.206498622894287 6.5001397132873535 1.0872197151184082 81.0 12 -0.008512265980243683
-0.7943689227104187 2.34147572517395 -0.21632054448127747 1.0 5 -0.008509961888194084
-2.2031872272491455 6.494097709655762 1.3329917192459106 97.0 13 -0.008507657796144485
-0.7689645886421204 2.267894744873047 -0.1255016326904297 1.0 6 -0.008505353704094887
-2.1971545219421387 6.483763694763184 1.5805062055587769 100.0 14 -0.008503049612045288
-2.1938345432281494 6.481398105621338 1.8334741592407227 46.0 15 -0.008498442359268665
-1.0177562236785889 3.0207087993621826 -0.8541029095649719 2.0 0 -0.008477706462144852
-0.7240406274795532 2.148958444595337 0.039582058787345886 6.0 8 -0.008475402370095253
-1.0199013948440552 3.028827428817749 -0.7378395199775696 67.0 1 -0.008473098278045654
-0.724319338798523 2.1522717475891113 0.11901197582483292 1.0 9 -0.008470794185996056
-0.7435376644134521 2.210653781890869 -0.45336219668388367 6.0 2 -0.008468490093946457
-2.193979263305664 6.526813507080078 0.602420449256897 2.0 10 -0.008466186001896858
-0.7857264280319214 2.338789224624634 -0.39077335596084595 2.0 3 -0.00846388190984726
-2.185441017150879 6.505172252655029 0.8426047563552856 82.0 11 -0.00846157781779766
-0.7613793015480042 2.2676284313201904 -0.29370513558387756 2.0 4 -0.008459273725748062
-2.1781411170959473 6.490947246551514 1.0844038724899292 83.0 12 -0.008456969633698463
-0.8026615381240845 2.393348217010498 -0.22085265815258026 1.0 5 -0.00845466647297144
-2.179368495941162 6.502129554748535 1.3329917192459106 100.0 13 -0.00845236238092184
-0.7606465816497803 2.270698070526123 -0.1255016326904297 1.0 6 -0.008450058288872242
-2.17337703704834 6.491772651672363 1.5805062055587769 100.0 14 -0.008447754196822643
-0.7453065514564514 2.2261946201324463 -0.04097824916243553 1.0 7 -0.008445450104773045
-2.1662914752960205 6.474360942840576 1.8293330669403076 46.0 15 -0.008443146012723446
-1.002321481704712 3.009580135345459 -0.8499617576599121 10.0 0 -0.008422410115599632
-0.7199481725692749 2.162982225418091 0.03979148715734482 2.0 8 -0.008420106023550034
-1.0100243091583252 3.036243200302124 -0.7387393116950989 72.0 1 -0.008417801931500435
-0.737675130367279 2.218824863433838 -0.45450708270072937 6.0 2 -0.008413193747401237
-2.166158676147461 6.51930570602417 0.6010259985923767 64.0 10 -0.008410889655351639
-0.7744455337524414 2.332144021987915 -0.38920900225639343 1.0 3 -0.008408586494624615
-2.160334825515747 6.509369850158691 0.8421172499656677 86.0 11 -0.008406282402575016
-0.753063440322876 2.2704036235809326 -0.29370513558387756 2.0 4 -0.008403978310525417
-2.1562020778656006 6.50451135635376 1.0853424072265625 81.0 12 -0.008401674218475819
-0.7629569172859192 2.3015756607055664 -0.21213705837726593 1.0 5 -0.00839937012642622
-2.1541900634765625 6.502242088317871 1.331465244293213 100.0 13 -0.008397066034376621
-0.7677830457687378 2.3188440799713135 -0.1280137598514557 1.0 6 -0.008394761942327023
-2.152541399002075 6.50486946105957 1.5818560123443604 100.0 14 -0.008392457850277424
-0.7208174467086792 2.179548740386963 -0.04007072374224663 1.0 7 -0.008390153758227825
-2.1389107704162598 6.471251010894775 1.8262271881103516 46.0 15 -0.008387849666178226
-0.9978494644165039 3.0314109325408936 -0.8551381826400757 21.0 0 -0.008367113769054413
-0.7117680311203003 2.1635828018188477 0.03975658118724823 2.0 8 -0.008364809677004814
-0.9951596856117249 3.0267913341522217 -0.7355900406837463 20.0 1 -0.008362505584955215
-0.7338389158248901 2.233297824859619 0.12319885194301605 1.0 9 -0.008360202424228191
-0.731763482093811 2.2269816398620605 -0.4556518793106079 5.0 2 -0.008357898332178593
-2.1471166610717773 6.5381855964660645 0.6020718812942505 82.0 10 -0.008355594240128994
-0.7626034617424011 2.3235719203948975 -0.3873317837715149 1.0 3 -0.008353290148079395
-2.1351230144500732 6.509326934814453 0.8411422967910767 84.0 11 -0.008350986056029797
-0.7500800490379333 2.288109302520752 -0.2956550419330597 2.0 4 -0.008348681963980198
-2.1340975761413574 6.513876914978027 1.0856553316116333 83.0 12 -0.0083463778719306
-2.1278131008148193 6.498528480529785 1.329175591468811 97.0 13 -0.008341769687831402
-0.7323522567749023 2.2379889488220215 -0.12340819090604782 1.0 6 -0.008339466527104378
-2.1280031204223633 6.5067877769470215 1.5805062055587769 100.0 14 -0.008337162435054779
-0.7442675232887268 2.2770891189575195 -0.04181596636772156 1.0 7 -0.00833485834300518
-2.1181068420410156 6.484187602996826 1.8277801275253296 46.0 15 -0.008332554250955582
-0.992641031742096 3.0514092445373535 -0.859796941280365 54.0 0 -0.008311818353831768
-0.7023570537567139 2.160348892211914 0.039651867002248764 1.0 8 -0.00830951426178217
-0.9815763235092163 3.0209801197052 -0.7333405017852783 3.0 1 -0.00830721016973257
-0.7264293432235718 2.2357189655303955 0.12319885194301605 1.0 9 -0.008304906077682972
-0.7306557297706604 2.2500622272491455 -0.45984968543052673 5.0 2 -0.008302601985633373
-2.1218223571777344 6.538059711456299 0.6013745665550232 88.0 10 -0.008300297893583775
-0.7605830430984497 2.3450098037719727 -0.39046046137809753 1.0 3 -0.008297993801534176
-2.1087167263031006 6.505409240722656 0.8396798372268677 86.0 11 -0.008295689709484577
-0.7384182214736938 2.2793827056884766 -0.2941926121711731 2.0 4 -0.008293386548757553
-2.11187744140625 6.51903772354126 1.0853424072265625 81.0 12 -0.008291082456707954
-2.1051173210144043 6.505915641784668 1.329175591468811 100.0 13 -0.008286474272608757
-0.7294525504112244 2.25573468208313 -0.12424556910991669 1.0 6 -0.008284170180559158
-2.101682662963867 6.503049850463867 1.577806830406189 100.0 14 -0.00828186608850956
-2.0954067707061768 6.487499237060547 1.8267449140548706 46.0 15 -0.008277257904410362
-0.9884874224662781 3.0750861167907715 -0.8654909133911133 39.0 0 -0.008256522007286549
-0.7037571668624878 2.1893186569213867 0.040140535682439804 1.0 8 -0.00825421791523695
-1.3059717416763306 4.067627429962158 0.22389325499534607 1.0 9 -0.008249609731137753
-0.7185987830162048 2.239513397216797 -0.45717838406562805 4.0 2 -0.008247306570410728
-2.097769021987915 6.541632175445557 0.6010259985923767 90.0 10 -0.00824500247836113
-0.7576274871826172 2.362567186355591 -0.3929634094238281 1.0 3 -0.008242698386311531
-2.0871307849884033 6.512366771697998 0.8396798372268677 86.0 11 -0.008240394294261932
-0.7260118722915649 2.2666947841644287 -0.29224270582199097 2.0 4 -0.008238090202212334
-2.086698055267334 6.518845558166504 1.0840909481048584 85.0 12 -0.008235786110162735
-2.0835297107696533 6.512861251831055 1.329175591468811 100.0 13 -0.008231177926063538
-0.7353497743606567 2.2999937534332275 -0.12654836475849152 1.0 6 -0.008228873834013939
-2.0765457153320312 6.498846054077148 1.5751073360443115 100.0 14 -0.00822656974196434
-2.071575164794922 6.491092205047607 1.825709581375122 46.0 15 -0.008221961557865143
-0.9829645156860352 3.093076229095459 -0.8696320056915283 25.0 0 -0.008201226592063904
-0.7154800891876221 2.2527501583099365 0.04125748947262764 1.0 8 -0.008198922500014305
-0.7570010423660278 2.38492488861084 -0.5776743292808533 1.0 1 -0.008196618407964706
-1.283311128616333 4.04550838470459 0.2224278301000595 1.0 9 -0.008194314315915108
-0.7093868851661682 2.2362701892852783 -0.45603352785110474 2.0 2 -0.008192010223865509
-2.070044994354248 6.529560565948486 0.5992828607559204 93.0 10 -0.00818970613181591
-0.7553429007530212 2.384028673171997 -0.39609211683273315 2.0 3 -0.008187402039766312
-2.0655856132507324 6.523397445678711 0.8401673436164856 88.0 11 -0.008185097947716713
-0.7252815365791321 2.291926622390747 -0.29516759514808655 3.0 4 -0.008182793855667114
-2.0603580474853516 6.514788627624512 1.0822137594223022 85.0 12 -0.008180489763617516
-2.061967372894287 6.523838043212891 1.3299387693405151 100.0 13 -0.008175881579518318
-0.7261130213737488 2.2987375259399414 -0.12633900344371796 1.0 6 -0.008173578418791294
-2.053262710571289 6.504196643829346 1.5746575593948364 100.0 14 -0.008171274326741695
-2.046578884124756 6.490914821624756 1.823639154434204 46.0 15 -0.008166666142642498
-0.9860503673553467 3.1407241821289062 -0.8820553421974182 7.0 0 -0.008145930245518684
-0.7300135493278503 2.328049898147583 -0.5632774829864502 1.0 1 -0.008141322061419487
-1.262015700340271 4.027092933654785 0.2211717814207077 1.0 9 -0.008139017969369888
-0.6980543732643127 2.227491855621338 -0.4537437856197357 1.0 2 -0.00813671387732029
-2.0454516410827637 6.53104305267334 0.5987599492073059 83.0 10 -0.008134409785270691
-0.747016966342926 2.386650800704956 -0.39609211683273315 2.0 3 -0.008132105693221092
-2.0410256385803223 6.524884223937988 0.8394361138343811 80.0 11 -0.008129801601171494
-0.7077993750572205 2.264129877090454 -0.2912677526473999 1.0 4 -0.00812749844044447
-2.0370168685913086 6.520054817199707 1.081900954246521 83.0 12 -0.00812519434839487
-0.7527843117713928 2.409501552581787 -0.22085265815258026 1.0 5 -0.008122890256345272
-2.0345027446746826 6.516003131866455 1.3268858194351196 100.0 13 -0.008120586164295673
-0.7133244276046753 2.2860054969787598 -0.1255016326904297 1.0 6 -0.008118282072246075
-2.030547857284546 6.511323928833008 1.5746575593948364 100.0 14 -0.008115977980196476
-0.7044717669487 2.260406017303467 -0.04132729768753052 1.0 7 -0.008113673888146877
-2.0210347175598145 6.488797187805176 1.8210508823394775 46.0 15 -0.008111369796097279
-0.7195757031440735 2.3231379985809326 -0.5614778399467468 1.0 1 -0.008086025714874268
-1.2526744604110718 4.046737194061279 0.22200913727283478 1.0 9 -0.008083721622824669
-0.6960796117782593 2.2486696243286133 -0.4575599730014801 1.0 2 -0.008081418462097645
-2.0202877521514893 6.530529499053955 0.5980626940727234 87.0 10 -0.008079114370048046
-0.7328459620475769 2.3703713417053223 -0.3929634094238281 2.0 3 -0.008076810277998447
-2.0153050422668457 6.522486209869385 0.8382173776626587 84.0 11 -0.008074506185948849
-0.6998922228813171 2.2665865421295166 -0.2912677526473999 1.0 4 -0.00807220209389925
-2.0148260593414307 6.529013633728027 1.0822137594223022 88.0 12 -0.008069898001849651
-0.7232181429862976 2.3435776233673096 -0.21457743644714355 1.0 5 -0.008067593909800053
-2.005957841873169 6.504305362701416 1.32306969165802 100.0 13 -0.008065289817750454
-0.700634777545929 2.273212432861328 -0.12466426193714142 1.0 6 -0.008062985725700855
-2.008378267288208 6.52023458480835 1.5751073360443115 100.0 14 -0.008060682564973831
-0.6753969192504883 2.1940486431121826 -0.04007072374224663 1.0 7 -0.008058378472924232
-1.9983736276626587 6.495811939239502 1.8210508823394775 46.0 15 -0.008056074380874634
-0.5459837913513184 1.782492756843567 -0.49952077865600586 13.0 0 -0.008035337552428246
-0.5518394708633423 1.8038582801818848 -0.4355052709579468 2.0 1 -0.008030730299651623
-1.2338703870773315 4.0358052253723145 0.2211717814207077 1.0 9 -0.008028426207602024
-0.6468985080718994 2.115908145904541 -0.4300835132598877 1.0 2 -0.008026122115552425
-2.000391721725464 6.547068119049072 0.5989342331886292 93.0 10 -0.008023818023502827
-0.6888010501861572 2.2557806968688965 -0.37356552481651306 1.0 3 -0.008021513931453228
-1.9902089834213257 6.521885871887207 0.8372424840927124 84.0 11 -0.00801920983940363
-0.7058740854263306 2.3145859241485596 -0.2971175014972687 1.0 4 -0.00801690574735403
-1.9908727407455444 6.532227993011475 1.0815880298614502 85.0 12 -0.008014602586627007
-1.9843865633010864 6.515023231506348 1.3238328695297241 100.0 13 -0.00800999440252781
-0.6880431175231934 2.2603585720062256 -0.12382689118385315 1.0 6 -0.00800769031047821
-1.9799331426620483 6.508562088012695 1.570608377456665 100.0 14 -0.008005386218428612
-0.6677335500717163 2.1963930130004883 -0.04007072374224663 1.0 7 -0.008003082126379013
-1.9756879806518555 6.502748012542725 1.8210508823394775 46.0 15 -0.008000778034329414
-0.5447919368743896 1.801029920578003 -0.5041795372962952 47.0 0 -0.008027791976928711
-0.5438491106033325 1.800176978111267 -0.43415555357933044 38.0 1 -0.008023183792829514
-1.2123947143554688 4.013107776641846 0.21970637142658234 1.0 9 -0.008020879700779915
-0.5345311760902405 1.770452857017517 -0.35948416590690613 11.0 2 -0.008018575608730316
-1.9786754846572876 6.557826519012451 0.5992828607559204 90.0 10 -0.008016271516680717
-0.5486156344413757 1.8193979263305664 -0.30097994208335876 1.0 3 -0.008013968355953693
-1.968575119972229 6.532595157623291 0.8377299904823303 84.0 11 -0.008011664263904095
-1.9657807350158691 6.527445316314697 1.079710841178894 88.0 12 -0.008007056079804897
-1.961630940437317 6.521910667419434 1.3238328695297241 100.0 13 -0.0080024478957057
-0.6755486726760864 2.2474448680877686 -0.12298951297998428 1.0 6 -0.008000143803656101
-1.9555212259292603 6.509834289550781 1.569258689880371 100.0 14 -0.007997839711606503
-0.66044682264328 2.1985950469970703 -0.04007072374224663 1.0 7 -0.007995535619556904
-1.957444429397583 6.520366191864014 1.8241567611694336 46.0 15 -0.007993231527507305
-0.5351850390434265 1.7918142080307007 -0.5010737180709839 48.0 0 -0.007972495630383492
-0.5373186469078064 1.8001034259796143 -0.4337056577205658 50.0 1 -0.007967888377606869
-1.1983779668807983 4.01731538772583 0.21970637142658234 1.0 9 -0.00796558428555727
-0.5289091467857361 1.7741893529891968 -0.35986578464508057 54.0 2 -0.007963280193507671
-1.9517916440963745 6.551326751708984 0.5980626940727234 85.0 10 -0.007960976101458073
-0.5346834659576416 1.7947030067443848 -0.29659977555274963 35.0 3 -0.007958672009408474
-1.9457697868347168 6.535281658172607 0.8372424840927124 84.0 11 -0.007956367917358875
-0.5349853038787842 1.7980092763900757 -0.23033307492733002 11.0 4 -0.007954063825309277
-1.9418587684631348 6.530479907989502 1.079085111618042 88.0 12 -0.007951759733259678
-0.5488077998161316 1.846822738647461 -0.1685592085123062 0.0 5 -0.00794945564121008
-1.9377572536468506 6.5208516120910645 1.3223063945770264 100.0 13 -0.00794715154916048
-0.6533092856407166 2.199892520904541 -0.12026803940534592 1.0 6 -0.007944848388433456
-1.9361391067504883 6.523756504058838 1.5710582733154297 100.0 14 -0.007942544296383858
-0.6322986483573914 2.1318695545196533 -0.038814153522253036 1.0 7 -0.007940240204334259
-1.926987648010254 6.501228332519531 1.8169097900390625 47.0 15 -0.00793793611228466
-0.5275994539260864 1.7880207300186157 -0.49952077865600586 73.0 0 -0.007917200215160847
-0.5304805636405945 1.8000990152359009 -0.43325576186180115 66.0 1 -0.00791259203106165
-1.1918232440948486 4.044257164001465 0.22096242010593414 1.0 9 -0.00791028793901205
-0.5246862173080444 1.7815834283828735 -0.3610106408596039 57.0 2 -0.007907983846962452
-1.9244318008422852 6.538649559020996 0.5963196158409119 87.0 10 -0.007905679754912853
-0.5245132446289062 1.7832928895950317 -0.29440969228744507 71.0 3 -0.007903375662863255
-1.9251829385757446 6.549652576446533 0.8382173776626587 86.0 11 -0.007901071570813656
-0.5259088277816772 1.7903426885604858 -0.2291143834590912 87.0 4 -0.007898768410086632
-1.9151830673217773 6.519825458526611 1.076269268989563 85.0 12 -0.007896464318037033
-0.524721622467041 1.7874577045440674 -0.16298124194145203 37.0 5 -0.007894160225987434
-1.9138761758804321 6.52380895614624 1.3215430974960327 100.0 13 -0.007891856133937836
-0.5298746824264526 1.807342290878296 -0.09870561957359314 12.0 6 -0.007889552041888237
-1.9133566617965698 6.530474662780762 1.5710582733154297 100.0 14 -0.007887247949838638
-0.5302044153213501 1.809639811515808 -0.03291523829102516 0.0 7 -0.00788494385778904
-1.9021592140197754 6.496458530426025 1.8138039112091064 47.0 15 -0.007882639765739441
-0.5218955874443054 1.7917062044143677 -0.5000383853912354 81.0 0 -0.007861903868615627
-0.5402237772941589 1.8546282052993774 0.0337180495262146 0.0 8 -0.007859599776566029
-0.5206960439682007 1.7887505292892456 -0.43010643124580383 80.0 1 -0.00785729568451643
-0.5184645056724548 1.783403992652893 -0.3610106408596039 75.0 2 -0.007852688431739807
-1.9049291610717773 6.556807041168213 0.5973654389381409 87.0 10 -0.007850384339690208
-0.5196993350982666 1.7888160943984985 -0.2950354218482971 89.0 3 -0.00784808024764061
-1.8979194164276123 6.5369367599487305 0.8357800245285034 86.0 11 -0.007845776155591011
-0.5194152593612671 1.790170431137085 -0.22887064516544342 87.0 4 -0.007843472063541412
-1.8962620496749878 6.53975248336792 1.07845938205719 88.0 12 -0.007841167971491814
-0.5184793472290039 1.7892783880233765 -0.16298124194145203 94.0 5 -0.007838863879442215
-1.888954758644104 6.518805027008057 1.3192534446716309 100.0 13 -0.007836559787392616
-1.8916914463043213 6.536783695220947 1.5710582733154297 100.0 14 -0.007831951603293419
-0.5216624736785889 1.803795576095581 -0.032775621861219406 31.0 7 -0.00782964751124382
-1.881617546081543 6.510481357574463 1.815874457359314 46.0 15 -0.007827344350516796
-0.5170197486877441 1.7971398830413818 -0.5010737180709839 78.0 0 -0.007806607987731695
-0.5083304643630981 1.7680975198745728 0.032112427055835724 21.0 8 -0.0078043038956820965
-0.5139103531837463 1.788684368133545 -0.4296565353870392 88.0 1 -0.007801999803632498
-0.5104018449783325 1.7776387929916382 0.09692620486021042 8.0 9 -0.007799696177244186
-0.5141734480857849 1.7907744646072388 -0.3621554970741272 87.0 2 -0.007797392085194588
-1.882077932357788 6.559257507324219 0.5970168113708496 85.0 10 -0.007795087993144989
-0.5123625993728638 1.7868218421936035 -0.29440969228744507 100.0 3 -0.00779278390109539
-1.8745442628860474 6.5416131019592285 0.8355363011360168 88.0 11 -0.007790479809045792
-0.5093381404876709 1.7786139249801636 -0.22716447710990906 89.0 4 -0.00778817618265748
-1.8745076656341553 6.550130367279053 1.079085111618042 88.0 12 -0.0077858720906078815
-0.5147352814674377 1.7986499071121216 -0.16367848217487335 100.0 5 -0.007783567998558283
-1.8651070594787598 6.5215840339660645 1.3184902667999268 100.0 13 -0.007781263906508684
-0.5142671465873718 1.7993850708007812 -0.09807758778333664 100.0 6 -0.0077789598144590855
-1.8635088205337524 6.524609088897705 1.5665591955184937 100.0 14 -0.007776656188070774
-0.5065809488296509 1.774839162826538 -0.03221714124083519 74.0 7 -0.007774352096021175
-1.8567588329315186 6.509580135345459 1.8138039112091064 47.0 15 -0.007772048003971577
-0.5107429623603821 1.7989338636398315 -0.5010737180709839 78.0 0 -0.007751312106847763
-0.5065216422080994 1.785251498222351 0.03239166736602783 100.0 8 -0.007749008014798164
-0.507663905620575 1.7904672622680664 -0.4296565353870392 87.0 1 -0.007746703922748566
-0.5047376751899719 1.781331181526184 0.097030870616436 90.0 9 -0.007744399830698967
-0.5047075748443604 1.7812250852584839 -0.35986578464508057 90.0 2 -0.007742095738649368
-1.860254168510437 6.5696210861206055 0.5973654389381409 87.0 10 -0.007739792112261057
-0.5082741379737854 1.796202301979065 -0.29566118121147156 100.0 3 -0.007737488020211458
-1.8495359420776367 6.5404767990112305 0.8345613479614258 90.0 11 -0.0077351839281618595
-0.505285382270813 1.7880221605300903 -0.22813943028450012 82.0 4 -0.007732879836112261
-1.8484121561050415 6.54522705078125 1.0772078037261963 88.0 12 -0.007730576209723949
-0.5041221380233765 1.7850964069366455 -0.1622839868068695 96.0 5 -0.007728272117674351
-1.8444653749465942 6.535612106323242 1.320016622543335 100.0 13 -0.007725968025624752
-0.5047296285629272 1.7896357774734497 -0.09744956344366074 90.0 6 -0.007723663933575153
-1.8380804061889648 6.521695613861084 1.5643097162246704 100.0 14 -0.007721359841525555
-0.5041778087615967 1.7900702953338623 -0.03246147558093071 100.0 7 -0.007719055749475956
-1.8361198902130127 6.523458957672119 1.815874457359314 46.0 15 -0.007716752123087645
-0.5013339519500732 1.7895442247390747 -0.4979678690433502 81.0 0 -0.007696015760302544
-0.4975917637348175 1.777380347251892 0.03221714124083519 96.0 8 -0.007693712133914232
-0.5029864311218262 1.7978583574295044 -0.4310062527656555 87.0 1 -0.0076914080418646336
-0.49959248304367065 1.7869291305541992 0.09724021703004837 100.0 9 -0.007689103949815035
-0.49795860052108765 1.7810851335525513 -0.35948416590690613 93.0 2 -0.007686799857765436
-1.8330230712890625 6.560723781585693 0.5959709286689758 87.0 10 -0.0076844957657158375
-0.5025326609611511 1.7998679876327515 -0.2959740459918976 100.0 3 -0.007682192139327526
-1.8282958269119263 6.552628040313721 0.8352925181388855 86.0 11 -0.007679888047277927
-0.49744099378585815 1.784038782119751 -0.22740821540355682 85.0 4 -0.007677583955228329
-1.821313500404358 6.536416053771973 1.074704885482788 88.0 12 -0.00767527986317873
-0.4968187212944031 1.7830065488815308 -0.16193535923957825 91.0 5 -0.007672975771129131
-1.8216420412063599 6.542010307312012 1.320016622543335 100.0 13 -0.00767067214474082
-0.502762496471405 1.8067799806594849 -0.0982869416475296 100.0 6 -0.007668368052691221
-1.8153058290481567 6.528071880340576 1.5643097162246704 100.0 14 -0.0076660639606416225
-0.49096545577049255 1.7667723894119263 -0.03200771287083626 100.0 7 -0.007663759868592024
-1.8081668615341187 6.511215686798096 1.81069815158844 63.0 15 -0.007661455776542425
-0.49405530095100403 1.787559151649475 -0.49693259596824646 81.0 0 -0.0076407198794186115
-0.4865926504135132 1.7617589235305786 0.03190299868583679 100.0 8 -0.007638415787369013
-0.4956701695919037 1.7958462238311768 -0.43010643124580383 85.0 1 -0.0076361121609807014
-0.4928203225135803 1.7867368459701538 0.09713554382324219 100.0 9 -0.007633808068931103
-0.4922599494457245 1.7847052812576294 -0.35986578464508057 90.0 2 -0.007631503976881504
-1.8079912662506104 6.559399604797363 0.5952737331390381 85.0 10 -0.007629199884831905
-0.4930989444255829 1.7901846170425415 -0.29409682750701904 100.0 3 -0.007626895792782307
-1.8048832416534424 6.557056903839111 0.8350487947463989 88.0 11 -0.007624592166393995
-0.4917373061180115 1.7876781225204468 -0.2276519387960434 89.0 4 -0.007622288074344397
-1.7995315790176392 6.546544075012207 1.0753307342529297 88.0 12 -0.007619983982294798
-0.48636671900749207 1.769361138343811 -0.1605408787727356 93.0 5 -0.007617679890245199
-1.7972331047058105 6.54265022277832 1.3188718557357788 100.0 13 -0.0076153757981956005
-0.49222332239151 1.7931157350540161 -0.09744956344366074 75.0 6 -0.007613072171807289
-1.7930212020874023 6.536248207092285 1.564759612083435 100.0 14 -0.00761076807975769
-0.4921971261501312 1.7954750061035156 -0.0324963815510273 100.0 7 -0.007608463987708092
-1.7833870649337769 6.510034084320068 1.8086276054382324 63.0 15 -0.007606159895658493
-0.4888283610343933 1.79300057888031 -0.4979678690433502 81.0 0 -0.007585423998534679
-0.4809660017490387 1.7653758525848389 0.03193790465593338 100.0 8 -0.007583119906485081
-0.4863273501396179 1.7862836122512817 -0.42740702629089355 87.0 1 -0.007580815814435482
-0.4884670376777649 1.794142723083496 0.09744956344366074 100.0 9 -0.007578512188047171
-0.4860275685787201 1.7864125967025757 -0.35986578464508057 90.0 2 -0.007576208095997572
-1.7850852012634277 6.565670490264893 0.5952737331390381 85.0 10 -0.007573904003947973
-0.48581159114837646 1.7880821228027344 -0.293471097946167 100.0 3 -0.0075715999118983746
-1.78042471408844 6.55756950378418 0.8343175649642944 88.0 11 -0.007569295819848776
-0.4875737428665161 1.7970468997955322 -0.22862690687179565 82.0 4 -0.0075669921934604645
-1.7741929292678833 6.539129257202148 1.0731405019760132 86.0 12 -0.007564688101410866
-0.484358012676239 1.7864317893981934 -0.16193535923957825 93.0 5 -0.007562384009361267
-1.7687379121780396 6.528039455413818 1.3146740198135376 100.0 13 -0.007560079917311668
-0.4859616160392761 1.7948229312896729 -0.09744956344366074 57.0 6 -0.00755777582526207
-1.7712106704711914 6.546230316162109 1.565659523010254 100.0 14 -0.007555471733212471
-0.4794502854347229 1.7720037698745728 -0.032042618840932846 100.0 7 -0.00755316810682416
-1.76078200340271 6.512181758880615 1.8075922727584839 63.0 15 -0.007550864014774561
-0.4835694134235382 1.7984272241592407 -0.499003142118454 81.0 0 -0.007530128117650747
-0.4761471748352051 1.7708234786987305 0.03200771287083626 100.0 8 -0.007527824025601149
-0.48040148615837097 1.7878865003585815 -0.42740702629089355 87.0 1 -0.00752551993355155
-0.47805726528167725 1.7804054021835327 0.09661218523979187 100.0 9 -0.007523215841501951
-0.4808059632778168 1.7918907403945923 -0.36062902212142944 90.0 2 -0.00752091221511364
-1.761641263961792 6.569936752319336 0.5950994491577148 90.0 10 -0.007518608123064041
-0.48039141297340393 1.7915914058685303 -0.293783962726593 100.0 3 -0.0075163040310144424
-1.7550710439682007 6.550016403198242 0.8326114416122437 90.0 11 -0.007513999938964844
-0.47647687792778015 1.779478669166565 -0.226189523935318 82.0 4 -0.007511695846915245
-1.7518651485443115 6.547191619873047 1.073453426361084 87.0 12 -0.007509391754865646
-0.47606101632118225 1.7804125547409058 -0.16123811900615692 89.0 5 -0.007507088128477335
-1.7480928897857666 6.537662982940674 1.3154373168945312 100.0 13 -0.007504784036427736
-0.4779442250728607 1.7887063026428223 -0.097030870616436 30.0 6 -0.007502479944378138
-1.7459748983383179 6.538887023925781 1.5625101327896118 100.0 14 -0.007500175852328539
-0.4768710434436798 1.7871912717819214 -0.032286953181028366 30.0 7 -0.0074978722259402275
-1.7390332221984863 6.522022247314453 1.8086276054382324 63.0 15 -0.007495568133890629
-0.47859421372413635 1.8037554025650024 -0.5000383853912354 81.0 0 -0.007474832236766815
-0.47662582993507385 1.7976024150848389 0.03246147558093071 48.0 8 -0.0074725281447172165
-0.4741572141647339 1.7895525693893433 -0.42740702629089355 85.0 1 -0.007470224052667618
-0.47235116362571716 1.7839938402175903 0.09671685099601746 51.0 9 -0.007467919960618019
-0.47285154461860657 1.7858837842941284 -0.3591025471687317 90.0 2 -0.00746561586856842
-1.7393332719802856 6.573816776275635 0.5949251055717468 85.0 10 -0.007463311776518822
-0.4761539101600647 1.800896406173706 -0.2950354218482971 100.0 3 -0.00746100815013051
-1.7311838865280151 6.552264213562012 0.8321239948272705 92.0 11 -0.007458704058080912
-0.4697560667991638 1.7792116403579712 -0.22594578564167023 85.0 4 -0.007456399966031313
-1.7254743576049805 6.539896488189697 1.0712634325027466 87.0 12 -0.007454095873981714
-0.4721877872943878 1.789687156677246 -0.16193535923957825 93.0 5 -0.0074517917819321156
-1.7272651195526123 6.551318645477295 1.316963791847229 100.0 13 -0.007449488155543804
-0.47576871514320374 1.8058146238327026 -0.09786824882030487 40.0 6 -0.0074471840634942055
-1.721156120300293 6.5374040603637695 1.5607105493545532 100.0 14 -0.007444879971444607
-0.47063007950782776 1.7888448238372803 -0.032286953181028366 14.0 7 -0.007442575879395008
-1.717240333557129 6.531789302825928 1.8096628189086914 63.0 15 -0.007440271787345409
-0.4683840572834015 1.7904632091522217 -0.4958973228931427 81.0 0 -0.007419535890221596
-0.470854252576828 1.8011897802352905 0.0324963815510273 14.0 8 -0.007417231798171997
-0.4688921868801117 1.7949678897857666 -0.42830681800842285 89.0 1 -0.007414928171783686
-0.4696517884731293 1.7991596460342407 0.09744956344366074 30.0 9 -0.007412624079734087
-0.4651266932487488 1.7818247079849243 -0.3579576909542084 93.0 2 -0.007410319987684488
-1.7153714895248413 6.575992107391357 0.5945764780044556 87.0 10 -0.00740801589563489
-0.46986421942710876 1.8025476932525635 -0.2950354218482971 100.0 3 -0.007405711803585291
-1.7082998752593994 6.558267593383789 0.8321239948272705 88.0 11 -0.0074034081771969795
-0.4680434465408325 1.7981301546096802 -0.22813943028450012 86.0 4 -0.007401104085147381
-1.7016390562057495 6.542056083679199 1.070637583732605 87.0 12 -0.007398799993097782
-0.46292799711227417 1.7797552347183228 -0.16088949143886566 93.0 5 -0.0073964959010481834
-1.7043843269348145 6.557308197021484 1.316963791847229 100.0 13 -0.007394191808998585
-0.46695223450660706 1.797798752784729 -0.09734489023685455 30.0 6 -0.007391887716948986
-1.6988139152526855 6.54525899887085 1.5611604452133179 100.0 14 -0.007389584090560675
-0.4633783996105194 1.7866054773330688 -0.03221714124083519 14.0 7 -0.007387279998511076
-1.6915199756622314 6.526524543762207 1.806557059288025 63.0 15 -0.007384975906461477
-0.4621308147907257 1.792087435722351 -0.4958973228931427 81.0 0 -0.007364240009337664
-0.45857566595077515 1.779585361480713 0.032077521085739136 12.0 8 -0.007361935917288065
-0.46359601616859436 1.8003679513931274 -0.42920663952827454 87.0 1 -0.007359631825238466
-0.46237361431121826 1.796919345855713 0.09724021703004837 30.0 9 -0.007357328198850155
-0.460861474275589 1.791042685508728 -0.35948416590690613 93.0 2 -0.007355024106800556
-1.6899240016937256 6.572291851043701 0.593704879283905 90.0 10 -0.0073527200147509575
-0.45963695645332336 1.788870930671692 -0.2925325036048889 100.0 3 -0.007350415922701359
-1.6863855123519897 6.56803560256958 0.8326114416122437 90.0 11 -0.00734811183065176
-0.46275007724761963 1.8035985231399536 -0.22862690687179565 88.0 4 -0.007345807738602161
-1.6778128147125244 6.544128894805908 1.070011854171753 85.0 12 -0.00734350411221385
-0.45572343468666077 1.7775003910064697 -0.1605408787727356 96.0 5 -0.007341200020164251
