# .PCD v0.7 - Point Cloud Data file format
VERSION 0.7
FIELDS x y z intensity ring time
SIZE 4 4 4 4 4 4
TYPE F F F F F F
COUNT 1 1 1 1 1 1
WIDTH 536
HEIGHT 1
VIEWPOINT 0 0 0 1 0 0 0
POINTS 536
DATA ascii
-2.798887252807617 -0.980156660079956 0.05176383629441261 20.0 8 -0.031691428273916245
-2.4499943256378174 -0.8574961423873901 -0.5992696285247803 8.0 1 -0.0316891223192215
-2.8240976333618164 -0.9878779649734497 0.15679854154586792 11.0 9 -0.03168682008981705
-2.4127984046936035 -0.8440042734146118 -0.4968666434288025 13.0 2 -0.0316845141351223
-2.373913049697876 -0.8294728398323059 -0.39828217029571533 28.0 3 -0.0316799059510231
-2.4252378940582275 -0.8464566469192505 -0.31539788842201233 9.0 4 -0.031675297766923904
-2.8350017070770264 -0.9889172911643982 -0.26268741488456726 11.0 5 -0.03167068958282471
-2.201019763946533 -0.7669074535369873 -0.12215213477611542 9.0 6 -0.03166608139872551
-2.1907527446746826 -0.7624720931053162 -0.04048958420753479 12.0 7 -0.03166147693991661
-2.4478490352630615 -0.8481224179267883 -0.6941527128219604 5.0 0 -0.031638436019420624
-2.783395528793335 -0.9638373255729675 0.05141478776931763 9.0 8 -0.031636130064725876
-2.443765163421631 -0.8457515239715576 -0.597020149230957 5.0 1 -0.031633827835321426
-2.82564115524292 -0.977361798286438 0.15669387578964233 14.0 9 -0.03163152188062668
-2.4120190143585205 -0.8342939019203186 -0.4961034059524536 9.0 2 -0.03162921965122223
-2.3618576526641846 -0.8160200119018555 -0.39577925205230713 24.0 3 -0.03162461146712303
-2.4619548320770264 -0.8496423959732056 -0.3197851777076721 8.0 4 -0.031620003283023834
-2.8478541374206543 -0.9822627902030945 -0.263558954000473 13.0 5 -0.03161539509892464
-2.2055718898773193 -0.7598702907562256 -0.1222568079829216 8.0 6 -0.03161078691482544
-2.1971826553344727 -0.7561221718788147 -0.04055939242243767 11.0 7 -0.03160617873072624
-2.4453117847442627 -0.8376944065093994 -0.6925997734069824 3.0 0 -0.031583137810230255
-2.529446840286255 -0.8660234212875366 0.046667732298374176 5.0 8 -0.031580835580825806
-2.450390100479126 -0.8384783864021301 -0.5979199409484863 3.0 1 -0.03157852962613106
-2.8439841270446777 -0.97315913438797 0.1575312465429306 16.0 9 -0.03157622739672661
-2.422346830368042 -0.8284103274345398 -0.49762988090515137 7.0 2 -0.03157392144203186
-2.377776622772217 -0.8122410178184509 -0.3979693353176117 19.0 3 -0.03156931698322296
-2.474299430847168 -0.8442478775978088 -0.32100388407707214 7.0 4 -0.031564708799123764
-2.8644657135009766 -0.9768179655075073 -0.26477915048599243 9.0 5 -0.03156010061502457
-2.2119922637939453 -0.7534541487693787 -0.12246615439653397 6.0 6 -0.03155549243092537
-2.195891857147217 -0.7475429177284241 -0.04048958420753479 11.0 7 -0.03155088424682617
-2.4628591537475586 -0.8341109752655029 -0.6967409253120422 2.0 0 -0.031527843326330185
-2.367525100708008 -0.801823616027832 0.04363101348280907 7.0 8 -0.03152553737163544
-2.443927764892578 -0.8272239565849304 -0.5956704616546631 3.0 1 -0.03152323514223099
-2.8984460830688477 -0.9805061221122742 0.16035738587379456 5.0 9 -0.03152093291282654
-2.4289438724517822 -0.8212073445320129 -0.49839314818382263 5.0 2 -0.03151862695813179
-2.3804571628570557 -0.8043514490127563 -0.3979693353176117 17.0 3 -0.03151401877403259
-2.4582769870758057 -0.82969069480896 -0.3185664713382721 3.0 4 -0.031509410589933395
-2.862194061279297 -0.9649036526679993 -0.26425620913505554 8.0 5 -0.0315048024058342
-2.2220492362976074 -0.748665988445282 -0.1228848323225975 3.0 6 -0.031500194221735
-2.1928021907806396 -0.7379597425460815 -0.040384870022535324 9.0 7 -0.0314955860376358
-2.4674437046051025 -0.8265528082847595 -0.6972585916519165 1.0 0 -0.031472548842430115
-2.3968570232391357 -0.8024429082870483 0.04411968216300011 3.0 8 -0.03147024288773537
-2.4930012226104736 -0.8341464996337891 -0.6069179773330688 1.0 1 -0.03146794065833092
-2.909257650375366 -0.973423957824707 0.1607760637998581 3.0 9 -0.03146563470363617
-2.4204821586608887 -0.8094123005867004 -0.4961034059524536 3.0 2 -0.03146333247423172
-2.390744924545288 -0.7985404133796692 -0.3992207944393158 11.0 3 -0.03145872429013252
-2.4837546348571777 -0.8286433219909668 -0.3214913308620453 3.0 4 -0.031454116106033325
-2.859708070755005 -0.9535163044929504 -0.26373329758644104 6.0 5 -0.03144950792193413
-2.243598222732544 -0.7472159266471863 -0.12393154948949814 1.0 6 -0.03144489973783493
-2.1819558143615723 -0.7262633442878723 -0.040140535682439804 9.0 7 -0.03144029155373573
-2.460251808166504 -0.8146037459373474 0.04523663595318794 1.0 8 -0.0314149484038353
-2.914534330368042 -0.9638898968696594 0.16088074445724487 2.0 9 -0.0314103402197361
-2.4437973499298096 -0.8077361583709717 -0.5003012418746948 1.0 2 -0.03140803426504135
-2.3915040493011475 -0.7899883389472961 -0.39890795946121216 8.0 3 -0.031403426080942154
-2.5034549236297607 -0.8260008096694946 -0.3236849904060364 2.0 4 -0.03139881789684296
-2.8649110794067383 -0.944151759147644 -0.2639075815677643 4.0 5 -0.03139420971274376
-2.188276767730713 -0.719892144203186 -0.04021034389734268 10.0 7 -0.03138499706983566
-2.879295587539673 -0.942211925983429 0.05288079380989075 3.0 8 -0.03135965019464493
-2.934966802597046 -0.9592955708503723 0.16182279586791992 2.0 9 -0.03135504201054573
-2.3848581314086914 -0.7785703539848328 -0.39734360575675964 6.0 3 -0.031348131597042084
-2.8718149662017822 -0.935880720615387 -0.26425620913505554 3.0 5 -0.03133891522884369
-2.200284719467163 -0.7153410911560059 -0.040384870022535324 15.0 7 -0.031329698860645294
-2.9092044830322266 -0.9407686591148376 0.05336945876479149 3.0 8 -0.03130435571074486
-2.911689281463623 -0.9404504299163818 0.16035738587379456 2.0 9 -0.03129974752664566
-2.861788749694824 -0.9215760827064514 -0.26303601264953613 3.0 5 -0.03128362074494362
-2.2046725749969482 -0.7082673907279968 -0.04041977599263191 8.0 7 -0.031274404376745224
-2.899136781692505 -0.9263480305671692 0.05312512442469597 2.0 8 -0.03124905936419964
-2.914954423904419 -0.9302802681922913 0.16035738587379456 2.0 9 -0.03124445118010044
-2.895526885986328 -0.9207404255867004 -0.2658250033855438 2.0 5 -0.03122832253575325
-2.2128491401672363 -0.7023821473121643 -0.04052448645234108 2.0 7 -0.031219108030200005
-2.922154188156128 -0.9207913279533386 0.16056673228740692 2.0 9 -0.03118915483355522
-2.891278028488159 -0.9077349901199341 -0.2651277482509613 2.0 5 -0.03117302805185318
-2.9196295738220215 -0.9088046550750732 0.16025270521640778 2.0 9 -0.031133858487010002
-1.823477864265442 -0.5609750747680664 -0.4404541850090027 1.0 1 -0.03108086809515953
-2.928354263305664 -0.900879442691803 0.16056673228740692 2.0 9 -0.031078564003109932
-2.896784543991089 -0.8856355547904968 0.8116565346717834 1.0 15 -0.031050914898514748
-1.8215991258621216 -0.5537914037704468 -0.4395543932914734 6.0 1 -0.03102557174861431
-2.93339204788208 -0.8912334442138672 0.1606713980436325 2.0 9 -0.031023267656564713
-2.8554723262786865 -0.8621182441711426 0.7992331981658936 6.0 15 -0.030995618551969528
-1.8309868574142456 -0.5496711730957031 -0.44135400652885437 2.0 1 -0.030970275402069092
-2.91352915763855 -0.8741005659103394 0.1594153493642807 2.0 9 -0.030967971310019493
-2.8510589599609375 -0.849937915802002 0.7971627116203308 6.0 15 -0.030940324068069458
-2.916712999343872 -0.8634167313575745 0.1594153493642807 2.0 9 -0.030912674963474274
-2.902552843093872 -0.8564701676368713 0.47931525111198425 1.0 12 -0.03089885041117668
-2.943264961242676 -0.8679249286651611 0.5964689254760742 1.0 13 -0.030894244089722633
-2.8319151401519775 -0.8329410552978516 0.7909510731697083 6.0 15 -0.03088502772152424
-2.9095380306243896 -0.8513594269752502 0.05291569605469704 2.0 8 -0.03086198680102825
-2.936962604522705 -0.858272135257721 0.16035738587379456 3.0 9 -0.030857378616929054
-2.901035785675049 -0.8444769978523254 0.5873100757598877 1.0 13 -0.030838947743177414
-2.8459365367889404 -0.8262825012207031 0.7940568327903748 8.0 15 -0.03082973137497902
-2.928279161453247 -0.845204770565033 0.15972934663295746 4.0 9 -0.030802082270383835
-2.900722026824951 -0.8345086574554443 0.47806379199028015 1.0 12 -0.030788259580731392
-2.8850972652435303 -0.8289232850074768 0.5834939479827881 1.0 13 -0.030783651396632195
-2.901517868041992 -0.8325456380844116 0.6968984007835388 1.0 14 -0.030779043212532997
-2.8560893535614014 -0.8189704418182373 0.796127438545227 7.0 15 -0.0307744350284338
-2.935053586959839 -0.8360722661018372 0.15993870794773102 3.0 9 -0.030746787786483765
-2.9036171436309814 -0.8243787884712219 0.47806379199028015 1.0 12 -0.030732963234186172
-2.8991622924804688 -0.822566568851471 0.5857836604118347 1.0 13 -0.030728355050086975
-2.8626482486724854 -0.8100476861000061 0.7971627116203308 6.0 15 -0.03071913868188858
-2.9283406734466553 -0.8231189250946045 0.1594153493642807 2.0 9 -0.030691491439938545
-2.917140483856201 -0.8166757225990295 0.5888366103172302 1.0 13 -0.030673058703541756
-2.87290096282959 -0.8021289706230164 0.7992331981658936 6.0 15 -0.03066384233534336
-2.9311959743499756 -0.8128927946090698 0.1594153493642807 2.0 9 -0.030636195093393326
-2.9578213691711426 -0.8169422149658203 0.5964689254760742 1.0 13 -0.030617762356996536
-2.84588360786438 -0.7838874459266663 0.7909510731697083 6.0 15 -0.03060854785144329
-2.926309585571289 -0.8005477786064148 0.15899664163589478 2.0 9 -0.030580898746848106
-2.9606552124023438 -0.8066123127937317 0.5964689254760742 1.0 13 -0.030562467873096466
-2.8635168075561523 -0.7779998779296875 0.7950921058654785 6.0 15 -0.03055325150489807
-2.9329428672790527 -0.7913687229156494 0.15920598804950714 2.0 9 -0.030525602400302887
-2.9634528160095215 -0.7962727546691895 0.5964689254760742 1.0 13 -0.030507171526551247
-2.8699471950531006 -0.7690002918243408 0.796127438545227 6.0 15 -0.030497955158352852
-2.9318268299102783 -0.7800994515419006 0.15899664163589478 2.0 9 -0.03047371096909046
-2.9215054512023926 -0.7746231555938721 -0.26443052291870117 1.0 5 -0.03045758232474327
-2.913076639175415 -0.7718441486358643 0.5857836604118347 1.0 13 -0.03045528009533882
-2.8726141452789307 -0.7589776515960693 0.796127438545227 5.0 15 -0.030446063727140427
-2.924872875213623 -0.7673258781433105 0.15847328305244446 3.0 9 -0.030418414622545242
-2.9241912364959717 -0.7644211053848267 -0.26443052291870117 1.0 5 -0.0304022878408432
-2.9689395427703857 -0.7755645513534546 0.5964689254760742 1.0 13 -0.030399983748793602
-2.882723569869995 -0.7508934140205383 0.7981979846954346 5.0 15 -0.030390767380595207
-2.9314005374908447 -0.7581114768981934 0.15868262946605682 3.0 9 -0.030363120138645172
-2.8843960762023926 -0.7432705760002136 -0.2605956792831421 2.0 5 -0.03034699149429798
-2.877842664718628 -0.738905131816864 0.796127438545227 3.0 15 -0.030335471034049988
-2.9379000663757324 -0.7488616704940796 0.15889199078083038 4.0 9 -0.030307823792099953
-2.454127550125122 -0.6255495548248291 -0.4922872483730316 1.0 2 -0.030305519700050354
-2.8753864765167236 -0.7302549481391907 -0.2595497965812683 2.0 5 -0.030291695147752762
-2.907217502593994 -0.7367188334465027 0.6923993825912476 1.0 14 -0.030284782871603966
-2.8616762161254883 -0.7241153717041016 0.7909510731697083 3.0 15 -0.03028017468750477
-2.93662166595459 -0.737628698348999 0.15868262946605682 4.0 9 -0.030252527445554733
-2.429638624191284 -0.6102832555770874 -0.4869445562362671 1.0 2 -0.030250223353505135
-2.862455368041992 -0.7163445949554443 -0.25815531611442566 3.0 5 -0.030236398801207542
-2.976898193359375 -0.7444323897361755 0.5964689254760742 1.0 13 -0.030234094709157944
-2.909771203994751 -0.7265669107437134 0.6923993825912476 1.0 14 -0.030229486525058746
-2.8791818618774414 -0.7178605198860168 0.7950921058654785 5.0 15 -0.03022487834095955
-2.939178705215454 -0.7273733615875244 0.15868262946605682 3.0 9 -0.030197231099009514
-2.4393773078918457 -0.6036849617958069 -0.48847106099128723 3.0 2 -0.030194927006959915
-2.586428642272949 -0.638160765171051 -0.3270973265171051 2.0 4 -0.03018571063876152
-2.9191112518310547 -0.7197045087814331 0.4761865735054016 1.0 12 -0.03018340654671192
-2.8958899974823 -0.7139793634414673 -0.26094430685043335 3.0 5 -0.030181102454662323
-2.912289619445801 -0.7164053916931152 0.6923993825912476 1.0 14 -0.030174192041158676
-2.877918004989624 -0.7068849205970764 0.7940568327903748 6.0 15 -0.03016958385705948
-1.8610316514968872 -0.45401477813720703 -0.44225379824638367 0.0 1 -0.030144238844513893
-2.4319326877593994 -0.592841386795044 -0.48656296730041504 2.0 2 -0.030139630660414696
-2.6232504844665527 -0.6380247473716736 -0.3314846158027649 7.0 4 -0.03013041615486145
-2.894608497619629 -0.7034891843795776 0.4718063771724701 1.0 12 -0.03012811206281185
-2.906109094619751 -0.705747127532959 -0.2616415321826935 5.0 5 -0.030125807970762253
-2.982022762298584 -0.7236316204071045 0.5964689254760742 1.0 13 -0.030123503878712654
-2.5388433933258057 -0.6156185269355774 -0.13691087067127228 1.0 6 -0.030121199786663055
-2.8805599212646484 -0.6984778642654419 0.6843011379241943 1.0 14 -0.030118895694613457
-2.8821239471435547 -0.697791337966919 0.794574499130249 7.0 15 -0.03011428751051426
-1.8049107789993286 -0.4346540570259094 -0.49745020270347595 0.0 0 -0.03009355068206787
-1.8360005617141724 -0.44146260619163513 -0.4359551668167114 0.0 1 -0.030088942497968674
-2.63517427444458 -0.6336223483085632 0.14203980565071106 2.0 9 -0.030086638405919075
-2.422431468963623 -0.5820221900939941 -0.4842732548713684 2.0 2 -0.030084334313869476
-2.938077211380005 -0.7042862176895142 0.37097030878067017 1.0 11 -0.03007742390036583
-2.6465861797332764 -0.6344128847122192 -0.3341657519340515 18.0 4 -0.03007511980831623
-2.8777151107788086 -0.6892849206924438 0.46867769956588745 2.0 12 -0.030072815716266632
-2.8871192932128906 -0.691004753112793 -0.25972411036491394 7.0 5 -0.030070511624217033
-2.984405994415283 -0.7137387990951538 0.5964689254760742 1.0 13 -0.030068207532167435
-2.550583600997925 -0.609516978263855 -0.1374342441558838 1.0 6 -0.030065903440117836
-2.8828601837158203 -0.6889216303825378 0.6843011379241943 2.0 14 -0.030063599348068237
-2.8750264644622803 -0.6859881281852722 0.791986346244812 8.0 15 -0.03005899116396904
-1.768749475479126 -0.4197450578212738 -0.48709747195243835 0.0 0 -0.03003825433552265
-2.613128423690796 -0.6196438074111938 0.046877164393663406 2.0 8 -0.030035952106118202
-1.8260771036148071 -0.43267592787742615 -0.43325576186180115 1.0 1 -0.030033648014068604
-2.6568052768707275 -0.6290220022201538 0.1430865228176117 2.0 9 -0.030031343922019005
-2.420527458190918 -0.5730811357498169 -0.48351001739501953 3.0 2 -0.030029039829969406
-2.9558522701263428 -0.698189914226532 0.3729202151298523 1.0 11 -0.03002212755382061
-2.635260581970215 -0.6219779849052429 -0.33245959877967834 21.0 4 -0.03001982346177101
-2.895484685897827 -0.6828630566596985 0.47118064761161804 5.0 12 -0.030017519369721413
-2.8700027465820312 -0.6768534779548645 -0.25798097252845764 8.0 5 -0.030015215277671814
-2.9867563247680664 -0.7038388252258301 0.5964689254760742 1.0 13 -0.030012911185622215
-2.875762939453125 -0.6766226887702942 0.6820515990257263 7.0 14 -0.030008303001523018
-2.8567163944244385 -0.6710891127586365 0.7862922549247742 10.0 15 -0.03000369481742382
-1.7589167356491089 -0.41093140840530396 -0.4839916527271271 0.0 0 -0.02998295985162258
-2.6113810539245605 -0.6096093058586121 0.04680735617876053 3.0 8 -0.029980655759572983
-1.8199849128723145 -0.42452874779701233 -0.43145614862442017 2.0 1 -0.029978351667523384
-2.649259328842163 -0.6174773573875427 0.14256316423416138 3.0 9 -0.029976047575473785
-2.3823606967926025 -0.5552698373794556 -0.4754960536956787 1.0 2 -0.029973743483424187
-2.9234683513641357 -0.6797744035720825 0.3685329258441925 1.0 11 -0.02996683120727539
-2.6354820728302 -0.6123260855674744 -0.3322158455848694 33.0 4 -0.029964527115225792
-2.8940021991729736 -0.6718589663505554 0.470554918050766 5.0 12 -0.029962223023176193
-2.882051467895508 -0.6690845489501953 -0.2588525414466858 10.0 5 -0.029959918931126595
-2.893571615219116 -0.6712260246276855 0.5773880481719971 1.0 13 -0.029957614839076996
-2.887599468231201 -0.6687793731689453 0.6843011379241943 10.0 14 -0.0299530066549778
-2.8628058433532715 -0.6619835495948792 0.7873275279998779 12.0 15 -0.0299483984708786
-1.7339824438095093 -0.3987276554107666 -0.47674471139907837 0.0 0 -0.029927663505077362
-2.6095950603485107 -0.5995950698852539 0.04673754796385765 6.0 8 -0.029925359413027763
-1.8290530443191528 -0.41991740465164185 -0.43325576186180115 6.0 1 -0.029923055320978165
-2.620251417160034 -0.6010801792144775 0.14088840782642365 6.0 9 -0.029920751228928566
-2.912277936935425 -0.6664655804634094 0.36682677268981934 2.0 11 -0.02991153486073017
-2.496337890625 -0.5708211660385132 -0.31442293524742126 25.0 4 -0.029909230768680573
-2.9021072387695312 -0.6630728244781494 0.47149354219436646 12.0 12 -0.029906926676630974
-2.87854266166687 -0.6576888561248779 -0.2583296298980713 15.0 5 -0.029904622584581375
-2.9188649654388428 -0.6663649082183838 0.5819674730300903 1.0 13 -0.029902318492531776
-2.6540865898132324 -0.6054304838180542 -0.14266782999038696 1.0 6 -0.029900014400482178
-2.8804163932800293 -0.6565295457839966 0.6820515990257263 22.0 14 -0.02989771217107773
-2.8556807041168213 -0.6498430967330933 0.7847393751144409 19.0 15 -0.02989310398697853
-1.7315950393676758 -0.39182013273239136 -0.4757094085216522 0.0 0 -0.029872367158532143
-2.6136224269866943 -0.5909231305122375 0.04677245020866394 8.0 8 -0.029870063066482544
-1.8495161533355713 -0.4178243577480316 -0.4377547800540924 11.0 1 -0.029867758974432945
-2.6320745944976807 -0.5941294431686401 0.14141176640987396 7.0 9 -0.029865454882383347
-2.1563706398010254 -0.48675039410591125 -0.42970186471939087 1.0 2 -0.029863150790333748
-2.9068398475646973 -0.6545520424842834 0.3658517897129059 3.0 11 -0.029856238514184952
-2.4537715911865234 -0.5520817637443542 -0.30881693959236145 33.0 4 -0.029853934422135353
-2.9063315391540527 -0.6533710360527039 0.4718063771724701 21.0 12 -0.029851630330085754
-2.8788771629333496 -0.6471990346908569 -0.25815531611442566 19.0 5 -0.029849328100681305
-2.8809471130371094 -0.647136926651001 0.5739535093307495 2.0 13 -0.029847024008631706
-2.67177414894104 -0.5996612906455994 -0.14350520074367523 1.0 6 -0.029844719916582108
-2.880789279937744 -0.6460445523262024 0.6816017627716064 32.0 14 -0.02984241582453251
-2.8692426681518555 -0.6424040794372559 0.7878451943397522 29.0 15 -0.02983780764043331
-1.7291810512542725 -0.3849337697029114 -0.47467416524887085 2.0 0 -0.029817070811986923
-2.605909585952759 -0.5796253681182861 0.0465979240834713 9.0 8 -0.029814766719937325
-1.8509633541107178 -0.4113657772541046 -0.4377547800540924 20.0 1 -0.029812462627887726
-2.636082410812378 -0.5853711366653442 0.14151644706726074 8.0 9 -0.029810158535838127
-2.686164617538452 -0.5960004925727844 0.24072414636611938 1.0 10 -0.02980555035173893
-2.9013545513153076 -0.6426839232444763 0.3648768663406372 7.0 11 -0.02980094403028488
-2.455683708190918 -0.5435130596160889 -0.30881693959236145 18.0 4 -0.029798639938235283
-2.912451982498169 -0.6440757513046265 0.4724321663379669 33.0 12 -0.029796335846185684
-2.8676116466522217 -0.633634626865387 -0.25693511962890625 22.0 5 -0.029794031754136086
-2.888939380645752 -0.6383472681045532 0.5750983357429504 3.0 13 -0.029791727662086487
-2.6406962871551514 -0.5830108523368835 -0.1417257934808731 1.0 6 -0.029789423570036888
-2.9096686840057373 -0.6418617963790894 0.6879003643989563 53.0 14 -0.02978711947798729
-2.6128759384155273 -0.5759128928184509 -0.046702638268470764 1.0 7 -0.02978481538593769
-2.860147714614868 -0.6298908591270447 0.7847393751144409 37.0 15 -0.029782511293888092
-1.706046223640442 -0.37322619557380676 -0.467944860458374 2.0 0 -0.029761774465441704
-2.6059634685516357 -0.5700981020927429 0.04656302183866501 12.0 8 -0.029759470373392105
-1.8657145500183105 -0.4078150987625122 -0.44090408086776733 23.0 1 -0.029757168143987656
-2.6381099224090576 -0.5761658549308777 0.14151644706726074 9.0 9 -0.029754864051938057
-2.6844377517700195 -0.5853022933006287 0.24037553369998932 1.0 10 -0.02975025586783886
-1.6212894916534424 -0.3532020151615143 -0.2628099322319031 0.0 3 -0.02974795177578926
-2.9093992710113525 -0.6338199973106384 0.3656080663204193 12.0 11 -0.029745647683739662
-2.6069209575653076 -0.5674471259117126 -0.327584832906723 7.0 4 -0.029743343591690063
-2.9031007289886475 -0.6313865780830383 0.470554918050766 45.0 12 -0.029741039499640465
-2.86201810836792 -0.6219284534454346 -0.25623786449432373 26.0 5 -0.029738735407590866
-2.889341354370117 -0.6273372173309326 0.5747166872024536 6.0 13 -0.029736431315541267
-2.5862112045288086 -0.5610492825508118 -0.1386902928352356 2.0 6 -0.02973412722349167
-2.906287908554077 -0.6299552321434021 0.6865506172180176 61.0 14 -0.02973182313144207
-2.5953269004821777 -0.5625525712966919 -0.04635359346866608 2.0 7 -0.02972951903939247
-2.8547768592834473 -0.6182675361633301 0.7826688289642334 43.0 15 -0.029727214947342873
-1.730002522468567 -0.3721438944339752 -0.47415652871131897 5.0 0 -0.029706479981541634
-2.5963048934936523 -0.5580216646194458 0.04635359346866608 13.0 8 -0.029704175889492035
-1.853859543800354 -0.3981104791164398 -0.4377547800540924 27.0 1 -0.029701871797442436
-2.6402037143707275 -0.5664927959442139 0.14151644706726074 9.0 9 -0.029699567705392838
-2.670879364013672 -0.5725870728492737 0.23898103833198547 1.0 10 -0.02969495952129364
-1.6302390098571777 -0.34919503331184387 -0.26406142115592957 0.0 3 -0.02969265542924404
-2.9000558853149414 -0.620659589767456 0.3641456365585327 20.0 11 -0.029690351337194443
-2.733220338821411 -0.5844551920890808 -0.34318411350250244 7.0 4 -0.029688047245144844
-2.9208498001098633 -0.6240429878234863 0.47305789589881897 62.0 12 -0.029685743153095245
-2.8622233867645264 -0.6115173697471619 -0.2560635805130005 24.0 5 -0.029683439061045647
-2.8761532306671143 -0.6139693856239319 0.5716637372970581 6.0 13 -0.029681134968996048
-2.5998740196228027 -0.554517924785614 -0.1393183320760727 2.0 6 -0.02967883087694645
-2.917999029159546 -0.6218365430831909 0.6888001561164856 77.0 14 -0.02967652678489685
-2.6091067790985107 -0.5555351376533508 -0.04656302183866501 2.0 7 -0.029674222692847252
-2.8608028888702393 -0.6086047291755676 0.7837041020393372 54.0 15 -0.029671918600797653
-1.727510929107666 -0.3653033971786499 -0.4731212258338928 6.0 0 -0.029651183634996414
-2.600193500518799 -0.5493694543838501 0.046388499438762665 14.0 8 -0.029648879542946815
-1.8552379608154297 -0.39163637161254883 -0.4377547800540924 30.0 1 -0.029646575450897217
-2.630439519882202 -0.5548000931739807 0.14088840782642365 9.0 9 -0.029644271358847618
-2.6572651863098145 -0.5599743723869324 0.23758654296398163 2.0 10 -0.02963966317474842
-1.623715877532959 -0.3418746888637543 -0.2628099322319031 1.0 3 -0.029637359082698822
-2.898319721221924 -0.6097153425216675 0.3636581599712372 29.0 11 -0.029635054990649223
-2.8634581565856934 -0.6018604636192322 -0.3592708706855774 41.0 4 -0.029632750898599625
-2.897878646850586 -0.608566403388977 0.46899059414863586 43.0 12 -0.029630446806550026
-2.8682403564453125 -0.6023421883583069 -0.25641217827796936 24.0 5 -0.029628142714500427
-2.88980770111084 -0.6063448786735535 0.5739535093307495 15.0 13 -0.02962583862245083
-2.586155652999878 -0.5421602129936218 -0.13848096132278442 3.0 6 -0.02962353453040123
-2.893449068069458 -0.6060546040534973 0.6825015544891357 83.0 14 -0.02962123043835163
-2.5875422954559326 -0.5415087342262268 -0.046144161373376846 3.0 7 -0.029618926346302032
-2.870473861694336 -0.6001957654953003 0.7857747077941895 54.0 15 -0.029616624116897583
-1.7249926328659058 -0.35848525166511536 -0.47208595275878906 8.0 0 -0.029595887288451195
-2.602095365524292 -0.5402896404266357 0.046388499438762665 19.0 8 -0.029593583196401596
-1.8527776002883911 -0.3843662738800049 -0.4368549883365631 28.0 1 -0.029591279104351997
-2.6323599815368652 -0.5456153154373169 0.14088840782642365 10.0 9 -0.0295889750123024
-2.668958902359009 -0.5527147650718689 0.23845809698104858 3.0 10 -0.0295843668282032
-1.648112177848816 -0.34100764989852905 -0.26656436920166016 2.0 3 -0.029582062736153603
-2.908205986022949 -0.601202666759491 0.36463311314582825 38.0 11 -0.029579758644104004
-2.8772060871124268 -0.594269871711731 -0.3607332706451416 54.0 4 -0.029577454552054405
-2.909658432006836 -0.6004432439804077 0.470554918050766 78.0 12 -0.029575150460004807
-2.872276782989502 -0.5927290916442871 -0.2565865218639374 26.0 5 -0.029572846367955208
-2.895752191543579 -0.5970466732978821 0.5747166872024536 30.0 13 -0.02957054413855076
-2.605638027191162 -0.5367568135261536 -0.13942299783229828 6.0 6 -0.02956824004650116
-2.8917295932769775 -0.5951650738716125 0.6816017627716064 83.0 14 -0.02956593595445156
-2.593334674835205 -0.53327876329422 -0.04621397331357002 2.0 7 -0.029563631862401962
-2.874443531036377 -0.5905616283416748 0.7862922549247742 58.0 15 -0.029561327770352364
-1.714876651763916 -0.35014280676841736 -0.4689801037311554 10.0 0 -0.029540590941905975
-2.5980875492095947 -0.530003547668457 0.0462837815284729 16.0 8 -0.029538286849856377
-1.8541078567504883 -0.3778969347476959 -0.4368549883365631 30.0 1 -0.029535982757806778
-2.638162612915039 -0.5372203588485718 0.141097754240036 9.0 9 -0.02953367866575718
-2.663062572479248 -0.5418061017990112 0.23776087164878845 6.0 10 -0.029529070481657982
-1.670586109161377 -0.3395809233188629 -0.2700059115886688 9.0 3 -0.029526766389608383
-2.902505397796631 -0.5894671082496643 0.3636581599712372 47.0 11 -0.029524464160203934
-2.8831541538238525 -0.5850123763084412 -0.3612207770347595 69.0 4 -0.029522160068154335
-2.905928373336792 -0.5891054272651672 0.4696163237094879 77.0 12 -0.029519855976104736
-2.8782334327697754 -0.5834909677505493 -0.25693511962890625 66.0 5 -0.029517551884055138
-2.8978185653686523 -0.5869349241256714 0.5747166872024536 41.0 13 -0.02951524779200554
-2.593792676925659 -0.5248851180076599 -0.1386902928352356 5.0 6 -0.02951294369995594
-2.9014296531677246 -0.5866120457649231 0.683401346206665 90.0 14 -0.02951063960790634
-2.5853793621063232 -0.5222432613372803 -0.04603944718837738 3.0 7 -0.029508335515856743
-2.863231658935547 -0.5778490304946899 0.7826688289642334 56.0 15 -0.029506031423807144
-1.7066177129745483 -0.3422548770904541 -0.466391921043396 12.0 0 -0.029485294595360756
-2.6018824577331543 -0.5213246941566467 0.04631868749856949 21.0 8 -0.029482990503311157
-1.8554158210754395 -0.37142252922058105 -0.4368549883365631 30.0 1 -0.02948068641126156
-2.640022039413452 -0.528007447719574 0.141097754240036 11.0 9 -0.02947838231921196
-2.6571221351623535 -0.5309452414512634 0.23706360161304474 6.0 10 -0.02947377599775791
-1.6601383686065674 -0.3314273953437805 -0.26812872290611267 11.0 3 -0.029471471905708313
-2.912332534790039 -0.5808842778205872 0.36463311314582825 58.0 11 -0.029469167813658714
-2.8949127197265625 -0.5768844485282898 -0.36243945360183716 71.0 4 -0.029466863721609116
-2.9137792587280273 -0.5801160931587219 0.470554918050766 85.0 12 -0.029464559629559517
-2.866574287414551 -0.5707178711891174 -0.25571495294570923 59.0 5 -0.029462255537509918
-2.8998498916625977 -0.5768159627914429 0.5747166872024536 53.0 13 -0.02945995144546032
-2.5368406772613525 -0.5041487216949463 -0.1355501413345337 4.0 6 -0.02945764735341072
-2.909193754196167 -0.5776197910308838 0.684751033782959 100.0 14 -0.029455343261361122
-2.5911097526550293 -0.5139936208724976 -0.04610925912857056 2.0 7 -0.029453039169311523
-2.8633363246917725 -0.5674753189086914 0.7821511626243591 58.0 15 -0.029450735077261925
-1.7134883403778076 -0.3374156951904297 -0.467944860458374 13.0 0 -0.029430000111460686
-2.5958380699157715 -0.5106950998306274 0.046179067343473434 21.0 8 -0.029427696019411087
-1.8280185461044312 -0.3593059182167053 -0.43010643124580383 30.0 1 -0.02942539192736149
-2.649688482284546 -0.5203282237052917 0.14151644706726074 11.0 9 -0.02942308783531189
-2.6530940532684326 -0.5205167531967163 0.23654069006443024 8.0 10 -0.029418479651212692
-1.6632237434387207 -0.32600995898246765 -0.2684415876865387 15.0 3 -0.029416175559163094
-2.8968098163604736 -0.5672812461853027 0.36243945360183716 63.0 11 -0.029413871467113495
-2.8969085216522217 -0.5667763948440552 -0.36243945360183716 71.0 4 -0.029411567375063896
-2.9138476848602295 -0.569561779499054 0.47024205327033997 91.0 12 -0.029409263283014297
-2.876370668411255 -0.5622362494468689 -0.25641217827796936 61.0 5 -0.0294069591909647
-2.8960649967193604 -0.5655611157417297 0.5735718607902527 61.0 13 -0.0294046550989151
-2.4621331691741943 -0.48037484288215637 -0.13146793842315674 22.0 6 -0.0294023510068655
-2.888239622116089 -0.5629864931106567 0.6793522238731384 87.0 14 -0.029400046914815903
-2.610553503036499 -0.508385956287384 -0.046423401683568954 3.0 7 -0.029397742822766304
-2.8709888458251953 -0.5585843920707703 0.7837041020393372 55.0 15 -0.029395438730716705
-1.710862398147583 -0.3306991755962372 -0.46690958738327026 15.0 0 -0.029374703764915466
-2.6034951210021973 -0.5027682781219482 0.0462837815284729 22.0 8 -0.029372399672865868
-1.6666182279586792 -0.32154321670532227 -0.3918647766113281 33.0 1 -0.02937009558081627
-2.643643617630005 -0.5095643997192383 0.141097754240036 11.0 9 -0.02936779148876667
-2.6548948287963867 -0.5112524628639221 0.23654069006443024 7.0 10 -0.029363183304667473
-1.66047203540802 -0.3194558024406433 -0.26781585812568665 17.0 3 -0.029360879212617874
-2.904620409011841 -0.5582907199859619 0.36317068338394165 67.0 11 -0.029358575120568275
-2.894970417022705 -0.5559120178222656 -0.3619519770145416 73.0 4 -0.029356271028518677
-2.915817975997925 -0.5593870282173157 0.47024205327033997 91.0 12 -0.029353966936469078
-2.8744022846221924 -0.5514416098594666 -0.2560635805130005 61.0 5 -0.02935166284441948
-2.899949550628662 -0.5558187365531921 0.5739535093307495 62.0 13 -0.02934935875236988
-2.4520254135131836 -0.4695231020450592 -0.13083989918231964 41.0 6 -0.029347054660320282
-2.9054994583129883 -0.5558303594589233 0.6829514503479004 100.0 14 -0.029344750568270683
-2.606419563293457 -0.4981446862220764 -0.04631868749856949 3.0 7 -0.029342446476221085
-2.876716375350952 -0.5492832660675049 0.7847393751144409 53.0 15 -0.029340142384171486
-1.7120063304901123 -0.32472509145736694 -0.46690958738327026 15.0 0 -0.029319407418370247
-2.605234146118164 -0.49367785453796387 0.0462837815284729 23.0 8 -0.029317103326320648
-1.6696451902389526 -0.3160865306854248 -0.3923146724700928 45.0 1 -0.02931479923427105
-2.6395187377929688 -0.4992196261882782 0.14078372716903687 11.0 9 -0.02931249514222145
-2.676240921020508 -0.5056805610656738 0.23828379809856415 8.0 10 -0.029307886958122253
-1.6693412065505981 -0.3151237368583679 -0.26906731724739075 19.0 3 -0.029305582866072655
-2.9085021018981934 -0.548516035079956 0.3634144067764282 76.0 11 -0.029303278774023056
-2.883237838745117 -0.5432296991348267 -0.36024579405784607 61.0 4 -0.029300974681973457
-2.913870096206665 -0.5484752655029297 0.4696163237094879 100.0 12 -0.02929867058992386
-2.880225419998169 -0.542142391204834 -0.25641217827796936 61.0 5 -0.02929636649787426
-2.8960838317871094 -0.5446040034294128 0.5728086233139038 67.0 13 -0.02929406240582466
-2.4556124210357666 -0.46132978796958923 -0.13094457983970642 52.0 6 -0.029291760176420212
-2.8825230598449707 -0.5410123467445374 0.6771027445793152 78.0 14 -0.029289456084370613
-2.616004467010498 -0.49051761627197266 -0.04645830765366554 3.0 7 -0.029287151992321014
-2.884312629699707 -0.5403053760528564 0.7862922549247742 52.0 15 -0.029284847900271416
-1.654252290725708 -0.30779269337654114 -0.4508627951145172 26.0 0 -0.029264111071825027
-2.608907699584961 -0.4849455952644348 0.04631868749856949 25.0 8 -0.02926180697977543
-1.6381665468215942 -0.30420783162117004 -0.3846663236618042 28.0 1 -0.02925950288772583
-2.639281749725342 -0.4896385967731476 0.14067906141281128 11.0 9 -0.02925719879567623
-2.648604393005371 -0.4908899962902069 0.23566913604736328 8.0 10 -0.029252590611577034
-1.6607191562652588 -0.30749642848968506 -0.26750296354293823 22.0 3 -0.029250286519527435
-2.9103989601135254 -0.538360059261322 0.3634144067764282 75.0 11 -0.029247982427477837
-2.915766954421997 -0.5383005738258362 0.4696163237094879 87.0 12 -0.02924337610602379
-2.8938562870025635 -0.5342555046081543 -0.25745806097984314 8.0 5 -0.02924107201397419
-2.9095513820648193 -0.5366272926330566 0.5750983357429504 73.0 13 -0.02923876792192459
-2.4670286178588867 -0.4545653760433197 -0.13146793842315674 50.0 6 -0.029236463829874992
-2.903559446334839 -0.5344749689102173 0.6816017627716064 83.0 14 -0.029234159737825394
-2.613767385482788 -0.48065903782844543 -0.046388499438762665 4.0 7 -0.029231855645775795
-2.876680850982666 -0.5284892320632935 0.7837041020393372 48.0 15 -0.029229551553726196
-1.6325109004974365 -0.2978549897670746 -0.44465112686157227 28.0 0 -0.029208814725279808
-2.602715492248535 -0.4744015038013458 0.046179067343473434 27.0 8 -0.02920651063323021
-1.6142947673797607 -0.2939492464065552 -0.378817617893219 19.0 1 -0.02920420654118061
-2.637044668197632 -0.4797077775001526 0.1404697149991989 11.0 9 -0.029201902449131012
-2.656182289123535 -0.48271024227142334 0.23619204759597778 7.0 10 -0.029197294265031815
-1.6267975568771362 -0.2953460216522217 -0.2618713080883026 25.0 3 -0.029194992035627365
-2.9161670207977295 -0.5289060473442078 0.36390188336372375 79.0 11 -0.029192687943577766
-1.6368556022644043 -0.2965819239616394 -0.20425304770469666 2.0 4 -0.029190383851528168
-2.913740873336792 -0.5274156332015991 0.46899059414863586 82.0 12 -0.02918807975947857
-1.6213587522506714 -0.2934817969799042 -0.1441555917263031 0.0 5 -0.02918577566742897
-2.9094748497009277 -0.5261190533638 0.5747166872024536 87.0 13 -0.02918347157537937
-2.458773136138916 -0.44417572021484375 -0.13094457983970642 27.0 6 -0.029181167483329773
-2.8996541500091553 -0.5232979655265808 0.6802520155906677 71.0 14 -0.029178863391280174
-2.6173970699310303 -0.4718876779079437 -0.046423401683568954 3.0 7 -0.029176559299230576
-2.8728039264678955 -0.5174170732498169 0.7821511626243591 42.0 15 -0.029174255207180977
-1.6012122631072998 -0.2863727807998657 -0.4358513057231903 19.0 0 -0.029175281524658203
-2.602386951446533 -0.46496161818504333 0.046144161373376846 31.0 8 -0.029172977432608604
-1.5999635457992554 -0.2855735421180725 -0.37521839141845703 25.0 1 -0.029170673340559006
-2.6523842811584473 -0.4734175205230713 0.1412024199962616 10.0 9 -0.029168369248509407
-1.6351234912872314 -0.2915543019771576 -0.3228488266468048 0.0 2 -0.02916606515645981
-2.6598126888275146 -0.473784863948822 0.2363663762807846 8.0 10 -0.02916376106441021
-1.58503258228302 -0.2820519506931305 -0.2549882233142853 15.0 3 -0.02916145697236061
-2.910177707672119 -0.5173337459564209 0.3629269301891327 82.0 11 -0.029159152880311012
-1.6124722957611084 -0.286354124546051 -0.2010844349861145 26.0 4 -0.029156848788261414
-2.9193637371063232 -0.5184410214424133 0.4696163237094879 87.0 12 -0.029154544696211815
-1.628258466720581 -0.28886446356773376 -0.14467853307724 13.0 5 -0.029152240604162216
-2.9151599407196045 -0.5166449546813965 0.5754799246788025 82.0 13 -0.029149938374757767
-2.8995440006256104 -0.5128336548805237 0.6798021197319031 63.0 14 -0.02914533019065857
-2.5992562770843506 -0.459722638130188 -0.04607435315847397 3.0 7 -0.02914302609860897
-2.885918378829956 -0.5099043250083923 0.7852570414543152 36.0 15 -0.029140722006559372
-1.6098133325576782 -0.28211554884910583 -0.43792182207107544 25.0 0 -0.029119985178112984
-2.607854127883911 -0.457019567489624 0.04621397331357002 31.0 8 -0.029117681086063385
-1.5874649286270142 -0.2779138684272766 -0.3720690608024597 30.0 1 -0.029115376994013786
-2.644183874130249 -0.4624350368976593 0.14067906141281128 9.0 9 -0.029113072901964188
-1.5974520444869995 -0.27908727526664734 -0.3152164816856384 0.0 2 -0.02911076880991459
-2.6693007946014404 -0.465868204832077 0.23706360161304474 8.0 10 -0.02910846471786499
-1.6015266180038452 -0.2795115113258362 -0.2574911415576935 20.0 3 -0.02910616062581539
-2.911877393722534 -0.5076802968978882 0.3629269301891327 85.0 11 -0.029103858396410942
-1.5919007062911987 -0.27725860476493835 -0.19840329885482788 21.0 4 -0.029101554304361343
-2.9231016635894775 -0.5085866451263428 0.46992918848991394 85.0 12 -0.029099250212311745
-1.615516185760498 -0.28079068660736084 -0.14345835149288177 23.0 5 -0.029096946120262146
-2.9091203212738037 -0.5056302547454834 0.5739535093307495 85.0 13 -0.029094642028212547
-1.6293529272079468 -0.28290271759033203 -0.08666835725307465 21.0 6 -0.02909233793616295
-2.8954684734344482 -0.5022163987159729 0.6784523725509644 51.0 14 -0.02909003384411335
-2.8781630992889404 -0.49817997217178345 0.7826688289642334 26.0 15 -0.029085425660014153
-1.6069321632385254 -0.2761212885379791 -0.43688657879829407 30.0 0 -0.029064688831567764
-2.613374948501587 -0.44859078526496887 0.0462837815284729 30.0 8 -0.029062384739518166
-1.5980287790298462 -0.2740176022052765 -0.37431856989860535 34.0 1 -0.029060080647468567
-2.6378283500671387 -0.4523143768310547 0.14026036858558655 9.0 9 -0.029057778418064117
-1.598368763923645 -0.27378833293914795 -0.3152164816856384 0.0 2 -0.02905547432601452
-2.666903495788574 -0.4563417434692383 0.23671498894691467 8.0 10 -0.02905317023396492
-1.6024926900863647 -0.273919016122818 -0.2574911415576935 30.0 3 -0.02905086614191532
-2.9175450801849365 -0.49818092584609985 0.3634144067764282 83.0 11 -0.029048562049865723
-1.5752474069595337 -0.2686964273452759 -0.19620966911315918 21.0 4 -0.029046257957816124
-2.9189302921295166 -0.49789395928382874 0.46899059414863586 69.0 12 -0.029043953865766525
-1.6007258892059326 -0.2727545201778412 -0.14206385612487793 30.0 5 -0.029041649773716927
-2.916673421859741 -0.4964606761932373 0.5750983357429504 90.0 13 -0.029039345681667328
-1.6263924837112427 -0.2765442132949829 -0.08645901083946228 35.0 6 -0.02903704158961773
-2.8933615684509277 -0.49145349860191345 0.6775525808334351 41.0 14 -0.02903473749756813
-1.5633666515350342 -0.2655465006828308 -0.02767951786518097 1.0 7 -0.029032433405518532
-2.889322280883789 -0.4902486801147461 0.7852570414543152 22.0 15 -0.029030129313468933
-1.5964559316635132 -0.2685876786708832 -0.4337807595729828 37.0 0 -0.029009394347667694
-2.6227362155914307 -0.4412490129470825 0.046423401683568954 30.0 8 -0.029007090255618095
-1.5816326141357422 -0.2658099830150604 -0.37026944756507874 39.0 1 -0.029004786163568497
-2.6492397785186768 -0.44475650787353516 0.14078372716903687 7.0 9 -0.029002482071518898
-1.5993146896362305 -0.2682076692581177 -0.3152164816856384 0.0 2 -0.0290001779794693
-2.6586554050445557 -0.44538378715515137 0.23584343492984772 7.0 10 -0.0289978738874197
-1.5878065824508667 -0.2659928500652313 -0.2549882233142853 27.0 3 -0.028995569795370102
-2.9230968952178955 -0.4891584515571594 0.36390188336372375 85.0 11 -0.028993265703320503
-1.5643820762634277 -0.26150739192962646 -0.1947472244501114 24.0 4 -0.028990961611270905
-2.9167540073394775 -0.48705118894577026 0.4683648645877838 69.0 12 -0.028988657519221306
-1.5623633861541748 -0.2606090307235718 -0.1385776251554489 28.0 5 -0.028986353427171707
-2.9318594932556152 -0.48904693126678467 0.5777696371078491 83.0 13 -0.02898404933512211
-1.6213902235031128 -0.27016451954841614 -0.08614499121904373 40.0 6 -0.02898174524307251
-2.896897792816162 -0.48217591643333435 0.6780025362968445 31.0 14 -0.02897944115102291
-1.5879554748535156 -0.26402342319488525 -0.028098376467823982 32.0 7 -0.028977137058973312
-2.8738644123077393 -0.47731196880340576 0.7805982232093811 19.0 15 -0.028974832966923714
-1.5935254096984863 -0.26266369223594666 -0.43274545669555664 48.0 0 -0.028954098001122475
-2.620314121246338 -0.43144142627716064 0.04635359346866608 23.0 8 -0.028951793909072876
-1.5940884351730347 -0.26218461990356445 -0.3729688823223114 46.0 1 -0.028949489817023277
-2.638951063156128 -0.43356403708457947 0.14015570282936096 1.0 9 -0.02894718572497368
-1.5653241872787476 -0.2571735084056854 -0.30834734439849854 0.0 2 -0.02894488163292408
-2.6522536277770996 -0.4352741539478302 0.2351461946964264 2.0 10 -0.02894257754087448
-1.580927848815918 -0.2591700255870819 -0.2537367343902588 34.0 3 -0.028940273448824883
-2.930663585662842 -0.47991499304771423 0.36463311314582825 69.0 11 -0.028937969356775284
-1.5652854442596436 -0.25604504346847534 -0.1947472244501114 24.0 4 -0.028935665264725685
-2.9242849349975586 -0.4778217077255249 0.4693034589290619 66.0 12 -0.028933361172676086
-1.5455222129821777 -0.2525348961353302 -0.13700881600379944 26.0 5 -0.028931057080626488
-2.9180476665496826 -0.47628042101860046 0.5747166872024536 83.0 13 -0.02892875298857689
-1.5888125896453857 -0.2590395212173462 -0.08436556905508041 47.0 6 -0.02892644889652729
-2.900486469268799 -0.4723740816116333 0.6784523725509644 26.0 14 -0.02892414480447769
-1.5632085800170898 -0.2543049454689026 -0.02764461189508438 60.0 7 -0.028921840712428093
-2.8697924613952637 -0.46634775400161743 0.7790454030036926 13.0 15 -0.028919536620378494
-1.5887110233306885 -0.25617700815200806 -0.431192547082901 51.0 0 -0.028898801654577255
-1.5834497213363647 -0.25476160645484924 -0.37026944756507874 56.0 1 -0.028894193470478058
-1.5797810554504395 -0.2538885176181793 -0.3110186755657196 43.0 2 -0.02888958528637886
-1.572070598602295 -0.2520865201950073 -0.2521723806858063 42.0 3 -0.028884977102279663
-1.5583291053771973 -0.2493247389793396 -0.19377227127552032 26.0 4 -0.028880368918180466
-2.9259350299835205 -0.46761178970336914 0.4693034589290619 60.0 12 -0.028878064826130867
-1.5385247468948364 -0.24588115513324738 -0.1363115906715393 27.0 5 -0.02887576073408127
-2.9158151149749756 -0.465472549200058 0.5739535093307495 83.0 13 -0.02887345664203167
-1.5719560384750366 -0.2506609857082367 -0.08342352509498596 29.0 6 -0.02887115441262722
-2.909815788269043 -0.463473379611969 0.6802520155906677 18.0 14 -0.02886885032057762
-1.5601370334625244 -0.2482183426618576 -0.027574801817536354 45.0 7 -0.028866546228528023
-2.8733105659484863 -0.4566299021244049 0.7795630097389221 11.0 15 -0.028864242136478424
-1.6010452508926392 -0.25243502855300903 -0.4342983663082123 56.0 0 -0.028843505308032036
-1.5407716035842896 -0.2426561713218689 0.027225753292441368 10.0 8 -0.028841201215982437
-1.5727790594100952 -0.24741575121879578 -0.36757004261016846 56.0 1 -0.02883889712393284
-1.5567363500595093 -0.2446136325597763 0.0825861468911171 21.0 9 -0.02883659303188324
-1.5942776203155518 -0.2502274811267853 -0.3136900067329407 65.0 2 -0.02883428893983364
-1.5588881969451904 -0.2446729987859726 0.13805469870567322 26.0 10 -0.028831984847784042
-1.5709894895553589 -0.24629142880439758 -0.25185951590538025 49.0 3 -0.028829680755734444
-1.5297293663024902 -0.23954936861991882 0.19011619687080383 4.0 11 -0.028827376663684845
-1.5474225282669067 -0.2420433610677719 -0.19230984151363373 27.0 4 -0.028825074434280396
-2.9353561401367188 -0.45861512422561646 0.470554918050766 51.0 12 -0.028822770342230797
-1.5374468564987183 -0.23993323743343353 -0.13613726198673248 32.0 5 -0.028820466250181198
-2.9194414615631104 -0.45508480072021484 0.5743350982666016 81.0 13 -0.0288181621581316
-1.5452353954315186 -0.24059626460075378 -0.0819581151008606 28.0 6 -0.028815858066082
-2.8940858840942383 -0.4506149888038635 0.6762028932571411 13.0 14 -0.028813553974032402
-1.5570422410964966 -0.24215590953826904 -0.027504993602633476 34.0 7 -0.028811249881982803
-2.884431838989258 -0.44808000326156616 0.7821511626243591 10.0 15 -0.028808945789933205
-1.5962315797805786 -0.24568353593349457 -0.43274545669555664 45.0 0 -0.028788208961486816
-1.559438943862915 -0.23974201083183289 0.027539897710084915 44.0 8 -0.028785904869437218
-1.583306074142456 -0.24312880635261536 -0.3698195517063141 46.0 1 -0.02878360077738762
-1.5457773208618164 -0.23708945512771606 0.0819581151008606 17.0 9 -0.02878129668533802
-1.5815997123718262 -0.2423013299703598 -0.3110186755657196 61.0 2 -0.02877899259328842
-1.557805061340332 -0.23865598440170288 0.1378803700208664 23.0 10 -0.028776690363883972
-1.5835974216461182 -0.24232454597949982 -0.2537367343902588 66.0 3 -0.028774386271834373
-1.5325593948364258 -0.23424090445041656 0.1903599202632904 23.0 11 -0.028772082179784775
-1.5502614974975586 -0.23666967451572418 -0.1925535798072815 35.0 4 -0.028769778087735176
-2.929206371307373 -0.4466622769832611 0.4693034589290619 40.0 12 -0.028767473995685577
-1.5383158922195435 -0.23429659008979797 -0.13613726198673248 38.0 5 -0.02876516990363598
-2.9288532733917236 -0.4455624222755432 0.5758615732192993 77.0 13 -0.02876286581158638
-1.536233901977539 -0.23343048989772797 -0.08143475651741028 30.0 6 -0.02876056171953678
-2.8976447582244873 -0.44029664993286133 0.6766527891159058 11.0 14 -0.028758257627487183
-1.5401257276535034 -0.23374724388122559 -0.02719084918498993 33.0 7 -0.028755953535437584
-2.8841447830200195 -0.4372161626815796 0.7816335558891296 9.0 15 -0.028753649443387985
-1.587568998336792 -0.23839734494686127 -0.43015727400779724 43.0 0 -0.028732912614941597
-1.5365761518478394 -0.23046542704105377 0.027121039107441902 30.0 8 -0.028730610385537148
-1.5880411863327026 -0.23790110647678375 -0.37071937322616577 46.0 1 -0.02872830629348755
-1.5446605682373047 -0.2311270833015442 0.08185344934463501 15.0 9 -0.02872600220143795
-1.5746692419052124 -0.2356172651052475 -0.30949220061302185 51.0 2 -0.02872369810938835
-1.5330528020858765 -0.2291163057088852 0.1356143355369568 26.0 10 -0.028721394017338753
-1.572752594947815 -0.23476889729499817 -0.25185951590538025 49.0 3 -0.028719089925289154
-1.5216273069381714 -0.22686618566513062 0.188897505402565 19.0 11 -0.028716785833239555
-1.5530818700790405 -0.2312784492969513 -0.19279730319976807 42.0 4 -0.028714481741189957
-2.9210541248321533 -0.4344700872898102 0.46773913502693176 27.0 12 -0.028712177649140358
-1.5273001194000244 -0.22716669738292694 -0.1350913941860199 45.0 5 -0.02870987355709076
-2.9284489154815674 -0.43504685163497925 0.5754799246788025 61.0 13 -0.02870756946504116
-1.5390149354934692 -0.22836007177829742 -0.08153942972421646 29.0 6 -0.028705265372991562
-2.891528367996216 -0.4285311996936798 0.6748532056808472 8.0 14 -0.028702961280941963
-1.5271251201629639 -0.2260507494211197 -0.02694651484489441 39.0 7 -0.028700657188892365
-2.8761725425720215 -0.4252295196056366 0.7790454030036926 7.0 15 -0.028698353096842766
-1.592214584350586 -0.23341424763202667 -0.431192547082901 40.0 0 -0.028677618131041527
-1.5274783372879028 -0.22365181148052216 0.02694651484489441 36.0 8 -0.028675314038991928
-1.5946464538574219 -0.23320260643959045 -0.3720690608024597 42.0 1 -0.02867300994694233
-1.5336002111434937 -0.2240014374256134 0.08122541010379791 15.0 9 -0.02867070585489273
-1.5813101530075073 -0.23097005486488342 -0.31063705682754517 53.0 2 -0.028668401762843132
-1.5239856243133545 -0.22232547402381897 0.13474278151988983 29.0 10 -0.028666097670793533
-1.5716077089309692 -0.22899304330348969 -0.2515466511249542 45.0 3 -0.028663793578743935
-1.5243743658065796 -0.2218387871980667 0.18914122879505157 25.0 11 -0.028661489486694336
-1.56370210647583 -0.22728340327739716 -0.19401602447032928 40.0 4 -0.028659185394644737
-2.9264626502990723 -0.4248392581939697 0.4683648645877838 21.0 12 -0.02865688130259514
-1.5261120796203613 -0.22154812514781952 -0.13491709530353546 46.0 5 -0.02865457721054554
