# .PCD v0.7 - Point Cloud Data file format
VERSION 0.7
FIELDS x y z intensity ring time
SIZE 4 4 4 4 4 4
TYPE F F F F F F
COUNT 1 1 1 1 1 1
WIDTH 555
HEIGHT 1
VIEWPOINT 0 0 0 1 0 0 0
POINTS 555
DATA ascii
2.8153154850006104 7.103426933288574 1.4852572679519653 100.0 13 -0.013229623436927795
1.9487546682357788 4.914470672607422 -0.27706658840179443 1.0 6 -0.013227319344878197
2.814207077026367 7.093410491943359 1.7618167400360107 100.0 14 -0.013225015252828598
2.8101017475128174 7.0758466720581055 2.0400118827819824 19.0 15 -0.0132204070687294
1.493410348892212 3.7470669746398926 -1.080828309059143 3.0 0 -0.013199672102928162
2.725694417953491 6.83547306060791 0.1284497082233429 0.0 8 -0.013197368010878563
1.746086835861206 4.376600742340088 -1.0878634452819824 1.0 1 -0.013195063918828964
2.789170026779175 6.987575531005859 0.39429914951324463 19.0 9 -0.013192759826779366
2.1004767417907715 5.262225151062012 -1.1013495922088623 4.0 2 -0.013190455734729767
2.799107313156128 7.008908748626709 0.6602919101715088 54.0 10 -0.013188151642680168
2.1702682971954346 5.43155574798584 -0.9264050126075745 48.0 3 -0.01318584755063057
2.814136028289795 7.039405822753906 0.9308381676673889 36.0 11 -0.01318354345858097
1.922615885734558 4.806883335113525 -0.63567054271698 46.0 4 -0.013181239366531372
2.8204214572906494 7.047990322113037 1.2023553848266602 42.0 12 -0.013178935274481773
2.839362621307373 7.091734409332275 1.4848756790161133 77.0 13 -0.013174327090382576
1.9658963680267334 4.907639026641846 -0.27706658840179443 1.0 6 -0.013172023929655552
2.848376750946045 7.107058048248291 1.7676655054092407 100.0 14 -0.013169719837605953
2.2669622898101807 5.653498649597168 -0.10632006078958511 1.0 7 -0.013167415745556355
2.8290278911590576 7.051651477813721 2.0358705520629883 18.0 15 -0.013165111653506756
1.5085785388946533 3.7451517581939697 -1.0818636417388916 2.0 0 -0.013144375756382942
2.7868947982788086 6.918661117553711 0.13019496202468872 0.0 8 -0.013142071664333344
1.7613524198532104 4.370479583740234 -1.0878634452819824 2.0 1 -0.013139767572283745
2.801595687866211 6.9481587409973145 0.3926243782043457 18.0 9 -0.013137463480234146
2.12636399269104 5.270875930786133 -1.1047841310501099 5.0 2 -0.013135159388184547
2.8068788051605225 6.954261302947998 0.6561084389686584 55.0 10 -0.013132855296134949
2.1761064529418945 5.388763904571533 -0.9204605221748352 44.0 3 -0.01313055120408535
2.818620204925537 6.979841709136963 0.924257218837738 32.0 11 -0.013128247112035751
1.9334355592727661 4.7854180335998535 -0.6337206363677979 50.0 4 -0.013125943951308727
2.8309390544891357 7.003305912017822 1.196410894393921 36.0 12 -0.013123639859259129
2.84619140625 7.033961296081543 1.4749536514282227 65.0 13 -0.013119031675159931
1.9621371030807495 4.846712112426758 -0.2740310728549957 1.0 6 -0.013116727583110332
2.8553833961486816 7.049609661102295 1.7559679746627808 70.0 14 -0.013114423491060734
2.274670362472534 5.615896701812744 -0.1057615876197815 4.0 7 -0.013112119399011135
2.8514509201049805 7.0363616943359375 2.0343177318573 17.0 15 -0.013109815306961536
1.5209133625030518 3.7380738258361816 -1.0813459157943726 1.0 0 -0.013089079409837723
2.797157049179077 6.871356964111328 0.12949685752391815 0.0 8 -0.013086775317788124
1.780300498008728 4.371213436126709 -1.089663028717041 2.0 1 -0.013084471225738525
2.805938720703125 6.886055946350098 0.38969358801841736 18.0 9 -0.013082167133688927
2.144005298614502 5.2616047859191895 -1.1044025421142578 5.0 2 -0.013079863972961903
2.8160951137542725 6.907520771026611 0.6526221632957458 55.0 10 -0.013077559880912304
2.1777453422546387 5.3390655517578125 -0.9132645130157471 37.0 3 -0.013075255788862705
2.826180934906006 6.92535400390625 0.9184074401855469 35.0 11 -0.013072951696813107
1.9472092390060425 4.769111156463623 -0.6325019001960754 44.0 4 -0.013070647604763508
2.8423969745635986 6.958137512207031 1.1904664039611816 32.0 12 -0.01306834351271391
2.8499252796173096 6.973100185394287 1.4642683267593384 60.0 13 -0.013063735328614712
1.9495607614517212 4.767735958099365 -0.26994889974594116 1.0 6 -0.013061431236565113
2.869645118713379 7.014348030090332 1.7496694326400757 63.0 14 -0.013059128075838089
2.310387134552002 5.644535541534424 -0.10645968466997147 7.0 7 -0.01305682398378849
2.8677022457122803 7.002623081207275 2.0275886058807373 21.0 15 -0.013054519891738892
1.5360759496688843 3.73604679107666 -1.082381248474121 2.0 0 -0.013033783063292503
2.7983148097991943 6.806066036224365 0.1284497082233429 0.0 8 -0.01303147990256548
1.7985124588012695 4.372181415557861 -1.0914626121520996 1.0 1 -0.01302917581051588
2.810957193374634 6.830044746398926 0.3870767652988434 17.0 9 -0.013026871718466282
2.1647746562957764 5.257340431213379 -1.105165719985962 8.0 2 -0.013024567626416683
2.8231780529022217 6.852941036224365 0.6484387516975403 55.0 10 -0.013022263534367085
2.186007022857666 5.303653240203857 -0.9085714817047119 30.0 3 -0.013019959442317486
2.8291587829589844 6.864057540893555 0.9115827679634094 27.0 11 -0.013017655350267887
1.9540077447891235 4.73842716217041 -0.6293333172798157 31.0 4 -0.013015351258218288
2.8493382930755615 6.906174182891846 1.1832704544067383 31.0 12 -0.013013048097491264
2.863478422164917 6.933571815490723 1.4581624269485474 56.0 13 -0.013008439913392067
2.133291482925415 5.162963390350342 -0.29276737570762634 1.0 6 -0.013006135821342468
2.8737430572509766 6.951557636260986 1.7366222143173218 66.0 14 -0.01300383172929287
2.3369534015655518 5.6530680656433105 -0.10677383095026016 14.0 7 -0.013001527637243271
2.880316734313965 6.9640069007873535 2.0193064212799072 22.0 15 -0.012999223545193672
1.554466962814331 3.747262716293335 -1.0870400667190552 2.0 0 -0.012946128845214844
2.7948052883148193 6.733953952789307 0.12726294994354248 0.0 8 -0.012943824753165245
1.8144950866699219 4.36979341506958 -1.092362403869629 2.0 1 -0.012941520661115646
2.8159689903259277 6.778263092041016 0.38466930389404297 19.0 9 -0.012939216569066048
2.17600679397583 5.237823009490967 -1.102494478225708 13.0 2 -0.012936912477016449
2.8286361694335938 6.80540132522583 0.6447781920433044 50.0 10 -0.01293460838496685
2.1867287158966064 5.258456707000732 -0.9020012617111206 27.0 3 -0.012932305224239826
2.832843542098999 6.808816909790039 0.9054892659187317 30.0 11 -0.012930001132190228
1.958266258239746 4.704432010650635 -0.6256772875785828 15.0 4 -0.012927697040140629
2.8517181873321533 6.847451686859131 1.1748229265213013 33.0 12 -0.01292539294809103
2.865612745285034 6.877424240112305 1.4482402801513672 60.0 13 -0.012920784763991833
2.1448912620544434 5.145174980163574 -0.29213932156562805 1.0 6 -0.012918480671942234
2.875312566757202 6.8939337730407715 1.7244749069213867 68.0 14 -0.012916176579892635
2.3564581871032715 5.64713191986084 -0.10680872946977615 22.0 7 -0.012913872487843037
2.88850736618042 6.918762683868408 2.00895357131958 22.0 15 -0.012911568395793438
1.564549446105957 3.7346878051757812 -1.0849695205688477 2.0 0 -0.012890832498669624
2.805925130844116 6.694649696350098 0.12670446932315826 0.0 8 -0.012888528406620026
1.8222026824951172 4.345460891723633 -1.0878634452819824 2.0 1 -0.012886225245893002
2.822608709335327 6.727875709533691 0.3823665380477905 25.0 9 -0.012883921153843403
2.1904754638671875 5.221144199371338 -1.1005862951278687 20.0 2 -0.012881617061793804
2.8307814598083496 6.74404764175415 0.6398974657058716 52.0 10 -0.012879312969744205
2.198953628540039 5.2362213134765625 -0.8994983434677124 48.0 3 -0.012877008877694607
2.8435235023498535 6.76777458190918 0.9013457298278809 35.0 11 -0.012874704785645008
1.9708285331726074 4.688417911529541 -0.6244585514068604 9.0 4 -0.01287240069359541
2.85339617729187 6.78464937210083 1.1657497882843018 34.0 12 -0.01287009660154581
2.8751370906829834 6.8329973220825195 1.44098961353302 60.0 13 -0.012865488417446613
2.105492115020752 5.001438140869141 -0.28439363837242126 1.0 6 -0.01286318525671959
2.8819637298583984 6.84254789352417 1.7141271829605103 65.0 14 -0.01286088116466999
2.380040168762207 5.648085117340088 -0.1069832518696785 24.0 7 -0.012858577072620392
2.8931267261505127 6.862355709075928 1.9954949617385864 20.0 15 -0.012856272980570793
1.5798354148864746 3.7345409393310547 -1.0865224599838257 2.0 0 -0.01283553708344698
2.80979323387146 6.63877534866333 0.12583185732364655 18.0 8 -0.01283323299139738
1.8525564670562744 4.374964237213135 -1.096861481666565 1.0 1 -0.012830928899347782
2.8336122035980225 6.688557147979736 0.3806917667388916 25.0 9 -0.012828624807298183
2.2125182151794434 5.22250509262085 -1.102494478225708 12.0 2 -0.012826320715248585
2.8379790782928467 6.695601463317871 0.6362369060516357 57.0 10 -0.012824016623198986
2.2164454460144043 5.2266950607299805 -0.8991854190826416 53.0 3 -0.012821712531149387
2.851619005203247 6.721261024475098 0.8964709639549255 35.0 11 -0.012819408439099789
1.9933886528015137 4.696127891540527 -0.6264085173606873 1.0 4 -0.012817105278372765
2.863933563232422 6.743739128112793 1.1604310274124146 33.0 12 -0.012814801186323166
2.879772901535034 6.777748107910156 1.4314491748809814 58.0 13 -0.012810193002223969
2.1010611057281494 4.942591190338135 -0.28146278858184814 1.0 6 -0.01280788891017437
2.8913416862487793 6.798372745513916 1.7055790424346924 63.0 14 -0.012805584818124771
2.406001091003418 5.654465198516846 -0.1072624921798706 25.0 7 -0.012803280726075172
2.898904323577881 6.809554100036621 1.9830715656280518 19.0 15 -0.012800976634025574
1.5989336967468262 3.743215322494507 -1.0906635522842407 1.0 0 -0.01278024073690176
1.8632210493087769 4.357719421386719 -1.0941619873046875 2.0 1 -0.012775632552802563
2.839662790298462 6.63822603225708 0.37838900089263916 25.0 9 -0.012773328460752964
2.8472182750701904 6.65268611907959 0.6330993175506592 54.0 10 -0.012768721207976341
2.237788200378418 5.226189613342285 -0.9004368782043457 49.0 3 -0.012766417115926743
2.856304407119751 6.6674723625183105 0.8906212449073792 36.0 11 -0.012764113023877144
1.9894357919692993 4.641702651977539 -0.620071291923523 1.0 4 -0.012761808931827545
2.872666597366333 6.69920539855957 1.1544864177703857 34.0 12 -0.012759504839777946
2.8832907676696777 6.7207441329956055 1.4215270280838013 56.0 13 -0.012754896655678749
2.001710891723633 4.663597106933594 -0.2659713625907898 1.0 6 -0.01275259256362915
2.90351939201355 6.761380195617676 1.698830485343933 66.0 14 -0.012750288471579552
2.4359874725341797 5.66991662979126 -0.10771625488996506 24.0 7 -0.012747984379529953
2.9043455123901367 6.756797790527344 1.9706482887268066 21.0 15 -0.012745681218802929
1.6089290380477905 3.730515956878662 -1.0885930061340332 2.0 0 -0.01272494439035654
1.8784220218658447 4.351188659667969 -1.0941619873046875 1.0 1 -0.012720337137579918
2.842663288116455 6.584763050079346 0.37587687373161316 25.0 9 -0.01271803304553032
2.854619026184082 6.606127738952637 0.6296131014823914 54.0 10 -0.012713424861431122
2.0968902111053467 4.850269317626953 -0.8369244933128357 13.0 3 -0.012711120769381523
2.861433982849121 6.615556716918945 0.8850152492523193 29.0 11 -0.012708816677331924
1.9914345741271973 4.601937294006348 -0.6156839728355408 4.0 4 -0.012706512585282326
2.877605438232422 6.649759292602539 1.1476033926010132 36.0 12 -0.012704208493232727
2.891125202178955 6.6746087074279785 1.413894772529602 57.0 13 -0.012699601240456104
2.013211488723755 4.6455864906311035 -0.2653433084487915 1.0 6 -0.012697297148406506
2.9015238285064697 6.692201137542725 1.6839838027954102 67.0 14 -0.012694993056356907
2.460345983505249 5.674649238586426 -0.10796058923006058 25.0 7 -0.012692688964307308
2.9144339561462402 6.71877384185791 1.9623661041259766 21.0 15 -0.01269038487225771
1.6273410320281982 3.7372753620147705 -1.0922164916992188 2.0 0 -0.012669648975133896
1.902179479598999 4.366374492645264 -1.0995607376098633 1.0 1 -0.012665040791034698
2.847275733947754 6.532689571380615 0.37346941232681274 26.0 9 -0.0126627366989851
2.2717959880828857 5.209846496582031 -1.1047841310501099 4.0 2 -0.012660432606935501
2.8593389987945557 6.5541205406188965 0.6256039142608643 52.0 10 -0.012658128514885902
2.2709405422210693 5.205404758453369 -0.8994983434677124 23.0 3 -0.012655824422836304
2.8627116680145264 6.558727741241455 0.8786780834197998 33.0 11 -0.01265352126210928
1.9979469776153564 4.575296878814697 -0.6130028367042542 4.0 4 -0.012651217170059681
2.8786580562591553 6.588988780975342 1.138843059539795 36.0 12 -0.012648913078010082
2.8959460258483887 6.6254072189331055 1.4054991006851196 56.0 13 -0.012644304893910885
2.0110018253326416 4.598625659942627 -0.26304054260253906 1.0 6 -0.012642000801861286
2.902608633041382 6.634338855743408 1.671836256980896 66.0 14 -0.012639696709811687
2.4793360233306885 5.6641950607299805 -0.10792568325996399 19.0 7 -0.012637392617762089
2.9208219051361084 6.669628143310547 1.95097815990448 21.0 15 -0.01263508852571249
1.6280677318572998 3.7053284645080566 -1.0844517946243286 1.0 0 -0.012614352628588676
2.8423116207122803 6.465768814086914 0.12328379601240158 41.0 8 -0.012612048536539078
1.925253987312317 4.377547264099121 -1.1040599346160889 1.0 1 -0.012609744444489479
2.8547770977020264 6.487977981567383 0.37148067355155945 25.0 9 -0.012607441283762455
2.8674094676971436 6.513603210449219 0.6226406097412109 54.0 10 -0.012602833099663258
2.3050198554992676 5.233602523803711 -0.9057556986808777 96.0 3 -0.012600529007613659
2.8719794750213623 6.5178141593933105 0.8745344281196594 37.0 11 -0.01259822491556406
2.006699800491333 4.55194616317749 -0.6108092069625854 4.0 4 -0.012595920823514462
2.8841018676757812 6.539138317108154 1.1319599151611328 36.0 12 -0.012593616731464863
2.0333640575408936 4.610256195068359 -0.44083371758461 1.0 5 -0.012591312639415264
2.9039955139160156 6.581132411956787 1.3982484340667725 61.0 13 -0.012589008547365665
2.0141372680664062 4.562343597412109 -0.2613658010959625 1.0 6 -0.012586704455316067
2.913937568664551 6.597428321838379 1.6650878190994263 62.0 14 -0.012584401294589043
2.4788851737976074 5.6097798347473145 -0.10705306380987167 18.0 7 -0.012582097202539444
2.922215461730957 6.609918117523193 1.9364842176437378 29.0 15 -0.012579793110489845
1.6488239765167236 3.717282772064209 -1.0896282196044922 1.0 0 -0.012559057213366032
2.839721202850342 6.399145126342773 0.12220174819231033 36.0 8 -0.012556753121316433
1.9373607635498047 4.363674640655518 -1.1022602319717407 1.0 1 -0.012554449029266834
2.862811803817749 6.445118427276611 0.36959657073020935 26.0 9 -0.012552144937217236
2.0609421730041504 4.639849662780762 -0.9868642091751099 1.0 2 -0.012549840845167637
2.8723301887512207 6.463497638702393 0.6188057661056519 57.0 10 -0.012547536753118038
2.324880838394165 5.2291340827941895 -0.906381368637085 35.0 3 -0.01254523266106844
2.880190134048462 6.475101947784424 0.870147168636322 41.0 11 -0.01254292856901884
2.0532455444335938 4.613831520080566 -0.620071291923523 1.0 4 -0.012540624476969242
2.894860029220581 6.5019612312316895 1.1272668838500977 36.0 12 -0.012538321316242218
2.038100242614746 4.577647686004639 -0.43839338421821594 1.0 5 -0.01253601722419262
2.9061789512634277 6.524327754974365 1.3883264064788818 60.0 13 -0.01253371313214302
2.026797294616699 4.547988414764404 -0.2609471082687378 1.0 6 -0.012531409040093422
2.9218735694885254 6.553398609161377 1.6565396785736084 66.0 14 -0.012529104948043823
2.4707562923431396 5.539000034332275 -0.10586629807949066 43.0 7 -0.012526800855994225
2.9263741970062256 6.557338714599609 1.9240609407424927 30.0 15 -0.012524496763944626
1.6633695363998413 3.7150306701660156 -1.0906635522842407 2.0 0 -0.012503760866820812
2.850594997406006 6.363645076751709 0.12171308696269989 49.0 8 -0.012501456774771214
1.9621437788009644 4.378226280212402 -1.107659101486206 2.0 1 -0.012499152682721615
2.8697681427001953 6.400458812713623 0.3676077723503113 25.0 9 -0.012496848590672016
2.0642755031585693 4.603963851928711 -0.9807583093643188 1.0 2 -0.012494544498622417
2.8753020763397217 6.409804344177246 0.6146222949028015 55.0 10 -0.012492240406572819
2.3228983879089355 5.175931930541992 -0.8985596895217896 17.0 3 -0.012489937245845795
2.884888172149658 6.425168037414551 0.8647848963737488 37.0 11 -0.012487633153796196
2.0823519229888916 4.6356096267700195 -0.6239711046218872 12.0 4 -0.012485329061746597
2.902961492538452 6.459384918212891 1.1216353178024292 38.0 12 -0.012483024969696999
2.0622332096099854 4.588679313659668 -0.44013649225234985 1.0 5 -0.0124807208776474
2.91202974319458 6.4765400886535645 1.3803123235702515 55.0 13 -0.012478416785597801
2.353196382522583 5.231217384338379 -0.3006177842617035 1.0 6 -0.012476112693548203
2.93113374710083 6.5129499435424805 1.6488913297653198 67.0 14 -0.012473808601498604
2.4794020652770996 5.506638050079346 -0.10541253536939621 32.0 7 -0.012471504509449005
2.9333784580230713 6.511854648590088 1.9137080907821655 32.0 15 -0.012469200417399406
1.677919626235962 3.7127223014831543 -1.0916988849639893 1.0 0 -0.012448464520275593
2.8563120365142822 6.317214488983154 0.12101498991250992 49.0 8 -0.012446160428225994
1.97420334815979 4.364247798919678 -1.1058595180511475 2.0 1 -0.01244385726749897
2.8690366744995117 6.339453220367432 0.36467698216438293 25.0 9 -0.012441553175449371
2.28108286857605 5.040304660797119 -1.0753995180130005 1.0 2 -0.012439249083399773
2.8820436000823975 6.365243911743164 0.6113103628158569 52.0 10 -0.012436944991350174
2.331987142562866 5.147998809814453 -0.8951181173324585 30.0 3 -0.012434640899300575
2.8917315006256104 6.380704879760742 0.8601539134979248 35.0 11 -0.012432336807250977
2.087862968444824 4.604809761047363 -0.6208025217056274 13.0 4 -0.012430032715201378
2.9091720581054688 6.413232803344727 1.1153777837753296 38.0 12 -0.01242772862315178
2.0749471187591553 4.57419490814209 -0.43943923711776733 1.0 5 -0.01242542453110218
2.9167721271514893 6.427004814147949 1.3719167709350586 58.0 13 -0.012423120439052582
2.3730924129486084 5.226608753204346 -0.3008270859718323 1.0 6 -0.012420817278325558
2.9288673400878906 6.4476752281188965 1.6349443197250366 65.0 14 -0.012418513186275959
2.487854242324829 5.474282264709473 -0.10495877265930176 33.0 7 -0.01241620909422636
2.9400949478149414 6.466405868530273 1.903355360031128 33.0 15 -0.012413905002176762
1.6940752267837524 3.7138733863830566 -1.0937693119049072 2.0 0 -0.012393169105052948
2.8650643825531006 6.278097629547119 0.1204565092921257 49.0 8 -0.01239086501300335
1.978093147277832 4.332511901855469 -1.0995607376098633 2.0 1 -0.01238856092095375
2.8770394325256348 6.298516750335693 0.3628975749015808 26.0 9 -0.012386256828904152
2.3467888832092285 5.1376729011535645 -1.0979150533676147 17.0 2 -0.012383952736854553
2.888511896133423 6.320713520050049 0.6079984307289124 48.0 10 -0.012381648644804955
2.3556909561157227 5.152402877807617 -0.8973081707954407 34.0 3 -0.012379344552755356
2.894993782043457 6.329052448272705 0.854547917842865 37.0 11 -0.012377040460705757
2.101447343826294 4.592077732086182 -0.620071291923523 16.0 4 -0.012374736368656158
2.9101593494415283 6.35634183883667 1.107243299484253 36.0 12 -0.012372433207929134
2.1025118827819824 4.592286109924316 -0.44187960028648376 1.0 5 -0.012370129115879536
2.925288438796997 6.386440753936768 1.365429162979126 62.0 13 -0.012367825023829937
2.4362547397613525 5.31633996963501 -0.30647939443588257 6.0 6 -0.012365520931780338
2.929429769515991 6.389582633972168 1.6227970123291016 63.0 14 -0.01236321683973074
2.493607521057129 5.436482906341553 -0.10440029948949814 50.0 7 -0.012360912747681141
2.9473421573638916 6.4227423667907715 1.8935202360153198 34.0 15 -0.012358608655631542
1.7037982940673828 3.7009177207946777 -1.0916988849639893 1.0 0 -0.012337872758507729
2.871065616607666 6.233549118041992 0.11979331821203232 48.0 8 -0.01233556866645813
2.0078835487365723 4.357439041137695 -1.107659101486206 1.0 1 -0.012333264574408531
2.883958101272583 6.255785942077637 0.3610134720802307 26.0 9 -0.012330960482358932
2.381970167160034 5.166890621185303 -1.1059290170669556 59.0 2 -0.012328656390309334
2.895536422729492 6.278026580810547 0.6048608422279358 49.0 10 -0.01232635322958231
2.381937265396118 5.16208553314209 -0.9004368782043457 34.0 3 -0.012324049137532711
2.9054219722747803 6.293675422668457 0.8511355519294739 42.0 11 -0.012321745045483112
2.1266205310821533 4.604537487030029 -0.6227523684501648 26.0 4 -0.012319440953433514
2.9140994548797607 6.306694507598877 1.1003601551055908 38.0 12 -0.012317136861383915
2.143599510192871 4.639178276062012 -0.4471089541912079 1.0 5 -0.012314832769334316
2.93273663520813 6.344113349914551 1.3585600852966309 61.0 13 -0.012312528677284718
2.4112026691436768 5.213538646697998 -0.30103644728660583 18.0 6 -0.012310224585235119
2.9402546882629395 6.354560375213623 1.616498351097107 62.0 14 -0.01230792049318552
2.5108907222747803 5.424116134643555 -0.10433048754930496 48.0 7 -0.012305617332458496
2.949449062347412 6.368589401245117 1.8805792331695557 30.0 15 -0.012303313240408897
1.7264717817306519 3.715972661972046 -1.0979104042053223 1.0 0 -0.01228257641196251
2.872579336166382 6.179967880249023 0.11895560473203659 47.0 8 -0.012280273251235485
2.0395171642303467 4.385743618011475 -1.1166571378707886 2.0 1 -0.012277969159185886
2.8880808353424072 6.20765495300293 0.35881534218788147 25.0 9 -0.012275665067136288
2.401644229888916 5.162106037139893 -1.1066921949386597 52.0 2 -0.012273360975086689
2.8955752849578857 6.220916748046875 0.6003287434577942 49.0 10 -0.01227105688303709
2.3999431133270264 5.153738975524902 -0.9004368782043457 17.0 3 -0.012268752790987492
2.9139559268951416 6.254706382751465 0.8472357392311096 42.0 11 -0.012266448698937893
2.1493887901306152 4.611480712890625 -0.6247023344039917 34.0 4 -0.012264144606888294
2.9227404594421387 6.267838478088379 1.0953541994094849 38.0 12 -0.012261840514838696
2.933279037475586 6.287581443786621 1.3486380577087402 61.0 13 -0.012257233262062073
2.415869951248169 5.176133155822754 -0.2993617057800293 11.0 6 -0.012254929170012474
2.950052499771118 6.3177714347839355 1.6097497940063477 66.0 14 -0.012252625077962875
2.5399670600891113 5.437058448791504 -0.10474934428930283 51.0 7 -0.012250320985913277
2.953665018081665 6.3197526931762695 1.8691911697387695 31.0 15 -0.012248016893863678
1.7369731664657593 3.7046756744384766 -1.0963574647903442 2.0 0 -0.012227280996739864
2.8813974857330322 6.1427459716796875 0.11843203008174896 49.0 8 -0.012224976904690266
2.0448782444000244 4.357428073883057 -1.1112582683563232 1.0 1 -0.012222672812640667
2.8961527347564697 6.168608665466309 0.35714060068130493 25.0 9 -0.012220368720591068
2.427159547805786 5.169684886932373 -1.1101268529891968 49.0 2 -0.01221806462854147
2.9003329277038574 6.174703121185303 0.5968425273895264 49.0 10 -0.012215760536491871
2.4229583740234375 5.156057834625244 -0.9023140668869019 22.0 3 -0.012213456444442272
2.913813591003418 6.197788238525391 0.8408985137939453 38.0 11 -0.012211153283715248
2.1730778217315674 4.620116233825684 -0.6268959045410156 39.0 4 -0.01220884919166565
2.931143045425415 6.229000568389893 1.0903483629226685 45.0 12 -0.01220654509961605
2.937649965286255 6.240001678466797 1.3406240940093994 58.0 13 -0.012201936915516853
2.432222843170166 5.1640543937683105 -0.29915234446525574 18.0 6 -0.012199632823467255
2.9554734230041504 6.272179126739502 1.6007517576217651 71.0 14 -0.012197328731417656
2.5495471954345703 5.408264636993408 -0.10436539351940155 47.0 7 -0.012195024639368057
2.9575793743133545 6.270963191986084 1.857803225517273 32.0 15 -0.012192720547318459
1.755678653717041 3.710813045501709 -1.0999809503555298 1.0 0 -0.012171984650194645
2.88399600982666 6.092888355255127 0.11766412109136581 50.0 8 -0.012169680558145046
2.06007719039917 4.3502631187438965 -1.1112582683563232 1.0 1 -0.012167376466095448
2.894580841064453 6.109726905822754 0.3543144762516022 26.0 9 -0.012165073305368423
2.450234889984131 5.171825408935547 -1.1124165058135986 42.0 2 -0.012162769213318825
2.909064531326294 6.137537956237793 0.5942278504371643 47.0 10 -0.012160465121269226
2.449406385421753 5.165416240692139 -0.9054427742958069 35.0 3 -0.012158161029219627
2.9158623218536377 6.146327972412109 0.8352925181388855 38.0 11 -0.012155856937170029
2.192593574523926 4.619678020477295 -0.6278709173202515 41.0 4 -0.01215355284512043
2.9359238147735596 6.183041572570801 1.0840909481048584 46.0 12 -0.012151248753070831
2.945936679840088 6.2013349533081055 1.3345181941986084 58.0 13 -0.012146640568971634
2.43394136428833 5.121260643005371 -0.29716360569000244 14.0 6 -0.012144336476922035
2.955594062805176 6.216065406799316 1.5890543460845947 71.0 14 -0.012142032384872437
2.566693067550659 5.395719051361084 -0.10429558157920837 50.0 7 -0.012139729224145412
2.966994285583496 6.234437465667725 1.8500385284423828 34.0 15 -0.012137425132095814
1.766955852508545 3.7011759281158447 -1.0989457368850708 1.0 0 -0.012116689234972
2.8914589881896973 6.05391263961792 0.11710565537214279 51.0 8 -0.012114385142922401
2.0752511024475098 4.343045234680176 -1.1112582683563232 2.0 1 -0.012112081050872803
2.900383472442627 6.0671515464782715 0.3524303436279297 27.0 9 -0.012109776958823204
2.466578722000122 5.159699440002441 -1.111653208732605 23.0 2 -0.012107472866773605
2.91499924659729 6.094992160797119 0.5910902619361877 46.0 10 -0.012105168774724007
2.4742445945739746 5.1710896492004395 -0.9079457521438599 39.0 3 -0.012102864682674408
2.9244415760040283 6.109255313873291 0.8316364884376526 40.0 11 -0.01210056059062481
2.2155661582946777 4.626317977905273 -0.6298208236694336 39.0 4 -0.01209825649857521
2.937859058380127 6.131781101226807 1.076894998550415 51.0 12 -0.012095952406525612
2.9497435092926025 6.153836250305176 1.3265042304992676 61.0 13 -0.012091345153748989
2.463894844055176 5.137945175170898 -0.2986289858818054 5.0 6 -0.01208904106169939
2.959573984146118 6.1688127517700195 1.5796064138412476 68.0 14 -0.012086736969649792
2.5656092166900635 5.345263481140137 -0.10349277406930923 40.0 7 -0.012084432877600193
2.9736876487731934 6.192695140838623 1.8407211303710938 34.0 15 -0.012082128785550594
1.7731584310531616 3.681061029434204 -1.0948045253753662 1.0 0 -0.01206139288842678
2.898682117462158 6.014960289001465 0.11654717475175858 50.0 8 -0.012059088796377182
2.100551128387451 4.356841087341309 -1.1166571378707886 1.0 1 -0.012056784704327583
2.9092092514038086 6.034112453460693 0.3510696291923523 29.0 9 -0.012054480612277985
2.355783700942993 4.8840436935424805 -1.0540289878845215 1.0 2 -0.012052176520228386
2.9198033809661865 6.050686359405518 0.5877783298492432 49.0 10 -0.012049872428178787
2.5008645057678223 5.180212497711182 -0.9110744595527649 53.0 3 -0.012047569267451763
2.9353902339935303 6.077558994293213 0.8287115693092346 44.0 11 -0.012045265175402164
2.240339517593384 4.6364288330078125 -0.6322581768035889 39.0 4 -0.012042961083352566
2.9401276111602783 6.084655284881592 1.0703247785568237 48.0 12 -0.012040656991302967
2.955821990966797 6.111688613891602 1.319635033607483 61.0 13 -0.01203604880720377
2.497473955154419 5.161674499511719 -0.3005130887031555 1.0 6 -0.012033744715154171
2.968348979949951 6.13213586807251 1.5728578567504883 66.0 14 -0.012031440623104572
2.6051015853881836 5.381724834442139 -0.10436539351940155 16.0 7 -0.012029136531054974
2.9773685932159424 6.1480255126953125 1.8303683996200562 34.0 15 -0.012026832439005375
1.7995073795318604 3.7026500701904297 -1.1030868291854858 1.0 0 -0.012006096541881561
2.9002580642700195 5.967545032501221 0.11581416428089142 48.0 8 -0.012003792449831963
2.1201014518737793 4.360365867614746 -1.1193565130233765 1.0 1 -0.012001488357782364
2.9162776470184326 5.995182991027832 0.34939485788345337 29.0 9 -0.01199918519705534
2.3006529808044434 4.727505207061768 -1.0219730138778687 1.0 2 -0.011996881105005741
2.9234652519226074 6.004629611968994 0.5842921137809753 51.0 10 -0.011994577012956142
2.521489143371582 5.178994178771973 -0.912325918674469 81.0 3 -0.011992272920906544
2.939880132675171 6.035668849945068 0.8243243098258972 46.0 11 -0.011989968828856945
2.260049343109131 4.637897491455078 -0.6334769129753113 37.0 4 -0.011987664736807346
2.9492287635803223 6.049496650695801 1.0659445524215698 45.0 12 -0.011985360644757748
2.955416679382324 6.059504508972168 1.310476303100586 60.0 13 -0.01198075246065855
2.5268380641937256 5.178493976593018 -0.3019784986972809 1.0 6 -0.011978449299931526
2.976700782775879 6.097740650177002 1.5665591955184937 66.0 14 -0.011976145207881927
2.78534197807312 5.703218936920166 -0.11078788340091705 2.0 7 -0.011973841115832329
2.9835472106933594 6.106350898742676 1.8210508823394775 35.0 15 -0.01197153702378273
1.808374285697937 3.6897237300872803 -1.1010162830352783 1.0 0 -0.011950801126658916
2.9008209705352783 5.916089057922363 0.11501135677099228 49.0 8 -0.011948497034609318
2.135310173034668 4.352938175201416 -1.1193565130233765 1.0 1 -0.011946192942559719
2.923107147216797 5.95628023147583 0.3477201461791992 34.0 9 -0.01194388885051012
2.3180460929870605 4.72337532043457 -1.0227361917495728 2.0 2 -0.011941584758460522
2.9275543689727783 5.962710380554199 0.581154465675354 49.0 10 -0.011939280666410923
2.535198926925659 5.1612958908081055 -0.9107615947723389 28.0 3 -0.011936976574361324
2.9416682720184326 5.986175060272217 0.818962037563324 42.0 11 -0.011934672482311726
2.2867331504821777 4.651357650756836 -0.6364017724990845 2.0 4 -0.011932369321584702
2.952892303466797 6.003713130950928 1.0596871376037598 48.0 12 -0.011930065229535103
2.9600799083709717 6.015682220458984 1.3032255172729492 58.0 13 -0.011925457045435905
2.5396077632904053 5.158890247344971 -0.301350474357605 1.0 6 -0.011923152953386307
2.9807496070861816 6.052347660064697 1.5575611591339111 71.0 14 -0.011920848861336708
2.808767080307007 5.700637340545654 -0.11092749983072281 2.0 7 -0.01191854476928711
2.9792189598083496 6.04391622543335 1.8055217266082764 49.0 15 -0.01191624067723751
1.8298062086105347 3.7007057666778564 -1.1061925888061523 1.0 0 -0.011895504780113697
2.909043073654175 5.880833148956299 0.11452268809080124 51.0 8 -0.011893200688064098
2.155677080154419 4.35593843460083 -1.122056007385254 1.0 1 -0.0118908965960145
2.9190690517425537 5.8959221839904785 0.3447893261909485 31.0 9 -0.011888592503964901
2.327552080154419 4.701179027557373 -1.0196833610534668 1.0 2 -0.011886289343237877
2.9359710216522217 5.927458763122559 0.57871413230896 49.0 10 -0.011883985251188278
2.9440317153930664 5.9385199546813965 0.8138435482978821 40.0 11 -0.01187937706708908
2.964172124862671 5.973905086517334 1.0562456846237183 49.0 12 -0.011874768882989883
2.967967987060547 5.9789347648620605 1.2975012063980103 61.0 13 -0.011870160698890686
2.9819135665893555 6.001767158508301 1.5472134351730347 73.0 14 -0.011865552514791489
2.8277599811553955 5.689006805419922 -0.11089258641004562 60.0 7 -0.01186324842274189
2.9899744987487793 6.012723445892334 1.7993099689483643 48.0 15 -0.011860944330692291
1.8547842502593994 3.7184982299804688 -1.1134395599365234 1.0 0 -0.011840209364891052
2.918837547302246 5.849172115325928 0.11410383135080338 50.0 8 -0.011837905272841454
2.167386293411255 4.341412544250488 -1.1202563047409058 2.0 1 -0.011835601180791855
2.927006244659424 5.862979888916016 0.3434285819530487 33.0 9 -0.011833297088742256
2.352721691131592 4.7105889320373535 -1.0234994888305664 1.0 2 -0.011830992996692657
2.9415030479431152 5.886876106262207 0.5757508277893066 47.0 10 -0.011828688904643059
2.5623369216918945 5.125801086425781 -0.9076328277587891 2.0 3 -0.01182638481259346
2.9514260292053223 5.901575088500977 0.8101874589920044 40.0 11 -0.011824080720543861
2.340467691421509 4.677886962890625 -0.6422514915466309 11.0 4 -0.011821776628494263
2.9636354446411133 5.923410892486572 1.0490496158599854 54.0 12 -0.011819472536444664
2.976515054702759 5.943961143493652 1.292158603668213 61.0 13 -0.011814864352345467
2.9836373329162598 5.952992916107178 1.5373156070709229 73.0 14 -0.011810257099568844
2.837651491165161 5.661720275878906 -0.11054354161024094 20.0 7 -0.011807953007519245
2.994312286376953 5.971689701080322 1.7899925708770752 47.0 15 -0.011805648915469646
1.8573341369628906 3.6912927627563477 -1.1072279214859009 1.0 0 -0.011784913018345833
2.9220409393310547 5.807306289672852 0.11347554624080658 53.0 8 -0.011782608926296234
2.1905341148376465 4.351607322692871 -1.1247552633285522 1.0 1 -0.011780304834246635
2.932180881500244 5.8224029541015625 0.3416491448879242 36.0 9 -0.011778000742197037
2.5122525691986084 4.986382484436035 -1.0853216648101807 1.0 2 -0.011775696650147438
2.9432036876678467 5.83920955657959 0.5720902681350708 48.0 10 -0.01177339255809784
2.6051037311553955 5.168431758880615 -0.9167060256004333 1.0 3 -0.01177108846604824
2.9566755294799805 5.863397598266602 0.8062876462936401 44.0 11 -0.011768784373998642
2.3675918579101562 4.693140029907227 -0.6454201340675354 45.0 4 -0.011766481213271618
2.962934732437134 5.870705604553223 1.0415408611297607 48.0 12 -0.01176417712122202
2.658118963241577 5.264464378356934 -0.5159619450569153 6.0 5 -0.01176187302917242
2.9820504188537598 5.906017780303955 1.2860527038574219 63.0 13 -0.011759568937122822
2.9884185791015625 5.913499355316162 1.5296672582626343 66.0 14 -0.011754960753023624
2.748224973678589 5.435846328735352 -0.10632006078958511 1.0 7 -0.011752656660974026
2.9994430541992188 5.930171966552734 1.7806750535964966 45.0 15 -0.011750352568924427
1.8783044815063477 3.7023417949676514 -1.1124043464660645 1.0 0 -0.011729616671800613
2.9205751419067383 5.754274368286133 0.11263783276081085 50.0 8 -0.011727312579751015
2.2189440727233887 4.369998455047607 -1.1315038204193115 1.0 1 -0.011725008487701416
2.938814640045166 5.787714958190918 0.3401837646961212 36.0 9 -0.011722704395651817
2.631915807723999 5.181066513061523 -1.129589319229126 1.0 2 -0.011720401234924793
2.9426941871643066 5.790340900421143 0.5682554244995117 51.0 10 -0.011718097142875195
2.633871555328369 5.180438041687012 -0.9204605221748352 1.0 3 -0.011715793050825596
2.964526414871216 5.828269004821777 0.802875280380249 47.0 11 -0.011713488958775997
2.3929636478424072 4.702538013458252 -0.6478574872016907 44.0 4 -0.011711184866726398
2.966262102127075 5.829156875610352 1.0359091758728027 48.0 12 -0.0117088807746768
2.6827921867370605 5.269826412200928 -0.5173564553260803 28.0 5 -0.011706576682627201
2.9830446243286133 5.857085704803467 1.2776570320129395 63.0 13 -0.011704272590577602
2.9957659244537354 5.876989841461182 1.5229188203811646 67.0 14 -0.01169966533780098
2.766234874725342 5.426703453063965 -0.10632006078958511 1.0 7 -0.011697361245751381
3.001537561416626 5.885773658752441 1.770322322845459 49.0 15 -0.011695057153701782
1.9000180959701538 3.7129600048065186 -1.117580771446228 1.0 0 -0.011674320325255394
2.9232425689697266 5.712515354156494 0.11200954765081406 49.0 8 -0.01167201716452837
2.226318359375 4.3487396240234375 -1.1279046535491943 1.0 1 -0.011669713072478771
2.9462549686431885 5.752532958984375 0.33871832489967346 38.0 9 -0.011667408980429173
2.6517770290374756 5.175341606140137 -1.13035249710083 1.0 2 -0.011665104888379574
2.9519777297973633 5.758759021759033 0.5661637187004089 49.0 10 -0.011662800796329975
2.6510350704193115 5.171675682067871 -0.9204605221748352 1.0 3 -0.011660496704280376
2.9620988368988037 5.776013374328613 0.7970255613327026 49.0 11 -0.011658192612230778
2.419417381286621 4.7157721519470215 -0.6507823467254639 28.0 4 -0.011655888520181179
2.977567195892334 5.801194667816162 1.032780408859253 44.0 12 -0.011653585359454155
2.70481276512146 5.267518043518066 -0.5180537104606628 42.0 5 -0.011651281267404556
2.9836201667785645 5.810484886169434 1.2696430683135986 60.0 13 -0.011648977175354958
3.001875638961792 5.841024875640869 1.5161701440811157 71.0 14 -0.01164436899125576
2.7851619720458984 5.417013645172119 -0.10632006078958511 1.0 7 -0.011642064899206161
3.007927894592285 5.84777307510376 1.7620400190353394 50.0 15 -0.011639760807156563
1.9123212099075317 3.7066380977630615 -1.117580771446228 1.0 0 -0.01208043098449707
2.9284894466400146 5.6738457679748535 0.11145106703042984 51.0 8 -0.012078126892447472
2.24685001373291 4.351330280303955 -1.1306040287017822 1.0 1 -0.012075822800397873
2.9461519718170166 5.703174591064453 0.336415559053421 36.0 9 -0.012073518708348274
2.6707279682159424 5.170007228851318 -1.1311157941818237 1.0 2 -0.012071214616298676
2.9564242362976074 5.720617771148682 0.5633746981620789 48.0 10 -0.012068910524249077
2.6690726280212402 5.162389755249023 -0.9204605221748352 1.0 3 -0.012066607363522053
2.9621801376342773 5.726846694946289 0.7916633486747742 45.0 11 -0.012064303271472454
2.6739752292633057 5.167449951171875 -0.7143981456756592 28.0 4 -0.012061999179422855
2.987811326980591 5.7714691162109375 1.0293389558792114 49.0 12 -0.012059695087373257
2.7277605533599854 5.269136905670166 -0.5190995931625366 42.0 5 -0.012057390995323658
2.9894397258758545 5.772140979766846 1.2635371685028076 60.0 13 -0.01205508690327406
2.6159043312072754 5.048749923706055 -0.2980009615421295 1.0 6 -0.01205278281122446
3.0043118000030518 5.795907974243164 1.5071721076965332 76.0 14 -0.012050478719174862
3.006969690322876 5.796082973480225 1.7496167421340942 50.0 15 -0.012045870535075665
1.9252455234527588 3.699941873550415 -1.117580771446228 1.0 0 -0.012025134637951851
2.9371984004974365 5.642303466796875 0.11103221029043198 53.0 8 -0.012022830545902252
2.2620246410369873 4.343461513519287 -1.1306040287017822 2.0 1 -0.012020527385175228
2.9429666996002197 5.648576259613037 0.33379876613616943 33.0 9 -0.01201822329312563
2.694197416305542 5.1711015701293945 -1.1334054470062256 1.0 2 -0.01201591920107603
2.964404582977295 5.687293529510498 0.5611086487770081 46.0 10 -0.012013615109026432
2.6870779991149902 5.153040885925293 -0.9204605221748352 1.0 3 -0.012011311016976833
2.969294786453247 5.691834449768066 0.7882509827613831 45.0 11 -0.012009006924927235
2.7011828422546387 5.175682067871094 -0.7168355584144592 30.0 4 -0.012006702832877636
2.9841697216033936 5.715475559234619 1.0212043523788452 49.0 12 -0.012004398740828037
2.75996994972229 5.286073684692383 -0.5217142701148987 44.0 5 -0.012002094648778439
2.999567747116089 5.742530822753906 1.259339451789856 60.0 13 -0.01199979055672884
3.0046639442443848 5.7473907470703125 1.4972742795944214 76.0 14 -0.011995183303952217
3.016437530517578 5.765010833740234 1.7434052228927612 49.0 15 -0.01199057511985302
1.9704675674438477 3.7547800540924072 -1.1362156867980957 1.0 0 -0.011969839222729206
2.9438581466674805 5.6072306632995605 0.11054354161024094 53.0 8 -0.011967535130679607
2.2862350940704346 4.352790355682373 -1.1351029872894287 3.0 1 -0.011965231038630009
2.955235242843628 5.624124050140381 0.33296138048171997 34.0 9 -0.01196292694658041
2.7186124324798584 5.171619415283203 -1.135695219039917 1.0 2 -0.011960622854530811
2.9619851112365723 5.634588241577148 0.5569251775741577 46.0 10 -0.011958318762481213
2.705047845840454 5.143630027770996 -0.9204605221748352 1.0 3 -0.011956014670431614
2.9762063026428223 5.656839370727539 0.7848386764526367 47.0 11 -0.011953710578382015
2.7312490940093994 5.189059734344482 -0.720004141330719 33.0 4 -0.011951407417654991
2.9856936931610107 5.67006778717041 1.0149469375610352 51.0 12 -0.011949103325605392
2.781182050704956 5.279448986053467 -0.5220628976821899 48.0 5 -0.011946799233555794
3.0050387382507324 5.70197057723999 1.252851963043213 65.0 13 -0.011944495141506195
3.0074379444122314 5.704115867614746 1.488726258277893 68.0 14 -0.011939886957406998
3.01851224899292 5.720273494720459 1.733052372932434 48.0 15 -0.0119352787733078
2.941929340362549 5.553990840911865 0.10970582813024521 50.0 8 -0.011912238784134388
2.3030850887298584 4.346104621887207 -1.135553002357483 10.0 1 -0.01190993469208479
2.9636662006378174 5.590315341949463 0.3316006660461426 36.0 9 -0.01190763060003519
2.3153295516967773 4.365522384643555 -0.960532546043396 12.0 2 -0.011905327439308167
2.9667515754699707 5.593769550323486 0.5539618730545044 48.0 10 -0.011903023347258568
2.7238810062408447 5.133681774139404 -0.9204605221748352 1.0 3 -0.011900719255208969
2.9838881492614746 5.621345520019531 0.7814263105392456 47.0 11 -0.01189841516315937
2.7586324214935303 5.194791316986084 -0.7221977710723877 33.0 4 -0.011896111071109772
2.9934794902801514 5.634664535522461 1.0105668306350708 51.0 12 -0.011893806979060173
2.8089280128479004 5.285055160522461 -0.5236316919326782 47.0 5 -0.011891502887010574
3.0047168731689453 5.6510491371154785 1.2440747022628784 63.0 13 -0.011889198794960976
2.670382022857666 5.020148754119873 -0.2980009615421295 1.0 6 -0.011886894702911377
3.017340898513794 5.672410011291504 1.4833273887634277 68.0 14 -0.011884590610861778
3.023115873336792 5.678478240966797 1.7237348556518555 50.0 15 -0.011879983358085155
2.9434149265289307 5.507898330688477 0.10900773108005524 51.0 8 -0.011856943368911743
2.3134872913360596 4.327322483062744 -1.132853627204895 13.0 1 -0.011854639276862144
2.969980001449585 5.555276393890381 0.3301352262496948 36.0 9 -0.011852335184812546
2.325923204421997 4.348758220672607 -0.9586244225502014 20.0 2 -0.011850031092762947
2.9740726947784424 5.558264255523682 0.5515214800834656 51.0 10 -0.011847727000713348
2.3362185955047607 4.364343166351318 -0.7840496301651001 9.0 3 -0.01184542290866375
2.985729932785034 5.575371742248535 0.7765514850616455 52.0 11 -0.011843118816614151
2.7870564460754395 5.204380512237549 -0.7248789072036743 39.0 4 -0.011840814724564552
2.999138116836548 5.598061561584473 1.005873680114746 48.0 12 -0.011838510632514954
2.8301842212677 5.280485153198242 -0.5241546630859375 42.0 5 -0.011836206540465355
3.007723808288574 5.609382629394531 1.2372056245803833 61.0 13 -0.01183390337973833
2.685058116912842 5.0055155754089355 -0.29768693447113037 1.0 6 -0.011831599287688732
3.022385597229004 5.634365558624268 1.4761289358139038 68.0 14 -0.011829295195639133
3.031952142715454 5.647466659545898 1.717523217201233 50.0 15 -0.011824687011539936
2.950282335281372 5.4769816398620605 0.10858887434005737 49.0 8 -0.011801647022366524
2.3232033252716064 4.3110480308532715 -1.1306040287017822 8.0 1 -0.011799342930316925
2.9656474590301514 5.503198623657227 0.3276231288909912 36.0 9 -0.011797038838267326
2.330082416534424 4.322012424468994 -0.954426646232605 16.0 2 -0.011794734746217728
2.9773545265197754 5.520314693450928 0.548732578754425 49.0 10 -0.011792430654168129
2.3469278812408447 4.349617958068848 -0.782798171043396 8.0 3 -0.01179012656211853
2.985342264175415 5.53050422668457 0.7716767191886902 57.0 11 -0.011787823401391506
2.8118417263031006 5.209084510803223 -0.7268288135528564 41.0 4 -0.011785519309341908
3.0054824352264404 5.565490245819092 1.001806378364563 49.0 12 -0.011783215217292309
2.849574565887451 5.274575710296631 -0.524503231048584 26.0 5 -0.01178091112524271
3.0141725540161133 5.576925754547119 1.2322444915771484 60.0 13 -0.011778607033193111
2.6693432331085205 4.9368510246276855 -0.2941281199455261 9.0 6 -0.011776302941143513
3.0252954959869385 5.5951714515686035 1.4684805870056152 76.0 14 -0.011773998849093914
3.0313541889190674 5.6017022132873535 1.7066528797149658 52.0 15 -0.011769390664994717
2.9531633853912354 5.439049243927002 0.10803039371967316 51.0 8 -0.011746350675821304
2.317950487136841 4.267361640930176 -1.121156096458435 11.0 1 -0.011744046583771706
2.967672824859619 5.461225986480713 0.3257390260696411 36.0 9 -0.011741743423044682
2.320030927658081 4.269410610198975 -0.9445045590400696 26.0 2 -0.011739439330995083
2.9842264652252197 5.489405155181885 0.5466408133506775 51.0 10 -0.011737135238945484
2.3471810817718506 4.315782070159912 -0.7781051397323608 16.0 3 -0.011734831146895885
2.9922823905944824 5.499648094177246 0.768751859664917 52.0 11 -0.011732527054846287
2.8271617889404297 5.194006443023682 -0.726097583770752 37.0 4 -0.011730222962796688
3.0059988498687744 5.520267486572266 0.9955490827560425 49.0 12 -0.01172791887074709
2.894655704498291 5.313586711883545 -0.5293839573860168 43.0 5 -0.01172561477869749
3.019502639770508 5.542762756347656 1.226901888847351 60.0 13 -0.011723310686647892
2.6780548095703125 4.913940906524658 -0.2932907044887543 25.0 6 -0.011721006594598293
3.028017997741699 5.553778648376465 1.460382342338562 81.0 14 -0.01171870343387127
3.0342342853546143 5.560561180114746 1.6973353624343872 52.0 15 -0.011714095249772072
2.962526798248291 5.411168098449707 0.10768134146928787 51.0 8 -0.01169105526059866
2.315046548843384 4.22676944732666 -1.1126079559326172 36.0 1 -0.01168875116854906
2.9771194458007812 5.433319091796875 0.3246923089027405 38.0 9 -0.011686447076499462
2.304520606994629 4.204067707061768 -0.9319111704826355 35.0 2 -0.011684142984449863
2.9851646423339844 5.4434919357299805 0.5431545972824097 48.0 10 -0.011681838892400265
2.332578420639038 4.251730918884277 -0.7680933475494385 24.0 3 -0.011679534800350666
2.9961836338043213 5.461324214935303 0.7648521065711975 52.0 11 -0.011677230708301067
2.8576905727386475 5.206729412078857 -0.7292662262916565 31.0 4 -0.011674926616251469
3.0081353187561035 5.478573799133301 0.9899173974990845 51.0 12 -0.011672623455524445
2.9323694705963135 5.338376522064209 -0.5328702330589294 43.0 5 -0.011670319363474846
3.0293984413146973 5.512731552124023 1.2227041721343994 60.0 13 -0.011668015271425247
2.6902735233306885 4.893592357635498 -0.29266270995140076 33.0 6 -0.011665711179375648
3.0352046489715576 5.518738269805908 1.4540836811065674 81.0 14 -0.01166340708732605
3.0368645191192627 5.519468784332275 1.6880178451538086 52.0 15 -0.011658798903226852
2.965907096862793 5.370514392852783 0.10708796232938766 56.0 8 -0.01163575891405344
2.3229830265045166 4.204610824584961 -1.1090087890625 36.0 1 -0.011633454822003841
2.9767491817474365 5.387930393218994 0.3225988745689392 40.0 9 -0.011631150729954243
2.311584949493408 4.182250499725342 -0.92885822057724 38.0 2 -0.011628846637904644
2.9858312606811523 5.399909496307373 0.5398426651954651 45.0 10 -0.011626542545855045
2.326368808746338 4.205535411834717 -0.7612102031707764 37.0 3 -0.011624239385128021
3.002725124359131 5.425988674163818 0.7614396810531616 49.0 11 -0.011621935293078423
2.3315956592559814 4.211508274078369 -0.5910663604736328 30.0 4 -0.011619631201028824
3.013847589492798 5.443844318389893 0.9855372309684753 56.0 12 -0.011617327108979225
3.02768874168396 5.464344024658203 1.214308500289917 61.0 13 -0.011612718924880028
2.3471360206604004 4.234345436096191 -0.25372472405433655 17.0 6 -0.011610414832830429
3.0383827686309814 5.479138374328613 1.4464353322982788 68.0 14 -0.01160811074078083
3.040179491043091 5.480117321014404 1.679218053817749 62.0 15 -0.011603502556681633
2.966193675994873 5.329199314117432 0.10645968466997147 56.0 8 -0.01158046256750822
2.3217458724975586 4.169642448425293 -1.101810336112976 36.0 1 -0.011578159406781197
2.9877641201019287 5.363547325134277 0.32176148891448975 40.0 9 -0.011575855314731598
2.3185231685638428 4.160437107086182 -0.9258052706718445 38.0 2 -0.011573551222682
2.9910786151885986 5.365091800689697 0.537402331829071 47.0 10 -0.0115712471306324
2.330683946609497 4.180543422698975 -0.7580814957618713 37.0 3 -0.011568943038582802
2.9994282722473145 5.377861976623535 0.7560774683952332 54.0 11 -0.011566638946533203
2.3368427753448486 4.188152313232422 -0.5888727307319641 31.0 4 -0.011564334854483604
3.0212771892547607 5.412593841552734 0.981782853603363 56.0 12 -0.011562030762434006
