# .PCD v0.7 - Point Cloud Data file format
VERSION 0.7
FIELDS x y z intensity ring time
SIZE 4 4 4 4 4 4
TYPE F F F F F F
COUNT 1 1 1 1 1 1
WIDTH 536
HEIGHT 1
VIEWPOINT 0 0 0 1 0 0 0
POINTS 536
DATA ascii
0.6205801963806152 0.05647726729512215 -0.03265763819217682 15.0 6 -0.09788233041763306
3.627263307571411 0.32946881651878357 0.8408671021461487 7.0 14 -0.09788002818822861
0.6233485341072083 0.0565098337829113 -0.010925207287073135 21.0 7 -0.09787772595882416
3.622877836227417 0.32779553532600403 0.974712610244751 120.0 15 -0.09787541627883911
1.5701501369476318 0.14013245701789856 -0.42239269614219666 15.0 0 -0.09785468131303787
0.6333955526351929 0.05641743540763855 0.011099730618298054 50.0 8 -0.09785237908363342
1.5489863157272339 0.13769866526126862 -0.3590219020843506 30.0 1 -0.09785007685422897
0.6206970810890198 0.0551774799823761 0.03265763819217682 45.0 9 -0.09784777462482452
1.5175247192382812 0.13463492691516876 -0.2961355745792389 37.0 2 -0.09784546494483948
0.6370645761489868 0.05640806630253792 0.0559539832174778 7.0 10 -0.09784316271543503
0.6296668648719788 0.05564259737730026 -0.10011807084083557 87.0 3 -0.09784086048603058
0.6288186311721802 0.055457040667533875 0.07750891149044037 100.0 11 -0.09783855825662613
0.640683114528656 0.05650339648127556 -0.07897134125232697 5.0 4 -0.09783624857664108
0.6414928436279297 0.056461676955223083 0.10199528187513351 78.0 12 -0.09783394634723663
0.6410733461380005 0.05631231516599655 -0.05630260705947876 100.0 5 -0.09783164411783218
0.7001598477363586 0.061379384249448776 0.13661924004554749 41.0 13 -0.09782934188842773
0.6187839508056641 0.05413645878434181 -0.032552968710660934 5.0 6 -0.09782703220844269
3.5972745418548584 0.3147200644016266 0.8336686491966248 1.0 14 -0.09782472997903824
0.6155639886856079 0.053746797144412994 -0.010785587131977081 22.0 7 -0.09782242774963379
3.62971830368042 0.316283643245697 0.9762654304504395 120.0 15 -0.09782012552022934
1.57253098487854 0.13508979976177216 -0.42291033267974854 0.0 0 -0.0977993905544281
0.641548752784729 0.055000074207782745 0.011239349842071533 100.0 8 -0.09779708087444305
1.5727342367172241 0.13455501198768616 -0.36442074179649353 19.0 1 -0.0977947786450386
0.6348065733909607 0.054310768842697144 0.0333903431892395 21.0 9 -0.09779247641563416
1.549261212348938 0.13227367401123047 -0.3022414743900299 15.0 2 -0.0977901741862297
0.639233410358429 0.05446445196866989 0.05612830072641373 13.0 10 -0.09778786450624466
0.643625795841217 0.05472586676478386 -0.10230815410614014 91.0 3 -0.09778556227684021
0.6388890147209167 0.054210495203733444 0.0787276029586792 97.0 11 -0.09778326004743576
0.6487789750099182 0.05504966899752617 -0.07994629442691803 5.0 4 -0.09778095781803131
0.6357715129852295 0.053834218531847 0.10105667263269424 81.0 12 -0.09777864813804626
0.6432417631149292 0.05435401201248169 -0.05647691711783409 100.0 5 -0.09777634590864182
0.7042722105979919 0.0593869611620903 0.13738247752189636 47.0 13 -0.09777404367923737
0.61497962474823 0.051749374717473984 -0.03234362602233887 5.0 6 -0.09777174144983292
3.629368543624878 0.30540454387664795 0.8408671021461487 1.0 14 -0.09776943922042847
0.6157388091087341 0.051705338060855865 -0.010785587131977081 22.0 7 -0.09776712954044342
3.621121644973755 0.3034377098083496 0.9736772775650024 117.0 15 -0.09776482731103897
3.099733591079712 0.2559341788291931 -0.833397388458252 82.0 0 -0.09774409234523773
0.6198051571846008 0.05106654018163681 0.010855397209525108 94.0 8 -0.09774179011583328
1.6023045778274536 0.13173361122608185 -0.3711692690849304 0.0 1 -0.09773948043584824
0.6330017447471619 0.05193107947707176 0.03328566998243332 4.0 9 -0.09773717820644379
3.1072089672088623 0.2549135386943817 -0.6060094237327576 86.0 2 -0.09773487597703934
0.637424647808075 0.05218224599957466 0.0559539832174778 49.0 10 -0.09773257374763489
0.6201779246330261 0.050661101937294006 -0.09855373203754425 87.0 3 -0.09773026406764984
0.637086808681488 0.05193042382597923 0.07848386466503143 99.0 11 -0.09772796183824539
0.65885990858078 0.05358913913369179 -0.08116498589515686 5.0 4 -0.09772565960884094
0.6438312530517578 0.05225396901369095 0.10230815410614014 81.0 12 -0.09772335737943649
0.6255546808242798 0.05066073685884476 -0.05490811914205551 100.0 5 -0.09772105515003204
0.7025083303451538 0.05689284950494766 0.13700087368488312 63.0 13 -0.097718745470047
0.6470001935958862 0.05228354036808014 -0.034018374979496 5.0 6 -0.09771644324064255
0.6139222979545593 0.049395158886909485 -0.010750683024525642 22.0 7 -0.09771183878183365
3.6144564151763916 0.29017648100852966 0.9716067314147949 117.0 15 -0.0977095291018486
3.0948729515075684 0.24411630630493164 -0.8318444490432739 67.0 0 -0.09768879413604736
0.6159926056861877 0.04858805239200592 0.010785587131977081 94.0 8 -0.09768649190664291
3.118086338043213 0.24539825320243835 -0.7220929265022278 100.0 1 -0.09768418967723846
0.6530904769897461 0.051284871995449066 0.03433239087462425 3.0 9 -0.09768188744783401
3.11203670501709 0.24383071064949036 -0.6067726016044617 100.0 2 -0.09767957776784897
0.6336390376091003 0.04953458905220032 0.05560535937547684 70.0 10 -0.09767727553844452
0.6223288178443909 0.04854144528508186 -0.09886659681797028 90.0 3 -0.09767497330904007
0.6352850794792175 0.04955202713608742 0.07824012637138367 68.0 11 -0.09767267107963562
0.6689385771751404 0.05205953121185303 -0.08238368481397629 10.0 4 -0.09767036139965057
0.6440097093582153 0.05000608414411545 0.10230815410614014 74.0 12 -0.09766805917024612
0.6336734294891357 0.04909254238009453 -0.05560535937547684 100.0 5 -0.09766575694084167
0.6968399286270142 0.05386389419436455 0.1358560025691986 75.0 13 -0.09766345471143723
0.6272739768028259 0.04837619885802269 -0.03297165781259537 5.0 6 -0.09766114503145218
0.6180785894393921 0.047558531165122986 -0.01082049123942852 21.0 7 -0.09765654057264328
3.6231515407562256 0.27815186977386475 0.9736772775650024 117.0 15 -0.09765423834323883
3.1034116744995117 0.23389160633087158 -0.8339149951934814 77.0 0 -0.09763350337743759
0.6201547384262085 0.04663000628352165 0.010855397209525108 87.0 8 -0.09763119369745255
3.091758966445923 0.23192809522151947 -0.7157943248748779 72.0 1 -0.0976288914680481
0.6572574377059937 0.04918878152966499 0.03454173356294632 3.0 9 -0.09762658923864365
3.1187424659729004 0.2334049493074417 -0.6079174876213074 87.0 2 -0.0976242870092392
0.6497029066085815 0.048509690910577774 0.05699985474348068 81.0 10 -0.09762197732925415
0.6382538080215454 0.04754253476858139 -0.10136953741312027 98.0 3 -0.0976196750998497
0.6354624629020691 0.04722309112548828 0.07824012637138367 22.0 11 -0.09761737287044525
0.6532875895500183 0.0484330952167511 -0.08043377101421356 18.0 4 -0.0976150706410408
0.6520686745643616 0.04822830110788345 0.10355963557958603 53.0 12 -0.09761276096105576
0.6338490843772888 0.04676951840519905 -0.05560535937547684 100.0 5 -0.0976104587316513
0.7028974890708923 0.05186435952782631 0.13700087368488312 63.0 13 -0.09760815650224686
0.6035364866256714 0.04442695900797844 -0.03171559050679207 2.0 6 -0.09760585427284241
0.6342035531997681 0.04646182805299759 -0.011099730618298054 26.0 7 -0.09760124236345291
3.628000497817993 0.2651512026786804 0.974712610244751 117.0 15 -0.09759894013404846
3.1100289821624756 0.22293052077293396 -0.8354679346084595 69.0 0 -0.09757820516824722
0.6203137040138245 0.04446481540799141 0.010855397209525108 94.0 8 -0.09757590293884277
3.100324869155884 0.22168958187103271 -0.7175939083099365 72.0 1 -0.09757359325885773
0.6414875984191895 0.04575752839446068 0.03370435908436775 3.0 9 -0.09757129102945328
3.1039106845855713 0.22085854411125183 -0.6048645377159119 76.0 2 -0.09756898880004883
0.645901620388031 0.045845482498407364 0.05665123090147972 100.0 10 -0.09756668657064438
0.6344829797744751 0.04492401331663132 -0.10074380785226822 98.0 3 -0.09756437689065933
0.6475042104721069 0.04584597423672676 0.07970255613327026 14.0 11 -0.09756207466125488
0.6277105808258057 0.044334400445222855 -0.077265165746212 45.0 4 -0.09755977243185043
0.644351065158844 0.04539637640118599 0.10230815410614014 45.0 12 -0.09755747020244598
0.6359960436820984 0.04469649866223335 -0.055779676884412766 100.0 5 -0.09755516052246094
0.6991659998893738 0.04901333525776863 0.13623763620853424 45.0 13 -0.09755285829305649
0.6435432434082031 0.045000869780778885 -0.033809032291173935 5.0 6 -0.09755055606365204
0.7076221704483032 0.04935793578624725 0.16376438736915588 3.0 14 -0.09754825383424759
0.6263824105262756 0.04369131848216057 -0.010960111394524574 28.0 7 -0.09754595160484314
3.632758378982544 0.25275442004203796 0.97574782371521 120.0 15 -0.0975436419248581
3.1030049324035645 0.21263131499290466 -0.833397388458252 67.0 0 -0.09762310981750488
0.6324279308319092 0.04322550818324089 0.01106482557952404 94.0 8 -0.09762080758810043
3.104931592941284 0.21167302131652832 -0.7184937596321106 72.0 1 -0.09761850535869598
0.635657787322998 0.04322335124015808 0.0333903431892395 2.0 9 -0.09761619567871094
3.1104652881622314 0.21150490641593933 -0.6060094237327576 84.0 2 -0.09761389344930649
0.6460424661636353 0.0438162237405777 0.05665123090147972 82.0 10 -0.09761159121990204
0.646446168422699 0.04373026639223099 -0.10262101888656616 94.0 3 -0.09760928899049759
0.6694391965866089 0.04516831412911415 0.08238368481397629 7.0 11 -0.09760697931051254
0.6397377848625183 0.043052151799201965 -0.0787276029586792 90.0 4 -0.0976046770811081
0.6425270438194275 0.04312721639871597 0.10199528187513351 58.0 12 -0.09760237485170364
0.630176842212677 0.042187780141830444 -0.055256739258766174 92.0 5 -0.0976000726222992
0.6934399008750916 0.04642298445105553 0.13509276509284973 37.0 13 -0.09759776294231415
0.6456742882728577 0.043112076818943024 -0.03391370177268982 15.0 6 -0.0975954607129097
0.717495858669281 0.04778188094496727 0.1660138964653015 14.0 14 -0.09759315848350525
0.6365004181861877 0.04227638617157936 -0.011134634725749493 42.0 7 -0.0975908562541008
3.6297214031219482 0.24044999480247498 0.974712610244751 120.0 15 -0.09758854657411575
3.101835250854492 0.20113100111484528 -0.8328797221183777 59.0 0 -0.09756781160831451
0.6265884637832642 0.040629614144563675 0.010960111394524574 100.0 8 -0.09756550937891006
3.117319345474243 0.2015887051820755 -0.7211931347846985 70.0 1 -0.09756320714950562
0.6617153286933899 0.04267539456486702 0.034751079976558685 2.0 9 -0.09756090492010117
3.111219644546509 0.2001037746667862 -0.6060094237327576 79.0 2 -0.09755859524011612
0.6382454037666321 0.04093807190656662 0.0559539832174778 100.0 10 -0.09755629301071167
0.626888632774353 0.040099773555994034 -0.09949233382940292 91.0 3 -0.09755399078130722
0.6814789772033691 0.04359171912074089 0.08384611457586288 6.0 11 -0.09755168855190277
0.633941113948822 0.04043950140476227 -0.0779963880777359 90.0 4 -0.09754937887191772
0.644645094871521 0.04100966826081276 0.10230815410614014 65.0 12 -0.09754707664251328
0.6342971324920654 0.040240224450826645 -0.05560535937547684 20.0 5 -0.09754477441310883
0.6877273321151733 0.04350904002785683 0.1339479237794876 34.0 13 -0.09754247218370438
0.6577877402305603 0.04149996489286423 -0.03454173356294632 30.0 6 -0.09754016250371933
0.7215560078620911 0.04539669305086136 0.1669136881828308 19.0 14 -0.09753786027431488
0.64063560962677 0.04030558839440346 -0.01120444480329752 52.0 7 -0.09753555804491043
3.6189703941345215 0.22705167531967163 0.9716067314147949 120.0 15 -0.09753325581550598
0.6267331838607788 0.03833261504769325 0.010960111394524574 100.0 8 -0.0975102111697197
3.1160922050476074 0.1900438666343689 -0.7207432389259338 18.0 1 -0.09750790894031525
0.653886079788208 0.039879124611616135 0.03433239087462425 3.0 9 -0.0975056067109108
3.1118991374969482 0.18924154341220856 -0.6060094237327576 25.0 2 -0.09750330448150635
0.6383844614028931 0.03870976343750954 0.0559539832174778 98.0 10 -0.0975009948015213
0.6289965510368347 0.038030628114938736 -0.09980519860982895 94.0 3 -0.09749869257211685
0.6697452664375305 0.04037676379084587 0.08238368481397629 7.0 11 -0.0974963903427124
0.647955596446991 0.038949642330408096 -0.07970255613327026 84.0 4 -0.09749408811330795
0.65069979429245 0.03911460191011429 0.10324675589799881 74.0 12 -0.0974917784333229
0.638411283493042 0.038264404982328415 -0.0559539832174778 7.0 5 -0.09748947620391846
0.6761165261268616 0.040405597537755966 0.13165821135044098 36.0 13 -0.09748717397451401
0.6559348702430725 0.03908463194966316 -0.034437064081430435 82.0 6 -0.09748487174510956
0.7217100858688354 0.042877525091171265 0.1669136881828308 21.0 14 -0.09748256951570511
0.6647264361381531 0.03949207067489624 -0.011623302474617958 65.0 7 -0.09748025983572006
3.6274545192718506 0.21487541496753693 0.9736772775650024 117.0 15 -0.09747795760631561
0.6308495998382568 0.03648512810468674 0.011029920540750027 97.0 8 -0.09745492041110992
0.6580092310905457 0.03782546520233154 0.03454173356294632 4.0 9 -0.09745030850172043
0.650450587272644 0.03716317564249039 0.05699985474348068 100.0 10 -0.09744570404291153
0.6330634951591492 0.03616977483034134 -0.1004309356212616 94.0 3 -0.09744339436292648
0.6896942257881165 0.039284586906433105 0.08482106775045395 6.0 11 -0.09744109213352203
0.6361898183822632 0.03612561523914337 -0.07824012637138367 91.0 4 -0.09743878990411758
0.6626656651496887 0.03751300647854805 0.10512397438287735 82.0 12 -0.09743648767471313
0.6703685522079468 0.03783169761300087 -0.05874297022819519 7.0 5 -0.09743418544530869
0.6762467622756958 0.038163427263498306 0.13165821135044098 32.0 13 -0.09743187576532364
0.6580549478530884 0.03702157735824585 -0.03454173356294632 100.0 6 -0.09742957353591919
0.7043371200561523 0.03950205817818642 0.1628645807504654 22.0 14 -0.09742727130651474
0.6488876938819885 0.036278631538152695 -0.011344064027071 45.0 7 -0.09742496907711029
3.632040500640869 0.2024259865283966 0.974712610244751 117.0 15 -0.09742265939712524
0.6289763450622559 0.03417447209358215 0.010995016433298588 65.0 8 -0.09739962220191956
0.6381937265396118 0.03445156291127205 0.033495016396045685 7.0 9 -0.09739501029253006
0.650570273399353 0.03500613197684288 0.05699985474348068 100.0 10 -0.09739040583372116
0.6371309757232666 0.03417116776108742 -0.10105667263269424 94.0 3 -0.09738810360431671
0.6779335737228394 0.036240871995687485 0.08335863798856735 6.0 11 -0.09738580137491226
0.6323474049568176 0.03369356691837311 -0.07775264233350754 88.0 4 -0.09738349169492722
0.6529296636581421 0.03467566892504692 0.10355963557958603 80.0 12 -0.09738118946552277
0.6306986212730408 0.03349502757191658 -0.055256739258766174 8.0 5 -0.09737888723611832
0.6763758659362793 0.03580247238278389 0.13165821135044098 36.0 13 -0.09737658500671387
0.6462132334709167 0.03409309312701225 -0.03391370177268982 82.0 6 -0.09737427532672882
0.6947404742240906 0.036531392484903336 0.16061507165431976 18.0 14 -0.09737197309732437
0.6270438432693481 0.03286197781562805 -0.010960111394524574 23.0 7 -0.09736967086791992
3.640441417694092 0.1901521384716034 0.9767830967903137 117.0 15 -0.09736736863851547
1.4605129957199097 0.07449766248464584 -0.3918520510196686 0.0 0 -0.09734662622213364
0.6530572772026062 0.033196792006492615 0.011413874104619026 36.0 8 -0.09734432399272919
1.4888770580291748 0.07542342692613602 -0.3441751301288605 1.0 1 -0.09734202176332474
0.6422995328903198 0.032425180077552795 0.03370435908436775 19.0 9 -0.09733971953392029
1.5078226327896118 0.07611934095621109 -0.2934642434120178 0.0 2 -0.09733741730451584
0.652678370475769 0.032834939658641815 0.057174164801836014 100.0 10 -0.09733510762453079
0.651056706905365 0.03263944759964943 -0.10324675589799881 94.0 3 -0.09733280539512634
0.6701255440711975 0.03347817808389664 0.08238368481397629 7.0 11 -0.0973305031657219
0.6443570256233215 0.0320780985057354 -0.07921507954597473 88.0 4 -0.09732820093631744
0.6550195813179016 0.03249431401491165 0.10387250036001205 91.0 12 -0.0973258912563324
0.6427513957023621 0.03188571333885193 -0.05630260705947876 3.0 5 -0.09732358902692795
0.6863009929656982 0.033926062285900116 0.13356630504131317 46.0 13 -0.0973212867975235
0.6602922677993774 0.032524846494197845 -0.0346464067697525 97.0 6 -0.09731898456811905
0.6968101263046265 0.03420142084360123 0.1610649675130844 16.0 14 -0.097316674888134
0.6191654801368713 0.03028237819671631 -0.01082049123942852 15.0 7 -0.09731437265872955
3.6333649158477783 0.177066370844841 0.974712610244751 115.0 15 -0.0973120704293251
1.4376081228256226 0.0682985708117485 -0.385640412569046 1.0 0 -0.09729133546352386
0.6331945061683655 0.02997165359556675 0.01106482557952404 29.0 8 -0.09728903323411942
1.5008107423782349 0.07077692449092865 -0.34687453508377075 1.0 1 -0.09728672355413437
0.6603589057922363 0.03114194981753826 0.0346464067697525 58.0 9 -0.09728442132472992
1.4923903942108154 0.07011807709932327 -0.2904112935066223 0.0 2 -0.09728211909532547
0.6468183994293213 0.03027712181210518 0.05665123090147972 89.0 10 -0.09727981686592102
0.6452469825744629 0.030090710148215294 -0.10230815410614014 97.0 3 -0.09727750718593597
0.6742041707038879 0.031322870403528214 0.08287115395069122 6.0 11 -0.09727520495653152
0.6404991745948792 0.02964494563639164 -0.0787276029586792 88.0 4 -0.09727290272712708
0.6492040157318115 0.030047843232750893 0.10293389111757278 82.0 12 -0.09727060049772263
0.6309170722961426 0.029091406613588333 -0.055256739258766174 8.0 5 -0.09726829081773758
0.6805316805839539 0.03125977888703346 0.13242144882678986 72.0 13 -0.09726598858833313
0.6623969078063965 0.030310921370983124 -0.034751079976558685 100.0 6 -0.09726368635892868
0.6949785947799683 0.031680628657341 0.16061507165431976 15.0 14 -0.09726138412952423
0.6292506456375122 0.02868441864848137 -0.010995016433298588 10.0 7 -0.09725907444953918
3.6300721168518066 0.164840430021286 0.9736772775650024 115.0 15 -0.09725677222013474
1.4629274606704712 0.06438517570495605 -0.39236968755722046 1.0 0 -0.0972360372543335
0.6352881789207458 0.0279597919434309 0.011099730618298054 31.0 8 -0.09723373502492905
1.493249773979187 0.06545788049697876 -0.34507492184638977 2.0 1 -0.0972314327955246
0.6604636311531067 0.028836499899625778 0.0346464067697525 55.0 9 -0.09722912311553955
1.504394292831421 0.06542102247476578 -0.29270100593566895 0.0 2 -0.0972268208861351
0.6608538031578064 0.028622431680560112 0.057871412485837936 59.0 10 -0.09722451865673065
0.6354756355285645 0.02752326987683773 -0.10074380785226822 91.0 3 -0.0972222164273262
0.6683546304702759 0.02883044071495533 0.08213994652032852 14.0 11 -0.09721990674734116
0.6524935364723206 0.02803247608244419 -0.08019004017114639 91.0 4 -0.0972176045179367
0.6571991443634033 0.028119418770074844 0.10418536514043808 78.0 12 -0.09721530228853226
0.6230525374412537 0.026549462229013443 -0.05455949530005455 8.0 5 -0.09721300005912781
0.6786701083183289 0.028919434174895287 0.13203983008861542 92.0 13 -0.09721069037914276
0.646530032157898 0.027437152341008186 -0.03391370177268982 100.0 6 -0.09720838814973831
0.6950798034667969 0.029375631362199783 0.16061507165431976 15.0 14 -0.09720608592033386
0.6313448548316956 0.026571668684482574 -0.011029920540750027 7.0 7 -0.09720378369092941
3.63641619682312 0.15240983664989471 0.9752302169799805 120.0 15 -0.09720148146152496
1.4689236879348755 0.05976879596710205 -0.3939225971698761 0.0 0 -0.09718073904514313
0.6493683457374573 0.02630852535367012 0.011344064027071 28.0 8 -0.09717843681573868
1.489574909210205 0.060087576508522034 -0.3441751301288605 1.0 1 -0.09717613458633423
0.6445950269699097 0.02588978037238121 0.033809032291173935 55.0 9 -0.09717383235692978
1.4791011810302734 0.05940723419189453 -0.28773996233940125 0.0 2 -0.09717152267694473
0.6450185775756836 0.025794044137001038 0.05647691711783409 13.0 10 -0.09716922044754028
0.6316201686859131 0.025147536769509315 -0.10011807084083557 91.0 3 -0.09716691821813583
0.6505993008613586 0.025789767503738403 0.07994629442691803 59.0 11 -0.09716461598873138
0.6406860947608948 0.025284817442297935 -0.0787276029586792 88.0 4 -0.09716230630874634
0.6730841398239136 0.02644544094800949 0.10668832063674927 95.0 12 -0.09716000407934189
0.6311004757881165 0.024795906618237495 -0.055256739258766174 8.0 5 -0.09715770184993744
0.6689581871032715 0.026166725903749466 0.13013173639774323 86.0 13 -0.09715539962053299
0.6466218829154968 0.02518000267446041 -0.03391370177268982 97.0 6 -0.09715309739112854
0.6854417324066162 0.026571549475193024 0.15836556255817413 13.0 14 -0.0971507877111435
0.6194444894790649 0.023905154317617416 -0.01082049123942852 5.0 7 -0.09714848548173904
3.6388564109802246 0.13979209959506989 0.97574782371521 117.0 15 -0.0971461832523346
1.461401343345642 0.054353341460227966 -0.3918520510196686 0.0 0 -0.09712544828653336
0.6334695816040039 0.02344968356192112 0.01106482557952404 39.0 8 -0.09712313860654831
1.4897754192352295 0.05488865077495575 -0.3441751301288605 1.0 1 -0.09712083637714386
0.6406895518302917 0.023493018001317978 0.03359968587756157 55.0 9 -0.09711853414773941
1.487147331237793 0.05453121289610863 -0.289266437292099 0.0 2 -0.09711623191833496
0.6431136727333069 0.02346952073276043 0.05630260705947876 6.0 10 -0.09711392223834991
0.6455226540565491 0.02344493195414543 -0.10230815410614014 91.0 3 -0.09711162000894547
0.6506854295730591 0.02351842075586319 0.07994629442691803 100.0 11 -0.09710931777954102
0.6447380781173706 0.02319079264998436 -0.07921507954597473 86.0 4 -0.09710701555013657
0.6652759313583374 0.023813588544726372 0.10543683916330338 95.0 12 -0.09710471332073212
0.6431299448013306 0.023020870983600616 -0.05630260705947876 7.0 5 -0.09710240364074707
0.6729695200920105 0.023971060290932655 0.1308949738740921 84.0 13 -0.09710010141134262
0.6546898484230042 0.02320553921163082 -0.03433239087462425 95.0 6 -0.09709779918193817
0.6718975901603699 0.023698385804891586 0.155216246843338 16.0 14 -0.09709549695253372
0.6295165419578552 0.022093268111348152 -0.010995016433298588 5.0 7 -0.09709318727254868
3.6509060859680176 0.12749283015727997 0.9788536429405212 117.0 15 -0.09709088504314423
1.4615821838378906 0.04925207048654556 -0.3918520510196686 0.0 0 -0.09707015007734299
0.6435405015945435 0.021573446691036224 0.011239349842071533 34.0 8 -0.09706784784793854
1.4899580478668213 0.04968763142824173 -0.3441751301288605 1.0 1 -0.09706553816795349
0.6407676339149475 0.021256281062960625 0.03359968587756157 53.0 9 -0.09706323593854904
1.4794799089431763 0.049079008400440216 -0.28773996233940125 0.0 2 -0.09706093370914459
0.6431916952133179 0.021224627271294594 0.05630260705947876 6.0 10 -0.09705863147974014
0.6475748419761658 0.021256128326058388 -0.10262101888656616 84.0 3 -0.0970563292503357
0.6487795114517212 0.021182013675570488 0.07970255613327026 100.0 11 -0.09705401957035065
0.6388629674911499 0.02074693888425827 -0.07848386466503143 56.0 4 -0.0970517173409462
0.649560272693634 0.020980847999453545 0.10293389111757278 95.0 12 -0.09704941511154175
0.6451976895332336 0.020839935168623924 -0.05647691711783409 11.0 5 -0.0970471128821373
0.6750112771987915 0.021684667095541954 0.13127659261226654 88.0 13 -0.09704480320215225
0.6567631363868713 0.020984023809432983 -0.034437064081430435 100.0 6 -0.0970425009727478
0.6836627721786499 0.021724050864577293 0.1579156517982483 15.0 14 -0.09704019874334335
0.6175976395606995 0.019516579806804657 -0.010785587131977081 5.0 7 -0.0970378965139389
3.6436052322387695 0.1145060583949089 0.9767830967903137 117.0 15 -0.09703558683395386
1.4578832387924194 0.044033560901880264 -0.3908167779445648 0.0 0 -0.09701485186815262
0.6316190361976624 0.018966641277074814 0.011029920540750027 42.0 8 -0.09701254963874817
1.5018095970153809 0.04483563080430031 -0.34687453508377075 1.0 1 -0.09701024740934372
0.6488234996795654 0.01925690658390522 0.034018374979496 53.0 9 -0.09700794517993927
1.4835671186447144 0.044031865894794464 -0.2885032296180725 1.0 2 -0.09700563549995422
0.667160153388977 0.01968427747488022 0.05839434638619423 6.0 10 -0.09700333327054977
0.6338233947753906 0.018590278923511505 -0.1004309356212616 80.0 3 -0.09700103104114532
0.6567865610122681 0.01914907619357109 0.08067751675844193 100.0 11 -0.09699872881174088
0.6567898988723755 0.019034137949347496 -0.08067751675844193 15.0 4 -0.09699641913175583
0.6575276851654053 0.018940672278404236 0.10418536514043808 100.0 12 -0.09699411690235138
0.6611990928649902 0.01904642954468727 -0.057871412485837936 30.0 5 -0.09699181467294693
0.675082802772522 0.01932877115905285 0.13127659261226654 84.0 13 -0.09698951244354248
0.6548359394073486 0.018634378910064697 -0.03433239087462425 100.0 6 -0.09698720276355743
0.6778905391693115 0.019172033295035362 0.15656594932079315 20.0 14 -0.09698490053415298
0.6336532235145569 0.01781054213643074 -0.01106482557952404 5.0 7 -0.09698259830474854
3.636258602142334 0.10157007724046707 0.974712610244751 117.0 15 -0.09698029607534409
1.461890459060669 0.03904710337519646 -0.3918520510196686 0.0 0 -0.09695956110954285
0.6276834011077881 0.016655808314681053 0.010960111394524574 52.0 8 -0.0969572514295578
3.1149535179138184 0.08211241662502289 -0.7193935513496399 1.0 1 -0.09695494920015335
0.6528799533843994 0.017096364870667458 0.03422771766781807 55.0 9 -0.0969526469707489
1.4758614301681519 0.03864701837301254 -0.28697675466537476 0.0 2 -0.09695034474134445
0.655274510383606 0.017044629901647568 0.057348478585481644 6.0 10 -0.0969480350613594
0.6319097280502319 0.016326522454619408 -0.10011807084083557 73.0 3 -0.09694573283195496
0.6647870540618896 0.017059870064258575 0.08165246248245239 100.0 11 -0.0969434306025505
0.6608210802078247 0.016842691227793694 -0.08116498589515686 7.0 4 -0.09694112837314606
0.6674636006355286 0.01689543016254902 0.1057497188448906 100.0 12 -0.09693881869316101
0.6532945036888123 0.016536768525838852 -0.057174164801836014 100.0 5 -0.09693651646375656
0.6614077687263489 0.016626635566353798 0.12860526144504547 82.0 13 -0.09693421423435211
0.6449137926101685 0.01609938219189644 -0.033809032291173935 65.0 6 -0.09693191200494766
0.6818496584892273 0.016902362927794456 0.15746575593948364 28.0 14 -0.09692960232496262
0.6437070369720459 0.01584443636238575 -0.011239349842071533 7.0 7 -0.09692730009555817
3.640453577041626 0.08896997570991516 0.97574782371521 115.0 15 -0.09692499786615372
1.469743013381958 0.03412358835339546 -0.3939225971698761 0.0 0 -0.09690426290035248
0.6377335786819458 0.01469514612108469 0.011134634725749493 62.0 8 -0.09690196067094803
3.126910448074341 0.07150517404079437 -0.7220929265022278 2.0 1 -0.09689965099096298
0.6509389281272888 0.014772106893360615 0.03412304446101189 51.0 9 -0.09689734876155853
1.477950096130371 0.033539917320013046 -0.2873583436012268 1.0 2 -0.09689504653215408
0.6632975339889526 0.014936748892068863 0.05804572254419327 6.0 10 -0.09689274430274963
0.6497368812561035 0.014517616480588913 -0.10293389111757278 74.0 3 -0.09689043462276459
0.6509503722190857 0.014431379735469818 0.07994629442691803 100.0 11 -0.09688813239336014
0.6608758568763733 0.01453603059053421 -0.08116498589515686 7.0 4 -0.09688583016395569
0.6675184965133667 0.014565265737473965 0.1057497188448906 100.0 12 -0.09688352793455124
0.66131591796875 0.014429925009608269 -0.057871412485837936 100.0 5 -0.09688121825456619
0.6693130135536194 0.014487874694168568 0.13013173639774323 82.0 13 -0.09687891602516174
0.6449660658836365 0.013847943395376205 -0.033809032291173935 25.0 6 -0.0968766137957573
0.6702147126197815 0.014273030683398247 0.15476633608341217 32.0 14 -0.09687431156635284
0.6637508273124695 0.01401980035007 -0.01158839836716652 22.0 7 -0.0968720093369484
3.652330160140991 0.0765053853392601 0.9788536429405212 115.0 15 -0.09686969965696335
1.469853162765503 0.028992626816034317 -0.3939225971698761 0.0 0 -0.09684896469116211
0.6417796611785889 0.012546955607831478 0.01120444480329752 65.0 8 -0.09684666246175766
3.127140998840332 0.06059044227004051 -0.7220929265022278 2.0 1 -0.09684436023235321
0.6449958086013794 0.01238461583852768 0.033809032291173935 47.0 9 -0.09684205055236816
1.4917984008789062 0.02864413894712925 -0.29002970457077026 2.0 2 -0.09683974832296371
0.6553775668144226 0.012469536624848843 0.057348478585481644 6.0 10 -0.09683744609355927
0.6458334922790527 0.012175193056464195 -0.10230815410614014 81.0 3 -0.09683514386415482
0.650996744632721 0.012158876284956932 0.07994629442691803 100.0 11 -0.09683283418416977
0.6490141153335571 0.012008541263639927 -0.07970255613327026 9.0 4 -0.09683053195476532
0.6537399888038635 0.011981850489974022 0.10355963557958603 100.0 12 -0.09682822972536087
0.6474179029464722 0.011865978129208088 -0.05665123090147972 100.0 5 -0.09682592749595642
0.6811370253562927 0.012365074828267097 0.13242144882678986 80.0 13 -0.09682362526655197
0.6230441331863403 0.011201709508895874 -0.03265763819217682 7.0 6 -0.09682131558656693
0.6644151210784912 0.011829527094960213 0.15341663360595703 34.0 14 -0.09681901335716248
0.6737926602363586 0.01187886018306017 -0.011762921698391438 68.0 7 -0.09681671112775803
3.6564383506774902 0.0638241097331047 0.9798889756202698 117.0 15 -0.09681440889835358
1.4351767301559448 0.02329760231077671 -0.3846051096916199 0.0 0 -0.09679366648197174
0.667812168598175 0.010724193416535854 0.011658207513391972 78.0 8 -0.09679136425256729
1.4983923435211182 0.02380065806210041 -0.34597474336624146 1.0 1 -0.09678906202316284
0.6510261297225952 0.010227025486528873 0.03412304446101189 46.0 9 -0.09678675979375839
1.46048104763031 0.02294282428920269 -0.28392380475997925 2.0 2 -0.09678445756435394
0.6394798755645752 0.009934318251907825 0.0559539832174778 7.0 10 -0.0967821478843689
0.6537726521492004 0.010041920468211174 -0.10355963557958603 74.0 3 -0.09677984565496445
0.6708838939666748 0.010187637060880661 0.08238368481397629 100.0 11 -0.09677754342556
0.6728705167770386 0.010100667364895344 -0.08262742310762405 5.0 4 -0.09677524119615555
0.6636536121368408 0.00984614435583353 0.10512397438287735 100.0 12 -0.0967729315161705
0.6474553942680359 0.009605823084712029 -0.05665123090147972 100.0 5 -0.09677062928676605
0.6752868890762329 0.009900861419737339 0.13127659261226654 76.0 13 -0.0967683270573616
0.6470440626144409 0.009374133311212063 -0.03391370177268982 5.0 6 -0.09676602482795715
0.6664009094238281 0.009537925012409687 0.15386652946472168 26.0 14 -0.0967637151479721
0.6618331670761108 0.009357020258903503 -0.011553493328392506 85.0 7 -0.09676141291856766
3.6450488567352295 0.05089929699897766 0.9767830967903137 117.0 15 -0.09675911068916321
1.4352493286132812 0.018287377431988716 -0.3846051096916199 0.0 0 -0.09673837572336197
0.6338533759117126 0.00796566903591156 0.01106482557952404 68.0 8 -0.09673607349395752
1.4984662532806396 0.018570462241768837 -0.34597474336624146 1.0 1 -0.09673376381397247
0.6650376319885254 0.00812540017068386 0.03485574945807457 36.0 9 -0.09673146158456802
1.3349132537841797 0.016309909522533417 -0.2595002353191376 5.0 2 -0.09672915935516357
0.6454873085021973 0.007773866876959801 0.05647691711783409 13.0 10 -0.09672685712575912
0.6478779315948486 0.0076898811385035515 -0.10262101888656616 77.0 3 -0.09672454744577408
0.6590055823326111 0.007706617470830679 0.0809212476015091 100.0 11 -0.09672224521636963
0.6689317226409912 0.007705938071012497 -0.08213994652032852 7.0 4 -0.09671994298696518
0.6557828783988953 0.007440002169460058 0.10387250036001205 100.0 12 -0.09671764075756073
0.6355313658714294 0.007210243958979845 -0.05560535937547684 100.0 5 -0.09671533107757568
0.6753173470497131 0.00754375196993351 0.13127659261226654 76.0 13 -0.09671302884817123
0.6490700244903564 0.0071372599340975285 -0.034018374979496 5.0 6 -0.09671072661876678
0.6683788299560547 0.007232921663671732 0.15431644022464752 22.0 14 -0.09670842438936234
0.6498641967773438 0.006919134873896837 -0.011344064027071 82.0 7 -0.09670611470937729
3.6529312133789062 0.038255345076322556 0.9788536429405212 115.0 15 -0.09670381247997284
1.3831465244293213 0.01279445644468069 -0.37062889337539673 1.0 0 -0.0966830775141716
0.6418758034706116 0.005825788713991642 0.01120444480329752 25.0 8 -0.09668077528476715
1.4751378297805786 0.01313117053359747 -0.3405759036540985 1.0 1 -0.0966784730553627
0.6670591831207275 0.005821187514811754 0.03496042266488075 22.0 9 -0.09667616337537766
1.2839195728302002 0.011204307898879051 -0.24957817792892456 26.0 2 -0.0966738611459732
0.661449134349823 0.005657099653035402 0.057871412485837936 39.0 10 -0.09667155891656876
0.6479008197784424 0.00542814563959837 -0.10262101888656616 77.0 3 -0.0966692566871643
0.6550585031509399 0.005373469553887844 0.08043377101421356 100.0 11 -0.09666694700717926
0.6729246377944946 0.0054028998129069805 -0.08262742310762405 5.0 4 -0.09666464477777481
0.6735827326774597 0.0052906209602952 0.10668832063674927 100.0 12 -0.09666234254837036
0.6435219645500183 0.005054510198533535 -0.05630260705947876 100.0 5 -0.09666004031896591
0.659633994102478 0.005065619014203548 0.12822365760803223 78.0 13 -0.09665773063898087
0.6331132650375366 0.004751757252961397 -0.033180996775627136 5.0 6 -0.09665542840957642
0.6742460131645203 0.004942797124385834 0.15566614270210266 18.0 14 -0.09665312618017197
0.6478846669197083 0.004636161029338837 -0.011309158988296986 95.0 7 -0.09665082395076752
3.649178981781006 0.025476055219769478 0.9778183698654175 117.0 15 -0.09664851427078247
1.265341877937317 0.007288472726941109 -0.3390529751777649 5.0 0 -0.09662777930498123
0.6358932256698608 0.003551512723788619 0.011099730618298054 18.0 8 -0.09662547707557678
1.3972262144088745 0.00755976140499115 -0.32257983088493347 2.0 1 -0.09662317484617233
0.6451058983802795 0.0033780960366129875 0.033809032291173935 24.0 9 -0.09662087261676788
1.274134635925293 0.0066720047034323215 -0.24767009913921356 50.0 2 -0.09661856293678284
0.6714266538619995 0.003398422384634614 0.05874297022819519 70.0 10 -0.09661626070737839
0.6479158401489258 0.0031663442496210337 -0.10262101888656616 77.0 3 -0.09661395847797394
0.6550732254981995 0.0030873066280037165 0.08043377101421356 100.0 11 -0.09661165624856949
0.6649990677833557 0.0030177095904946327 -0.08165246248245239 7.0 4 -0.09660934656858444
0.6617448925971985 0.0028874510899186134 0.10481110215187073 100.0 12 -0.09660704433917999
0.6554899215698242 0.0028601582162082195 -0.057348478585481644 100.0 5 -0.09660474210977554
0.6576844453811646 0.002755264285951853 0.1278420239686966 68.0 13 -0.0966024398803711
0.629131555557251 0.0025255470536649227 -0.03297165781259537 5.0 6 -0.09660013020038605
0.6742591261863708 0.002589029725641012 0.15566614270210266 18.0 14 -0.0965978279709816
0.6618947982788086 0.002426351420581341 -0.011553493328392506 100.0 7 -0.09659552574157715
3.656973123550415 0.012765631079673767 0.9798889756202698 117.0 15 -0.0965932235121727
1.2537685632705688 0.002844922710210085 -0.3359471559524536 22.0 0 -0.09657248854637146
0.6618978381156921 0.0013860781909897923 0.011553493328392506 9.0 8 -0.09657017886638641
1.2588838338851929 0.0024171210825443268 -0.2906367778778076 7.0 1 -0.09656787663698196
0.6511054635047913 0.0011365226237103343 0.03412304446101189 32.0 9 -0.09656557440757751
1.2702234983444214 0.0022172103635966778 -0.2469068467617035 48.0 2 -0.09656327217817307
0.6913582682609558 0.001085797674022615 0.0604860819876194 100.0 10 -0.09656096249818802
0.6597751975059509 0.0009213642333634198 -0.1044982373714447 81.0 3 -0.09655866026878357
0.6709607243537903 0.0008198867435567081 0.08238368481397629 91.0 11 -0.09655635803937912
0.6689757704734802 0.000700390781275928 -0.08213994652032852 10.0 4 -0.09655405580997467
0.6716278791427612 0.0005862734979018569 0.10637544840574265 100.0 12 -0.09655174612998962
0.6594807505607605 0.0005756700993515551 -0.057697102427482605 100.0 5 -0.09654944390058517
0.6714327931404114 0.0004689230991061777 0.13051335513591766 64.0 13 -0.09654714167118073
0.6451146602630615 0.0003376481181476265 -0.033809032291173935 5.0 6 -0.09654483944177628
0.6937514543533325 0.00024235986347775906 0.16016516089439392 30.0 14 -0.09654253721237183
0.6499010324478149 0.00011361855285940692 -0.011344064027071 90.0 7 -0.09654022753238678
3.6647226810455322 -0.0 0.9819594621658325 115.0 15 -0.09653792530298233
1.2421798706054688 -0.0013008081587031484 -0.33284130692481995 34.0 0 -0.09651719033718109
0.6818956136703491 -0.0008330930722877383 0.011902541853487492 8.0 8 -0.09651488810777664
1.239397644996643 -0.001730526564642787 -0.28613775968551636 26.0 1 -0.0965125784277916
0.655100405216217 -0.00091469322796911 0.03433239087462425 35.0 9 -0.09651027619838715
1.2191795110702515 -0.0019150841981172562 -0.23698478937149048 36.0 2 -0.0965079739689827
0.6873733401298523 -0.0011996938847005367 0.06013746187090874 100.0 10 -0.09650567173957825
0.6736022233963013 -0.0012932249810546637 -0.10668832063674927 87.0 3 -0.0965033620595932
0.6669895648956299 -0.0013969416031613946 0.08189620822668076 42.0 11 -0.09650105983018875
0.6709595322608948 -0.0015223614173009992 -0.08238368481397629 15.0 4 -0.0964987576007843
0.6498973369598389 -0.0014745728112757206 0.10293389111757278 85.0 12 -0.09649645537137985
0.6375627517700195 -0.001557862851768732 -0.055779676884412766 100.0 5 -0.0964941531419754
0.6773204803466797 -0.0017732246778905392 0.13165821135044098 48.0 13 -0.09649184346199036
0.637123167514801 -0.001779187936335802 -0.0333903431892395 5.0 6 -0.09648954123258591
0.6840047836303711 -0.00202948902733624 0.1579156517982483 39.0 14 -0.09648723900318146
0.6478984355926514 -0.0019223591079935431 -0.011309158988296986 97.0 7 -0.09648493677377701
3.6569771766662598 -0.011488770134747028 0.9798889756202698 115.0 15 -0.09648262709379196
1.2228504419326782 -0.005335725378245115 -0.32766491174697876 57.0 0 -0.09646189212799072
0.6618924140930176 -0.0030035933014005423 0.011553493328392506 9.0 8 -0.09645958989858627
1.2413338422775269 -0.005849691107869148 -0.286587655544281 61.0 1 -0.09645728766918182
0.6570904850959778 -0.003211175324395299 0.034437064081430435 43.0 9 -0.09645498543977737
1.2132757902145386 -0.0061409929767251015 -0.23583993315696716 60.0 2 -0.09645267575979233
0.6634565591812134 -0.003473882097750902 0.05804572254419327 100.0 10 -0.09645037353038788
0.6597667932510376 -0.0034545622766017914 -0.1044982373714447 100.0 3 -0.09644807130098343
0.6649961471557617 -0.0035980106331408024 0.08165246248245239 21.0 11 -0.09644576907157898
0.6610254049301147 -0.0036919007543474436 -0.08116498589515686 43.0 4 -0.09644345939159393
0.6597649455070496 -0.003800014965236187 0.1044982373714447 53.0 12 -0.09644115716218948
0.6435304880142212 -0.0038188316393643618 -0.05630260705947876 100.0 5 -0.09643885493278503
0.6674947142601013 -0.003961039707064629 0.1297501176595688 49.0 13 -0.09643655270338058
0.6550887823104858 -0.004001759458333254 -0.03433239087462425 5.0 6 -0.09643424302339554
0.685943067073822 -0.004309963900595903 0.15836556255817413 41.0 14 -0.09643194079399109
0.6618854403495789 -0.004274329170584679 -0.011553493328392506 100.0 7 -0.09642963856458664
3.6569149494171143 -0.024253934621810913 0.9798889756202698 117.0 15 -0.09642733633518219
1.2150973081588745 -0.009543546475470066 -0.32559436559677124 73.0 0 -0.09640660136938095
0.6418815851211548 -0.005153465550392866 0.01120444480329752 9.0 8 -0.0964042916893959
1.2218190431594849 -0.010022863745689392 -0.28208863735198975 69.0 1 -0.09640198945999146
0.6650649309158325 -0.005455681122839451 0.03485574945807457 48.0 9 -0.096399687230587
1.2112854719161987 -0.010147878900170326 -0.23545831441879272 75.0 2 -0.09639738500118256
0.661449134349823 -0.005656925495713949 0.057871412485837936 100.0 10 -0.09639507532119751
0.6538248658180237 -0.005705843213945627 -0.10355963557958603 100.0 3 -0.09639277309179306
0.6887997388839722 -0.006131291855126619 0.08457732945680618 13.0 11 -0.09639047086238861
0.6709336042404175 -0.006089366972446442 -0.08238368481397629 84.0 4 -0.09638816863298416
0.6874028444290161 -0.006238840986043215 0.10887840390205383 58.0 12 -0.09638585895299911
0.6494911909103394 -0.00600812304764986 -0.05682554095983505 100.0 5 -0.09638355672359467
0.6596242189407349 -0.006216995418071747 0.12822365760803223 49.0 13 -0.09638125449419022
0.6710481643676758 -0.006441798526793718 -0.03516976535320282 19.0 6 -0.09637895226478577
0.6956670880317688 -0.006799557711929083 0.16061507165431976 35.0 14 -0.09637664258480072
0.6558688282966614 -0.006410563364624977 -0.011448778212070465 97.0 7 -0.09637434035539627
3.6529507637023926 -0.03634212911128998 0.9788536429405212 115.0 15 -0.09637203812599182
1.2131247520446777 -0.01376305427402258 -0.32507672905921936 74.0 0 -0.09635130316019058
0.6538583636283875 -0.007418105844408274 0.011413874104619026 9.0 8 -0.09634900093078613
1.202293038368225 -0.013850032351911068 -0.2775896191596985 73.0 1 -0.09634669125080109
0.661047637462616 -0.00773044815286994 0.0346464067697525 47.0 9 -0.09634438902139664
1.2033902406692505 -0.014282794669270515 -0.23393183946609497 80.0 2 -0.09634208679199219
0.6833400130271912 -0.008229706436395645 0.059788838028907776 100.0 10 -0.09633978456258774
0.6498518586158752 -0.007826396264135838 -0.10293389111757278 100.0 3 -0.09633747488260269
0.6689261794090271 -0.008172881789505482 0.08213994652032852 14.0 11 -0.09633517265319824
0.6490753889083862 -0.00804364774376154 -0.07970255613327026 90.0 4 -0.09633287042379379
0.6695998907089233 -0.00841488316655159 0.10606258362531662 61.0 12 -0.09633056819438934
0.6474740505218506 -0.008249850943684578 -0.05665123090147972 34.0 5 -0.0963282585144043
0.6635261178016663 -0.008454379625618458 0.1289868950843811 45.0 13 -0.09632595628499985
0.6810085773468018 -0.00879601202905178 -0.035693127661943436 40.0 6 -0.0963236540555954
0.678103506565094 -0.0088768620043993 0.15656594932079315 28.0 14 -0.09632135182619095
0.6658399701118469 -0.008832553401589394 -0.011623302474617958 87.0 7 -0.0963190495967865
3.6605284214019775 -0.04919693246483803 0.9809242486953735 115.0 15 -0.09631673991680145
1.2130662202835083 -0.018209286034107208 -0.32507672905921936 78.0 0 -0.09680700302124023
0.6778186559677124 -0.01029303576797247 0.011832731775939465 8.0 8 -0.09680470079183578
1.1944369077682495 -0.018346676602959633 -0.2757900059223175 74.0 1 -0.09680239856243134
0.6550219655036926 -0.010175556875765324 0.03433239087462425 49.0 9 -0.09680008888244629
1.1895886659622192 -0.018479878082871437 -0.2312605082988739 87.0 2 -0.09679778665304184
0.6693602800369263 -0.010515150614082813 0.05856866016983986 100.0 10 -0.09679548442363739
0.6577174663543701 -0.010447073727846146 -0.10418536514043808 100.0 3 -0.09679318219423294
0.6847686171531677 -0.01099629420787096 0.08408986032009125 13.0 11 -0.0967908725142479
0.6549941897392273 -0.010632513090968132 -0.08043377101421356 86.0 4 -0.09678857028484344
0.6656123995780945 -0.01092107966542244 0.10543683916330338 53.0 12 -0.096786268055439
0.659392237663269 -0.010819022543728352 -0.057697102427482605 15.0 5 -0.09678396582603455
0.6654517650604248 -0.011034619994461536 0.12936849892139435 53.0 13 -0.0967816561460495
0.6849637627601624 -0.011477750726044178 -0.0359024703502655 83.0 6 -0.09677935391664505
0.656631350517273 -0.011117629706859589 0.15161702036857605 16.0 14 -0.0967770516872406
0.6478065252304077 -0.01108130905777216 -0.011309158988296986 67.0 7 -0.09677474945783615
3.6719021797180176 -0.06345222145318985 0.9840300679206848 115.0 15 -0.0967724397778511
1.20526921749115 -0.022300612181425095 -0.32300618290901184 76.0 0 -0.09675170481204987
0.6797779202461243 -0.0126963434740901 0.011867635883390903 20.0 8 -0.09674940258264542
1.2021591663360596 -0.022662850096821785 -0.2775896191596985 75.0 1 -0.09674710035324097
0.6629700660705566 -0.012613923288881779 0.034751079976558685 49.0 9 -0.09674479812383652
1.1797024011611938 -0.022445471957325935 -0.2293524146080017 93.0 2 -0.09674248844385147
0.6673274636268616 -0.012813342735171318 0.05839434638619423 100.0 10 -0.09674018621444702
0.6636021137237549 -0.012857673689723015 -0.10512397438287735 100.0 3 -0.09673788398504257
0.6807566285133362 -0.013308913446962833 0.08360237628221512 13.0 11 -0.09673558175563812
0.6589224934577942 -0.012997099198400974 -0.0809212476015091 80.0 4 -0.09673327207565308
0.6556952595710754 -0.013047928921878338 0.10387250036001205 51.0 12 -0.09673096984624863
0.6613423824310303 -0.013160303235054016 -0.057871412485837936 11.0 5 -0.09672866761684418
0.6870006322860718 -0.013790839351713657 0.13356630504131317 50.0 13 -0.09672636538743973
0.684919536113739 -0.013868650421500206 -0.0359024703502655 100.0 6 -0.09672405570745468
3.6842992305755615 -0.07524514943361282 0.8507649302482605 19.0 14 -0.09672175347805023
0.6437654495239258 -0.013260149396955967 -0.011239349842071533 32.0 7 -0.09671945124864578
3.660069704055786 -0.07602844387292862 0.9809242486953735 115.0 15 -0.09671714901924133
1.1916643381118774 -0.026210293173789978 -0.3193827271461487 72.0 0 -0.0966964140534401
0.6597374677658081 -0.01462592463940382 0.011518588289618492 39.0 8 -0.09669410437345505
1.1981762647628784 -0.026771964505314827 -0.2766897976398468 80.0 1 -0.0966918021440506
0.6669155359268188 -0.015017972327768803 0.03496042266488075 51.0 9 -0.09668949991464615
1.173728585243225 -0.02643066830933094 -0.2282075732946396 96.0 2 -0.0966871976852417
0.6632949113845825 -0.015052266418933868 0.05804572254419327 91.0 10 -0.09668488800525665
0.6536788940429688 -0.014948196709156036 -0.10355963557958603 100.0 3 -0.0966825857758522
0.6846751570701599 -0.01577657274901867 0.08408986032009125 13.0 11 -0.09668028354644775
0.6687958836555481 -0.015527467243373394 -0.08213994652032852 70.0 4 -0.0966779813170433
0.6635451316833496 -0.015521431341767311 0.10512397438287735 48.0 12 -0.09667567163705826
0.651333212852478 -0.015235774219036102 -0.05699985474348068 11.0 5 -0.09667336940765381
0.6673211455345154 -0.015726296231150627 0.1297501176595688 49.0 13 -0.09667106717824936
0.6748834848403931 -0.016022365540266037 -0.035379111766815186 100.0 6 -0.09666876494884491
3.687910795211792 -0.08819848299026489 0.8516647815704346 48.0 14 -0.09666646271944046
0.6357187628746033 -0.01531459391117096 -0.011099730618298054 13.0 7 -0.09666415303945541
3.655919075012207 -0.08871027827262878 0.9798889756202698 115.0 15 -0.09666185081005096
1.1954278945922852 -0.030468257144093513 -0.32041797041893005 67.0 0 -0.09664111584424973
0.6616814732551575 -0.016980048269033432 0.011553493328392506 81.0 8 -0.09663881361484528
1.1941792964935303 -0.030853556469082832 -0.2757900059223175 84.0 1 -0.09663650393486023
0.6708521842956543 -0.017449716106057167 0.03516976535320282 49.0 9 -0.09663420170545578
1.1755917072296143 -0.03057863377034664 -0.22858919203281403 75.0 2 -0.09663189947605133
0.6672217845916748 -0.01747181825339794 0.05839434638619423 100.0 10 -0.09662959724664688
0.6536227464675903 -0.017229869961738586 -0.10355963557958603 100.0 3 -0.09662728756666183
0.6806471347808838 -0.01806112751364708 0.08360237628221512 13.0 11 -0.09662498533725739
0.6568313837051392 -0.017543891444802284 -0.08067751675844193 84.0 4 -0.09662268310785294
0.6753348112106323 -0.01815607026219368 0.10700118541717529 46.0 12 -0.09662038087844849
0.6433093547821045 -0.017295079305768013 -0.05630260705947876 11.0 5 -0.09661807864904404
0.6535245180130005 -0.017683852463960648 0.12707878649234772 51.0 13 -0.09661576896905899
0.6608477830886841 -0.017997439950704575 -0.0346464067697525 100.0 6 -0.09661346673965454
3.691476583480835 -0.10117793828248978 0.8525645732879639 70.0 14 -0.09661116451025009
