# .PCD v0.7 - Point Cloud Data file format
VERSION 0.7
FIELDS x y z intensity ring time
SIZE 4 4 4 4 4 4
TYPE F F F F F F
COUNT 1 1 1 1 1 1
WIDTH 532
HEIGHT 1
VIEWPOINT 0 0 0 1 0 0 0
POINTS 532
DATA ascii
0.6518185138702393 0.008532765321433544 0.10324675589799881 97.0 12 -0.08770861476659775
0.6395036578178406 0.008260233327746391 -0.0559539832174778 100.0 5 -0.0877063125371933
0.675304651260376 0.008604464121162891 0.13127659261226654 72.0 13 -0.08770401030778885
0.6370753049850464 0.008006159216165543 -0.0333903431892395 5.0 6 -0.0877017080783844
3.6769824028015137 0.046208832412958145 0.8489653468132019 15.0 14 -0.08769939839839935
0.6598488688468933 0.008177494630217552 -0.011518588289618492 97.0 7 -0.0876970961689949
3.6489956378936768 0.044583264738321304 0.9778183698654175 117.0 15 -0.08769479393959045
1.3966444730758667 0.015357688069343567 -0.3742523491382599 0.0 0 -0.08767405897378922
0.6378655433654785 0.006902719382196665 0.011134634725749493 9.0 8 -0.08767175674438477
1.4848558902740479 0.015809331089258194 -0.34282541275024414 1.0 1 -0.08766944706439972
0.6810267567634583 0.007250924129039049 0.035693127661943436 40.0 9 -0.08766714483499527
1.2799715995788574 0.013404509983956814 -0.24881494045257568 21.0 2 -0.08766484260559082
0.6634305119514465 0.00683198357000947 0.05804572254419327 97.0 10 -0.08766254037618637
0.6419645547866821 0.006498879753053188 -0.10168241709470749 77.0 3 -0.08766023069620132
0.6669580340385437 0.006635488010942936 0.08189620822668076 100.0 11 -0.08765792846679688
0.6748980283737183 0.006714481860399246 -0.08287115395069122 7.0 4 -0.08765562623739243
0.6755465865135193 0.006603024899959564 0.10700118541717529 100.0 12 -0.08765332400798798
0.64749675989151 0.0062158433720469475 -0.05665123090147972 100.0 5 -0.08765101432800293
0.6635505557060242 0.006254140753298998 0.1289868950843811 66.0 13 -0.08764871209859848
0.6291096806526184 0.00581942405551672 -0.03297165781259537 5.0 6 -0.08764640986919403
3.669320821762085 0.033942148089408875 0.8471657633781433 13.0 14 -0.08764410763978958
0.6658711433410645 0.006043574307113886 -0.011623302474617958 100.0 7 -0.08764180541038513
3.649123191833496 0.03248324245214462 0.9778183698654175 117.0 15 -0.08763949573040009
1.3058967590332031 0.009573334828019142 -0.34992337226867676 4.0 0 -0.08761358261108398
0.6658815145492554 0.004764942917972803 0.011623302474617958 9.0 8 -0.08761128038167953
1.4225456714630127 0.009931234642863274 -0.32842856645584106 2.0 1 -0.08760897815227509
0.6570830345153809 0.0044729337096214294 0.034437064081430435 45.0 9 -0.08760666847229004
1.2564537525177002 0.008553004823625088 -0.24423553049564362 54.0 2 -0.08760436624288559
0.6694281697273254 0.004439815413206816 0.05856866016983986 100.0 10 -0.08760206401348114
0.6538361310958862 0.0042222910560667515 -0.10355963557958603 77.0 3 -0.08759976178407669
0.6610226631164551 0.004153646994382143 0.08116498589515686 64.0 11 -0.08759745210409164
0.6729337573051453 0.0041107251308858395 -0.08262742310762405 12.0 4 -0.0875951498746872
0.6716163158416748 0.003985460847616196 0.10637544840574265 99.0 12 -0.08759284764528275
0.6514999270439148 0.003866087179630995 -0.05699985474348068 100.0 5 -0.0875905454158783
0.6635690331459045 0.003822211641818285 0.1289868950843811 53.0 13 -0.08758823573589325
0.6331211924552917 0.003536030650138855 -0.033180996775627136 5.0 6 -0.0875859335064888
0.685946524143219 0.0037113477010279894 0.15836556255817413 24.0 14 -0.08758363127708435
0.6678891181945801 0.003497400553897023 -0.011658207513391972 92.0 7 -0.0875813290476799
3.6569483280181885 0.018509624525904655 0.9798889756202698 117.0 15 -0.08757901936769485
1.2556942701339722 0.004821632523089647 -0.3364647626876831 18.0 0 -0.08755828440189362
0.6598950624465942 0.0024190207477658987 0.011518588289618492 6.0 8 -0.08755598217248917
1.2744684219360352 0.004448868799954653 -0.2942360043525696 5.0 1 -0.08755367994308472
0.6451112031936646 0.0021393434144556522 0.033809032291173935 46.0 9 -0.08755137771368027
1.2407699823379517 0.004114690702408552 -0.2411825805902481 65.0 2 -0.08754906803369522
0.6694395542144775 0.002103507984429598 0.05856866016983986 100.0 10 -0.08754676580429077
0.6617482900619507 0.00196353392675519 -0.10481110215187073 87.0 3 -0.08754446357488632
0.6749287843704224 0.0018848517211154103 0.08287115395069122 41.0 11 -0.08754216134548187
0.6650036573410034 0.0017407581908628345 -0.08165246248245239 26.0 4 -0.08753985166549683
0.6577984690666199 0.0016074099112302065 0.10418536514043808 59.0 12 -0.08753754943609238
0.6515094041824341 0.001592041808180511 -0.05699985474348068 100.0 5 -0.08753524720668793
0.6694680452346802 0.0015190880512818694 0.13013173639774323 49.0 13 -0.08753294497728348
0.6371241807937622 0.0013341997982934117 -0.0333903431892395 5.0 6 -0.08753063529729843
0.6820578575134277 0.0013095856411382556 0.15746575593948364 40.0 14 -0.08752833306789398
0.6578988432884216 0.0011483806883916259 -0.011483684182167053 95.0 7 -0.08752603083848953
3.6569907665252686 0.005743406713008881 0.9798889756202698 113.0 15 -0.08752372860908508
1.2479760646820068 0.0004359764570835978 -0.3343942165374756 30.0 0 -0.08750299364328384
0.6778967976570129 0.00011851290037157014 0.011832731775939465 8.0 8 -0.0875006839632988
1.2355012893676758 -0.0 -0.2852379381656647 22.0 1 -0.08749838173389435
0.6570982933044434 -0.00011468528100522235 0.034437064081430435 45.0 9 -0.0874960795044899
1.193658709526062 -0.00020833274174947292 -0.23202376067638397 33.0 2 -0.08749377727508545
0.6754199862480164 -0.00023576607054565102 0.05909159407019615 100.0 10 -0.0874914675951004
0.6578003764152527 -0.0003444234898779541 -0.10418536514043808 97.0 3 -0.08748916536569595
0.6729461550712585 -0.00046980511979199946 0.08262742310762405 20.0 11 -0.0874868631362915
0.651110053062439 -0.0005682007758878171 -0.07994629442691803 56.0 4 -0.08748456090688705
0.6558247208595276 -0.0006867782212793827 0.10387250036001205 48.0 12 -0.08748225122690201
0.6455338001251221 -0.0006760015967302024 -0.05647691711783409 100.0 5 -0.08747994899749756
0.6733957529067993 -0.0008227085345424712 0.1308949738740921 48.0 13 -0.08747764676809311
0.6590948700904846 -0.0009202706278301775 -0.03454173356294632 7.0 6 -0.08747534453868866
0.6840069890022278 -0.0010744364699348807 0.1579156517982483 37.0 14 -0.08747304230928421
0.6578988432884216 -0.0011482511181384325 -0.011483684182167053 90.0 7 -0.08747073262929916
3.6531248092651367 -0.007013504393398762 0.9788536429405212 115.0 15 -0.08746843039989471
1.2247878313064575 -0.003847797168418765 -0.32818254828453064 54.0 0 -0.08744769543409348
0.6738936901092529 -0.002234724350273609 0.011762921698391438 8.0 8 -0.08744539320468903
1.2432887554168701 -0.004339913837611675 -0.28703755140304565 50.0 1 -0.08744308352470398
0.6690772771835327 -0.002452307380735874 0.03506509214639664 49.0 9 -0.08744078129529953
1.0954885482788086 -0.004015193320810795 -0.21294285356998444 84.0 2 -0.08743847906589508
0.6515065431594849 -0.0025016178842633963 0.05699985474348068 100.0 10 -0.08743617683649063
0.6538445353507996 -0.002624714048579335 -0.10355963557958603 100.0 3 -0.08743386715650558
0.688821017742157 -0.0028853435069322586 0.08457732945680618 13.0 11 -0.08743156492710114
0.6649996042251587 -0.002901626517996192 -0.08165246248245239 84.0 4 -0.08742926269769669
0.6617444157600403 -0.003002921352162957 0.10481110215187073 51.0 12 -0.08742696046829224
0.6475199460983276 -0.0029383725486695766 -0.05665123090147972 81.0 5 -0.08742465823888779
0.6635726690292358 -0.003127035452052951 0.1289868950843811 45.0 13 -0.08742234855890274
0.6670766472816467 -0.003259977325797081 -0.03496042266488075 23.0 6 -0.08742004632949829
0.6878964900970459 -0.003481786698102951 0.15881545841693878 31.0 14 -0.08741774410009384
0.6578908562660217 -0.003444739617407322 -0.011483684182167053 90.0 7 -0.08741544187068939
3.6530778408050537 -0.019765246659517288 0.9788536429405212 115.0 15 -0.08741313219070435
1.2247684001922607 -0.00790931936353445 -0.32818254828453064 76.0 0 -0.0873923972249031
0.653886079788208 -0.004336800426244736 0.011413874104619026 9.0 8 -0.08739009499549866
1.2276779413223267 -0.008356668055057526 -0.2834383547306061 69.0 1 -0.08738779276609421
0.6710627675056458 -0.004684977233409882 0.03516976535320282 52.0 9 -0.08738548308610916
1.1445493698120117 -0.00799059122800827 -0.222483292222023 79.0 2 -0.08738318085670471
0.6594640612602234 -0.004719106946140528 0.057697102427482605 92.0 10 -0.08738087862730026
0.6518568396568298 -0.004778445698320866 -0.10324675589799881 100.0 3 -0.08737857639789581
0.6808675527572632 -0.005109949037432671 0.08360237628221512 13.0 11 -0.08737627416849136
0.6550611853599548 -0.0050306073389947414 -0.08043377101421356 80.0 4 -0.08737396448850632
0.6577801704406738 -0.00516629870980978 0.10418536514043808 53.0 12 -0.08737166225910187
0.6534826755523682 -0.0052466075867414474 -0.057174164801836014 15.0 5 -0.08736936002969742
0.6655218005180359 -0.005343265365809202 0.12936849892139435 49.0 13 -0.08736705780029297
0.6770480871200562 -0.005553981754928827 -0.03548378124833107 52.0 6 -0.08736474812030792
0.6742404699325562 -0.005648635793477297 0.15566614270210266 20.0 14 -0.08736244589090347
0.653876543045044 -0.0055921622551977634 -0.011413874104619026 87.0 7 -0.08736014366149902
3.664583206176758 -0.03198033198714256 0.9819594621658325 115.0 15 -0.08735784143209457
1.2208677530288696 -0.012359155341982841 -0.3271472752094269 85.0 0 -0.08733709901571274
0.6738628149032593 -0.006821685470640659 0.011762921698391438 11.0 8 -0.08733479678630829
1.2042577266693115 -0.012401212006807327 -0.27803951501846313 73.0 1 -0.08733249455690384
0.6650508046150208 -0.00696464953944087 0.03485574945807457 50.0 9 -0.08733019232749939
1.166106939315796 -0.012415437959134579 -0.22668109834194183 63.0 2 -0.08732789009809494
0.675380527973175 -0.007308605592697859 0.05909159407019615 95.0 10 -0.0873255804181099
0.6538102626800537 -0.007189308758825064 -0.10355963557958603 100.0 3 -0.08732327818870544
0.6768755912780762 -0.00744293536990881 0.08311489969491959 13.0 11 -0.087320975959301
0.6470996737480164 -0.007228473667055368 -0.0794588178396225 78.0 4 -0.08731867372989655
0.6735601425170898 -0.007641625124961138 0.10668832063674927 51.0 12 -0.0873163640499115
0.6574448943138123 -0.007573555689305067 -0.057522788643836975 11.0 5 -0.08731406182050705
0.6654977798461914 -0.007782489061355591 0.12936849892139435 61.0 13 -0.0873117595911026
0.6790202260017395 -0.008059153333306313 -0.035588450729846954 100.0 6 -0.08730945736169815
3.6770060062408447 -0.044283486902713776 0.8489653468132019 12.0 14 -0.0873071476817131
0.6458547711372375 -0.007778257597237825 -0.011274254880845547 60.0 7 -0.08730484545230865
3.6644492149353027 -0.04477192088961601 0.9819594621658325 115.0 15 -0.0873025432229042
1.213090419769287 -0.01651550829410553 -0.32507672905921936 78.0 0 -0.08728180825710297
0.679831862449646 -0.009374183602631092 0.011867635883390903 25.0 8 -0.08727950602769852
1.2003071308135986 -0.016760535538196564 -0.27713972330093384 74.0 1 -0.08727719634771347
0.6570342779159546 -0.009174523875117302 0.034437064081430435 58.0 9 -0.08727489411830902
1.162130355834961 -0.0164303258061409 -0.22591786086559296 73.0 2 -0.08727259188890457
0.6673821210861206 -0.009552025236189365 0.05839434638619423 91.0 10 -0.08727028965950012
0.6518059968948364 -0.009442873299121857 -0.10324675589799881 100.0 3 -0.08726797997951508
0.6728740334510803 -0.009865554980933666 0.08262742310762405 13.0 11 -0.08726567775011063
0.6470688581466675 -0.009600164368748665 -0.0794588178396225 75.0 4 -0.08726337552070618
0.659703254699707 -0.009787612594664097 0.1044982373714447 48.0 12 -0.08726107329130173
0.637492835521698 -0.009569378569722176 -0.055779676884412766 11.0 5 -0.08725876361131668
0.6713555455207825 -0.010194891132414341 0.13051335513591766 52.0 13 -0.08725646138191223
0.6650088429450989 -0.010214605368673801 -0.03485574945807457 100.0 6 -0.08725415915250778
3.6768290996551514 -0.05711836367845535 0.8489653468132019 34.0 14 -0.08725185692310333
0.6498226523399353 -0.010094786062836647 -0.011344064027071 20.0 7 -0.08724954724311829
3.6681337356567383 -0.057623643428087234 0.9829947352409363 115.0 15 -0.08724724501371384
1.2052991390228271 -0.020617717877030373 -0.32300618290901184 76.0 0 -0.0872265100479126
0.6717994213104248 -0.011491728946566582 0.011728017590939999 51.0 8 -0.08722420781850815
1.2041417360305786 -0.02080814354121685 -0.27803951501846313 75.0 1 -0.0872219055891037
0.6609921455383301 -0.011537659913301468 0.0346464067697525 59.0 9 -0.08721959590911865
1.1424365043640137 -0.0201407577842474 -0.22210167348384857 76.0 2 -0.0872172936797142
0.673321008682251 -0.011987967416644096 0.05891728401184082 100.0 10 -0.08721499145030975
0.6675716042518616 -0.01188560388982296 -0.1057497188448906 100.0 3 -0.0872126892209053
0.6768071055412292 -0.012168197892606258 0.08311489969491959 27.0 11 -0.08721037954092026
0.6470334529876709 -0.011745868250727654 -0.0794588178396225 75.0 4 -0.08720807731151581
0.6537399888038635 -0.011981751769781113 0.10355963557958603 42.0 12 -0.08720577508211136
0.6374555826187134 -0.01179458387196064 -0.055779676884412766 11.0 5 -0.08720347285270691
0.6772068738937378 -0.012530087493360043 0.13165821135044098 48.0 13 -0.08720116317272186
0.6729589700698853 -0.012568984180688858 -0.035274438560009 100.0 6 -0.08719886094331741
3.674671173095703 -0.06927412003278732 0.8485153913497925 61.0 14 -0.08719655871391296
0.637787401676178 -0.012134788557887077 -0.011134634725749493 7.0 7 -0.08719425648450851
3.6640472412109375 -0.07035330682992935 0.9819594621658325 117.0 15 -0.08719195425510406
1.1878410577774048 -0.024259503930807114 -0.31834742426872253 69.0 0 -0.08717121183872223
0.6697559356689453 -0.01379549503326416 0.011693112552165985 100.0 8 -0.08716890960931778
1.20406174659729 -0.025011256337165833 -0.27803951501846313 80.0 1 -0.08716660737991333
0.670931875705719 -0.014054019004106522 0.03516976535320282 45.0 9 -0.08716430515050888
1.148252010345459 -0.024052448570728302 -0.22324654459953308 76.0 2 -0.08716199547052383
0.6553500294685364 -0.013842055574059486 0.057348478585481644 79.0 10 -0.08715969324111938
0.661601185798645 -0.0140896150842309 -0.10481110215187073 100.0 3 -0.08715739101171494
0.6747758984565735 -0.014488010667264462 0.08287115395069122 48.0 11 -0.08715508878231049
0.6549270749092102 -0.0141762001439929 -0.08043377101421356 78.0 4 -0.08715277910232544
0.6675184965133667 -0.014565305784344673 0.1057497188448906 42.0 12 -0.08715047687292099
0.6334290504455566 -0.013821471482515335 -0.055431053042411804 12.0 5 -0.08714817464351654
0.6594939827919006 -0.01450536772608757 0.12822365760803223 45.0 13 -0.08714587241411209
0.6808980703353882 -0.015095042064785957 -0.035693127661943436 100.0 6 -0.08714357018470764
3.6841483116149902 -0.08231835067272186 0.8507649302482605 81.0 14 -0.0871412605047226
0.6337428092956543 -0.014270970597863197 -0.01106482557952404 7.0 7 -0.08713895827531815
3.6560540199279785 -0.08296746760606766 0.9798889756202698 113.0 15 -0.0871366560459137
1.1877491474151611 -0.028405696153640747 -0.31834742426872253 69.0 0 -0.08711592108011246
0.6397169828414917 -0.015410912223160267 0.01116954069584608 100.0 8 -0.08711361140012741
1.1922781467437744 -0.028930433094501495 -0.27534011006355286 84.0 1 -0.08711130917072296
0.6668854355812073 -0.016298329457640648 0.03496042266488075 8.0 9 -0.08710900694131851
1.14227294921875 -0.027916548773646355 -0.22210167348384857 83.0 2 -0.08710670471191406
0.6712319254875183 -0.016521776095032692 0.05874297022819519 82.0 10 -0.08710439503192902
0.6536489725112915 -0.01620314083993435 -0.10355963557958603 100.0 3 -0.08710209280252457
0.6727367639541626 -0.016793791204690933 0.08262742310762405 68.0 11 -0.08709979057312012
0.6628114581108093 -0.01666177622973919 -0.08140873163938522 78.0 4 -0.08709748834371567
0.6872110366821289 -0.017395151779055595 0.10887840390205383 52.0 12 -0.08709518611431122
0.6552863121032715 -0.01658705063164234 -0.057348478585481644 11.0 5 -0.08709287643432617
0.643738329410553 -0.01640716753900051 0.12517070770263672 35.0 13 -0.08709057420492172
0.6628718376159668 -0.01701059751212597 -0.034751079976558685 100.0 6 -0.08708827197551727
3.6916308403015137 -0.09537926316261292 0.8525645732879639 100.0 14 -0.08708596974611282
0.645683228969574 -0.016795041039586067 -0.011274254880845547 5.0 7 -0.08708366006612778
3.671191930770874 -0.09613354504108429 0.9840300679206848 115.0 15 -0.08708135783672333
1.1992295980453491 -0.0328691191971302 -0.3214532732963562 69.0 0 -0.08706062287092209
0.6396592855453491 -0.017643846571445465 0.01116954069584608 100.0 8 -0.08705832064151764
1.1863259077072144 -0.03292986750602722 -0.2739903926849365 88.0 1 -0.08705601096153259
0.6668245196342468 -0.018626093864440918 0.03496042266488075 7.0 9 -0.08705370873212814
1.140206217765808 -0.03184884041547775 -0.22172006964683533 87.0 2 -0.0870514065027237
0.6751534342765808 -0.018976671621203423 0.05909159407019615 82.0 10 -0.08704910427331924
0.6614866852760315 -0.018708081915974617 -0.10481110215187073 94.0 3 -0.0870468020439148
0.6528311371803284 -0.018577318638563156 0.08019004017114639 100.0 11 -0.08704449236392975
0.650843620300293 -0.01863444596529007 -0.07994629442691803 78.0 4 -0.0870421901345253
0.6970189213752747 -0.020078253000974655 0.11044274270534515 62.0 12 -0.08703988790512085
0.6611990928649902 -0.01904643140733242 -0.057871412485837936 11.0 5 -0.0870375856757164
0.655451774597168 -0.018995368853211403 0.12746042013168335 25.0 13 -0.08703527599573135
0.6648048162460327 -0.019382551312446594 -0.03485574945807457 100.0 6 -0.0870329737663269
3.6698482036590576 -0.10763642191886902 0.8476155996322632 91.0 14 -0.08703067153692245
0.6516171097755432 -0.019225716590881348 -0.011378969065845013 5.0 7 -0.087028369307518
3.6669716835021973 -0.10883317142724991 0.9829947352409363 113.0 15 -0.08702605962753296
1.1991075277328491 -0.037055011838674545 -0.3214532732963562 69.0 0 -0.08700532466173172
0.6595810651779175 -0.02049770951271057 0.011518588289618492 100.0 8 -0.08700302243232727
1.1900992393493652 -0.037192460149526596 -0.2748901844024658 87.0 1 -0.08700072020292282
0.6587702631950378 -0.02070268988609314 0.03454173356294632 7.0 9 -0.08699841797351837
1.1342010498046875 -0.03564370051026344 -0.22057519853115082 80.0 2 -0.08699610829353333
0.6770743727684021 -0.021396208554506302 0.059265900403261185 93.0 10 -0.08699380606412888
0.6475967168807983 -0.020577825605869293 -0.10262101888656616 74.0 3 -0.08699150383472443
0.676571249961853 -0.02161671407520771 0.08311489969491959 100.0 11 -0.08698920160531998
0.6487904787063599 -0.020842459052801132 -0.07970255613327026 63.0 4 -0.08698689192533493
0.6693037152290344 -0.02161838486790657 0.10606258362531662 53.0 12 -0.08698458969593048
0.6690939664840698 -0.021611610427498817 -0.05856866016983986 10.0 5 -0.08698228746652603
3.6909358501434326 -0.1198614165186882 0.7178234457969666 9.0 13 -0.08697998523712158
0.6687254905700684 -0.021833386272192 -0.03506509214639664 100.0 6 -0.08697767555713654
3.6791887283325195 -0.12076558917760849 0.8498651385307312 94.0 14 -0.08697537332773209
0.6375558376312256 -0.021038508042693138 -0.011134634725749493 5.0 7 -0.08697307109832764
3.678154230117798 -0.12201694399118423 0.9861006140708923 113.0 15 -0.08697076886892319
1.1777329444885254 -0.040509942919015884 -0.31575924158096313 76.0 0 -0.08695003390312195
0.6515114903450012 -0.022523587569594383 0.011378969065845013 100.0 8 -0.0869477242231369
1.1977524757385254 -0.04161713644862175 -0.2766897976398468 89.0 1 -0.08694542199373245
0.6606941223144531 -0.022956494241952896 0.0346464067697525 6.0 9 -0.086943119764328
1.1164113283157349 -0.03898593783378601 -0.21714064478874207 76.0 2 -0.08694081753492355
0.6750044822692871 -0.0236896313726902 0.05909159407019615 100.0 10 -0.08693850785493851
0.6435726284980774 -0.022698979824781418 -0.10199528187513351 37.0 3 -0.08693620562553406
0.6745078563690186 -0.023907938972115517 0.08287115395069122 100.0 11 -0.08693390339612961
0.6546694040298462 -0.02320476435124874 -0.08043377101421356 48.0 4 -0.08693160116672516
0.6652801036834717 -0.023697122931480408 0.10543683916330338 42.0 12 -0.08692929148674011
0.6570677161216736 -0.023519426584243774 -0.057522788643836975 11.0 5 -0.08692698925733566
3.680684804916382 -0.13239160180091858 0.7159153819084167 17.0 13 -0.08692468702793121
0.6766290068626404 -0.02445610798895359 -0.03548378124833107 100.0 6 -0.08692238479852676
3.676820755004883 -0.13289515674114227 0.8494152426719666 91.0 14 -0.08692007511854172
0.6374825835227966 -0.023152602836489677 -0.011134634725749493 5.0 7 -0.08691777288913727
3.6661458015441895 -0.1337907463312149 0.9829947352409363 115.0 15 -0.08691547065973282
1.1737313270568848 -0.04426960274577141 -0.3147239685058594 85.0 0 -0.08689473569393158
0.6454384326934814 -0.024456799030303955 0.011274254880845547 100.0 8 -0.08689243346452713
1.1976078748703003 -0.04558879882097244 -0.2766897976398468 87.0 1 -0.08689012378454208
0.6685975790023804 -0.02545120194554329 0.03506509214639664 6.0 9 -0.08688782155513763
1.130008578300476 -0.04321303963661194 -0.21981197595596313 70.0 2 -0.08688551932573318
0.6649676561355591 -0.025545479729771614 0.0582200363278389 100.0 10 -0.08688321709632874
0.6474416851997375 -0.02498536929488182 -0.10262101888656616 16.0 3 -0.08688090741634369
0.670457661151886 -0.025990767404437065 0.08238368481397629 100.0 11 -0.08687860518693924
0.6545888185501099 -0.025375600904226303 -0.08043377101421356 43.0 4 -0.08687630295753479
3.6595752239227295 -0.1425057053565979 0.5800590515136719 31.0 12 -0.08687400072813034
0.6589770317077637 -0.0257760901004076 -0.057697102427482605 22.0 5 -0.0868716910481453
3.6684553623199463 -0.1441340148448944 0.7136256694793701 33.0 13 -0.08686938881874084
0.6825312972068787 -0.026936037465929985 -0.03579779714345932 100.0 6 -0.0868670865893364
3.6802542209625244 -0.1452409029006958 0.8503150343894958 91.0 14 -0.08686478435993195
0.6493909955024719 -0.02574167586863041 -0.011344064027071 7.0 7 -0.0868624821305275
3.6695430278778076 -0.14610110223293304 0.9840300679206848 113.0 15 -0.08686017245054245
1.1793687343597412 -0.04839922860264778 -0.316276878118515 92.0 0 -0.08683943748474121
0.6513477563858032 -0.026844047009944916 0.011378969065845013 100.0 8 -0.08683713525533676
1.185767650604248 -0.049076445400714874 -0.2739903926849365 87.0 1 -0.08683483302593231
0.6685046553611755 -0.027784887701272964 0.03506509214639664 6.0 9 -0.08683252334594727
1.1180897951126099 -0.04647087678313255 -0.2175222784280777 60.0 2 -0.08683022111654282
0.6708511710166931 -0.027999702841043472 0.05874297022819519 100.0 10 -0.08682791888713837
0.6355134844779968 -0.026635902002453804 -0.10074380785226822 10.0 3 -0.08682561665773392
0.6624343991279602 -0.027880046516656876 0.08140873163938522 100.0 11 -0.08682330697774887
0.6644128561019897 -0.028079479932785034 -0.08165246248245239 61.0 4 -0.08682100474834442
3.6610288619995117 -0.15536288917064667 0.5803719758987427 35.0 12 -0.08681870251893997
0.6767982244491577 -0.028839590027928352 -0.059265900403261185 47.0 5 -0.08681640028953552
3.664034128189087 -0.1561310887336731 0.7128624320030212 63.0 13 -0.08681409806013107
0.6545021533966064 -0.028003953397274017 -0.03433239087462425 100.0 6 -0.08681178838014603
3.6933534145355225 -0.1586720049381256 0.8534643650054932 94.0 14 -0.08680948615074158
0.6552907228469849 -0.02826685644686222 -0.011448778212070465 7.0 7 -0.08680718392133713
3.672870635986328 -0.1590764969587326 0.9850653409957886 115.0 15 -0.08680488169193268
1.184973120689392 -0.052980370819568634 -0.31782978773117065 87.0 0 -0.08678413927555084
0.6432594060897827 -0.02876024693250656 0.011239349842071533 100.0 8 -0.08678183704614639
1.1894826889038086 -0.0533900111913681 -0.2748901844024658 79.0 1 -0.08677953481674194
0.6684036254882812 -0.03011823631823063 0.03506509214639664 6.0 9 -0.0867772325873375
1.0826095342636108 -0.048971667885780334 -0.210653156042099 53.0 2 -0.08677493035793304
0.6687537431716919 -0.030367929488420486 0.05856866016983986 100.0 10 -0.086772620677948
0.6433047652244568 -0.029324807226657867 -0.10199528187513351 6.0 3 -0.08677031844854355
0.6583669781684875 -0.030011411756277084 0.0809212476015091 100.0 11 -0.0867680162191391
0.6484466791152954 -0.029672611504793167 -0.07970255613327026 69.0 4 -0.08676571398973465
3.676250457763672 -0.16886644065380096 0.5828748941421509 51.0 12 -0.0867634043097496
0.6707226037979126 -0.030926566570997238 -0.05874297022819519 100.0 5 -0.08676110208034515
3.673243284225464 -0.17001324892044067 0.7147705554962158 71.0 13 -0.0867587998509407
0.660380482673645 -0.030680710449814796 -0.0346464067697525 75.0 6 -0.08675649762153625
3.683013916015625 -0.17175385355949402 0.8512148261070251 91.0 14 -0.08675418794155121
0.6771608591079712 -0.031578753143548965 -0.011832731775939465 16.0 7 -0.08675188571214676
3.680011749267578 -0.17225754261016846 0.9871358871459961 108.0 15 -0.08674958348274231
1.1886402368545532 -0.05730242654681206 -0.3188650906085968 89.0 0 -0.08672884851694107
0.6511390209197998 -0.03150426968932152 0.011378969065845013 100.0 8 -0.08672654628753662
1.1873325109481812 -0.05765480548143387 -0.27444028854370117 77.0 1 -0.08672423660755157
0.6603147983551025 -0.03206373751163483 0.0346464067697525 6.0 9 -0.08672193437814713
1.0922365188598633 -0.05322819575667381 -0.21256123483181 47.0 2 -0.08671963214874268
0.6885437369346619 -0.033675406128168106 0.06031177192926407 100.0 10 -0.08671732991933823
0.6471444964408875 -0.031763866543769836 -0.10262101888656616 6.0 3 -0.08671502023935318
0.666183352470398 -0.03281490132212639 0.08189620822668076 100.0 11 -0.08671271800994873
0.6483335494995117 -0.032049089670181274 -0.07970255613327026 73.0 4 -0.08671041578054428
3.6638011932373047 -0.18111276626586914 0.5809977054595947 61.0 12 -0.08670811355113983
0.688520073890686 -0.03415609151124954 -0.06031177192926407 100.0 5 -0.08670580387115479
3.6804707050323486 -0.18322467803955078 0.7162970304489136 85.0 13 -0.08670350164175034
0.6622641086578369 -0.03308533504605293 -0.034751079976558685 15.0 6 -0.08670119941234589
3.6862845420837402 -0.1848040670156479 0.8521146178245544 97.0 14 -0.08669889718294144
0.677046537399292 -0.033942293375730515 -0.011832731775939465 45.0 7 -0.08669658750295639
3.687105894088745 -0.18549039959907532 0.9892064332962036 113.0 15 -0.08669428527355194
1.1845744848251343 -0.0612516850233078 -0.31782978773117065 85.0 0 -0.0866735503077507
0.6490339636802673 -0.03356008976697922 0.011344064027071 100.0 8 -0.08667124807834625
1.198811650276184 -0.06219765171408653 -0.27713972330093384 75.0 1 -0.0866689458489418
0.6641879081726074 -0.034576136618852615 0.03485574945807457 8.0 9 -0.08666663616895676
0.950882077217102 -0.04966720566153526 -0.185084730386734 100.0 2 -0.08666433393955231
0.6764839887619019 -0.03545302525162697 0.059265900403261185 100.0 10 -0.08666203171014786
0.6628170013427734 -0.03473677113652229 -0.10512397438287735 6.0 3 -0.08665972948074341
0.6700356006622314 -0.03523234277963638 0.08238368481397629 100.0 11 -0.08665741980075836
0.6561530828475952 -0.03461720049381256 -0.08067751675844193 69.0 4 -0.08665511757135391
3.671036958694458 -0.19431838393211365 0.5822491645812988 75.0 12 -0.08665281534194946
0.6545737385749817 -0.03476300463080406 -0.057348478585481644 100.0 5 -0.08665051311254501
3.6857242584228516 -0.19574090838432312 0.7174418568611145 93.0 13 -0.08664820343255997
0.6521786451339722 -0.03474995493888855 -0.03422771766781807 12.0 6 -0.08664590120315552
3.6914892196655273 -0.19733929634094238 0.8534643650054932 94.0 14 -0.08664359897375107
0.6789206862449646 -0.036412518471479416 -0.011867635883390903 92.0 7 -0.08664129674434662
3.682577610015869 -0.1981520652770996 0.9881711006164551 115.0 15 -0.08663898706436157
1.180506944656372 -0.06496722996234894 -0.3167945444583893 83.0 0 -0.08661825209856033
0.6389296054840088 -0.03527427464723587 0.01116954069584608 90.0 8 -0.08661594986915588
1.2180447578430176 -0.06745953112840652 -0.2816387414932251 80.0 1 -0.08661364763975143
0.6820108294487 -0.03789151832461357 0.03579779714345932 14.0 9 -0.08661134541034698
1.0271613597869873 -0.057067569345235825 -0.19996784627437592 51.0 2 -0.08660903573036194
0.6723842620849609 -0.03747439384460449 0.05891728401184082 100.0 10 -0.08660673350095749
0.6409963965415955 -0.035837262868881226 -0.10168241709470749 7.0 3 -0.08660443127155304
0.6738724708557129 -0.03779330104589462 0.08287115395069122 100.0 11 -0.08660212904214859
0.669901967048645 -0.03768790885806084 -0.08238368481397629 70.0 4 -0.08659981936216354
3.664419412612915 -0.20679759979248047 0.581310510635376 82.0 12 -0.0865975171327591
0.6584333777427673 -0.03715798258781433 -0.057697102427482605 100.0 5 -0.08659521490335464
3.681098461151123 -0.20838336646556854 0.7166786193847656 93.0 13 -0.0865929126739502
0.6540473699569702 -0.03713950142264366 -0.03433239087462425 10.0 6 -0.08659060299396515
3.692723512649536 -0.2103346288204193 0.8539142608642578 91.0 14 -0.0865883007645607
0.6807858943939209 -0.03889623284339905 -0.011902541853487492 100.0 7 -0.08658599853515625
3.678006172180176 -0.2107844054698944 0.9871358871459961 113.0 15 -0.0865836963057518
1.1899157762527466 -0.0696520134806633 -0.3193827271461487 72.0 0 -0.08656296133995056
0.6667501926422119 -0.03914515674114227 0.011658207513391972 24.0 8 -0.08656065165996552
1.2236379384994507 -0.07205455005168915 -0.28298842906951904 96.0 1 -0.08655834943056107
0.6898495554924011 -0.040742967277765274 0.03621648624539375 49.0 9 -0.08655604720115662
0.8858473896980286 -0.05231872573494911 -0.17249134182929993 110.0 2 -0.08655374497175217
0.6722493171691895 -0.03982122242450714 0.05891728401184082 100.0 10 -0.08655143529176712
0.6388955116271973 -0.037957385182380676 -0.10136953741312027 7.0 3 -0.08654913306236267
0.6717548370361328 -0.04002724960446358 0.08262742310762405 100.0 11 -0.08654683083295822
0.6638215780258179 -0.03967081010341644 -0.08165246248245239 64.0 4 -0.08654452860355377
3.669590950012207 -0.2199420928955078 0.5822491645812988 87.0 12 -0.08654221892356873
0.6543219685554504 -0.03921770676970482 -0.057348478585481644 75.0 5 -0.08653991669416428
3.6725094318389893 -0.2207603007555008 0.7151521444320679 93.0 13 -0.08653761446475983
0.6519201397895813 -0.03930213674902916 -0.03422771766781807 10.0 6 -0.08653531223535538
3.6997475624084473 -0.22369378805160522 0.8557138442993164 97.0 14 -0.08653301000595093
0.6806460022926331 -0.04127238690853119 -0.011902541853487492 100.0 7 -0.08653070032596588
3.6849613189697266 -0.2240907996892929 0.9892064332962036 113.0 15 -0.08652839809656143
1.195449709892273 -0.0741640254855156 -0.32093560695648193 62.0 0 -0.08650766313076019
0.6646136045455933 -0.041348136961460114 0.011623302474617958 18.0 8 -0.08650536090135574
1.2155990600585938 -0.07584002614021301 -0.28118881583213806 89.0 1 -0.0865030512213707
0.6797363758087158 -0.042527176439762115 0.035693127661943436 78.0 9 -0.08650074899196625
1.0404537916183472 -0.06509518623352051 -0.2026391625404358 40.0 2 -0.0864984467625618
0.6760830879211426 -0.042417075484991074 0.059265900403261185 100.0 10 -0.08649614453315735
0.640730619430542 -0.04031135141849518 -0.10168241709470749 7.0 3 -0.0864938348531723
0.6617052555084229 -0.04174691438674927 0.08140873163938522 100.0 11 -0.08649153262376785
0.6537734270095825 -0.04136105254292488 -0.08043377101421356 78.0 4 -0.0864892303943634
3.6766862869262695 -0.23325029015541077 0.5835006237030029 98.0 12 -0.08648692816495895
0.6720691323280334 -0.042754076421260834 -0.05891728401184082 94.0 5 -0.0864846259355545
3.679553985595703 -0.23407699167728424 0.7166786193847656 92.0 13 -0.08648231625556946
0.6497857570648193 -0.041450370103120804 -0.03412304446101189 7.0 6 -0.08648001402616501
3.6931099891662598 -0.23623374104499817 0.8543641567230225 94.0 14 -0.08647771179676056
0.6864845156669617 -0.0440320260822773 -0.012007256038486958 100.0 7 -0.08647540956735611
3.695723533630371 -0.23769627511501312 0.9923122525215149 111.0 15 -0.08647309988737106
1.208663821220398 -0.07943186163902283 -0.3245590925216675 67.0 0 -0.08645236492156982
0.6684560179710388 -0.043930090963840485 0.011693112552165985 15.0 8 -0.08645006269216537
1.2231050729751587 -0.08059533685445786 -0.28298842906951904 92.0 1 -0.08644776046276093
0.6636404395103455 -0.04384627565741539 0.03485574945807457 73.0 9 -0.08644545823335648
0.8482300639152527 -0.05619068071246147 -0.1652406007051468 99.0 2 -0.08644314855337143
0.681887149810791 -0.04529089853167534 0.059788838028907776 42.0 10 -0.08644084632396698
0.6583176851272583 -0.04384081810712814 -0.1044982373714447 9.0 3 -0.08643854409456253
0.6615554690361023 -0.04405644163489342 0.08140873163938522 100.0 11 -0.08643624186515808
0.6496637463569641 -0.04337839409708977 -0.07994629442691803 84.0 4 -0.08643393218517303
3.6699368953704834 -0.2456870675086975 0.5825620293617249 96.0 12 -0.08643162995576859
0.6778795719146729 -0.04550006613135338 -0.05944021791219711 100.0 5 -0.08642932772636414
3.6884653568267822 -0.2482207864522934 0.7185867428779602 89.0 13 -0.08642702549695969
0.6536149382591248 -0.04410058632493019 -0.03433239087462425 10.0 6 -0.08642471581697464
3.690275192260742 -0.24963654577732086 0.8539142608642578 97.0 14 -0.08642241358757019
0.6723607182502747 -0.04548327997326851 -0.011762921698391438 100.0 7 -0.08642011135816574
3.7025811672210693 -0.2511182427406311 0.9943828582763672 111.0 15 -0.08641780912876129
1.2045246362686157 -0.08338356763124466 -0.3235238194465637 72.0 0 -0.08639707416296005
0.6682904958724976 -0.04637981206178665 0.011693112552165985 9.0 8 -0.086394764482975
1.2247456312179565 -0.08521296083927155 -0.2834383547306061 94.0 1 -0.08639246225357056
0.6654677391052246 -0.046417322009801865 0.03496042266488075 70.0 9 -0.08639016002416611
0.8480287790298462 -0.059151217341423035 -0.1652406007051468 100.0 2 -0.08638785779476166
0.6479367613792419 -0.045308150351047516 0.05682554095983505 13.0 10 -0.08638554811477661
0.6581606268882751 -0.04613850638270378 -0.1044982373714447 29.0 3 -0.08638324588537216
0.6712906360626221 -0.04717669263482094 0.08262742310762405 100.0 11 -0.08638094365596771
0.6534607410430908 -0.04603826254606247 -0.08043377101421356 90.0 4 -0.08637864142656326
3.6650710105895996 -0.2588580846786499 0.5819362998008728 85.0 12 -0.08637633174657822
0.6677711606025696 -0.047280725091695786 -0.05856866016983986 94.0 5 -0.08637402951717377
3.693451404571533 -0.26151034235954285 0.7197315692901611 92.0 13 -0.08637172728776932
0.6574414968490601 -0.04666467383503914 -0.03454173356294632 7.0 6 -0.08636942505836487
3.6932687759399414 -0.2627931237220764 0.8548140525817871 91.0 14 -0.08636711537837982
0.6761788129806519 -0.048231858760118484 -0.011832731775939465 100.0 7 -0.08636481314897537
3.6900744438171387 -0.26386046409606934 0.9912769794464111 113.0 15 -0.08636251091957092
1.206137776374817 -0.08793830126523972 -0.3240414559841156 76.0 0 -0.08634177595376968
0.6521693468093872 -0.047549016773700714 0.011413874104619026 12.0 8 -0.08633947372436523
1.228327751159668 -0.08977168053388596 -0.2843381464481354 94.0 1 -0.08633716404438019
0.6653016209602356 -0.048739954829216 0.03496042266488075 66.0 9 -0.08633486181497574
0.8164785504341125 -0.05995843559503555 -0.15913471579551697 108.0 2 -0.08633255958557129
0.6616754531860352 -0.04870651662349701 0.05804572254419327 13.0 10 -0.08633025735616684
0.6619271636009216 -0.0488412007689476 -0.10512397438287735 74.0 3 -0.0863279476761818
0.6711218357086182 -0.04951964691281319 0.08262742310762405 100.0 11 -0.08632564544677734
0.6671538352966309 -0.049343936145305634 -0.08213994652032852 78.0 4 -0.0863233432173729
0.659654438495636 -0.04902078956365585 -0.057871412485837936 100.0 5 -0.0863187313079834
3.6963841915130615 -0.27533745765686035 0.72049480676651 96.0 13 -0.08631642907857895
0.6712080836296082 -0.05011496692895889 -0.035274438560009 9.0 6 -0.0863141268491745
3.705883741378784 -0.2773458957672119 0.8579633831977844 94.0 14 -0.08631182461977005
0.6720180511474609 -0.050293389707803726 -0.011762921698391438 100.0 7 -0.0863095223903656
3.692983627319336 -0.2770286500453949 0.9923122525215149 108.0 15 -0.08630721271038055
1.2193394899368286 -0.09275274723768234 -0.32766491174697876 89.0 0 -0.08629131317138672
0.6520081162452698 -0.0497114323079586 0.011413874104619026 12.0 8 -0.08628901094198227
1.2241371870040894 -0.09354750066995621 -0.2834383547306061 97.0 1 -0.08628670871257782
0.6731110215187073 -0.05143855884671211 0.035379111766815186 68.0 9 -0.08628439903259277
0.755603015422821 -0.05787517502903938 -0.14730454981327057 100.0 2 -0.08628209680318832
0.6476133465766907 -0.049717433750629425 0.05682554095983505 13.0 10 -0.08627979457378387
0.6696486473083496 -0.05152665823698044 -0.10637544840574265 100.0 3 -0.08627749234437943
0.6570994257926941 -0.050676412880420685 0.0809212476015091 100.0 11 -0.08627518266439438
0.6768824458122253 -0.052320949733257294 -0.08335863798856735 52.0 4 -0.08627288043498993
3.7223587036132812 -0.2877269685268402 0.5913223624229431 1.0 12 -0.08627057820558548
0.6575107574462891 -0.05093901604413986 -0.057697102427482605 93.0 5 -0.08626827597618103
3.6915857791900635 -0.2866446375846863 0.7197315692901611 93.0 13 -0.08626596629619598
0.6690561175346375 -0.05206841602921486 -0.03516976535320282 16.0 6 -0.08626366406679153
3.7088797092437744 -0.2892899811267853 0.8588631749153137 94.0 14 -0.08626136183738708
0.6778376698493958 -0.05287085473537445 -0.011867635883390903 100.0 7 -0.08625905960798264
3.6959471702575684 -0.2889302372932434 0.9933475852012634 113.0 15 -0.08625674992799759
1.224785566329956 -0.09746823459863663 -0.3292178511619568 85.0 0 -0.08623601496219635
0.6717735528945923 -0.05345962941646576 0.011762921698391438 8.0 8 -0.0862337127327919
1.2179925441741943 -0.0971415787935257 -0.28208863735198975 92.0 1 -0.08623141050338745
0.6609818935394287 -0.05283302068710327 0.034751079976558685 68.0 9 -0.086229108273983
0.7867081165313721 -0.06302064657211304 -0.1534104347229004 99.0 2 -0.08622679859399796
0.6613378524780273 -0.0530938096344471 0.05804572254419327 13.0 10 -0.0862244963645935
0.6734121441841125 -0.054063163697719574 -0.10700118541717529 100.0 3 -0.08622219413518906
0.660885214805603 -0.05317356064915657 0.08140873163938522 100.0 11 -0.0862198919057846
0.670769214630127 -0.05408664792776108 -0.08262742310762405 14.0 4 -0.08621758222579956
0.6652724146842957 -0.05387715622782707 -0.05839434638619423 68.0 5 -0.08621297776699066
3.6984424591064453 -0.29951873421669006 0.7212580442428589 92.0 13 -0.08621067553758621
0.6688797473907471 -0.05428679659962654 -0.03516976535320282 23.0 6 -0.08620836585760117
3.7040154933929443 -0.3012715280056 0.8579633831977844 100.0 14 -0.08620606362819672
0.6796420216560364 -0.0553990863263607 -0.011902541853487492 100.0 7 -0.08620376139879227
3.6987669467926025 -0.302144318819046 0.9943828582763672 108.0 15 -0.08620145916938782
1.2283061742782593 -0.10184850543737411 -0.33025309443473816 90.0 0 -0.08618072420358658
0.6755685806274414 -0.05613541603088379 0.011832731775939465 8.0 8 -0.08617841452360153
1.2215299606323242 -0.10171598941087723 -0.28298842906951904 90.0 1 -0.08617611229419708
0.6607934832572937 -0.05513996258378029 0.034751079976558685 68.0 9 -0.08617381006479263
0.7493221759796143 -0.06252724677324295 -0.14615969359874725 100.0 2 -0.08617150783538818
0.67108553647995 -0.056116729974746704 0.05891728401184082 12.0 10 -0.08616919815540314
0.6712508797645569 -0.056248534470796585 -0.10668832063674927 100.0 3 -0.08616689592599869
0.6666299104690552 -0.05597847327589989 0.08213994652032852 100.0 11 -0.08616459369659424
0.6705763936042786 -0.0564277358353138 -0.08262742310762405 12.0 4 -0.08616229146718979
1.2322129011154175 -0.10390496999025345 0.195855975151062 0.0 12 -0.08615998178720474
0.6710461974143982 -0.05658521503210068 -0.05891728401184082 94.0 5 -0.08615767955780029
3.7051994800567627 -0.3130880892276764 0.7227845191955566 92.0 13 -0.08615537732839584
0.6885875463485718 -0.05830645188689232 -0.03621648624539375 56.0 6 -0.0861530750989914
3.704883098602295 -0.31436389684677124 0.8584132790565491 100.0 14 -0.08615077286958694
0.6714745163917542 -0.05709347501397133 -0.011762921698391438 100.0 7 -0.0861484631896019
3.7092387676239014 -0.3160375952720642 0.9974886178970337 108.0 15 -0.08614616096019745
1.220244288444519 -0.10547004640102386 -0.32818254828453064 90.0 0 -0.08612542599439621
0.6793529391288757 -0.058838341385126114 0.011902541853487492 14.0 8 -0.08612312376499176
1.2231090068817139 -0.10614780336618423 -0.2834383547306061 94.0 1 -0.08612081408500671
0.6625866889953613 -0.05761925131082535 0.03485574945807457 70.0 9 -0.08611851185560226
0.7530111074447632 -0.06548265367746353 -0.14692293107509613 63.0 2 -0.08611620962619781
0.672870397567749 -0.05863186717033386 0.05909159407019615 12.0 10 -0.08611390739679337
0.6730183362960815 -0.05876310542225838 -0.10700118541717529 100.0 3 -0.08611159771680832
0.6684080362319946 -0.05847812443971634 0.08238368481397629 100.0 11 -0.08610929548740387
0.6842178702354431 -0.059981636703014374 -0.08433359116315842 10.0 4 -0.08610699325799942
1.2318426370620728 -0.10820556432008743 0.195855975151062 0.0 12 -0.08610469102859497
0.6648902893066406 -0.05840423330664635 -0.05839434638619423 100.0 5 -0.08610238879919052
3.7040839195251465 -0.3260197043418884 0.7227845191955566 92.0 13 -0.08610007911920547
0.6943483948707581 -0.061236098408699036 -0.036530498415231705 99.0 6 -0.08609777688980103
3.7057042121887207 -0.3274659514427185 0.8588631749153137 94.0 14 -0.08609547466039658
0.649360179901123 -0.05749693140387535 -0.011378969065845013 70.0 7 -0.08609317243099213
3.6965675354003906 -0.3279590308666229 0.9943828582763672 111.0 15 -0.08609086275100708
1.2160207033157349 -0.10938271135091782 -0.3271472752094269 92.0 0 -0.08607012778520584
0.6771517992019653 -0.06102987006306648 0.011867635883390903 28.0 8 -0.08606782555580139
1.2324352264404297 -0.11129292100667953 -0.2856878638267517 89.0 1 -0.08606552332639694
0.6643707156181335 -0.060111742466688156 0.03496042266488075 68.0 9 -0.0860632136464119
0.7117173671722412 -0.06439563632011414 -0.13890895247459412 100.0 2 -0.08606091141700745
0.6488505601882935 -0.0588216632604599 0.05699985474348068 13.0 10 -0.086058609187603
0.6747764348983765 -0.06129072234034538 -0.10731405764818192 100.0 3 -0.08605630695819855
0.6820383071899414 -0.062070343643426895 0.08408986032009125 100.0 11 -0.0860540047287941
0.6760967373847961 -0.06164860352873802 -0.08335863798856735 8.0 4 -0.08605169504880905
1.2393261194229126 -0.11322371661663055 0.1971074640750885 0.0 12 -0.0860493928194046
0.6765871644020081 -0.0618123896420002 -0.05944021791219711 100.0 5 -0.08604709059000015
3.704878568649292 -0.3391264081001282 0.7231661081314087 89.0 13 -0.0860447883605957
0.6841858625411987 -0.06274742633104324 -0.03600713983178139 100.0 6 -0.08604247868061066
3.7142415046691895 -0.3412908613681793 0.861112654209137 97.0 14 -0.08604017645120621
0.6571206450462341 -0.060496557503938675 -0.011518588289618492 27.0 7 -0.08603787422180176
3.699247360229492 -0.3412152826786041 0.9954180717468262 111.0 15 -0.08603557199239731
1.2156314849853516 -0.11362674832344055 -0.3271472752094269 92.0 0 -0.08601482957601547
0.6669797301292419 -0.062460944056510925 0.011693112552165985 60.0 8 -0.08601252734661102
1.216517448425293 -0.1141379252076149 -0.28208863735198975 90.0 1 -0.08601022511720657
0.6681337952613831 -0.06280428916215897 0.03516976535320282 64.0 9 -0.08600792288780212
0.6880326271057129 -0.06467477232217789 -0.13432954251766205 100.0 2 -0.08600562065839767
0.6545920968055725 -0.06164664402604103 0.057522788643836975 13.0 10 -0.08600331097841263
0.6470254063606262 -0.06104797124862671 -0.10293389111757278 97.0 3 -0.08600100874900818
0.6758885383605957 -0.06389027833938599 0.08335863798856735 100.0 11 -0.08599870651960373
0.6758773922920227 -0.06400824338197708 -0.08335863798856735 7.0 4 -0.08599640429019928
1.2231910228729248 -0.1160563975572586 0.19460450112819672 0.0 12 -0.08599409461021423
0.6704168319702148 -0.06360916793346405 -0.05891728401184082 100.0 5 -0.08599179238080978
3.6938998699188232 -0.35112786293029785 0.7212580442428589 78.0 13 -0.08598949015140533
0.6720331311225891 -0.0639992281794548 -0.035379111766815186 100.0 6 -0.08598718792200089
3.7285470962524414 -0.35573455691337585 0.8647118806838989 100.0 14 -0.08598487824201584
0.6469523906707764 -0.06183860823512077 -0.011344064027071 15.0 7 -0.08598257601261139
3.7018802165985107 -0.3544943034648895 0.9964533448219299 106.0 15 -0.08598027378320694
1.2229187488555908 -0.11861541867256165 -0.3292178511619568 92.0 0 -0.0859595388174057
0.6667575836181641 -0.06478875130414963 0.011693112552165985 100.0 8 -0.08595723658800125
1.2122324705123901 -0.11800605058670044 -0.28118881583213806 89.0 1 -0.0859549269080162
0.6639348268508911 -0.06474842131137848 0.03496042266488075 48.0 9 -0.08595262467861176
0.6682627201080322 -0.06517048180103302 -0.13051335513591766 100.0 2 -0.0859503224492073
0.6841172575950623 -0.06683719158172607 0.06013746187090874 24.0 10 -0.08594802021980286
0.6664682030677795 -0.0652303397655487 -0.10606258362531662 100.0 3 -0.08594571053981781
0.6578808426856995 -0.06450577825307846 0.08116498589515686 100.0 11 -0.08594340831041336
0.6796010136604309 -0.06675522029399872 -0.08384611457586288 8.0 4 -0.08594110608100891
1.2109832763671875 -0.11916473507881165 0.19272729754447937 0.0 12 -0.08593880385160446
0.6900188326835632 -0.06790012866258621 -0.06066039577126503 100.0 5 -0.08593649417161942
3.7063283920288086 -0.3653680384159088 0.7239293456077576 34.0 13 -0.08593419194221497
0.6678304076194763 -0.06595209240913391 -0.03516976535320282 78.0 6 -0.08593188971281052
3.713707685470581 -0.3674044907093048 0.8615626096725464 100.0 14 -0.08592958748340607
0.6686219573020935 -0.06626594066619873 -0.011728017590939999 14.0 7 -0.08592727780342102
3.7044646739959717 -0.3677958846092224 0.9974886178970337 106.0 15 -0.08592497557401657
1.230185866355896 -0.12365631014108658 -0.3312883973121643 90.0 0 -0.08590424060821533
0.6605585217475891 -0.0665147453546524 0.01158839836716652 100.0 8 -0.08590193837881088
1.2195687294006348 -0.12301912903785706 -0.28298842906951904 90.0 1 -0.08589963614940643
0.6696661710739136 -0.06766797602176666 0.035274438560009 12.0 9 -0.08589732646942139
0.6875643134117126 -0.06947652995586395 -0.13432954251766205 100.0 2 -0.08589502424001694
0.689826488494873 -0.06982674449682236 0.06066039577126503 48.0 10 -0.08589272201061249
0.6740975975990295 -0.06835347414016724 -0.10731405764818192 100.0 3 -0.08589041978120804
0.677401065826416 -0.06880788505077362 0.08360237628221512 100.0 11 -0.08588811010122299
0.6675145626068115 -0.06792136281728745 -0.08238368481397629 8.0 4 -0.08588580787181854
1.1850123405456543 -0.12078707665205002 0.18865999579429626 0.0 12 -0.08588350564241409
0.6858133673667908 -0.06990424543619156 -0.06031177192926407 100.0 5 -0.08588120341300964
3.6952648162841797 -0.377306193113327 0.7220212817192078 5.0 13 -0.0858788937330246
0.6894519329071045 -0.07051829248666763 -0.03632115572690964 87.0 6 -0.08587659150362015
3.714341402053833 -0.3805641233921051 0.862012505531311 97.0 14 -0.0858742892742157
0.642526388168335 -0.06594531238079071 -0.011274254880845547 10.0 7 -0.08587198704481125
