# .PCD v0.7 - Point Cloud Data file format
VERSION 0.7
FIELDS x y z intensity ring time
SIZE 4 4 4 4 4 4
TYPE F F F F F F
COUNT 1 1 1 1 1 1
WIDTH 545
HEIGHT 1
VIEWPOINT 0 0 0 1 0 0 0
POINTS 545
DATA ascii
-2.194355010986328 -2.0037219524383545 0.05186855047941208 17.0 8 -0.07263300567865372
-2.272634267807007 -2.074472665786743 -0.7103955149650574 3.0 1 -0.07263070344924927
-2.5331871509552 -2.311497449874878 0.17972169816493988 1.0 9 -0.07262840121984482
-2.3856406211853027 -2.176863193511963 -0.6277616620063782 1.0 2 -0.07262609153985977
-2.696692705154419 -2.459831476211548 0.3193386495113373 55.0 10 -0.07262378931045532
-1.5647526979446411 -1.4268132448196411 -0.3353955149650574 1.0 3 -0.07262148708105087
-2.6730005741119385 -2.436511516571045 0.44409194588661194 71.0 11 -0.07261918485164642
-1.5450702905654907 -1.4078786373138428 -0.25665685534477234 1.0 4 -0.07261687517166138
-2.6826701164245605 -2.443610429763794 0.5747402906417847 62.0 12 -0.07261457294225693
-1.5215376615524292 -1.3859496116638184 -0.18006375432014465 1.0 5 -0.07261227071285248
-2.6680819988250732 -2.429471969604492 0.7014138698577881 78.0 13 -0.07260996848344803
-2.2937815189361572 -2.0879125595092773 -0.1625555008649826 1.0 6 -0.07260766625404358
-2.6607301235198975 -2.4210779666900635 0.8305193185806274 36.0 14 -0.07260535657405853
-2.1745290756225586 -1.9779764413833618 -0.05131007358431816 26.0 7 -0.07260305434465408
-2.6385087966918945 -2.3991751670837402 0.9555599689483643 54.0 15 -0.07260075211524963
-2.2765586376190186 -2.064981698989868 -0.8235622644424438 3.0 0 -0.0725800171494484
-2.198373794555664 -1.9933627843856812 0.0517987422645092 17.0 8 -0.07257770746946335
-2.2856366634368896 -2.0717623233795166 -0.712195098400116 1.0 1 -0.0725754052400589
-2.541240692138672 -2.302640914916992 0.17972169816493988 1.0 9 -0.07257310301065445
-2.703786611557007 -2.4490649700164795 0.31916433572769165 48.0 10 -0.07256849110126495
-1.5550801753997803 -1.4080839157104492 -0.33226683735847473 1.0 3 -0.0725661888718605
-2.6770739555358887 -2.4231696128845215 0.44336071610450745 70.0 11 -0.07256388664245605
-1.5293676853179932 -1.383830189704895 -0.2532445192337036 1.0 4 -0.0725615844130516
-2.6750681400299072 -2.4196557998657227 0.5712987184524536 60.0 12 -0.07255928218364716
-1.5322765111923218 -1.3859765529632568 -0.18076100945472717 1.0 5 -0.07255697250366211
-2.6707212924957275 -2.414876699447632 0.6998874545097351 78.0 13 -0.07255467027425766
-2.2951290607452393 -2.074535608291626 -0.16213680803775787 1.0 6 -0.07255236804485321
-2.656151294708252 -2.4000179767608643 0.8264702558517456 30.0 14 -0.07255006581544876
-2.169548988342285 -1.9596501588821411 -0.05103083327412605 20.0 7 -0.07254775613546371
-2.646867513656616 -2.3899505138397217 0.9555599689483643 53.0 15 -0.07254545390605927
-2.2693984508514404 -2.0440940856933594 -0.8183858394622803 2.0 0 -0.07252471894025803
-2.238011360168457 -2.0151145458221436 0.05256664752960205 10.0 8 -0.07252241671085358
-2.564110517501831 -2.307114601135254 0.18076841533184052 1.0 9 -0.07251780480146408
-1.5980879068374634 -1.4379146099090576 -0.41787171363830566 1.0 2 -0.07251550257205963
-2.700467824935913 -2.4289534091949463 0.3177698254585266 37.0 10 -0.07251320034265518
-1.5658615827560425 -1.4079302549362183 -0.3335183262825012 1.0 3 -0.07251089811325073
-2.68699312210083 -2.4151363372802734 0.443604439496994 64.0 11 -0.07250858843326569
-1.5725802183151245 -1.4129788875579834 -0.25958171486854553 1.0 4 -0.07250628620386124
-2.66880202293396 -2.3971033096313477 0.5681700706481934 53.0 12 -0.07250398397445679
-1.5193181037902832 -1.3646432161331177 -0.178669273853302 1.0 5 -0.07250168174505234
-2.679135322570801 -2.40553879737854 0.6998874545097351 78.0 13 -0.07249937206506729
-2.2547929286956787 -2.0238211154937744 -0.1587873101234436 1.0 6 -0.07249706983566284
-2.6674137115478516 -2.393334150314331 0.8273700475692749 28.0 14 -0.07249476760625839
-2.1659560203552246 -1.942718744277954 -0.05078650265932083 11.0 7 -0.07249246537685394
-2.6422481536865234 -2.3690903186798096 0.950901210308075 50.0 15 -0.0724901556968689
-2.2301247119903564 -1.9939616918563843 0.052217599004507065 8.0 8 -0.07246711850166321
-2.59299898147583 -2.3167805671691895 0.1822338104248047 1.0 9 -0.07246251404285431
-2.701500177383423 -2.4128761291503906 0.31689828634262085 33.0 10 -0.07245790213346481
-1.5398229360580444 -1.3748276233673096 -0.3269480764865875 6.0 3 -0.07245559990406036
-2.698368787765503 -2.408386707305908 0.44409194588661194 61.0 11 -0.07245329767465591
-1.5834276676177979 -1.4127670526504517 -0.2605566680431366 1.0 4 -0.07245098799467087
-2.6815764904022217 -2.391716718673706 0.5691086649894714 47.0 12 -0.07244868576526642
-1.4943344593048096 -1.3328073024749756 -0.1751830279827118 1.0 5 -0.07244638353586197
-2.671396017074585 -2.381801128387451 0.6956896185874939 72.0 13 -0.07244408130645752
-2.2976279258728027 -2.0478315353393555 -0.1612994372844696 1.0 6 -0.07244177162647247
-2.671387195587158 -2.3801188468933105 0.8260203003883362 24.0 14 -0.07243946939706802
-2.205575942993164 -1.9644068479537964 -0.05155441164970398 11.0 7 -0.07243716716766357
-2.643287420272827 -2.3534295558929443 0.9483130574226379 50.0 15 -0.07243486493825912
-2.2295942306518555 -1.979526400566101 0.05204307660460472 9.0 8 -0.07241182029247284
-2.6548545360565186 -2.355433702468872 0.1860020011663437 1.0 9 -0.07240721583366394
-1.608087182044983 -1.4267232418060303 -0.41787171363830566 1.0 2 -0.07240491360425949
-2.700962543487549 -2.3954989910125732 0.31585240364074707 28.0 10 -0.07240260392427444
-1.5608716011047363 -1.383859395980835 -0.3303896188735962 1.0 3 -0.07240030169487
-2.6919031143188477 -2.3857860565185547 0.4416545331478119 63.0 11 -0.07239799946546555
-2.683993101119995 -2.377103328704834 0.5678571462631226 45.0 12 -0.07239338755607605
-1.5019608736038208 -1.3302254676818848 -0.17553167045116425 2.0 5 -0.0723910853266716
-2.6694045066833496 -2.363351583480835 0.6930183172225952 70.0 13 -0.07238878309726715
-2.295788288116455 -2.0318567752838135 -0.1606713980436325 1.0 6 -0.0723864808678627
-2.669462203979492 -2.361741065979004 0.8228710293769836 17.0 14 -0.07238417118787766
-2.243875741958618 -1.9845160245895386 -0.05228740721940994 7.0 7 -0.0723818689584732
-2.648592472076416 -2.341628313064575 0.9472777247428894 49.0 15 -0.07237956672906876
-2.237990379333496 -1.9730547666549683 0.05207798257470131 11.0 8 -0.07235652953386307
-2.663060426712036 -2.346151828765869 0.1860020011663437 1.0 9 -0.07235191762447357
-2.7167835235595703 -2.392641067504883 0.31672394275665283 26.0 10 -0.07234731316566467
-1.5834848880767822 -1.394066333770752 -0.33414405584335327 1.0 3 -0.07234500348567963
-2.68829345703125 -2.3658833503723145 0.43970462679862976 61.0 11 -0.07234270125627518
-2.690791368484497 -2.366415500640869 0.5675443410873413 40.0 12 -0.07233809679746628
-1.5036025047302246 -1.3223427534103394 -0.1751830279827118 1.0 5 -0.07233578711748123
-2.677637815475464 -2.3540191650390625 0.6930183172225952 68.0 13 -0.07233348488807678
-2.2848639488220215 -2.0080089569091797 -0.1594153493642807 1.0 6 -0.07233118265867233
-2.6630499362945557 -2.3395469188690186 0.8183720111846924 13.0 14 -0.07232888042926788
-2.2583022117614746 -1.9832690954208374 -0.052461933344602585 9.0 7 -0.07232657819986343
-2.6582014560699463 -2.333643913269043 0.9477953910827637 48.0 15 -0.07232426851987839
-2.247873544692993 -1.9678643941879272 0.05214779078960419 13.0 8 -0.0723012313246727
-2.6712334156036377 -2.3368425369262695 0.1860020011663437 1.0 9 -0.0722966194152832
-2.71462082862854 -2.3739612102508545 0.3155037760734558 20.0 10 -0.0722920149564743
-1.5972646474838257 -1.3963309526443481 -0.3360212445259094 1.0 3 -0.07228971272706985
-2.695040225982666 -2.3551793098449707 0.4394609034061432 57.0 11 -0.07228740304708481
-2.6856441497802734 -2.3453142642974854 0.5647284984588623 31.0 12 -0.07228279858827591
-1.4932022094726562 -1.303980827331543 -0.17343993484973907 0.0 5 -0.07228049635887146
-2.685838222503662 -2.344658613204956 0.6930183172225952 66.0 13 -0.07227819412946701
-2.276811122894287 -1.9868888854980469 -0.15836863219738007 1.0 6 -0.07227588444948196
-2.6638576984405518 -2.32383131980896 0.8161224722862244 12.0 14 -0.07227358222007751
-2.244112253189087 -1.9569733142852783 -0.05197326838970184 9.0 7 -0.07227127999067307
-2.6575937271118164 -2.3167340755462646 0.9446895122528076 46.0 15 -0.07226897776126862
-2.260765790939331 -1.9652533531188965 0.05228740721940994 11.0 8 -0.07224593311548233
-2.679374933242798 -2.327503204345703 0.1860020011663437 1.0 9 -0.07224132865667343
-2.236544132232666 -1.942827582359314 -0.5758615732192993 1.0 2 -0.07223902642726898
-2.7078475952148438 -2.351407527923584 0.3137606680393219 18.0 10 -0.07223671674728394
-1.5812444686889648 -1.372618317604065 -0.3316411077976227 1.0 3 -0.07223441451787949
-2.694249391555786 -2.3379507064819336 0.4379984438419342 45.0 11 -0.07223211228847504
-1.641986608505249 -1.4243409633636475 -0.2668938934803009 1.0 4 -0.07222981005907059
-2.6833670139312744 -2.326866865158081 0.5625383853912354 30.0 12 -0.07222750037908554
-1.506776213645935 -1.3065927028656006 -0.17448578774929047 1.0 5 -0.07222519814968109
-2.689556360244751 -2.3314106464385986 0.6918734312057495 63.0 13 -0.07222289592027664
-2.3139209747314453 -2.0050880908966064 -0.16046206653118134 1.0 6 -0.07222059369087219
-2.6704795360565186 -2.3132431507110596 0.8156725764274597 11.0 14 -0.07221828401088715
-2.2539525032043457 -1.9517464637756348 -0.05204307660460472 6.0 7 -0.0722159817814827
-2.648137092590332 -2.2922708988189697 0.9384778738021851 48.0 15 -0.07221367955207825
-1.5981647968292236 -1.3799854516983032 -0.5657784342765808 1.0 0 -0.07219294458627701
-2.2766942977905273 -1.9651902914047241 0.05249683931469917 11.0 8 -0.07219064235687256
-2.6874828338623047 -2.318136215209961 0.1860020011663437 1.0 9 -0.07218603044748306
-2.2566916942596436 -1.946549654006958 -0.5792961716651917 7.0 2 -0.07218372821807861
-2.7115116119384766 -2.338038444519043 0.313237726688385 15.0 10 -0.07218142598867416
-1.5800410509109497 -1.361931562423706 -0.3303896188735962 1.0 3 -0.07217911630868912
-2.705402135848999 -2.3311233520507812 0.4384859502315521 41.0 11 -0.07217681407928467
-2.6929707527160645 -2.318774461746216 0.5628513097763062 25.0 12 -0.07217220962047577
-1.4841516017913818 -1.2779242992401123 -0.1713481843471527 0.0 5 -0.07216989994049072
-2.6917262077331543 -2.316884994506836 0.6903470158576965 63.0 13 -0.07216759771108627
-2.3451287746429443 -2.0178420543670654 -0.16213680803775787 1.0 6 -0.07216529548168182
-2.6785387992858887 -2.3039066791534424 0.8156725764274597 9.0 14 -0.07216299325227737
-2.278946876525879 -1.959511637687683 -0.052461933344602585 3.0 7 -0.07216068357229233
-2.6531920433044434 -2.2804954051971436 0.9374426603317261 45.0 15 -0.07215838134288788
-1.591239333152771 -1.3643391132354736 -0.5616373419761658 1.0 0 -0.07213764637708664
-2.2835402488708496 -1.9572311639785767 0.05249683931469917 8.0 8 -0.07213534414768219
-2.2833995819091797 -1.9564183950424194 -0.6941990256309509 4.0 1 -0.07213304191827774
-2.674321413040161 -2.2905523777008057 0.18453660607337952 1.0 9 -0.0721307322382927
-2.2604901790618896 -1.9361064434051514 -0.578532874584198 10.0 2 -0.07212843000888824
-2.7181432247161865 -2.327263593673706 0.31306344270706177 11.0 10 -0.0721261277794838
-1.5667768716812134 -1.3409937620162964 -0.3266351819038391 1.0 3 -0.07212382555007935
-2.6954216957092285 -2.3061795234680176 0.43556106090545654 34.0 11 -0.0721215158700943
-2.6935410499572754 -2.30294132232666 0.5612869262695312 22.0 12 -0.0721169114112854
-1.4976893663406372 -1.2805042266845703 -0.1723940521478653 1.0 5 -0.07211460918188095
-2.6878573894500732 -2.2972710132598877 0.687294065952301 56.0 13 -0.0721122995018959
-2.3521580696105957 -2.009643793106079 -0.16213680803775787 1.0 6 -0.07210999727249146
-2.6791555881500244 -2.288214683532715 0.8134230971336365 9.0 14 -0.072107695043087
-2.2599189281463623 -1.9294718503952026 -0.05186855047941208 1.0 7 -0.07210539281368256
-2.653789758682251 -2.264948844909668 0.9348544478416443 42.0 15 -0.07210308313369751
-2.3025410175323486 -1.9596161842346191 0.05277607962489128 7.0 8 -0.07208004593849182
-2.281308650970459 -1.9408597946166992 -0.6914995908737183 13.0 1 -0.07207774370908737
-2.6351358890533447 -2.241091012954712 0.18129177391529083 5.0 9 -0.07207544147968292
-2.268730401992798 -1.9294759035110474 -0.5789145231246948 13.0 2 -0.07207313179969788
-2.7201783657073975 -2.3125991821289062 0.31236615777015686 10.0 10 -0.07207082957029343
-1.5714479684829712 -1.3355168104171753 -0.3266351819038391 1.0 3 -0.07206852734088898
-2.7019429206848145 -2.295471429824829 0.43531733751296997 30.0 11 -0.07206622511148453
-2.703068971633911 -2.294804096221924 0.5615997910499573 18.0 12 -0.07206161320209503
-1.4991121292114258 -1.272689938545227 -0.17204543948173523 0.0 5 -0.07205931097269058
-2.68837571144104 -2.2815229892730713 0.6853859424591064 46.0 13 -0.07205700874328613
-2.3926658630371094 -2.029845952987671 -0.1644395887851715 1.0 6 -0.07205469906330109
-2.6722640991210938 -2.266244411468506 0.8089240789413452 8.0 14 -0.07205239683389664
-2.223930835723877 -1.8853641748428345 -0.0508912168443203 1.0 7 -0.07205009460449219
-2.661679744720459 -2.255671501159668 0.9348544478416443 42.0 15 -0.07204779237508774
-2.329223394393921 -1.9683464765548706 0.05322984233498573 5.0 8 -0.07202474772930145
-2.286580801010132 -1.9316269159317017 -0.6910496354103088 19.0 1 -0.072022445499897
-2.6383650302886963 -2.228013277053833 0.18097776174545288 74.0 9 -0.07202014327049255
-2.2679519653320312 -1.9152114391326904 -0.577006459236145 14.0 2 -0.0720178410410881
-2.7267119884490967 -2.301804542541504 0.3121918737888336 8.0 10 -0.07201553136110306
-1.57610023021698 -1.330023169517517 -0.3266351819038391 1.0 3 -0.07201322913169861
-2.702352523803711 -2.27962589263916 0.43409866094589233 24.0 11 -0.07201092690229416
-2.694448947906494 -2.2713496685028076 0.5581582188606262 16.0 12 -0.07200631499290466
-1.488312005996704 -1.254607915878296 -0.17030231654644012 0.0 5 -0.07200401276350021
-2.7008273601531982 -2.2759201526641846 0.6865308284759521 45.0 13 -0.07200171053409576
-2.497498035430908 -2.1038334369659424 -0.17113859951496124 1.0 6 -0.07199940830469131
-2.6771767139434814 -2.2543928623199463 0.8080242872238159 8.0 14 -0.07199710607528687
-2.2044918537139893 -1.8556967973709106 -0.05029783770442009 2.0 7 -0.07199479639530182
-2.66214656829834 -2.240147352218628 0.9322662353515625 40.0 15 -0.07199249416589737
-2.3268885612487793 -1.9524914026260376 0.0530204102396965 5.0 8 -0.07196945697069168
-2.2918167114257812 -1.9223812818527222 -0.690599799156189 22.0 1 -0.07196714729070663
-2.652247667312622 -2.2239229679107666 0.18139643967151642 5.0 9 -0.07196484506130219
-2.2640926837921143 -1.8984531164169312 -0.5743350982666016 18.0 2 -0.07196254283189774
-2.724041700363159 -2.283313035964966 0.3109716773033142 8.0 10 -0.07196024060249329
-1.580733299255371 -1.3245134353637695 -0.3266351819038391 1.0 3 -0.07195793092250824
-2.707249879837036 -2.267629861831665 0.4336111545562744 17.0 11 -0.07195562869310379
-2.6856987476348877 -2.247983455657959 0.5547167062759399 16.0 12 -0.07195102423429489
-1.5140719413757324 -1.2673084735870361 -0.17274267971515656 0.0 5 -0.07194872200489044
-2.7012274265289307 -2.260178327560425 0.6846227049827576 38.0 13 -0.0719464123249054
-2.4986982345581055 -2.089977502822876 -0.1707199066877365 1.0 6 -0.07194411009550095
-2.682039737701416 -2.2425339221954346 0.8071244359016418 8.0 14 -0.0719418078660965
-2.1818039417266846 -1.8236238956451416 -0.04963464289903641 1.0 7 -0.07193950563669205
-2.659571886062622 -2.222170829772949 0.928642749786377 41.0 15 -0.071937195956707
-2.281454563140869 -1.9008363485336304 0.05183364450931549 4.0 8 -0.07191415876150131
-2.29252290725708 -1.90938138961792 -0.6888001561164856 25.0 1 -0.07191185653209686
-2.6584596633911133 -2.2133734226226807 0.18129177391529083 5.0 9 -0.07190955430269241
-2.2737231254577637 -1.8930506706237793 -0.5750983357429504 22.0 2 -0.07190724462270737
-2.7197444438934326 -2.263594150543213 0.30957719683647156 7.0 10 -0.07190494239330292
-1.5853468179702759 -1.3189879655838013 -0.3266351819038391 1.0 3 -0.07190264016389847
-2.7182016372680664 -2.260704517364502 0.43409866094589233 15.0 11 -0.07190033793449402
-2.696568012237549 -2.241119384765625 0.555342435836792 13.0 12 -0.07189572602510452
-1.493970274925232 -1.2416396141052246 -0.16995368897914886 0.0 5 -0.07189342379570007
-2.701549530029297 -2.2444634437561035 0.682714581489563 35.0 13 -0.07189112156629562
-2.4783220291137695 -2.0582735538482666 -0.1688358038663864 1.0 6 -0.07188881188631058
-2.685353994369507 -2.2294230461120605 0.8057747483253479 6.0 14 -0.07188650965690613
-2.1696906089782715 -1.8006726503372192 -0.049215786159038544 2.0 7 -0.07188420742750168
-2.656904935836792 -2.2042396068573 0.9250192642211914 38.0 15 -0.07188190519809723
-2.284993886947632 -1.8903119564056396 0.05176383629441261 4.0 8 -0.07185886055231094
-2.287160873413086 -1.891431450843811 -0.6852009892463684 30.0 1 -0.0718565583229065
-2.6600122451782227 -2.1989898681640625 0.1808730810880661 2.0 9 -0.07185425609350204
-2.280317544937134 -1.8851022720336914 -0.5750983357429504 29.0 2 -0.0718519538640976
-2.7230212688446045 -2.250279664993286 0.30905425548553467 7.0 10 -0.07184964418411255
-1.5899416208267212 -1.3134455680847168 -0.3266351819038391 1.0 3 -0.0718473419547081
-2.7107698917388916 -2.2385621070861816 0.4316612482070923 12.0 11 -0.07184503972530365
-2.701327323913574 -2.2291789054870605 0.5547167062759399 13.0 12 -0.07184042781591415
-1.4860014915466309 -1.226272463798523 -0.1685592085123062 0.0 5 -0.0718381255865097
-2.692708730697632 -2.2212769985198975 0.6785168647766113 31.0 13 -0.07183582335710526
-2.4700820446014404 -2.0369038581848145 -0.16778908669948578 1.0 6 -0.0718335211277008
-2.688608169555664 -2.216317892074585 0.804425060749054 8.0 14 -0.07183121144771576
-2.1528143882751465 -1.774012565612793 -0.048692215234041214 2.0 7 -0.07182890921831131
-2.6616015434265137 -2.1924943923950195 0.9239840507507324 40.0 15 -0.07182660698890686
-2.3224830627441406 -1.9077097177505493 0.052461933344602585 3.0 8 -0.07180356979370117
-2.281700611114502 -1.8735429048538208 -0.6816017627716064 32.0 1 -0.07180126011371613
-2.6491458415985107 -2.174485683441162 0.1796170175075531 2.0 9 -0.07179895788431168
-2.283848524093628 -1.8746403455734253 -0.5743350982666016 31.0 2 -0.07179665565490723
-2.726238965988159 -2.236969232559204 0.3085313141345978 6.0 10 -0.07179435342550278
-1.5945167541503906 -1.3078875541687012 -0.3266351819038391 1.0 3 -0.07179204374551773
-2.704751491546631 -2.217758893966675 0.4294675886631012 11.0 11 -0.07178974151611328
-2.7045083045959473 -2.215980052947998 0.5537780523300171 12.0 12 -0.07178513705730438
-1.5149309635162354 -1.2412817478179932 -0.1713481843471527 0.0 5 -0.07178282737731934
-2.701964855194092 -2.2131080627441406 0.6788984537124634 27.0 13 -0.07178052514791489
-2.4524524211883545 -2.008023977279663 -0.16611434519290924 1.0 6 -0.07177822291851044
-2.6872799396514893 -2.1995134353637695 0.8017256259918213 8.0 14 -0.07177592068910599
-2.1899468898773193 -1.791812777519226 -0.049390312284231186 2.0 7 -0.07177361845970154
-2.6692380905151367 -2.1831908226013184 0.9239840507507324 40.0 15 -0.07177130877971649
-2.326690912246704 -1.8962513208389282 0.05239212512969971 2.0 8 -0.07174786180257797
-2.29643177986145 -1.870922327041626 -0.6838512420654297 41.0 1 -0.07174555957317352
-2.6497325897216797 -2.157991409301758 0.17909365892410278 3.0 9 -0.07174324989318848
-2.284940481185913 -1.8608978986740112 -0.5728086233139038 39.0 2 -0.07174094766378403
-2.728627920150757 -2.2214531898498535 0.30783405900001526 7.0 10 -0.07173864543437958
-2.713247776031494 -2.2073564529418945 0.4294675886631012 8.0 11 -0.07173403352499008
-2.693070888519287 -2.1893796920776367 0.549710750579834 12.0 12 -0.07172942906618118
-1.494950532913208 -1.2153465747833252 -0.1685592085123062 0.0 5 -0.07172712683677673
-2.701301336288452 -2.1952879428863525 0.6766087412834167 22.0 13 -0.07172481715679169
-2.4787468910217285 -2.013704776763916 -0.16737040877342224 2.0 6 -0.07172251492738724
-2.6866295337677 -2.18180775642395 0.7990262508392334 8.0 14 -0.07172021269798279
-2.1704182624816895 -1.761965036392212 -0.04879692941904068 1.0 7 -0.07171791046857834
-2.676100969314575 -2.171708345413208 0.9234663844108582 41.0 15 -0.07171560078859329
-2.2726709842681885 -1.8390591144561768 0.05103083327412605 2.0 8 -0.0716925635933876
-2.290827751159668 -1.8530901670455933 -0.6802520155906677 43.0 1 -0.07169026136398315
-2.6619086265563965 -2.152496337890625 0.17940767109394073 3.0 9 -0.0716879591345787
-2.285316228866577 -1.8479729890823364 -0.571282148361206 35.0 2 -0.07168564945459366
-2.7255196571350098 -2.2031466960906982 0.30661389231681824 5.0 10 -0.07168334722518921
-2.720935821533203 -2.1978724002838135 0.4294675886631012 6.0 11 -0.07167874276638031
-2.6960856914520264 -2.176243782043457 0.5487721562385559 13.0 12 -0.07167413085699081
-1.554996132850647 -1.255171775817871 -0.17483441531658173 1.0 5 -0.07167182862758636
-2.712003231048584 -2.188311815261841 0.6773719787597656 16.0 13 -0.07166952639818192
-2.4857606887817383 -2.005039930343628 -0.16737040877342224 3.0 6 -0.07166721671819687
-2.6881608963012695 -2.1675236225128174 0.79722660779953 8.0 14 -0.07166491448879242
-2.16409969329834 -1.744339108467102 -0.04851769283413887 1.0 7 -0.07166261225938797
-2.664109706878662 -2.1465964317321777 0.9167370796203613 40.0 15 -0.07166031002998352
-2.2276339530944824 -1.7897831201553345 0.04987897723913193 4.0 8 -0.07163726538419724
-2.2988014221191406 -1.846303105354309 -0.6807019710540771 47.0 1 -0.07163496315479279
-2.659688711166382 -2.136152982711792 0.17877964675426483 4.0 9 -0.07163266092538834
-2.281036615371704 -1.8313804864883423 -0.5686108469963074 40.0 2 -0.07163035869598389
-2.7223169803619385 -2.184889793395996 0.3053937256336212 6.0 10 -0.07162804901599884
-2.7285919189453125 -2.1883604526519775 0.4294675886631012 5.0 11 -0.07162344455718994
-2.6986639499664307 -2.1635842323303223 0.5478335618972778 12.0 12 -0.07161883264780045
-2.7043039798736572 -2.166555643081665 0.6735557913780212 16.0 13 -0.07161422818899155
-2.4989802837371826 -2.0013444423675537 -0.16778908669948578 2.0 6 -0.0716119259595871
-2.6831655502319336 -2.1488518714904785 0.7936273813247681 9.0 14 -0.07160962373018265
-2.168311357498169 -1.7359035015106201 -0.04848278686404228 5.0 7 -0.0716073140501976
-2.662163734436035 -2.130507707595825 0.91363126039505 38.0 15 -0.07160501182079315
-2.2523131370544434 -1.7973538637161255 0.05029783770442009 3.0 8 -0.07158197462558746
-2.286630392074585 -1.8240867853164673 -0.6753031015396118 47.0 1 -0.07157966494560242
-2.6730034351348877 -2.132303476333618 0.17919833958148956 4.0 9 -0.07157736271619797
-2.28556227684021 -1.8225821256637573 -0.5682291984558105 42.0 2 -0.07157506048679352
-2.721757411956787 -2.16964054107666 0.30452215671539307 7.0 10 -0.07157275825738907
-2.7187533378601074 -2.1656954288482666 0.42678648233413696 4.0 11 -0.07156814634799957
-2.7011878490448 -2.1509315967559814 0.546894907951355 12.0 12 -0.07156354188919067
-1.5073858499526978 -1.1998885869979858 -0.1685592085123062 0.0 5 -0.07156123965978622
-2.6976468563079834 -2.1465747356414795 0.6701211929321289 13.0 13 -0.07155892997980118
-2.4805943965911865 -1.9731535911560059 -0.16611434519290924 1.0 6 -0.07155662775039673
-2.690276622772217 -2.1399424076080322 0.7936273813247681 11.0 14 -0.07155432552099228
-2.1724905967712402 -1.7274587154388428 -0.048447877168655396 9.0 7 -0.07155202329158783
-2.672239065170288 -2.1240720748901367 0.9146665334701538 44.0 15 -0.07154971361160278
-2.342886209487915 -1.856949806213379 0.052182696759700775 3.0 8 -0.0715266764163971
-2.28961181640625 -1.8140735626220703 -0.6744033098220825 42.0 1 -0.07152437418699265
-2.664773464202881 -2.1105594635009766 0.17815160751342773 6.0 9 -0.0715220645070076
-2.2980666160583496 -1.8194680213928223 -0.5697556734085083 49.0 2 -0.07151976227760315
-2.7289364337921143 -2.160604238510132 0.30452215671539307 7.0 10 -0.0715174600481987
-2.719693422317505 -2.1517410278320312 0.4258115291595459 4.0 11 -0.0715128555893898
-2.7040305137634277 -2.13781476020813 0.5459563732147217 12.0 12 -0.0715082436800003
-2.700502634048462 -2.133493423461914 0.668976366519928 12.0 13 -0.0715036392211914
-2.487466335296631 -1.9644830226898193 -0.16611434519290924 1.0 6 -0.07150132954120636
-2.6870241165161133 -2.122084379196167 0.7904780507087708 12.0 14 -0.07149902731180191
-2.1863551139831543 -1.7260600328445435 -0.04862240329384804 16.0 7 -0.07149672508239746
-2.6750874519348145 -2.111140727996826 0.9131135940551758 42.0 15 -0.07149442285299301
-2.2270851135253906 -1.7519139051437378 0.049460120499134064 2.0 8 -0.07147137820720673
-2.2901179790496826 -1.8008513450622559 -0.6726037263870239 42.0 1 -0.07146907597780228
-2.6567890644073486 -2.088435411453247 0.1771048903465271 6.0 9 -0.07146677374839783
-2.283108949661255 -1.7940503358840942 -0.5644130706787109 46.0 2 -0.07146447151899338
-2.7337043285369873 -2.148124933242798 0.3041735291481018 7.0 10 -0.07146216183900833
-2.7244391441345215 -2.1393067836761475 0.42532405257225037 2.0 11 -0.07145755738019943
-2.7025234699249268 -2.120573043823242 0.5440791249275208 13.0 12 -0.07145294547080994
-2.717573404312134 -2.130850315093994 0.6712660789489746 11.0 13 -0.07144834101200104
-2.499366283416748 -1.9590485095977783 -0.1664283573627472 1.0 6 -0.07144603878259659
-2.6779134273529053 -2.098997116088867 0.7855291366577148 15.0 14 -0.07144372910261154
-2.1847963333129883 -1.7118685245513916 -0.048447877168655396 12.0 7 -0.07144142687320709
-2.6782443523406982 -2.0977487564086914 0.9115607142448425 45.0 15 -0.07143912464380264
-2.167290449142456 -1.6920548677444458 0.04799411818385124 5.0 8 -0.07141608744859695
-2.2997756004333496 -1.794843316078186 -0.6735035181045532 40.0 1 -0.07141377776861191
-2.664062738418579 -2.079148530960083 0.1771048903465271 6.0 9 -0.07141147553920746
-2.283165693283081 -1.7812390327453613 -0.5628865361213684 55.0 2 -0.07140917330980301
-2.7289905548095703 -2.128288745880127 0.30277904868125916 8.0 10 -0.07140687108039856
-2.729130268096924 -2.126865863800049 0.42483654618263245 4.0 11 -0.07140225917100906
-2.6974427700042725 -2.101414680480957 0.5415762066841125 15.0 12 -0.07139765471220016
-2.7187981605529785 -2.1165270805358887 0.6697396039962769 9.0 13 -0.07139304280281067
-2.544018268585205 -1.979751467704773 -0.1689404845237732 2.0 6 -0.07139074057340622
-2.7021408081054688 -2.102802276611328 0.7904780507087708 22.0 14 -0.07138843834400177
-2.1954939365386963 -1.707915186882019 -0.04855259507894516 10.0 7 -0.07138612866401672
-2.679450273513794 -2.0836434364318848 0.909490168094635 46.0 15 -0.07138382643461227
-2.1760499477386475 -1.687309741973877 0.04806393012404442 4.0 8 -0.07136078923940659
-2.3072550296783447 -1.7884008884429932 -0.6739533543586731 24.0 1 -0.07135848701000214
-2.6725215911865234 -2.071526288986206 0.17720957100391388 7.0 9 -0.07135617733001709
-2.2828526496887207 -1.768848180770874 -0.5613601207733154 49.0 2 -0.07135387510061264
-2.7281572818756104 -2.1131277084350586 0.301907479763031 11.0 10 -0.07135157287120819
-2.736168146133423 -2.1178040504455566 0.42483654618263245 4.0 11 -0.0713469609618187
-2.7075209617614746 -2.0948755741119385 0.5422019362449646 16.0 12 -0.0713423565030098
-2.7118234634399414 -2.096691608428955 0.6663050651550293 8.0 13 -0.0713377445936203
-2.5679523944854736 -1.9847393035888672 -0.1700918823480606 3.0 6 -0.07133544236421585
-2.7029316425323486 -2.0890631675720215 0.7886784672737122 27.0 14 -0.0713331401348114
-2.1948158740997314 -1.6957348585128784 -0.048412974923849106 10.0 7 -0.07133083790540695
-2.6741139888763428 -2.0652997493743896 0.90534907579422 48.0 15 -0.0713285356760025
-2.227579116821289 -1.7154672145843506 0.04907616600394249 7.0 8 -0.07130549103021622
-2.274568796157837 -1.751021146774292 -0.6627058386802673 1.0 1 -0.07130318880081177
-2.673405170440674 -2.057312488555908 0.17679087817668915 7.0 9 -0.07130088657140732
-2.2918176651000977 -1.7636628150939941 -0.5621232986450195 47.0 2 -0.07129857689142227
-2.728832960128784 -2.099209785461426 0.3012102246284485 11.0 10 -0.07129627466201782
-2.727437973022461 -2.096620559692383 0.4223991632461548 4.0 11 -0.07129167020320892
-2.716383695602417 -2.0866153240203857 0.5425148010253906 18.0 12 -0.07128705829381943
-2.70007586479187 -2.0733389854431152 0.661725640296936 7.0 13 -0.07128245383501053
-2.533327102661133 -1.9445937871932983 -0.16737040877342224 3.0 6 -0.07128015160560608
-2.7117533683776855 -2.080801486968994 0.7891283631324768 33.0 14 -0.07127784192562103
-2.1975483894348145 -1.6856290102005005 -0.04834316670894623 10.0 7 -0.07127553969621658
-2.6797735691070557 -2.054777145385742 0.9048314094543457 51.0 15 -0.07127323746681213
-2.249439239501953 -1.7198266983032227 0.049425214529037476 8.0 8 -0.07125019282102585
-2.6281962394714355 -2.007955312728882 0.1733367145061493 9.0 9 -0.07124558836221695
-2.308879852294922 -1.763995885848999 -0.564794659614563 25.0 2 -0.0712432861328125
-2.734560489654541 -2.0884621143341064 0.30103594064712524 12.0 10 -0.07124097645282745
-2.717381000518799 -2.073840379714966 0.41971805691719055 5.0 11 -0.07123637199401855
-2.725221872329712 -2.0783183574676514 0.5428276658058167 23.0 12 -0.07123176753520966
-2.705734968185425 -2.062711477279663 0.6613439917564392 7.0 13 -0.07122715562582016
-2.5273916721343994 -1.9260536432266235 -0.16653302311897278 3.0 6 -0.07122485339641571
-2.711249351501465 -2.0654184818267822 0.7868788242340088 41.0 14 -0.07122255116701126
-2.1938729286193848 -1.6706792116165161 -0.048133738338947296 9.0 7 -0.07122024148702621
-2.6838555335998535 -2.043070077896118 0.9037961363792419 52.0 15 -0.07121793925762177
-2.231537103652954 -1.6938283443450928 0.048901643604040146 14.0 8 -0.07119490206241608
-2.59222412109375 -1.9661799669265747 0.17051056027412415 11.0 9 -0.07119029015302658
-2.319715738296509 -1.7594846487045288 -0.5659394860267639 30.0 2 -0.07118798792362213
-2.7323086261749268 -2.071680784225464 0.29999005794525146 17.0 10 -0.07118568569421768
-2.7214391231536865 -2.0619444847106934 0.41923055052757263 8.0 11 -0.07118107378482819
-2.7245848178863525 -2.0628316402435303 0.5412633419036865 27.0 12 -0.07117646932601929
-2.7097878456115723 -2.050884485244751 0.6605807542800903 7.0 13 -0.07117185741662979
-2.486316442489624 -1.8810683488845825 -0.16339287161827087 1.0 6 -0.07116955518722534
-2.7106707096099854 -2.0500648021698 0.7846293449401855 49.0 14 -0.07116725295782089
-2.1837406158447266 -1.6509509086608887 -0.04778468981385231 12.0 7 -0.07116495072841644
-2.686347484588623 -2.0301949977874756 0.9022431969642639 56.0 15 -0.0711626410484314
-2.2406301498413086 -1.6884361505508423 0.04897145554423332 12.0 8 -0.07113960385322571
-2.632577896118164 -1.9823487997055054 0.1727086752653122 10.0 9 -0.07113499939441681
-2.335254192352295 -1.7584620714187622 -0.5682291984558105 30.0 2 -0.07113268971443176
-2.7331559658050537 -2.0573384761810303 0.29929283261299133 25.0 10 -0.07113038748502731
-2.727034330368042 -2.051238536834717 0.41898685693740845 9.0 11 -0.07112578302621841
-2.722294807434082 -2.046186923980713 0.5393860936164856 30.0 12 -0.07112117111682892
-2.7185003757476807 -2.0425918102264404 0.6609624028205872 7.0 13 -0.07111656665802002
-2.28206729888916 -1.714047908782959 -0.14957617223262787 1.0 6 -0.07111425697803497
-2.724043607711792 -2.0452706813812256 0.7864289283752441 59.0 14 -0.07111195474863052
-2.191089630126953 -1.644518494606018 -0.0478195957839489 13.0 7 -0.07110965251922607
-2.6810553073883057 -2.011531114578247 0.8981021642684937 54.0 15 -0.07110735028982162
-2.241706371307373 -1.6770107746124268 0.04886673763394356 15.0 8 -0.07108430564403534
-1.846214771270752 -1.3806427717208862 -0.532234251499176 1.0 1 -0.07108200341463089
-2.676273822784424 -2.0006520748138428 0.17511612176895142 7.0 9 -0.07107970118522644
-2.3586747646331787 -1.763230562210083 -0.5724270343780518 30.0 2 -0.07107739895582199
-2.7291486263275146 -2.0394365787506104 0.2980726361274719 26.0 10 -0.07107508927583694
-2.7421302795410156 -2.0476460456848145 0.4202055335044861 9.0 11 -0.07107048481702805
-2.7325873374938965 -2.039033889770508 0.5400118231773376 41.0 12 -0.07106587290763855
-2.7161712646484375 -2.026047706604004 0.6586726903915405 7.0 13 -0.07106126844882965
-2.2704241275787354 -1.6929389238357544 -0.14842478930950165 6.0 6 -0.0710589662194252
-2.718667507171631 -2.0264320373535156 0.782829761505127 66.0 14 -0.07105665653944016
-2.1920058727264404 -1.6332762241363525 -0.04771488159894943 10.0 7 -0.0710543543100357
-2.681863307952881 -1.9975440502166748 0.8960315585136414 54.0 15 -0.07105205208063126
-2.258784532546997 -1.6775214672088623 0.04911107197403908 13.0 8 -0.07102901488542557
-1.8510230779647827 -1.374189853668213 -0.532234251499176 1.0 1 -0.07102670520544052
-2.6752219200134277 -1.985346794128418 0.1745927631855011 7.0 9 -0.07102440297603607
-2.388463258743286 -1.772536277770996 -0.578151285648346 31.0 2 -0.07102210074663162
-2.7394514083862305 -2.03227162361145 0.2984212636947632 35.0 10 -0.07101979851722717
-2.728529930114746 -2.022693634033203 0.41703692078590393 12.0 11 -0.07101518660783768
-2.7349257469177246 -2.025956153869629 0.5390732288360596 41.0 12 -0.07101058214902878
-2.70587158203125 -2.003702163696289 0.6544748544692993 8.0 13 -0.07100597023963928
-2.2602665424346924 -1.673120379447937 -0.147378072142601 6.0 6 -0.07100366801023483
-2.7335567474365234 -2.022726058959961 0.7850792407989502 72.0 14 -0.07100136578083038
-2.200908899307251 -1.6279929876327515 -0.04778468981385231 9.0 7 -0.07099906355142593
-2.681053400039673 -1.9824268817901611 0.8934433460235596 58.0 15 -0.07099675387144089
-2.3000357151031494 -1.6957334280014038 0.04987897723913193 24.0 8 -0.0709737166762352
-1.912282943725586 -1.4093414545059204 -0.5484307408332825 1.0 1 -0.07097141444683075
-2.678919792175293 -1.9736272096633911 0.17438343167304993 6.0 9 -0.0709691047668457
-2.4091708660125732 -1.774248480796814 -0.5815858244895935 30.0 2 -0.07096680253744125
-2.741715431213379 -2.019152879714966 0.2978983223438263 40.0 10 -0.0709645003080368
-2.7275798320770264 -2.0072736740112305 0.4158182442188263 17.0 11 -0.07095988839864731
-2.7356157302856445 -2.011715888977051 0.5378217697143555 45.0 12 -0.07095528393983841
-2.71478009223938 -1.9949331283569336 0.6548565030097961 10.0 13 -0.07095067948102951
-2.2631642818450928 -1.6624597311019897 -0.14716872572898865 11.0 6 -0.07094836980104446
-2.7233245372772217 -2.000481128692627 0.7801303267478943 77.0 14 -0.07094606757164001
-2.206578254699707 -1.6203004121780396 -0.04778468981385231 11.0 7 -0.07094376534223557
-2.6832849979400635 -1.9696266651153564 0.8918904662132263 56.0 15 -0.07094146311283112
-2.296552896499634 -1.6802068948745728 0.049669548869132996 39.0 8 -0.07091841846704483
-1.8608087301254272 -1.3609094619750977 -0.532234251499176 1.0 1 -0.07091611623764038
-2.676461696624756 -1.956722617149353 0.17375539243221283 6.0 9 -0.07091381400823593
-2.4204134941101074 -1.7688812017440796 -0.5827307105064392 29.0 2 -0.07091151177883148
-2.7474894523620605 -2.0079143047332764 0.29772400856018066 46.0 10 -0.07090920209884644
-2.7349185943603516 -1.9972630739212036 0.4158182442188263 20.0 11 -0.07090459764003754
-2.7302048206329346 -1.9923609495162964 0.5353187918663025 51.0 12 -0.07089998573064804
-2.7236595153808594 -1.9861267805099487 0.655238151550293 11.0 13 -0.07089538127183914
-2.280540704727173 -1.662388563156128 -0.14790143072605133 20.0 6 -0.07089307904243469
-2.708592414855957 -1.9744147062301636 0.7738316655158997 74.0 14 -0.07089076936244965
-2.2221992015838623 -1.6192678213119507 -0.04799411818385124 12.0 7 -0.0708884671330452
-2.690485715866089 -1.9597792625427246 0.8918904662132263 63.0 15 -0.07088616490364075
-2.301077365875244 -1.6706033945083618 0.04963464289903641 24.0 8 -0.07086312770843506
-1.9225624799728394 -1.3952858448028564 -0.5484307408332825 1.0 1 -0.07086081802845001
-2.6803817749023438 -1.9445546865463257 0.17354604601860046 7.0 9 -0.07085851579904556
-2.4361073970794678 -1.7673393487930298 -0.5850204229354858 24.0 2 -0.07085621356964111
-2.7516047954559326 -1.9954912662506104 0.2973753809928894 53.0 10 -0.07085391134023666
-2.7325756549835205 -1.9802371263504028 0.4143557846546173 24.0 11 -0.07084929943084717
-2.72948956489563 -1.9765472412109375 0.5337544679641724 55.0 12 -0.07084469497203827
-2.7337558269500732 -1.978910207748413 0.6560013890266418 11.0 13 -0.07084008306264877
-2.276620626449585 -1.6473932266235352 -0.14727339148521423 18.0 6 -0.07083778083324432
-2.7173891067504883 -1.9656167030334473 0.7742815613746643 83.0 14 -0.07083547860383987
-2.267009973526001 -1.6392333507537842 -0.04883183166384697 16.0 7 -0.07083316892385483
-2.694519281387329 -1.9476416110992432 0.8908551931381226 72.0 15 -0.07083086669445038
-2.2663376331329346 -1.6333317756652832 0.04876202344894409 13.0 8 -0.07080782949924469
-1.870499610900879 -1.3475589752197266 -0.532234251499176 1.0 1 -0.07080552726984024
-2.6839118003845215 -1.9328521490097046 0.1733367145061493 6.0 9 -0.0708032175898552
-2.493241786956787 -1.7955387830734253 -0.5972321629524231 1.0 2 -0.07080091536045074
-2.747234582901001 -1.9777257442474365 0.2961552143096924 56.0 10 -0.0707986131310463
-2.737860679626465 -1.9695268869400024 0.41411206126213074 33.0 11 -0.0707940012216568
-2.731559991836548 -1.9635488986968994 0.5328158736228943 57.0 12 -0.0707893967628479
-2.719921112060547 -1.9544615745544434 0.6510403156280518 15.0 13 -0.0707847848534584
-2.2856016159057617 -1.6417665481567383 -0.1474827378988266 18.0 6 -0.07078248262405396
-2.7163193225860596 -1.9504361152648926 0.7720320820808411 81.0 14 -0.0707801803946495
-2.2759671211242676 -1.6336420774459839 -0.048901643604040146 18.0 7 -0.07077787816524506
-2.693453311920166 -1.9325929880142212 0.8882669806480408 76.0 15 -0.07077556848526001
-2.231365919113159 -1.5963237285614014 0.047889403998851776 25.0 8 -0.07075253129005432
-2.6971421241760254 -1.928117036819458 0.17375539243221283 6.0 9 -0.07074792683124542
-2.746016025543213 -1.9623327255249023 0.29528364539146423 60.0 10 -0.07074331492185593
-2.7382566928863525 -1.9553433656692505 0.4131371080875397 37.0 11 -0.07073871046304703
-2.7416133880615234 -1.956296682357788 0.5334416031837463 61.0 12 -0.07073409855365753
-2.717137098312378 -1.9381150007247925 0.6487506031990051 15.0 13 -0.07072949409484863
-2.2815613746643066 -1.6268212795257568 -0.1468547135591507 20.0 6 -0.07072718441486359
-2.726284980773926 -1.943204641342163 0.7729318737983704 81.0 14 -0.07072488218545914
-2.280027151107788 -1.624527096748352 -0.04886673763394356 19.0 7 -0.07072257995605469
-2.697036027908325 -1.9209376573562622 0.887231707572937 78.0 15 -0.07072027772665024
-2.2320334911346436 -1.5850516557693481 0.04778468981385231 29.0 8 -0.07069723308086395
-2.6908247470855713 -1.9094442129135132 0.17291802167892456 5.0 9 -0.07069262862205505
-2.749598979949951 -1.9504296779632568 0.294935017824173 63.0 10 -0.07068801671266556
-2.733729124069214 -1.9377375841140747 0.4114309251308441 49.0 11 -0.07068341225385666
-2.741978168487549 -1.942147135734558 0.5321901440620422 61.0 12 -0.07067880034446716
-2.727090358734131 -1.9308875799179077 0.649513840675354 20.0 13 -0.07067419588565826
-2.292116641998291 -1.6223092079162598 -0.14716872572898865 14.0 6 -0.07067189365625381
-2.725097179412842 -1.9280486106872559 0.7706823348999023 89.0 14 -0.07066959142684937
-2.285684108734131 -1.616558313369751 -0.04886673763394356 22.0 7 -0.07066728174686432
-2.7021470069885254 -1.910396933555603 0.8867141008377075 78.0 15 -0.07066497951745987
-2.240821599960327 -1.579554796218872 0.04785449802875519 35.0 8 -0.07064194232225418
-2.6971426010131836 -1.9005099534988403 0.17291802167892456 5.0 9 -0.07063733041286469
-2.7547616958618164 -1.9396730661392212 0.29476073384284973 66.0 10 -0.07063272595405579
-2.743722915649414 -1.9304684400558472 0.41191840171813965 57.0 11 -0.07062811404466629
-2.737092971801758 -1.9250893592834473 0.5300000309944153 65.0 12 -0.07062350958585739
-2.7306010723114014 -1.91909921169281 0.6487506031990051 26.0 13 -0.0706188976764679
-2.3059372901916504 -1.620038390159607 -0.14769208431243896 10.0 6 -0.07061659544706345
-2.7139358520507812 -1.9066781997680664 0.7657334208488464 81.0 14 -0.070614293217659
-2.2975780963897705 -1.6135668754577637 -0.04900635778903961 24.0 7 -0.07061199098825455
-2.7053050994873047 -1.8992056846618652 0.8856788277626038 82.0 15 -0.0706096813082695
-2.250962257385254 -1.575555443763733 0.047959212213754654 41.0 8 -0.07058664411306381
-1.6493960618972778 -1.154061198234558 -0.46474888920783997 1.0 1 -0.07058434188365936
-2.690338373184204 -1.8823952674865723 0.1720806360244751 4.0 9 -0.07058203965425491
-1.6007492542266846 -1.1196081638336182 -0.379709929227829 0.0 2 -0.07057972997426987
-2.753014326095581 -1.924818754196167 0.2938891649246216 63.0 10 -0.07057742774486542
-2.7468552589416504 -1.9190853834152222 0.4114309251308441 63.0 11 -0.07057282328605652
-2.595517873764038 -1.8133537769317627 -0.3887632191181183 1.0 4 -0.07057051360607147
-2.7305054664611816 -1.9069536924362183 0.5274971127510071 63.0 12 -0.07056821137666702
-2.3263375759124756 -1.6240826845169067 -0.2482195496559143 3.0 5 -0.07056590914726257
-2.736949920654297 -1.9100334644317627 0.6487506031990051 27.0 13 -0.07056360691785812
-2.3244009017944336 -1.6215249300003052 -0.14852945506572723 7.0 6 -0.07056129723787308
-2.7250380516052246 -1.9010134935379028 0.7670831084251404 78.0 14 -0.07055899500846863
-2.3193187713623047 -1.6173772811889648 -0.0493554063141346 28.0 7 -0.07055669277906418
-2.7020795345306396 -1.88359534740448 0.8825729489326477 78.0 15 -0.07055439054965973
-2.247964382171631 -1.5623759031295776 0.04778468981385231 35.0 8 -0.07053134590387344
-1.630807876586914 -1.1330195665359497 -0.4584502875804901 1.0 1 -0.070529043674469
-2.6965649127960205 -1.8734647035598755 0.1720806360244751 4.0 9 -0.07052674144506454
-1.627028465270996 -1.1299723386764526 -0.3850525915622711 1.0 2 -0.0705244392156601
-2.7495622634887695 -1.908861517906189 0.2928432822227478 68.0 10 -0.07052212953567505
-2.751572847366333 -1.9088343381881714 0.41118720173835754 67.0 11 -0.07051752507686615
-2.596623659133911 -1.801342248916626 -0.38803204894065857 12.0 4 -0.0705152228474617
-2.736814260482788 -1.897888422012329 0.5274971127510071 63.0 12 -0.07051291316747665
-2.3448100090026855 -1.625440001487732 -0.24961404502391815 7.0 5 -0.0705106109380722
-2.7222909927368164 -1.886410117149353 0.6437895894050598 32.0 13 -0.07050830870866776
-2.3905134201049805 -1.6558876037597656 -0.15240232646465302 1.0 6 -0.0705060064792633
-2.728123188018799 -1.8897470235824585 0.7661833167076111 78.0 14 -0.07050369679927826
-2.3460419178009033 -1.6244760751724243 -0.04980916902422905 30.0 7 -0.07050139456987381
-2.695603370666504 -1.8658287525177002 0.8784318566322327 78.0 15 -0.07049909234046936
-1.5595881938934326 -1.07669198513031 -0.5078030228614807 0.0 0 -0.07047835737466812
-2.279466390609741 -1.5730856657028198 0.04834316670894623 35.0 8 -0.07047605514526367
-1.6088908910751343 -1.1098999977111816 -0.4512518346309662 1.0 1 -0.07047374546527863
-2.709339141845703 -1.8690487146377563 0.17249932885169983 5.0 9 -0.07047144323587418
-2.760798454284668 -1.903125286102295 0.2933662235736847 80.0 10 -0.07046683877706528
-2.6123056411743164 -1.8000917434692383 -0.5024675726890564 5.0 3 -0.07046452909708023
-2.74480938911438 -1.890690565109253 0.4092372953891754 68.0 11 -0.07046222686767578
-2.6385483741760254 -1.8174952268600464 -0.39339426159858704 16.0 4 -0.07045992463827133
-2.7430930137634277 -1.888802170753479 0.5274971127510071 63.0 12 -0.07045762240886688
-2.360034227371216 -1.6244338750839233 -0.25065991282463074 7.0 5 -0.07045531272888184
-2.725296974182129 -1.875146746635437 0.6430263519287109 38.0 13 -0.07045301049947739
-2.486499309539795 -1.7102019786834717 -0.1581592708826065 2.0 6 -0.07045070827007294
-2.726346969604492 -1.875167965888977 0.7639338374137878 70.0 14 -0.07044840604066849
-2.3530638217926025 -1.6178208589553833 -0.04984407499432564 23.0 7 -0.07044610381126404
-2.708144187927246 -1.8612563610076904 0.880502462387085 76.0 15 -0.07044379413127899
-1.5953999757766724 -1.09280264377594 -0.5181557536125183 1.0 0 -0.07043218612670898
-2.326465606689453 -1.5929648876190186 0.049215786159038544 24.0 8 -0.07042988389730453
-1.6225972175598145 -1.1105995178222656 -0.45395126938819885 1.0 1 -0.07042758166790009
-2.706606149673462 -1.851864218711853 0.17187130451202393 5.0 9 -0.07042527198791504
-2.6362199783325195 -1.8037058115005493 -0.6208925247192383 1.0 2 -0.07042296975851059
-2.7677547931671143 -1.8929942846298218 0.2933662235736847 80.0 10 -0.07042066752910614
-2.6368236541748047 -1.802768349647522 -0.5059091448783875 24.0 3 -0.07041836529970169
-2.7451651096343994 -1.8761370182037354 0.40826234221458435 77.0 11 -0.07041605561971664
-2.645507574081421 -1.8073506355285645 -0.39339426159858704 20.0 4 -0.0704137533903122
-2.7503252029418945 -1.8782556056976318 0.5274971127510071 63.0 12 -0.07041145116090775
-2.35445499420166 -1.6079075336456299 -0.24943974614143372 6.0 5 -0.0704091489315033
-2.7289085388183594 -1.862931489944458 0.6422631144523621 52.0 13 -0.07040683925151825
-2.533994197845459 -1.7292219400405884 -0.1607760637998581 2.0 6 -0.0704045370221138
-2.7206480503082275 -1.855900526046753 0.7603346109390259 70.0 14 -0.07040223479270935
-2.3493454456329346 -1.602014183998108 -0.04963464289903641 21.0 7 -0.0703999325633049
-2.712078332901001 -1.848667860031128 0.8794671893119812 74.0 15 -0.07039762288331985
-1.6535236835479736 -1.124155879020691 -0.535755455493927 1.0 0 -0.07037688791751862
-2.2972803115844727 -1.5612297058105469 0.04848278686404228 21.0 8 -0.07037458568811417
-1.6651510000228882 -1.131210446357727 -0.46474888920783997 1.0 1 -0.07037228345870972
-2.706444263458252 -1.837917447090149 0.1714526116847992 5.0 9 -0.07036998122930527
-2.6408753395080566 -1.7933902740478516 -0.6205108761787415 13.0 2 -0.07036767154932022
-2.7710494995117188 -1.8810827732086182 0.29301759600639343 80.0 10 -0.07036536931991577
-2.662715435028076 -1.8068631887435913 -0.5096635222434998 24.0 3 -0.07036306709051132
-2.753340005874634 -1.867658257484436 0.4085060954093933 85.0 11 -0.07036076486110687
-2.671516180038452 -1.8114736080169678 -0.39631912112236023 18.0 4 -0.07035845518112183
-2.740513324737549 -1.857560396194458 0.524368405342102 63.0 12 -0.07035615295171738
-2.37489652633667 -1.609739899635315 -0.251008540391922 7.0 5 -0.07035385072231293
-2.7402701377868652 -1.856698751449585 0.6434080004692078 53.0 13 -0.07035154849290848
-2.5367074012756348 -1.7181259393692017 -0.16056673228740692 2.0 6 -0.07034923881292343
-2.727109909057617 -1.846392273902893 0.7603346109390259 70.0 14 -0.07034693658351898
-2.3764519691467285 -1.6083742380142212 -0.05008840560913086 24.0 7 -0.07034463435411453
-2.718514919281006 -1.8391895294189453 0.8794671893119812 74.0 15 -0.07034233212471008
-1.619004249572754 -1.092443585395813 -0.5233321189880371 1.0 0 -0.07032159715890884
-2.33255672454834 -1.5733290910720825 0.04911107197403908 20.0 8 -0.0703192874789238
