# .PCD v0.7 - Point Cloud Data file format
VERSION 0.7
FIELDS x y z intensity ring time
SIZE 4 4 4 4 4 4
TYPE F F F F F F
COUNT 1 1 1 1 1 1
WIDTH 537
HEIGHT 1
VIEWPOINT 0 0 0 1 0 0 0
POINTS 537
DATA ascii
3.023714303970337 0.8841969966888428 0.38681334257125854 70.0 11 -0.008730360306799412
1.4233332872390747 0.41594260931015015 -0.18207281827926636 55.0 4 -0.008728056214749813
3.022495985031128 0.8826941251754761 0.4987131357192993 72.0 12 -0.008725752122700214
1.4287109375 0.41697296500205994 -0.13021068274974823 53.0 5 -0.008723448030650616
3.039907932281494 0.8872049450874329 0.6155498623847961 58.0 13 -0.008721143938601017
1.4341931343078613 0.4183013141155243 -0.07829459756612778 38.0 6 -0.008718839846551418
3.0345799922943115 0.8844990730285645 0.7297412753105164 67.0 14 -0.008716536685824394
1.3535329103469849 0.3942631185054779 -0.024607893079519272 58.0 7 -0.008714232593774796
3.0308451652526855 0.8822643756866455 0.8458206653594971 70.0 15 -0.008711928501725197
1.3416094779968262 0.388504296541214 -0.3742523491382599 54.0 0 -0.008691192604601383
1.3426259756088257 0.38879865407943726 0.02439846470952034 54.0 8 -0.008688888512551785
1.3421745300292969 0.38841477036476135 -0.32257983088493347 50.0 1 -0.008686584420502186
1.371823787689209 0.3967348635196686 0.07484042644500732 46.0 9 -0.008684280328452587
1.3843706846237183 0.4001016616821289 -0.28010761737823486 55.0 2 -0.008681976236402988
1.3954150676727295 0.40303048491477966 0.12707306444644928 35.0 10 -0.00867967214435339
1.4006507396697998 0.40427714586257935 -0.23089729249477386 55.0 3 -0.008677368052303791
3.019153594970703 0.8714340329170227 0.3858383595943451 72.0 11 -0.008675063960254192
1.432405948638916 0.41317200660705566 -0.18304777145385742 55.0 4 -0.008672759868204594
3.0331509113311768 0.8743274211883545 0.4999645948410034 68.0 12 -0.00867045670747757
1.4282433986663818 0.4114314019680023 -0.1300363689661026 58.0 5 -0.008668152615427971
3.035593271255493 0.8738840222358704 0.6140233874320984 60.0 13 -0.008665848523378372
1.4203615188598633 0.40862399339675903 -0.07745721936225891 34.0 6 -0.008663544431328773
3.0396740436553955 0.8739099502563477 0.730191171169281 66.0 14 -0.008661240339279175
1.3894942998886108 0.39948123693466187 -0.025236180052161217 66.0 7 -0.008658936247229576
3.0376198291778564 0.8727453947067261 0.8468559384346008 70.0 15 -0.008656632155179977
1.3503872156143188 0.38594260811805725 -0.3763229250907898 54.0 0 -0.008635896258056164
1.3401962518692017 0.38277703523635864 0.024328654631972313 54.0 8 -0.008633592166006565
1.3360939025878906 0.38135242462158203 -0.3207802474498749 49.0 1 -0.008631288073956966
1.3598239421844482 0.38786962628364563 0.07410772144794464 50.0 9 -0.008628983981907368
1.3800950050354004 0.39365166425704956 -0.27896276116371155 53.0 2 -0.008626679889857769
1.3929814100265503 0.3970644176006317 0.1267244517803192 35.0 10 -0.00862437579780817
1.3925546407699585 0.3966792821884155 -0.22933295369148254 50.0 3 -0.008622072637081146
3.0127809047698975 0.8576456308364868 0.38461968302726746 75.0 11 -0.008619768545031548
1.4300918579101562 0.4068331718444824 -0.1825602799654007 49.0 4 -0.008617464452981949
3.0268349647521973 0.8605028390884399 0.4984002709388733 53.0 12 -0.00861516036093235
1.4373366832733154 0.4086223244667053 -0.13073360919952393 65.0 5 -0.008612856268882751
3.036736488342285 0.8627464771270752 0.6136417388916016 61.0 13 -0.008610552176833153
1.4102511405944824 0.4003908932209015 -0.07682918757200241 34.0 6 -0.008608248084783554
3.0333328247070312 0.8606337904930115 0.727941632270813 63.0 14 -0.008605943992733955
1.3794057369232178 0.39111319184303284 -0.025026749819517136 64.0 7 -0.008603639900684357
3.0482330322265625 0.8637135028839111 0.8489265441894531 70.0 15 -0.008601335808634758
1.3480075597763062 0.3801773488521576 -0.37528762221336365 54.0 0 -0.008580599911510944
1.349223017692566 0.3802666664123535 0.024468274787068367 52.0 8 -0.008578295819461346
1.3467955589294434 0.3793281018733978 -0.3230297565460205 52.0 1 -0.008575992658734322
1.363092303276062 0.3836613595485687 0.07421239465475082 46.0 9 -0.008573688566684723
1.3644524812698364 0.38404420018196106 -0.275528222322464 55.0 2 -0.008571384474635124
1.3924407958984375 0.3916603922843933 0.12655013799667358 37.0 10 -0.008569080382585526
1.4053406715393066 0.3950234651565552 -0.2312101572751999 50.0 3 -0.008566776290535927
3.013845205307007 0.8465861082077026 0.3843759298324585 73.0 11 -0.008564472198486328
1.4085687398910522 0.3954003155231476 -0.1796354353427887 48.0 4 -0.00856216810643673
3.0279181003570557 0.8493990302085876 0.49808740615844727 78.0 12 -0.00855986401438713
1.4329992532730103 0.4019884765148163 -0.13021068274974823 59.0 5 -0.008557559922337532
3.043510675430298 0.8532001972198486 0.6144050359725952 60.0 13 -0.008555255830287933
1.396254539489746 0.3911551237106323 -0.07599181681871414 36.0 6 -0.00855295266956091
3.0344417095184326 0.8495155572891235 0.7274917960166931 66.0 14 -0.00855064857751131
1.367282509803772 0.3825240731239319 -0.024782417342066765 53.0 7 -0.008548344485461712
3.051229476928711 0.8530671000480652 0.8489265441894531 70.0 15 -0.008546040393412113
1.3418817520141602 0.3733983337879181 -0.37321707606315613 54.0 0 -0.0085253044962883
1.3601752519607544 0.37823301553726196 0.02464279718697071 51.0 8 -0.0085230004042387
1.3481113910675049 0.3746248781681061 -0.3230297565460205 52.0 1 -0.008520696312189102
1.3682719469070435 0.37997007369995117 0.07442173361778259 45.0 9 -0.008518392220139503
1.3620012998580933 0.37822869420051575 -0.2747649550437927 55.0 2 -0.008516088128089905
1.386120319366455 0.38466599583625793 0.12585289776325226 44.0 10 -0.008513784036040306
1.4105180501937866 0.39117157459259033 -0.23183591663837433 55.0 3 -0.008511479943990707
3.018695116043091 0.8365915417671204 0.38461968302726746 75.0 11 -0.008509175851941109
1.4175925254821777 0.3926007151603699 -0.18061038851737976 50.0 4 -0.00850687175989151
3.0289604663848877 0.8382981419563293 0.49777454137802124 76.0 12 -0.008504568599164486
1.4228724241256714 0.39379560947418213 -0.12916481494903564 56.0 5 -0.008502264507114887
3.0502545833587646 0.8436184525489807 0.6151682734489441 60.0 13 -0.008499960415065289
1.4033867120742798 0.38787540793418884 -0.0763058289885521 42.0 6 -0.00849765632301569
3.037388324737549 0.8389188051223755 0.7274917960166931 66.0 14 -0.008495352230966091
1.378247618675232 0.3804088532924652 -0.024956941604614258 50.0 7 -0.008493048138916492
3.0430145263671875 0.8393297791481018 0.8458206653594971 70.0 15 -0.008490744046866894
1.3338624238967896 0.3661547303199768 -0.37062889337539673 53.0 0 -0.00847000814974308
1.351845145225525 0.37083742022514343 0.024468274787068367 46.0 8 -0.008467704057693481
1.353169560432434 0.3709475100040436 -0.3239295482635498 52.0 1 -0.008465399965643883
1.3753689527511597 0.3767743408679962 0.07473575323820114 42.0 9 -0.008463095873594284
1.3652067184448242 0.3739904463291168 -0.27514657378196716 57.0 2 -0.008460791781544685
1.3874547481536865 0.37982484698295593 0.12585289776325226 42.0 10 -0.008458488620817661
1.3928210735321045 0.38103336095809937 -0.2287072092294693 51.0 3 -0.008456184528768063
3.027341604232788 0.8276188969612122 0.38535091280937195 73.0 11 -0.008453880436718464
1.4151246547698975 0.38660332560539246 -0.18012289702892303 48.0 4 -0.008451576344668865
3.0394904613494873 0.829801619052887 0.49902600049972534 73.0 12 -0.008449272252619267
1.4165500402450562 0.38672780990600586 -0.12846755981445312 53.0 5 -0.008446968160569668
3.045604705810547 0.8308981657028198 0.6136417388916016 61.0 13 -0.008444664068520069
1.4124398231506348 0.38507530093193054 -0.07672452181577682 50.0 6 -0.00844235997647047
3.045938730239868 0.8298486471176147 0.7288414835929871 67.0 14 -0.008440055884420872
1.3757081031799316 0.37454521656036377 -0.02488713338971138 32.0 7 -0.008437752723693848
3.045926094055176 0.8287016749382019 0.8458206653594971 72.0 15 -0.008435448631644249
1.3407264947891235 0.3630113899707794 -0.37218180298805237 54.0 0 -0.00841471180319786
1.3531312942504883 0.36611664295196533 0.024468274787068367 43.0 8 -0.008412408642470837
1.3469314575195312 0.3641868829727173 -0.3221299350261688 52.0 1 -0.008410104550421238
1.3766107559204102 0.37221163511276245 0.07473575323820114 44.0 9 -0.00840780045837164
1.3740849494934082 0.37127140164375305 -0.2766730487346649 57.0 2 -0.00840549636632204
1.3887720108032227 0.3749796748161316 0.12585289776325226 42.0 10 -0.008403192274272442
1.3807926177978516 0.37256667017936707 -0.22651712596416473 46.0 3 -0.008400888182222843
3.0206286907196045 0.8144631385803223 0.3841322064399719 60.0 11 -0.008398584090173244
1.4241323471069336 0.38372737169265747 -0.1810978651046753 41.0 4 -0.008396279998123646
3.0498554706573486 0.8217726349830627 0.5002774596214294 62.0 12 -0.008393975906074047
1.421739101409912 0.3828164339065552 -0.12881618738174438 52.0 5 -0.008391671814024448
3.040903091430664 0.8182221055030823 0.6121153235435486 62.0 13 -0.008389368653297424
1.3964166641235352 0.37547537684440613 -0.07578247040510178 45.0 6 -0.008387064561247826
3.05069899559021 0.8197161555290222 0.7292913794517517 66.0 14 -0.008384760469198227
1.3923920392990112 0.3741326928138733 -0.02516636997461319 49.0 7 -0.008382456377148628
3.044926166534424 0.8175936937332153 0.8447853922843933 72.0 15 -0.00838015228509903
1.345718264579773 0.35932621359825134 -0.37321707606315613 51.0 0 -0.008359416387975216
1.3620659112930298 0.3636912405490875 0.024607893079519272 43.0 8 -0.008357112295925617
1.3406003713607788 0.35770830512046814 -0.32033032178878784 53.0 1 -0.008354808203876019
1.3701823949813843 0.36534544825553894 0.074317067861557 42.0 9 -0.00835250411182642
1.3772696256637573 0.3669784367084503 -0.27705466747283936 55.0 2 -0.008350200019776821
1.3939231634140015 0.3711546063423157 0.12620151042938232 42.0 10 -0.008347895927727222
1.3782029151916504 0.3669688403606415 -0.22589139640331268 40.0 3 -0.008345591835677624
3.0194766521453857 0.8034201860427856 0.3836447298526764 67.0 11 -0.0083432886749506
1.4196414947509766 0.3774726688861847 -0.1803666353225708 21.0 4 -0.008340984582901001
3.0450689792633057 0.8090917468070984 0.49902600049972534 82.0 12 -0.008338680490851402
1.4249924421310425 0.3783622086048126 -0.12899048626422882 39.0 5 -0.008336376398801804
3.0473949909210205 0.8091404438018799 0.6128785014152527 60.0 13 -0.008334072306752205
1.4169585704803467 0.37596505880355835 -0.07682918757200241 56.0 6 -0.008331768214702606
3.0420989990234375 0.8065977096557617 0.7265920042991638 61.0 14 -0.008329464122653008
1.3878906965255737 0.3677332401275635 -0.025061655789613724 54.0 7 -0.008327160030603409
3.0552308559417725 0.8089398145675659 0.8468559384346008 69.0 15 -0.00832485593855381
1.3506388664245605 0.3558456599712372 -0.3742523491382599 54.0 0 -0.008304120041429996
1.3555920124053955 0.35689765214920044 0.024468274787068367 45.0 8 -0.008301815949380398
1.3456099033355713 0.3540191352367401 -0.3212301433086395 52.0 1 -0.008299511857330799
1.3753124475479126 0.3615763187408447 0.07452640682458878 44.0 9 -0.008297208696603775
1.3727829456329346 0.3609113097190857 -0.2759098410606384 57.0 2 -0.008294904604554176
1.4047812223434448 0.3690617084503174 0.12707306444644928 46.0 10 -0.008292600512504578
1.3928495645523071 0.3656679093837738 -0.22808147966861725 37.0 3 -0.008290296420454979
3.0165019035339355 0.7913647890090942 0.3829135298728943 35.0 11 -0.00828799232840538
3.0402309894561768 0.7964557409286499 0.49777454137802124 73.0 12 -0.008283384144306183
1.4050384759902954 0.36808091402053833 -0.12707306444644928 35.0 5 -0.008281080052256584
3.0502004623413086 0.7984987497329712 0.6128785014152527 61.0 13 -0.008278775960206985
1.4047367572784424 0.36747798323631287 -0.07609649002552032 50.0 6 -0.008276471868157387
3.0392401218414307 0.7944944500923157 0.7252422571182251 67.0 14 -0.008274167776107788
1.3891658782958984 0.3628866374492645 -0.025061655789613724 54.0 7 -0.008271864615380764
3.054297924041748 0.797293484210968 0.8458206653594971 70.0 15 -0.008269560523331165
1.340653896331787 0.3482145667076111 -0.3711465001106262 54.0 0 -0.008248824626207352
1.3800562620162964 0.3581923544406891 0.02488713338971138 45.0 8 -0.008246520534157753
1.3506101369857788 0.35029804706573486 -0.3221299350261688 52.0 1 -0.008244216442108154
1.3784997463226318 0.3572741150856018 0.07463108003139496 46.0 9 -0.008241912350058556
1.3740345239639282 0.3561168313026428 -0.2759098410606384 53.0 2 -0.008239608258008957
1.3925596475601196 0.36065948009490967 0.12585289776325226 48.0 10 -0.008237304165959358
3.0365428924560547 0.7853028178215027 0.385107159614563 65.0 11 -0.00823269598186016
0.6380870938301086 0.1649019420146942 -0.0809212476015091 5.0 4 -0.008230391889810562
3.0334293842315674 0.7833696007728577 0.4962101876735687 72.0 12 -0.008228087797760963
1.3889527320861816 0.35869085788726807 -0.125504270195961 15.0 5 -0.00822578463703394
3.0605735778808594 0.7898082137107849 0.6144050359725952 61.0 13 -0.00822348054498434
1.400208830833435 0.3610764145851135 -0.07578247040510178 39.0 6 -0.008221176452934742
3.0438811779022217 0.7843690514564514 0.7256921529769897 66.0 14 -0.008218872360885143
1.3884875774383545 0.357536256313324 -0.025026749819517136 56.0 7 -0.008216568268835545
3.0477077960968018 0.7842192649841309 0.8432324528694153 74.0 15 -0.008214264176785946
1.3343751430511475 0.3416171371936798 -0.3690759837627411 54.0 0 -0.008193528279662132
1.3754863739013672 0.3518856465816498 0.024782417342066765 50.0 8 -0.008191224187612534
1.3593769073486328 0.3475116789340973 -0.3239295482635498 52.0 1 -0.008188920095562935
1.3932219743728638 0.3561638593673706 0.07536378502845764 43.0 9 -0.008186616003513336
1.390486240386963 0.3552066683769226 -0.27896276116371155 53.0 2 -0.008184311911463737
1.4053930044174194 0.3587527275085449 0.12689876556396484 52.0 10 -0.008182007819414139
0.5684835314750671 0.1450103223323822 -0.09292208403348923 15.0 3 -0.008179704658687115
3.0392651557922363 0.7747005820274353 0.385107159614563 75.0 11 -0.008177400566637516
0.6174984574317932 0.15728364884853363 -0.07824012637138367 26.0 4 -0.008175096474587917
3.028353452682495 0.7713548541069031 0.49495869874954224 66.0 12 -0.008172792382538319
3.0480899810791016 0.7752507328987122 0.6113520860671997 61.0 13 -0.008168184198439121
1.401460886001587 0.3561862111091614 -0.07578247040510178 18.0 6 -0.008165880106389523
3.05226731300354 0.7751773595809937 0.7270418405532837 68.0 14 -0.008163576014339924
1.3935418128967285 0.35391464829444885 -0.025096561759710312 47.0 7 -0.008161271922290325
3.04654598236084 0.7731600403785706 0.8421972393989563 74.0 15 -0.008158967830240726
1.3430521488189697 0.33884719014167786 -0.3711465001106262 56.0 0 -0.008138231933116913
1.372767686843872 0.34634432196617126 0.024712607264518738 50.0 8 -0.008135927841067314
1.349184274673462 0.34014320373535156 -0.3212301433086395 53.0 1 -0.008133623749017715
1.4041404724121094 0.35373830795288086 0.07588714361190796 45.0 9 -0.008131320588290691
1.397429347038269 0.3517882823944092 -0.28010761737823486 55.0 2 -0.008129016496241093
1.4066368341445923 0.35384440422058105 0.12689876556396484 50.0 10 -0.008126712404191494
0.5670456290245056 0.1426423043012619 -0.0926092118024826 23.0 3 -0.008124408312141895
3.0225656032562256 0.7597775459289551 0.3826697766780853 67.0 11 -0.008122104220092297
0.5929878950119019 0.14894843101501465 -0.07507152855396271 58.0 4 -0.008119800128042698
3.0367753505706787 0.7622211575508118 0.4958972930908203 75.0 12 -0.0081174960359931
0.5816921591758728 0.14589528739452362 -0.05246775969862938 8.0 5 -0.0081151919439435
3.043026924133301 0.7632272243499756 0.6098255515098572 62.0 13 -0.008112887851893902
3.0529308319091797 0.7645772099494934 0.7265920042991638 66.0 14 -0.008108280599117279
1.377309799194336 0.3446792662143707 -0.024782417342066765 35.0 7 -0.00810597650706768
3.0585973262786865 0.7648634314537048 0.8447853922843933 70.0 15 -0.008103672415018082
1.3516672849655151 0.336256742477417 -0.37321707606315613 56.0 0 -0.008082936517894268
1.3817306756973267 0.34348031878471375 0.024852225556969643 48.0 8 -0.00808063242584467
1.3465805053710938 0.33449292182922363 -0.32033032178878784 52.0 1 -0.00807832833379507
1.3956139087677002 0.3466728925704956 0.07536378502845764 44.0 9 -0.008076024241745472
1.4043046236038208 0.3485707938671112 -0.2812524735927582 57.0 2 -0.008073720149695873
1.413603663444519 0.35061705112457275 0.12742169201374054 42.0 10 -0.008071416057646275
0.573292076587677 0.1420881152153015 -0.09354782104492188 23.0 3 -0.008069111965596676
3.0251996517181396 0.7492214441299438 0.3826697766780853 56.0 11 -0.008066807873547077
0.5935042500495911 0.1468774527311325 -0.07507152855396271 100.0 4 -0.008064504712820053
3.0507915019989014 0.7549945116043091 0.49777454137802124 76.0 12 -0.008062200620770454
0.6131187081336975 0.15161828696727753 -0.055256739258766174 44.0 5 -0.008059896528720856
3.0494847297668457 0.7535415887832642 0.610588788986206 62.0 13 -0.008057592436671257
0.5972191691398621 0.14746499061584473 -0.032238952815532684 16.0 6 -0.008055288344621658
3.0442287921905518 0.7511169910430908 0.7238925695419312 66.0 14 -0.00805298425257206
1.3900940418243408 0.34298449754714966 -0.024991845712065697 12.0 7 -0.008050680160522461
3.061117172241211 0.7547156810760498 0.8447853922843933 70.0 15 -0.008048376068472862
1.3509564399719238 0.331076979637146 -0.37269943952560425 53.0 0 -0.008027640171349049
1.3906311988830566 0.3407999873161316 0.024991845712065697 33.0 8 -0.00802533607929945
1.3514680862426758 0.33095234632492065 -0.3212301433086395 53.0 1 -0.008023031987249851
1.3968156576156616 0.3417988121509552 0.07536378502845764 38.0 9 -0.008020727895200253
1.4036058187484741 0.3432007133960724 -0.28087085485458374 61.0 2 -0.008018424734473228
1.4206253290176392 0.34709951281547546 0.12794463336467743 38.0 10 -0.00801612064242363
0.6351659893989563 0.15518926084041595 -0.10355963557958603 100.0 3 -0.008013816550374031
3.037309408187866 0.7415400743484497 0.38388845324516296 13.0 11 -0.008011512458324432
0.5804883241653442 0.14161525666713715 -0.07336535304784775 100.0 4 -0.008009208366274834
3.041893243789673 0.7415341734886169 0.4958972930908203 62.0 12 -0.008006904274225235
0.6059011816978455 0.14759089052677155 -0.05455949530005455 100.0 5 -0.008004600182175636
3.055781841278076 0.7443549036979675 0.6113520860671997 61.0 13 -0.008002296090126038
0.6054673194885254 0.14737296104431152 -0.03265763819217682 36.0 6 -0.007999991998076439
3.044809341430664 0.7405564188957214 0.7234426140785217 67.0 14 -0.00799768790602684
0.5809966325759888 0.14120221138000488 -0.01043653953820467 5.0 7 -0.007995383813977242
3.0637333393096924 0.7440249919891357 0.8447853922843933 72.0 15 -0.007993079721927643
1.3501689434051514 0.3261418640613556 -0.37218180298805237 51.0 0 -0.007972344756126404
1.3976439237594604 0.33735159039497375 0.025096561759710312 7.0 8 -0.007970040664076805
1.360192894935608 0.3280600905418396 -0.3230297565460205 52.0 1 -0.007967736572027206
1.419358491897583 0.342068612575531 0.07651517540216446 12.0 9 -0.007965432479977608
1.40091872215271 0.33762460947036743 -0.28010761737823486 61.0 2 -0.007963128387928009
1.4198315143585205 0.3419204652309418 0.1277703195810318 40.0 10 -0.00796082429587841
0.5934516191482544 0.14280372858047485 -0.09667651355266571 21.0 3 -0.007958520203828812
1.46879243850708 0.3531687557697296 0.18548515439033508 3.0 11 -0.007956216111779213
0.5886996984481812 0.14144320785999298 -0.07434030622243881 100.0 4 -0.007953912019729614
3.040621757507324 0.7299884557723999 0.49527156352996826 20.0 12 -0.007951607927680016
0.5870384573936462 0.14082735776901245 -0.052816376090049744 100.0 5 -0.007949303835630417
3.058361291885376 0.7336843609809875 0.6113520860671997 60.0 13 -0.007946999743580818
0.611804723739624 0.14665572345256805 -0.03297165781259537 97.0 6 -0.007944696582853794
3.04927134513855 0.7303767204284668 0.7238925695419312 65.0 14 -0.007942392490804195
0.5912098288536072 0.14150074124336243 -0.010611063800752163 24.0 7 -0.007940088398754597
3.0569167137145996 0.7310814261436462 0.8421972393989563 76.0 15 -0.007937784306704998
1.353234887123108 0.32163745164871216 -0.37269943952560425 53.0 0 -0.007917048409581184
0.6400688290596008 0.1521318405866623 0.011483684182167053 9.0 8 -0.007914744317531586
1.3689137697219849 0.32511159777641296 -0.3248293697834015 53.0 1 -0.007912440225481987
1.4078776836395264 0.3338463008403778 -0.2812524735927582 65.0 2 -0.00790783204138279
1.4094430208206177 0.333957701921463 0.1267244517803192 36.0 10 -0.007905527949333191
0.5824375748634338 0.13789716362953186 -0.09479929506778717 30.0 3 -0.007903223857283592
1.4642212390899658 0.3466671109199524 0.18475393950939178 7.0 11 -0.007900919765233994
0.6007805466651917 0.1421293020248413 -0.07580273598432541 100.0 4 -0.00789861660450697
0.5836484432220459 0.13786117732524872 -0.05246775969862938 100.0 5 -0.007894008420407772
3.0667619705200195 0.7238220572471619 0.6124969124794006 52.0 13 -0.007891704328358173
0.6201137900352478 0.14624600112438202 -0.0333903431892395 100.0 6 -0.007889400236308575
3.0633082389831543 0.7218782305717468 0.7265920042991638 71.0 14 -0.007887096144258976
0.6053248047828674 0.1426467001438141 -0.010855397209525108 84.0 7 -0.007884792052209377
3.0519285202026367 0.7186343669891357 0.840126633644104 76.0 15 -0.007882487960159779
1.3562302589416504 0.3173522353172302 -0.37321707606315613 51.0 0 -0.007861752063035965
0.6055728793144226 0.14159005880355835 0.010855397209525108 29.0 8 -0.007859447970986366
1.3663008213043213 0.31920504570007324 -0.3239295482635498 52.0 1 -0.007857143878936768
0.622389018535614 0.14529277384281158 0.033495016396045685 4.0 9 -0.007854839786887169
1.410946249961853 0.3293764591217041 -0.2816340923309326 61.0 2 -0.007852536626160145
1.435823917388916 0.3349197804927826 0.12899048626422882 16.0 10 -0.007850232534110546
0.5713725090026855 0.13317272067070007 -0.09292208403348923 31.0 3 -0.007847928442060947
1.4674153327941895 0.34174874424934387 0.18499769270420074 10.0 11 -0.007845624350011349
0.6012974381446838 0.1399265080690384 -0.07580273598432541 100.0 4 -0.00784332025796175
3.0284512042999268 0.7041851282119751 0.49245578050613403 1.0 12 -0.007841016165912151
0.5996753573417664 0.13932842016220093 -0.05386224761605263 100.0 5 -0.007838712073862553
3.073094606399536 0.7140019536018372 0.6132601499557495 10.0 13 -0.007836407981812954
0.6070019602775574 0.14091871678829193 -0.03265763819217682 100.0 6 -0.007834103889763355
3.0677077770233154 0.7116203904151917 0.7270418405532837 68.0 14 -0.007831800729036331
0.6077916026115417 0.14087878167629242 -0.010890301316976547 78.0 7 -0.007829496636986732
3.062070369720459 0.7091864347457886 0.8421972393989563 74.0 15 -0.007827192544937134
1.359266996383667 0.31281283497810364 -0.3737347424030304 50.0 0 -0.007806456182152033
0.5846270322799683 0.13454225659370422 0.010471443645656109 77.0 8 -0.007804152090102434
1.3598099946975708 0.3126872479915619 -0.3221299350261688 51.0 1 -0.007801848463714123
0.5917478203773499 0.13596323132514954 0.03182026371359825 18.0 9 -0.007799544371664524
1.4159711599349976 0.32508113980293274 -0.2823973298072815 61.0 2 -0.007797240279614925
0.6699722409248352 0.15369033813476562 0.06013746187090874 6.0 10 -0.007794936187565327
0.5776330828666687 0.13240179419517517 -0.0938606932759285 34.0 3 -0.007792632095515728
1.4647295475006104 0.335737019777298 0.18451020121574402 8.0 11 -0.007790328003466129
0.5901722311973572 0.13516752421855927 -0.07434030622243881 100.0 4 -0.007788024377077818
0.5962735414505005 0.13634589314460754 -0.053513623774051666 100.0 5 -0.0077834161929786205
3.0718629360198975 0.7018582820892334 0.6124969124794006 1.0 13 -0.007781112100929022
0.5997257232666016 0.13691501319408417 -0.032238952815532684 100.0 6 -0.0077788084745407104
3.0588958263397217 0.6977722644805908 0.7243424654006958 67.0 14 -0.007776504382491112
0.6102293133735657 0.13920091092586517 -0.010925207287073135 76.0 7 -0.007774200290441513
3.060760021209717 0.6976355314254761 0.8411619663238525 74.0 15 -0.007771896198391914
1.367779016494751 0.31025001406669617 -0.3758052587509155 48.0 0 -0.007772684097290039
0.5792193412780762 0.13127663731575012 0.010366729460656643 91.0 8 -0.00777038000524044
1.3684418201446533 0.30989816784858704 -0.3239295482635498 52.0 1 -0.007768075913190842
0.598039448261261 0.13532264530658722 0.0321342796087265 66.0 9 -0.00776577228680253
1.4074110984802246 0.3184649348258972 -0.2804892361164093 65.0 2 -0.007763468194752932
0.6121516823768616 0.13840362429618835 0.05490811914205551 28.0 10 -0.007761164102703333
0.579973042011261 0.13102185726165771 -0.09417356550693512 37.0 3 -0.007758860010653734
0.6816036105155945 0.15385589003562927 0.08579602837562561 6.0 11 -0.0077565559186041355
0.5983630418777466 0.13495683670043945 -0.07531525939702988 98.0 4 -0.007754252292215824
0.6783210039138794 0.1528664380311966 0.11012987792491913 2.0 12 -0.007751948200166225
0.6044735312461853 0.136224165558815 -0.05421087145805359 100.0 5 -0.007749644108116627
0.6021014451980591 0.1354684978723526 -0.03234362602233887 100.0 6 -0.007745035924017429
3.0534675121307373 0.6864498257637024 0.7225428223609924 68.0 14 -0.007742732297629118
0.6028832793235779 0.13542331755161285 -0.010785587131977081 99.0 7 -0.007740428205579519
3.068711757659912 0.6887502074241638 0.8427148461341858 72.0 15 -0.007738124113529921
1.366968035697937 0.3050532042980194 -0.37528762221336365 51.0 0 -0.007717388216406107
0.5894328951835632 0.13142982125282288 0.010541253723204136 100.0 8 -0.007715084124356508
1.3771238327026367 0.3068142831325531 -0.3257291615009308 51.0 1 -0.0077127800323069096
0.5965585708618164 0.13280043005943298 0.03202961012721062 70.0 9 -0.007710475940257311
1.4046813249588013 0.3126973509788513 -0.2797259986400604 70.0 2 -0.0077081723138689995
0.6087413430213928 0.13540062308311462 0.05455949530005455 72.0 10 -0.007705868221819401
0.5842834711074829 0.1298535317182541 -0.09479929506778717 41.0 3 -0.007703564129769802
0.6298134326934814 0.13985726237297058 0.07921507954597473 15.0 11 -0.007701260037720203
0.5949545502662659 0.1320071965456009 -0.07482778280973434 100.0 4 -0.007698955945670605
0.6152082085609436 0.1363883912563324 0.09980519860982895 2.0 12 -0.007696652319282293
0.5932743549346924 0.13152576982975006 -0.053164999932050705 100.0 5 -0.007694348227232695
0.6045206785202026 0.13379766047000885 -0.03244829550385475 97.0 6 -0.007689740043133497
3.0596506595611572 0.6766278147697449 0.7234426140785217 73.0 14 -0.0076874359510838985
0.5877314805984497 0.1298668533563614 -0.010506349615752697 79.0 7 -0.007685132324695587
3.0616648197174072 0.6759524345397949 0.840126633644104 76.0 15 -0.0076828282326459885
1.3585901260375977 0.2982085049152374 -0.37269943952560425 50.0 0 -0.0076620918698608875
0.5898880958557129 0.12937135994434357 0.010541253723204136 100.0 8 -0.007659788243472576
1.383897066116333 0.3032570481300354 -0.3270788788795471 49.0 1 -0.0076574841514229774
0.5930938124656677 0.12996622920036316 0.03182026371359825 51.0 9 -0.007655180059373379
1.3980931043624878 0.3061121702194214 -0.27819952368736267 63.0 2 -0.00765287596732378
0.6053175926208496 0.13242313265800476 0.05421087145805359 100.0 10 -0.007650571875274181
0.5885927677154541 0.12865698337554932 -0.09542503207921982 45.0 3 -0.00764826824888587
0.6031465530395508 0.1317279189825058 0.07580273598432541 72.0 11 -0.007645964156836271
0.599290668964386 0.13077591359615326 -0.07531525939702988 100.0 4 -0.007643660064786673
0.6156572103500366 0.1343473643064499 0.09980519860982895 20.0 12 -0.007641355972737074
0.5878898501396179 0.1281808614730835 -0.05264206975698471 100.0 5 -0.007639051880687475
0.6426177024841309 0.1399960070848465 0.1278420239686966 4.0 13 -0.007636748254299164
0.610838770866394 0.13296091556549072 -0.032762311398983 84.0 6 -0.007634444162249565
3.0619938373565674 0.6659441590309143 0.7234426140785217 62.0 14 -0.007632140070199966
0.6037910580635071 0.13131676614284515 -0.010785587131977081 96.0 7 -0.007629835978150368
3.0601139068603516 0.6649760007858276 0.8390913605690002 78.0 15 -0.007627531886100769
1.37095308303833 0.29590946435928345 -0.3758052587509155 50.0 0 -0.007606795988976955
0.5864045023918152 0.12657082080841064 0.010471443645656109 100.0 8 -0.007604491896927357
1.3829898834228516 0.29825565218925476 -0.3266289532184601 47.0 1 -0.007602188270539045
0.6013537049293518 0.12957781553268433 0.032238952815532684 58.0 9 -0.007599884178489447
1.402991771697998 0.30205610394477844 -0.27896276116371155 61.0 2 -0.007597580086439848
0.6057760119438171 0.1303097903728485 0.05421087145805359 100.0 10 -0.007595275994390249
0.5870850086212158 0.12628912925720215 -0.09511216729879379 41.0 3 -0.0075929719023406506
0.5938761830329895 0.12764127552509308 0.07458404451608658 100.0 11 -0.007590668275952339
0.6036027073860168 0.12962156534194946 -0.07580273598432541 100.0 4 -0.0075883641839027405
0.6315736770629883 0.13551324605941772 0.10230815410614014 56.0 12 -0.007586060091853142
0.5902819037437439 0.12654544413089752 -0.052816376090049744 100.0 5 -0.007583755999803543
0.6046857833862305 0.12963338196277618 0.12020967900753021 13.0 13 -0.007581451907753944
0.6132292747497559 0.1313530057668686 -0.032866984605789185 100.0 6 -0.007579148281365633
0.6081568002700806 0.13004449009895325 -0.010855397209525108 91.0 7 -0.007574540097266436
3.058638334274292 0.6534821391105652 0.8380560874938965 78.0 15 -0.007572236005216837
1.3700367212295532 0.29096120595932007 -0.37528762221336365 45.0 0 -0.007551500108093023
0.5907549858093262 0.1253533959388733 0.010541253723204136 97.0 8 -0.007549196016043425
1.3783036470413208 0.29221343994140625 -0.32527926564216614 50.0 1 -0.007546891923993826
0.5881032347679138 0.12468346208333969 0.0315062515437603 53.0 9 -0.0075445882976055145
1.4097474813461304 0.2986234426498413 -0.28010761737823486 60.0 2 -0.007542284205555916
0.6101033091545105 0.12912516295909882 0.05455949530005455 100.0 10 -0.007539980113506317
0.5875223278999329 0.12423890084028244 -0.09511216729879379 41.0 3 -0.0075376760214567184
0.5904337763786316 0.12474662810564041 0.07409656792879105 100.0 11 -0.00753537192940712
0.5923976898193359 0.12505385279655457 -0.07434030622243881 100.0 4 -0.007533068303018808
0.6281539797782898 0.13260193169116974 0.10168241709470749 96.0 12 -0.00753076421096921
0.6004458069801331 0.1266433298587799 -0.053687937557697296 100.0 5 -0.007528460118919611
0.6128188371658325 0.12914098799228668 0.12173613905906677 40.0 13 -0.007526156026870012
0.6019576191902161 0.12674276530742645 -0.032238952815532684 100.0 6 -0.007523851934820414
0.618368923664093 0.13008548319339752 -0.011029920540750027 86.0 7 -0.0075192442163825035
3.0645697116851807 0.6441295742988586 0.8390913605690002 76.0 15 -0.007516940124332905
1.3842819929122925 0.28893983364105225 -0.3789111077785492 50.0 0 -0.007496204227209091
0.5892099142074585 0.12298522144556046 0.010506349615752697 100.0 8 -0.0074939001351594925
1.3888037204742432 0.28963005542755127 -0.32752877473831177 52.0 1 -0.007491596043109894
0.5846243500709534 0.12181514501571655 0.031296905130147934 58.0 9 -0.007489291951060295
1.4030930995941162 0.2920997440814972 -0.2785811424255371 58.0 2 -0.007486987859010696
0.6066490411758423 0.12618309259414673 0.05421087145805359 100.0 10 -0.007484684232622385
0.5917990207672119 0.12309429049491882 -0.09573790431022644 48.0 3 -0.007482380140572786
0.6063926219940186 0.1260196566581726 0.07604647427797318 100.0 11 -0.007480076048523188
0.5889219045639038 0.12228168547153473 -0.07385282218456268 100.0 4 -0.007477771956473589
0.6131395101547241 0.1271982491016388 0.0991794615983963 74.0 12 -0.0074754683300852776
0.6125896573066711 0.1269729733467102 -0.05473380535840988 100.0 5 -0.007473164238035679
0.611321210861206 0.12671005725860596 0.12135452777147293 72.0 13 -0.00747086014598608
0.6101975440979004 0.12636607885360718 -0.03265763819217682 100.0 6 -0.0074685560539364815
1.4312399625778198 0.29613491892814636 0.3374266028404236 0.0 14 -0.007466251961886883
0.6051112413406372 0.12509220838546753 -0.010785587131977081 79.0 7 -0.007463947869837284
3.072474718093872 0.6346027255058289 0.8406442999839783 51.0 15 -0.007461644243448973
1.377663016319275 0.2827936112880707 -0.3768405616283417 50.0 0 -0.007440907880663872
0.5935534834861755 0.12173109501600266 0.010576157830655575 100.0 8 -0.00743860425427556
1.4031695127487183 0.2875196933746338 -0.3306780755519867 56.0 1 -0.007436300162225962
0.5889593958854675 0.12057469040155411 0.0315062515437603 52.0 9 -0.007433996070176363
1.3925141096115112 0.2850823998451233 -0.2762914299964905 53.0 2 -0.007431691978126764
0.6070641279220581 0.12417079508304596 0.05421087145805359 100.0 10 -0.007429387886077166
0.5922250151634216 0.12102817744016647 -0.09573790431022644 41.0 3 -0.007427084259688854
0.6029388904571533 0.12310777604579926 0.07555899769067764 100.0 11 -0.0074247801676392555
0.593235194683075 0.12101862579584122 -0.07434030622243881 100.0 4 -0.007422476075589657
0.6058374643325806 0.12347963452339172 0.097927987575531 85.0 12 -0.007420171983540058
0.5954370498657227 0.12135986238718033 -0.053164999932050705 100.0 5 -0.0074178678914904594
0.6252262592315674 0.12731744349002838 0.1240258514881134 96.0 13 -0.007415564265102148
0.6067206263542175 0.12343878298997879 -0.03244829550385475 100.0 6 -0.007413260173052549
1.4036195278167725 0.285314679145813 0.3306780755519867 1.0 14 -0.007410956081002951
0.609463632106781 0.12377533316612244 -0.010855397209525108 94.0 7 -0.007408651988953352
1.3824292421340942 0.27874624729156494 -0.37787580490112305 53.0 0 -0.00738561199977994
0.5998557209968567 0.1208433210849762 0.010680872946977615 100.0 8 -0.007383307907730341
1.406075119972229 0.28300413489341736 -0.33112797141075134 53.0 1 -0.00738100428134203
0.599166989326477 0.12048667669296265 0.03202961012721062 62.0 9 -0.007378700189292431
1.3877264261245728 0.2790583372116089 -0.27514657378196716 45.0 2 -0.007376396097242832
0.6035871505737305 0.12126622349023819 0.05386224761605263 100.0 10 -0.0073740920051932335
0.5868337154388428 0.11779376119375229 -0.09479929506778717 52.0 3 -0.007371787913143635
0.6033649444580078 0.1210022121667862 0.07555899769067764 100.0 11 -0.007369484286755323
0.6014396548271179 0.12050721049308777 -0.07531525939702988 100.0 4 -0.007367180194705725
0.6140124797821045 0.12291491031646729 0.0991794615983963 85.0 12 -0.007364876102656126
0.5880426168441772 0.11771617084741592 -0.05246775969862938 100.0 5 -0.007362572010606527
0.6141161322593689 0.12282387912273407 0.12173613905906677 90.0 13 -0.007360267918556929
0.6228161454200745 0.1244511604309082 -0.03328566998243332 89.0 6 -0.007357964292168617
1.3931406736373901 0.2781246304512024 0.3279786705970764 2.0 14 -0.0073556602001190186
0.6020476818084717 0.12008239328861237 -0.010715777985751629 79.0 7 -0.00735335610806942
1.4133715629577637 0.28165051341056824 0.3861580491065979 0.0 15 -0.007351052016019821
1.3985540866851807 0.276921808719635 -0.3820169270038605 60.0 0 -0.0073303161188960075
0.5904655456542969 0.1168082132935524 0.010506349615752697 100.0 8 -0.007328012026846409
1.3974956274032593 0.2762046456336975 -0.3288784623146057 60.0 1 -0.00732570793479681
0.6074215173721313 0.11994250863790512 0.03244829550385475 59.0 9 -0.007323404308408499
1.3886919021606445 0.2742135226726532 -0.27514657378196716 39.0 2 -0.0073211002163589
0.6059615015983582 0.11954403668642044 0.05403655767440796 100.0 10 -0.007318796124309301
0.5969318151473999 0.11765442788600922 -0.09636364877223969 71.0 3 -0.007316492032259703
0.5979406237602234 0.11774486303329468 0.07482778280973434 100.0 11 -0.007314187940210104
0.6096476912498474 0.11993968486785889 -0.07629022002220154 92.0 4 -0.007311884313821793
0.620252788066864 0.12191364914178848 0.10011807084083557 87.0 12 -0.007309580221772194
0.6040897965431213 0.11873674392700195 -0.05386224761605263 100.0 5 -0.007307276129722595
0.612614631652832 0.12030128389596939 0.12135452777147293 81.0 13 -0.0073049720376729965
0.6114874482154846 0.11996910721063614 -0.03265763819217682 97.0 6 -0.007302667945623398
1.3902784585952759 0.27250993251800537 0.3270788788795471 3.0 14 -0.007300363853573799
0.608350396156311 0.11913314461708069 -0.01082049123942852 84.0 7 -0.007298060227185488
1.4067625999450684 0.27523112297058105 0.384087473154068 2.0 15 -0.007295756135135889
1.4052013158798218 0.2731437087059021 -0.3835698664188385 73.0 0 -0.007275020238012075
0.5987216830253601 0.11627136915922165 0.010645967908203602 100.0 8 -0.007272716145962477
1.3946250677108765 0.27058276534080505 -0.3279786705970764 54.0 1 -0.007270412053912878
0.6039150357246399 0.11706119030714035 0.032238952815532684 55.0 9 -0.007268107961863279
1.3857860565185547 0.2686168849468231 -0.2743833661079407 40.0 2 -0.007265804335474968
0.6181113123893738 0.11970105022192001 0.05508242920041084 100.0 10 -0.007263500243425369
0.6050964593887329 0.11707106977701187 -0.09761511534452438 83.0 3 -0.007261196151375771
0.5925009250640869 0.11452688276767731 0.07409656792879105 100.0 11 -0.007258892059326172
0.6061645150184631 0.1170579269528389 -0.07580273598432541 82.0 4 -0.007256587967276573
0.6187348961830139 0.11937372386455536 0.09980519860982895 85.0 12 -0.0072542838752269745
0.6005879044532776 0.11587259918451309 -0.053513623774051666 100.0 5 -0.007251980248838663
0.6168863773345947 0.11890542507171631 0.12211776524782181 94.0 13 -0.007249676156789064
0.6079800128936768 0.11707837134599686 -0.03244829550385475 86.0 6 -0.007247372064739466
1.3701709508895874 0.2636057436466217 0.3221299350261688 2.0 14 -0.007245067972689867
0.6087625622749329 0.1170090064406395 -0.01082049123942852 81.0 7 -0.007242764346301556
1.3963316679000854 0.26813268661499023 0.3809816539287567 4.0 15 -0.007240460254251957
1.4061461687088013 0.26823726296424866 -0.3835698664188385 69.0 0 -0.007219724357128143
0.6050170063972473 0.11530367285013199 0.010750683024525642 100.0 8 -0.007217420265078545
1.3955612182617188 0.26571258902549744 -0.3279786705970764 57.0 1 -0.007215116173028946
0.5886037945747375 0.11206921190023422 0.03140157833695412 56.0 9 -0.007212812080979347
1.3751431703567505 0.2615770101547241 -0.27209365367889404 44.0 2 -0.0072105079889297485
0.6165681481361389 0.11717057228088379 0.05490811914205551 100.0 10 -0.00720820389688015
0.6113235950469971 0.11606337875127792 -0.09855373203754425 97.0 3 -0.0072059002704918385
0.6026486158370972 0.11430772393941879 0.07531525939702988 100.0 11 -0.00720359617844224
0.5948670506477356 0.11272390931844711 -0.07434030622243881 48.0 4 -0.007201292086392641
0.613304853439331 0.11621776968240738 0.09886659681797028 87.0 12 -0.007198987994343042
0.6068616509437561 0.11488709598779678 -0.05403655767440796 100.0 5 -0.007196683902293444
0.6153686046600342 0.11638664454221725 0.12173613905906677 85.0 13 -0.007194380275905132
0.6221227049827576 0.11755131185054779 -0.033180996775627136 100.0 6 -0.007192076183855534
1.3653380870819092 0.25773656368255615 0.3207802474498749 5.0 14 -0.007189772091805935
0.6032522320747375 0.11387667059898376 -0.010715777985751629 79.0 7 -0.007187467999756336
1.397213101387024 0.2635011076927185 0.3809816539287567 4.0 15 -0.0071851639077067375
1.4032762050628662 0.26261618733406067 -0.38253456354141235 69.0 0 -0.007164428010582924
0.6053959727287292 0.11329685896635056 0.010750683024525642 97.0 8 -0.007162123918533325
1.4079278707504272 0.26323238015174866 -0.3306780755519867 61.0 1 -0.007159820292145014
0.5929180383682251 0.11074747145175934 0.031610921025276184 51.0 9 -0.007157516200095415
1.3721880912780762 0.25605466961860657 -0.27133041620254517 44.0 2 -0.007155212108045816
0.6110973954200745 0.1139223501086235 0.05438518151640892 100.0 10 -0.007152908015996218
0.6078212857246399 0.11331161111593246 -0.097927987575531 87.0 3 -0.007150603923946619
0.6127820611000061 0.11412575840950012 0.07653395086526871 100.0 11 -0.007148300297558308
0.59718918800354 0.11111388355493546 -0.07458404451608658 22.0 4 -0.007145996205508709
0.6039962768554688 0.11227135360240936 0.09730225056409836 85.0 12 -0.00714369211345911
0.6053000688552856 0.11240442842245102 -0.05386224761605263 74.0 5 -0.0071413880214095116
0.6234722137451172 0.11577899754047394 0.12326261401176453 94.0 13 -0.007139083929359913
0.6244728565216064 0.11585207283496857 -0.03328566998243332 89.0 6 -0.007136779837310314
1.3642691373825073 0.2528526186943054 0.32033032178878784 6.0 14 -0.007134476210922003
0.5997135043144226 0.11104220151901245 -0.010645967908203602 79.0 7 -0.007132172118872404
1.3867264986038208 0.2565142512321472 0.37787580490112305 2.0 15 -0.007129868026822805
1.3946391344070435 0.25621557235717773 -0.37994638085365295 62.0 0 -0.007109132129698992
0.5979204773902893 0.10973884910345078 0.010611063800752163 100.0 8 -0.007106828037649393
1.412671685218811 0.2590194046497345 -0.331577867269516 75.0 1 -0.007104523945599794
0.6031238436698914 0.11047625541687012 0.0321342796087265 53.0 9 -0.007102220319211483
1.369167447090149 0.25079506635665894 -0.2705671787261963 45.0 2 -0.007099916227161884
0.5977528691291809 0.10938461124897003 0.053164999932050705 100.0 10 -0.007097612135112286
0.6043267250061035 0.11047887802124023 -0.09730225056409836 97.0 3 -0.007095308043062687
0.6190351247787476 0.11305581778287888 0.077265165746212 100.0 11 -0.007093003951013088
0.5956205725669861 0.10867214947938919 -0.07434030622243881 14.0 4 -0.0070906998589634895
0.6199313402175903 0.11299621313810349 0.09980519860982895 85.0 12 -0.007088396232575178
0.6037093997001648 0.11003940552473068 -0.053687937557697296 33.0 5 -0.0070860921405255795
0.6200096011161804 0.11289837956428528 0.12249937653541565 90.0 13 -0.007083788048475981
0.6189784407615662 0.11259901523590088 -0.03297165781259537 84.0 6 -0.007081483956426382
1.359391450881958 0.2470438927412033 0.3189806342124939 7.0 14 -0.007079180330038071
0.6000974774360657 0.1089479848742485 -0.010645967908203602 74.0 7 -0.007076876237988472
1.3724068403244019 0.2489137053489685 0.3737347424030304 2.0 15 -0.007074572145938873
1.3993275165557861 0.2520316541194916 -0.3809816539287567 54.0 0 -0.00705383624881506
0.5904274582862854 0.10623470693826675 0.010471443645656109 100.0 8 -0.007051532156765461
1.407813310623169 0.2530520260334015 -0.33022817969322205 69.0 1 -0.007049228064715862
0.6113690733909607 0.10978240519762039 0.032552968710660934 52.0 9 -0.007046923972666264
1.3796961307525635 0.2477494776248932 -0.2724752724170685 51.0 2 -0.007044619880616665
0.6177419424057007 0.11081548780202866 0.05490811914205551 100.0 10 -0.0070423162542283535
0.6085975170135498 0.1090654581785202 -0.097927987575531 97.0 3 -0.007040012162178755
0.6018397808074951 0.10774601995944977 0.07507152855396271 100.0 11 -0.007037708070129156
0.6292157769203186 0.11253375560045242 -0.07848386466503143 13.0 4 -0.007035403978079557
0.6242111325263977 0.11152626574039459 0.1004309356212616 81.0 12 -0.007033100351691246
0.6040897965431213 0.1079312339425087 -0.053687937557697296 33.0 5 -0.007030796259641647
0.6184671521186829 0.1103886216878891 0.12211776524782181 81.0 13 -0.007028492167592049
0.6115027070045471 0.1090354397892952 -0.032552968710660934 91.0 6 -0.00702618807554245
1.3564083576202393 0.24161335825920105 0.3180808126926422 6.0 14 -0.007023883983492851
0.6004741191864014 0.10685271769762039 -0.010645967908203602 60.0 7 -0.0070215798914432526
1.3732672929763794 0.24412189424037933 0.3737347424030304 2.0 15 -0.007019276265054941
1.4078084230422974 0.24848835170269012 -0.38305220007896423 53.0 0 -0.00699853990226984
0.5986720323562622 0.10556189715862274 0.010611063800752163 100.0 8 -0.006996236275881529
1.406768798828125 0.24779853224754333 -0.3297782838344574 65.0 1 -0.00699393218383193
0.5920781493186951 0.10418645292520523 0.0315062515437603 48.0 9 -0.0069916280917823315
1.4037549495697021 0.2470151036977768 -0.27705466747283936 51.0 2 -0.006989323999732733
0.6298987865447998 0.11072799563407898 0.0559539832174778 100.0 10 -0.006987019907683134
0.612865686416626 0.10762384533882141 -0.09855373203754425 97.0 3 -0.006984716281294823
0.6041674017906189 0.10598766803741455 0.07531525939702988 100.0 11 -0.006982412189245224
0.6100518703460693 0.10690991580486298 -0.07604647427797318 10.0 4 -0.006980108097195625
0.6245967149734497 0.10934651643037796 0.1004309356212616 85.0 12 -0.006977804005146027
0.6025003790855408 0.10547816753387451 -0.053513623774051666 37.0 5 -0.006975499913096428
0.6207826137542725 0.10856744647026062 0.12249937653541565 94.0 13 -0.0069731962867081165
0.6197494864463806 0.10827498883008957 -0.03297165781259537 84.0 6 -0.006970892194658518
1.357243537902832 0.23687678575515747 0.3180808126926422 5.0 14 -0.006968588102608919
0.6087233424186707 0.10612999647855759 -0.010785587131977081 22.0 7 -0.0069662840105593204
1.3703047037124634 0.2386634796857834 0.37269943952560425 2.0 15 -0.006963979918509722
1.4124746322631836 0.24423059821128845 -0.384087473154068 48.0 0 -0.006943244021385908
0.6069188117980957 0.10483338683843613 0.010750683024525642 97.0 8 -0.006940939929336309
1.413386344909668 0.24388021230697632 -0.33112797141075134 54.0 1 -0.006938636302947998
0.5963746905326843 0.10279743373394012 0.03171559050679207 52.0 9 -0.006936332210898399
1.3871963024139404 0.2391117811203003 -0.2736200988292694 45.0 2 -0.006934028118848801
0.6185005307197571 0.10650043189525604 0.05490811914205551 92.0 10 -0.006931724026799202
0.6035037040710449 0.10380937159061432 -0.09698937833309174 90.0 3 -0.006929419934749603
0.6064901351928711 0.10421409457921982 0.07555899769067764 100.0 11 -0.006927115842700005
0.602595329284668 0.10343687981367111 -0.07507152855396271 8.0 4 -0.006924812216311693
0.6132927536964417 0.10516263544559479 0.09855373203754425 85.0 12 -0.0069225081242620945
0.6421394348144531 0.11010903120040894 -0.05699985474348068 33.0 5 -0.006920204032212496
0.6211578249931335 0.10639967769384384 0.12249937653541565 90.0 13 -0.006917899940162897
0.6260294914245605 0.1071220114827156 -0.03328566998243332 97.0 6 -0.006915596313774586
1.3503786325454712 0.23082458972930908 0.31628119945526123 7.0 14 -0.006913292221724987
0.6031766533851624 0.10299459844827652 -0.010680872946977615 8.0 7 -0.006910988129675388
1.3749382495880127 0.2345280796289444 0.3737347424030304 4.0 15 -0.00690868403762579
1.3923661708831787 0.23575137555599213 -0.3783934414386749 45.0 0 -0.006887948140501976
0.6033377051353455 0.10204706341028214 0.010680872946977615 100.0 8 -0.006885644048452377
1.414229154586792 0.23894469439983368 -0.33112797141075134 48.0 1 -0.006883339956402779
0.5986816883087158 0.10115179419517517 0.03182026371359825 50.0 9 -0.00688103586435318
1.3802789449691772 0.2329614758491516 -0.27209365367889404 53.0 2 -0.0068787322379648685
0.6110098361968994 0.10301568359136581 0.05421087145805359 100.0 10 -0.00687642814591527
0.6213938593864441 0.10465459525585175 -0.09980519860982895 100.0 3 -0.006874124053865671
0.6244683861732483 0.1050606369972229 0.07775264233350754 100.0 11 -0.0068718199618160725
0.6186138391494751 0.10396464169025421 -0.07702143490314484 8.0 4 -0.006869516335427761
0.6077939867973328 0.10214625298976898 0.09761511534452438 83.0 12 -0.006867212243378162
0.6110816597938538 0.10258882492780685 -0.05421087145805359 37.0 5 -0.006864908151328564
0.6234616637229919 0.10455562174320221 0.12288100272417068 94.0 13 -0.006862604059278965
