# .PCD v0.7 - Point Cloud Data file format
VERSION 0.7
FIELDS x y z intensity ring time
SIZE 4 4 4 4 4 4
TYPE F F F F F F
COUNT 1 1 1 1 1 1
WIDTH 543
HEIGHT 1
VIEWPOINT 0 0 0 1 0 0 0
POINTS 543
DATA ascii
-2.574232339859009 0.5952541828155518 -0.32441622018814087 37.0 4 -0.02403566986322403
-3.052281141281128 0.7063580751419067 0.4962101876735687 43.0 12 -0.02403336577117443
-2.6709396839141846 0.6181080937385559 -0.23985259234905243 5.0 5 -0.024031061679124832
-3.0659420490264893 0.7100832462310791 0.6117336750030518 45.0 13 -0.024028757587075233
-2.4282045364379883 0.5628274083137512 -0.13063055276870728 12.0 6 -0.024026453495025635
-3.0620126724243164 0.7102993726730347 0.7256921529769897 53.0 14 -0.024024149402976036
-3.0258214473724365 0.7030178904533386 0.8323620557785034 54.0 15 -0.02401954121887684
-2.2329776287078857 0.5216844081878662 -0.6144364476203918 1.0 0 -0.0239988062530756
-3.0181286334991455 0.7056725025177002 0.05410246178507805 8.0 8 -0.023996502161026
-3.09393572807312 0.724536120891571 0.16653302311897278 28.0 9 -0.023991893976926804
-2.4544167518615723 0.574773907661438 -0.4899975061416626 1.0 2 -0.023989589884877205
-3.0707473754882812 0.7196719646453857 0.2759350836277008 43.0 10 -0.023987285792827606
-2.5924534797668457 0.6080545783042908 -0.4217473566532135 33.0 3 -0.023984981700778008
-3.0727782249450684 0.721278727054596 0.38754454255104065 56.0 11 -0.02398267760872841
-2.5798683166503906 0.606052815914154 -0.32539117336273193 37.0 4 -0.02398037351667881
-3.0594112873077393 0.7192686796188354 0.49777454137802124 47.0 12 -0.02397806942462921
-2.6628377437591553 0.6265238523483276 -0.23932965099811554 2.0 5 -0.023975765332579613
-3.0596227645874023 0.7198811173439026 0.6109704375267029 42.0 13 -0.023973461240530014
-2.437889575958252 0.5740467309951782 -0.13125859200954437 25.0 6 -0.023971157148480415
-3.0557212829589844 0.7200896143913269 0.7247923612594604 52.0 14 -0.023968853056430817
-3.0195889472961426 0.7126874923706055 0.8313267827033997 56.0 15 -0.02396424487233162
-2.212254762649536 0.525401771068573 -0.6092600226402283 1.0 0 -0.02394350990653038
-3.0234291553497314 0.7180525064468384 0.054242078214883804 8.0 8 -0.02394120581448078
-3.095273971557617 0.7362560033798218 0.16674236953258514 27.0 9 -0.023936597630381584
-3.0758419036865234 0.7327682375907898 0.2766323387622833 47.0 10 -0.023931989446282387
-2.590207815170288 0.6175517439842224 -0.4217473566532135 10.0 3 -0.023929685354232788
-3.0663797855377197 0.731079638004303 0.3870570659637451 55.0 11 -0.02392738126218319
-2.585460901260376 0.6168975234031677 -0.326366126537323 25.0 4 -0.02392507717013359
-3.0722532272338867 0.7336133718490601 0.5002774596214294 51.0 12 -0.023922773078083992
-2.6800127029418945 0.640446662902832 -0.24107277393341064 1.0 5 -0.023920468986034393
-3.053144693374634 0.7301778197288513 0.610207200050354 46.0 13 -0.023918164893984795
-2.4338269233703613 0.5825127363204956 -0.1311539113521576 32.0 6 -0.023915862664580345
-3.058746814727783 0.7326464056968689 0.7261420488357544 51.0 14 -0.023913558572530746
-3.0283544063568115 0.7259255647659302 0.8344326615333557 55.0 15 -0.02390895038843155
-2.2254316806793213 0.5367439985275269 -0.6134011745452881 2.0 0 -0.02388821355998516
-3.0207772254943848 0.7291284799575806 0.054242078214883804 7.0 8 -0.023885909467935562
-3.088671922683716 0.7466573119163513 0.16653302311897278 29.0 9 -0.023881301283836365
-3.088757276535034 0.7472485303878784 0.278026819229126 47.0 10 -0.023876693099737167
-2.5918757915496826 0.6275197863578796 -0.42237308621406555 33.0 3 -0.02387438900768757
-3.0636796951293945 0.7423136830329895 0.3870570659637451 55.0 11 -0.02387208491563797
-2.5908994674682617 0.628240168094635 -0.32734107971191406 9.0 4 -0.02386978268623352
-3.0772218704223633 0.7467328906059265 0.5015289187431335 47.0 12 -0.023867478594183922
-2.6467819213867188 0.6422803401947021 -0.23828379809856415 3.0 5 -0.023865174502134323
-3.050577402114868 0.7408301830291748 0.610207200050354 46.0 13 -0.023862870410084724
-2.4123711585998535 0.5862882137298584 -0.13010719418525696 25.0 6 -0.023860566318035126
-3.0523838996887207 0.7423980236053467 0.7252422571182251 55.0 14 -0.023858262225985527
-3.0294275283813477 0.7379345893859863 0.8354679346084595 55.0 15 -0.02385365404188633
-3.025982618331909 0.7415725588798523 0.05438169836997986 8.0 8 -0.023830613121390343
-3.082167387008667 0.7564821839332581 0.1663236916065216 29.0 9 -0.023826004937291145
-3.0899996757507324 0.7589770555496216 0.27837544679641724 43.0 10 -0.023821398615837097
-2.601179361343384 0.6393919587135315 -0.4242503345012665 41.0 3 -0.0238190945237875
-3.0707080364227295 0.7553744316101074 0.38827574253082275 55.0 11 -0.0238167904317379
-2.579052686691284 0.6349083185195923 -0.3261224031448364 31.0 4 -0.0238144863396883
-3.07076096534729 0.7565242052078247 0.5009031891822815 47.0 12 -0.023812182247638702
-2.673542022705078 0.6586638689041138 -0.2408984750509262 5.0 5 -0.023809878155589104
-3.0555975437164307 0.7533541321754456 0.6117336750030518 45.0 13 -0.023807574063539505
-2.4277617931365967 0.599012017250061 -0.131049245595932 32.0 6 -0.023805269971489906
-3.045989990234375 0.7521140575408936 0.7243424654006958 55.0 14 -0.023802965879440308
-2.6168792247772217 0.6466422080993652 -0.04705168679356575 1.0 7 -0.02380066178739071
-3.0305838584899902 0.7494324445724487 0.8365032076835632 55.0 15 -0.02379835769534111
-3.027256488800049 0.7530962228775024 0.054451506584882736 8.0 8 -0.023775318637490273
-3.085322380065918 0.7686849236488342 0.16663770377635956 33.0 9 -0.023770710453391075
-3.083465099334717 0.7687938809394836 0.278026819229126 45.0 10 -0.023766102269291878
-2.6046817302703857 0.6499026417732239 -0.42518892884254456 42.0 3 -0.02376379817724228
-3.075756788253784 0.7680123448371887 0.3892507255077362 51.0 11 -0.02376149408519268
-2.5960793495178223 0.6487189531326294 -0.3285597860813141 39.0 4 -0.02375918999314308
-3.0642685890197754 0.7662801146507263 0.5002774596214294 51.0 12 -0.023756885901093483
-2.6712265014648438 0.6679922938346863 -0.2408984750509262 4.0 5 -0.023754581809043884
-3.068185329437256 0.7678293585777283 0.6147866249084473 45.0 13 -0.023752277716994286
-2.429530620574951 0.6084532737731934 -0.13125859200954437 32.0 6 -0.023749973624944687
-3.0565781593322754 0.766057550907135 0.7274917960166931 56.0 14 -0.023747669532895088
-3.027949333190918 0.7600066065788269 0.8365032076835632 56.0 15 -0.02374306134879589
-3.024609327316284 0.7636587619781494 0.054451506584882736 7.0 8 -0.023720022290945053
-3.1019833087921143 0.7843462228775024 0.1676844209432602 31.0 9 -0.023715414106845856
-3.0846259593963623 0.7805300951004028 0.27837544679641724 43.0 10 -0.02371080592274666
-2.590907573699951 0.6560813188552856 -0.423311710357666 40.0 3 -0.02370850183069706
-3.080753803253174 0.7806945443153381 0.39022567868232727 53.0 11 -0.02370619773864746
-2.599571704864502 0.6592409610748291 -0.3292909860610962 36.0 4 -0.023703893646597862
-3.0730631351470947 0.7798873782157898 0.5021546483039856 47.0 12 -0.023701589554548264
-2.6572914123535156 0.6743720769882202 -0.23985259234905243 5.0 5 -0.023699285462498665
-3.061680555343628 0.7775681614875793 0.6140233874320984 42.0 13 -0.023696981370449066
-2.442878007888794 0.6208654642105103 -0.13209596276283264 36.0 6 -0.023694677278399467
-3.059551239013672 0.778163492679596 0.7288414835929871 55.0 14 -0.02369237318634987
-2.6123008728027344 0.6648963689804077 -0.04705168679356575 1.0 7 -0.02369006909430027
-3.021533966064453 0.7696171998977661 0.8354679346084595 56.0 15 -0.02368776500225067
-3.025799512863159 0.7752046585083008 0.05452131852507591 7.0 8 -0.023664725944399834
-3.0972917079925537 0.7946730256080627 0.1675797551870346 30.0 9 -0.023660117760300636
-3.093461275100708 0.7942657470703125 0.27942129969596863 42.0 10 -0.02365550957620144
-2.590514898300171 0.6656123399734497 -0.42362460494041443 37.0 3 -0.02365320548415184
-3.078009843826294 0.7914437651634216 0.39022567868232727 53.0 11 -0.02365090139210224
-2.6030220985412598 0.6697952747344971 -0.3300222158432007 33.0 4 -0.023648597300052643
-3.0779738426208496 0.7925807237625122 0.5034061670303345 46.0 12 -0.023646293208003044
-2.8903136253356934 0.7442581057548523 -0.2611185908317566 8.0 5 -0.023643989115953445
-3.0532443523406982 0.7867803573608398 0.6128785014152527 41.0 13 -0.023641685023903847
-2.4252238273620605 0.6253992319107056 -0.13125859200954437 36.0 6 -0.023639380931854248
-3.0700244903564453 0.7922479510307312 0.7319908142089844 56.0 14 -0.0236370787024498
-3.0225698947906494 0.7811264395713806 0.8365032076835632 56.0 15 -0.0236324705183506
-3.0230753421783447 0.7857613563537598 0.05452131852507591 7.0 8 -0.023609429597854614
-3.094498872756958 0.8054798245429993 0.1675797551870346 28.0 9 -0.023604821413755417
-2.58392596244812 0.6725806593894958 -0.5190004706382751 1.0 2 -0.023602517321705818
-3.0925984382629395 0.8055607080459595 0.27959561347961426 41.0 10 -0.02360021322965622
-2.605379104614258 0.6791359186172485 -0.42644038796424866 38.0 3 -0.02359790913760662
-3.065624475479126 0.7996780276298523 0.38900697231292725 48.0 11 -0.023595605045557022
-2.5949060916900635 0.6773726940155029 -0.3292909860610962 36.0 4 -0.023593300953507423
-3.086656332015991 0.8063150644302368 0.5052834153175354 56.0 12 -0.023590996861457825
-2.9995052814483643 0.7835489511489868 -0.2712286710739136 22.0 5 -0.023588694632053375
-3.059976577758789 0.79991614818573 0.6147866249084473 42.0 13 -0.023586390540003777
-2.4230260848999023 0.6338610649108887 -0.13125859200954437 32.0 6 -0.023584086447954178
-3.061584711074829 0.8014783263206482 0.7306410670280457 66.0 14 -0.02358178235590458
-3.050577163696289 0.7991654872894287 -0.05504488945007324 9.0 7 -0.02357947826385498
-3.027299404144287 0.7936328649520874 0.8385737538337708 56.0 15 -0.023577174171805382
-3.035782814025879 0.8003875613212585 0.05480055510997772 7.0 8 -0.023554133251309395
-3.103398084640503 0.8187944293022156 0.1682077795267105 14.0 9 -0.023549525067210197
-2.594850540161133 0.6851039528846741 -0.5216718316078186 18.0 2 -0.0235472209751606
-3.105177640914917 0.8204233646392822 0.2809901237487793 38.0 10 -0.023544916883111
-2.620180368423462 0.6927707195281982 -0.42925623059272766 24.0 3 -0.02354261465370655
-3.070490598678589 0.8124045729637146 0.3899819254875183 50.0 11 -0.023540310561656952
-2.9686434268951416 0.7860125303268433 -0.3770637810230255 28.0 4 -0.023538006469607353
-3.076327085494995 0.8145240545272827 0.5040318965911865 48.0 12 -0.023535702377557755
-3.031418561935425 0.8031997084617615 -0.2743662893772125 28.0 5 -0.023533398285508156
-3.0609607696533203 0.8115988969802856 0.6155498623847961 46.0 13 -0.023531094193458557
-2.428520441055298 0.644364058971405 -0.1316772699356079 32.0 6 -0.02352879010140896
-3.060652017593384 0.8126605153083801 0.7310910224914551 60.0 14 -0.02352648600935936
-3.047910213470459 0.8092772960662842 -0.05504488945007324 36.0 7 -0.02352418191730976
-3.0395874977111816 0.807635486125946 0.8427148461341858 63.0 15 -0.023521877825260162
-3.040839672088623 0.8125151991844177 0.054940178990364075 7.0 8 -0.023498836904764175
-2.967393398284912 0.7940000295639038 0.16098542511463165 2.0 9 -0.023494230583310127
-3.0513832569122314 0.8170442581176758 -0.6140233874320984 13.0 2 -0.02349192649126053
-3.102294683456421 0.8312574625015259 0.2809901237487793 39.0 10 -0.02348962239921093
-3.071988582611084 0.8231369853019714 -0.5037190318107605 36.0 3 -0.02348731830716133
-3.075449228286743 0.824638843536377 0.3909568786621094 50.0 11 -0.023485014215111732
-3.0580496788024902 0.820545494556427 -0.3887632191181183 30.0 4 -0.023482710123062134
-3.0696492195129395 0.8242329359054565 0.5034061670303345 50.0 12 -0.023480406031012535
-3.0228240489959717 0.8122255206108093 -0.27384334802627563 30.0 5 -0.023478101938962936
-3.073420763015747 0.8258206844329834 0.6186028122901917 53.0 13 -0.023475797846913338
-2.4379429817199707 0.6555255651473999 -0.132305309176445 32.0 6 -0.02347349375486374
-3.0673491954803467 0.8253373503684998 0.7333405017852783 61.0 14 -0.02347118966281414
-3.0412049293518066 0.8188719153404236 -0.054975081235170364 30.0 7 -0.02346888557076454
-3.040480852127075 0.8192459940910339 0.8437501192092896 67.0 15 -0.023466581478714943
-2.999382734298706 0.8126657605171204 0.054242078214883804 3.0 8 -0.023443542420864105
-3.0883290767669678 0.8373438715934753 -0.7387393116950989 12.0 1 -0.023441238328814507
-2.922197103500366 0.7928476929664612 0.15868262946605682 2.0 9 -0.023438934236764908
-3.077078104019165 0.8348698616027832 -0.6197476387023926 31.0 2 -0.02343663014471531
-3.0956757068634033 0.8404965996742249 0.28064149618148804 37.0 10 -0.02343432605266571
-3.061471462249756 0.8317835927009583 -0.5024675726890564 31.0 3 -0.023432021960616112
-3.095538854598999 0.8416187763214111 0.39388173818588257 50.0 11 -0.023429717868566513
-3.062828779220581 0.8333004713058472 -0.38973820209503174 29.0 4 -0.023427413776516914
-3.0762836933135986 0.8375377058982849 0.5049704909324646 52.0 12 -0.023425109684467316
-3.023815155029297 0.8238189816474915 -0.2741919755935669 19.0 5 -0.023422805592417717
-3.0667312145233154 0.8355112075805664 0.6178395748138428 47.0 13 -0.02342050150036812
-2.443347454071045 0.666132926940918 -0.13272398710250854 36.0 6 -0.02341819740831852
-3.0776097774505615 0.8396298289299011 0.7364898324012756 70.0 14 -0.02341589331626892
-3.047973871231079 0.8321153521537781 -0.05514960363507271 29.0 7 -0.023413589224219322
-3.0338752269744873 0.8288361430168152 0.8427148461341858 70.0 15 -0.023411285132169724
-2.9020426273345947 0.7971761226654053 0.05253174528479576 2.0 8 -0.023388246074318886
-3.0891454219818115 0.8491520285606384 -0.7396391034126282 27.0 1 -0.023385941982269287
-2.930966377258301 0.806221604347229 0.15931066870689392 2.0 9 -0.02338363789021969
-3.0796759128570557 0.8477061986923218 -0.6208925247192383 30.0 2 -0.02338133379817009
-3.0887324810028076 0.8507782220840454 0.2802928686141968 37.0 10 -0.02337902970612049
-3.0507850646972656 0.8408986330032349 -0.5012161135673523 27.0 3 -0.023376725614070892
-3.0849273204803467 0.8503093719482422 0.3929068148136139 46.0 11 -0.023374421522021294
-3.0752100944519043 0.8482093214988708 -0.39168810844421387 23.0 4 -0.023372117429971695
-3.0733416080474854 0.8482702374458313 0.5049704909324646 52.0 12 -0.023369813337922096
-3.038205146789551 0.839143693447113 -0.2757607400417328 8.0 5 -0.023367509245872498
-3.057971239089966 0.845177412033081 0.6166946887969971 50.0 13 -0.0233652051538229
-2.427414894104004 0.6713565587997437 -0.13199129700660706 34.0 6 -0.0233629010617733
-3.0576083660125732 0.8462260365486145 0.7324406504631042 66.0 14 -0.0233605969697237
-3.0450503826141357 0.8427504897117615 -0.05514960363507271 10.0 7 -0.023358292877674103
-3.0384106636047363 0.8414838314056396 0.8447853922843933 72.0 15 -0.023355990648269653
-2.899101495742798 0.8078073263168335 0.05253174528479576 3.0 8 -0.023332949727773666
-3.0841352939605713 0.8599461317062378 -0.7391892075538635 30.0 1 -0.023330645635724068
-2.941601037979126 0.8202034831047058 0.1600433737039566 2.0 9 -0.02332834154367447
-3.0785892009735107 0.8589780926704407 -0.6212741136550903 24.0 2 -0.02332603745162487
-3.0857439041137695 0.8615548014640808 0.2802928686141968 37.0 10 -0.02332373335957527
-2.676840305328369 0.7478912472724915 -0.4402066469192505 12.0 3 -0.023321429267525673
-3.056936740875244 0.8546620011329651 0.38973820209503174 40.0 11 -0.023319125175476074
-3.060760021209717 0.8557309508323669 -0.39022567868232727 14.0 4 -0.023316821083426476
-3.0741665363311768 0.8600575923919678 0.5055962204933167 40.0 12 -0.023314516991376877
-3.054443836212158 0.8551154136657715 -0.2775038778781891 51.0 5 -0.023312212899327278
-3.055002450942993 0.8558459877967834 0.6166946887969971 48.0 13 -0.02330991066992283
-2.4346721172332764 0.6825213432312012 -0.13251465559005737 37.0 6 -0.02330760657787323
-3.0303924083709717 0.8495219945907593 0.7265920042991638 45.0 14 -0.02330530248582363
-3.013209342956543 0.8452730178833008 -0.05462603271007538 2.0 7 -0.023302998393774033
-3.033594846725464 0.8515619039535522 0.844267725944519 66.0 15 -0.023300694301724434
-2.958179473876953 0.8342927694320679 -0.8235622644424438 3.0 0 -0.023279957473278046
-2.906029462814331 0.8201324343681335 0.052706267684698105 2.0 8 -0.023277653381228447
-3.088768482208252 0.8722858428955078 -0.7409887909889221 29.0 1 -0.02327534928917885
-2.9311771392822266 0.8277812004089355 0.15962468087673187 2.0 9 -0.02327304519712925
-3.066277265548706 0.8665128946304321 -0.6193659901618958 7.0 2 -0.02327074110507965
-3.1020421981811523 0.877204418182373 0.2820359766483307 40.0 10 -0.023268437013030052
-2.6420328617095947 0.7476203441619873 -0.4348878860473633 20.0 3 -0.023266132920980453
-3.077005624771118 0.871284544467926 0.39266306161880493 48.0 11 -0.023263830691576004
-2.989145517349243 0.8464061617851257 -0.3814510703086853 9.0 4 -0.023261526599526405
-3.092203378677368 0.8761709332466125 0.5090377926826477 65.0 12 -0.023259222507476807
-3.0381734371185303 0.8614352345466614 -0.2762836813926697 32.0 5 -0.023256918415427208
-3.069146156311035 0.8707950115203857 0.6201292872428894 53.0 13 -0.02325461432337761
-2.4362378120422363 0.6916822791099548 -0.13272398710250854 36.0 6 -0.02325231023132801
-3.068800687789917 0.871275782585144 0.7364898324012756 70.0 14 -0.023250006139278412
-2.9815361499786377 0.8470632433891296 -0.05410246178507805 1.0 7 -0.023247702047228813
-3.0456202030181885 0.8658433556556702 0.8484088778495789 66.0 15 -0.023245397955179214
-2.8680906295776367 0.8191623091697693 -0.7992331981658936 9.0 0 -0.023224661126732826
-2.916752576828003 0.8336113691329956 0.052950602024793625 3.0 8 -0.023222357034683228
-3.0971007347106934 0.8857389092445374 -0.7436882257461548 29.0 1 -0.02322005294263363
-2.924429178237915 0.8369095921516418 0.1594153493642807 2.0 9 -0.02321774885058403
-3.072824478149414 0.8793771862983704 -0.6212741136550903 29.0 2 -0.02321544662117958
-3.095285415649414 0.8863894939422607 0.28168734908103943 38.0 10 -0.023213142529129982
-2.6395392417907715 0.7563770413398743 -0.4348878860473633 33.0 3 -0.023210838437080383
-3.0855486392974854 0.8847666382789612 0.39412549138069153 51.0 11 -0.023208534345030785
-2.6770613193511963 0.768140435218811 -0.3419654071331024 7.0 4 -0.023206230252981186
-3.066342353820801 0.8804177641868591 0.5052834153175354 57.0 12 -0.023203926160931587
-3.014235019683838 0.8654565811157227 -0.2743662893772125 12.0 5 -0.02320162206888199
-3.0700151920318604 0.8820523023605347 0.6208925247192383 45.0 13 -0.02319931797683239
-2.4454479217529297 0.7030686140060425 -0.13335202634334564 36.0 6 -0.02319701388478279
-3.0301578044891357 0.8717465996742249 0.727941632270813 51.0 14 -0.023194709792733192
-2.9209117889404297 0.8408688902854919 -0.05305531620979309 1.0 7 -0.023192405700683594
-3.0407228469848633 0.8759346008300781 0.8478912711143494 70.0 15 -0.023190101608633995
-2.9988248348236084 0.8678348660469055 -0.8365032076835632 4.0 0 -0.023169366642832756
-2.9023003578186035 0.8404496908187866 0.052741169929504395 3.0 8 -0.023167062550783157
-3.1014766693115234 0.898714005947113 -0.7454878091812134 29.0 1 -0.02316475845873356
-2.9425904750823975 0.8532310128211975 0.16056673228740692 2.0 9 -0.02316245436668396
-3.0848209857940674 0.8944720029830933 -0.6243270635604858 31.0 2 -0.02316015027463436
-3.088345766067505 0.89607834815979 0.28133872151374817 38.0 10 -0.023157846182584763
-2.6103241443634033 0.7578752040863037 -0.43050768971443176 25.0 3 -0.023155542090535164
-3.0786290168762207 0.8944242596626282 0.393638014793396 41.0 11 -0.023153237998485565
-2.628615617752075 0.7641807794570923 -0.33611568808555603 8.0 4 -0.023150933906435966
-3.0689404010772705 0.8927711844444275 0.5062219500541687 55.0 12 -0.023148629814386368
-2.984412431716919 0.868181586265564 -0.2719258964061737 26.0 5 -0.02314632572233677
-3.0725724697113037 0.8944094777107239 0.6220373511314392 55.0 13 -0.02314402163028717
-2.4468138217926025 0.7127177119255066 -0.133561372756958 36.0 6 -0.02314171753823757
-3.0850939750671387 0.8992226123809814 0.7418886423110962 77.0 14 -0.023139413446187973
-2.971710681915283 0.8667371273040771 -0.05403264984488487 1.0 7 -0.023137109354138374
-3.039501190185547 0.8870846629142761 0.8484088778495789 78.0 15 -0.023134805262088776
-2.995777130126953 0.8782974481582642 -0.8365032076835632 4.0 0 -0.023114070296287537
-2.922374963760376 0.8573306798934937 0.05316003039479256 3.0 8 -0.023111766204237938
-3.102060317993164 0.9106333255767822 -0.7463876008987427 29.0 1 -0.02310946211218834
-2.945343255996704 0.8651861548423767 0.16088074445724487 2.0 9 -0.02310715802013874
-3.089214563369751 0.9074479937553406 -0.6258535385131836 31.0 2 -0.023104853928089142
-3.1004910469055176 0.9113474488258362 0.2827332317829132 41.0 10 -0.023102549836039543
-2.5868165493011475 0.7608509659767151 -0.4270661175251007 20.0 3 -0.023100245743989944
-3.0754880905151367 0.9051653146743774 0.393638014793396 46.0 11 -0.023097941651940346
-2.6106982231140137 0.7688646912574768 -0.3341657519340515 9.0 4 -0.023095637559890747
-3.08854341506958 0.9101792573928833 0.5099764466285706 63.0 12 -0.02309333346784115
-2.9832749366760254 0.8791571855545044 -0.2721002399921417 32.0 5 -0.02309102937579155
-3.069431781768799 0.9051293730735779 0.6220373511314392 53.0 13 -0.02308872528374195
-2.4309020042419434 0.7172977328300476 -0.13282866775989532 39.0 6 -0.023086421191692352
-3.063246488571167 0.904467761516571 0.7373896241188049 67.0 14 -0.023084117099642754
-2.9686670303344727 0.8771050572395325 -0.05403264984488487 1.0 7 -0.023081813007593155
-3.0437965393066406 0.899880051612854 0.8504794239997864 80.0 15 -0.023079508915543556
-3.014916181564331 0.895348310470581 -0.8427148461341858 4.0 0 -0.023058773949742317
-2.9193642139434814 0.867527186870575 0.05316003039479256 3.0 8 -0.02305646985769272
-3.09325909614563 0.9197897911071777 -0.7450379729270935 28.0 1 -0.02305416576564312
-2.9480483531951904 0.8771702647209167 0.16119475662708282 2.0 9 -0.02305186167359352
-3.0916736125946045 0.9199049472808838 -0.6269984245300293 30.0 2 -0.023049557581543922
-3.0877432823181152 0.9193228483200073 0.28186166286468506 31.0 10 -0.023047253489494324
-2.578465700149536 0.7681840658187866 -0.426127552986145 17.0 3 -0.023044949397444725
-3.0799190998077393 0.9181630611419678 0.39461296796798706 53.0 11 -0.023042645305395126
-2.5851712226867676 0.7711642980575562 -0.3312409222126007 8.0 4 -0.023040341213345528
-3.092918872833252 0.923214852809906 0.5112279057502747 65.0 12 -0.02303803712129593
-2.98400616645813 0.8907051682472229 -0.2724488377571106 25.0 5 -0.02303573302924633
-3.071897268295288 0.9175231456756592 0.6231822371482849 61.0 13 -0.02303342893719673
-2.434124231338501 0.7274945974349976 -0.13314267992973328 36.0 6 -0.023031126707792282
-3.0750069618225098 0.919622004032135 0.7409887909889221 83.0 14 -0.023028822615742683
-2.9655873775482178 0.8874617218971252 -0.05403264984488487 1.0 7 -0.023026518523693085
-3.048039436340332 0.9127161502838135 0.8525499701499939 86.0 15 -0.023024214431643486
-3.0080723762512207 0.904754102230072 -0.841679573059082 3.0 0 -0.023003477603197098
-2.91631817817688 0.8777124285697937 0.05316003039479256 3.0 8 -0.0230011735111475
-3.0974934101104736 0.9328288435935974 -0.7468375563621521 28.0 1 -0.0229988694190979
-2.9411439895629883 0.8863030672073364 0.16098542511463165 2.0 9 -0.0229965653270483
-2.7482070922851562 0.8281622529029846 -0.5579255223274231 8.0 2 -0.022994261234998703
-3.1112208366394043 0.9381483197212219 0.2843020260334015 46.0 10 -0.022991957142949104
-2.553074598312378 0.7703319191932678 -0.42237308621406555 13.0 3 -0.022989653050899506
-3.08809757232666 0.9323517084121704 0.39607539772987366 52.0 11 -0.022987348958849907
-2.5520591735839844 0.7709982395172119 -0.32734107971191406 9.0 4 -0.022985044866800308
-3.0915682315826416 0.9345763921737671 0.5115407705307007 75.0 12 -0.02298274263739586
-3.036186695098877 0.9178346395492554 -0.2775038778781891 21.0 5 -0.02298043854534626
-3.0761921405792236 0.930514931678772 0.6247087121009827 60.0 13 -0.02297813445329666
-2.4353930950164795 0.7371441125869751 -0.13335202634334564 36.0 6 -0.022975830361247063
-3.0680482387542725 0.9292197823524475 0.7400889992713928 78.0 14 -0.022973526269197464
-2.9624712467193604 0.8978089094161987 -0.05403264984488487 1.0 7 -0.022971222177147865
-3.048532247543335 0.9244716167449951 0.8535852432250977 84.0 15 -0.022968918085098267
-2.984567403793335 0.9090578556060791 -0.8359856009483337 3.0 0 -0.02294818125665188
-2.928539276123047 0.8925502300262451 0.053439266979694366 3.0 8 -0.02294587716460228
-3.0793066024780273 0.9390878081321716 -0.7432383298873901 27.0 1 -0.02294357307255268
-2.9380319118499756 0.8965649604797363 0.16098542511463165 2.0 9 -0.022941268980503082
-2.587566614151001 0.7896175384521484 -0.525869607925415 14.0 2 -0.022938966751098633
-3.1079273223876953 0.9490020871162415 0.2843020260334015 42.0 10 -0.022936660796403885
-2.527700185775757 0.7723127603530884 -0.41861867904663086 19.0 3 -0.022934358566999435
-3.0848240852355957 0.9431256651878357 0.39607539772987366 53.0 11 -0.022932054474949837
-2.526573657989502 0.772932767868042 -0.32441622018814087 9.0 4 -0.022929750382900238
-3.082620620727539 0.9436278343200684 0.5106021761894226 66.0 12 -0.02292744629085064
-3.0348691940307617 0.9290105700492859 -0.2776781916618347 32.0 5 -0.02292514219880104
-3.084188461303711 0.9446972608566284 0.6269984245300293 60.0 13 -0.022922838106751442
-2.4461724758148193 0.7497371435165405 -0.13408473134040833 43.0 6 -0.022920534014701843
-3.0703752040863037 0.9416385889053345 0.7414387464523315 76.0 14 -0.022918229922652245
-2.557861328125 0.784946620464325 -0.046702638268470764 1.0 7 -0.022915925830602646
-3.041593551635742 0.9339725375175476 0.8525499701499939 86.0 15 -0.022913621738553047
-2.993976354598999 0.9245002269744873 -0.8396090269088745 4.0 0 -0.022887468338012695
-2.9250905513763428 0.9037884473800659 0.053439266979694366 3.0 8 -0.022885164245963097
-2.980726718902588 0.92154860496521 -0.7202933430671692 25.0 1 -0.022882860153913498
-2.949991464614868 0.9120462536811829 0.16182279586791992 2.0 9 -0.0228805560618639
-2.5657598972320557 0.7937450408935547 -0.5220534205436707 21.0 2 -0.0228782519698143
-3.1023573875427246 0.9603395462036133 0.28412771224975586 49.0 10 -0.022875947877764702
-2.500185966491699 0.774414598941803 -0.41455137729644775 20.0 3 -0.022873643785715103
-3.096349000930786 0.9596650004386902 0.3980253338813782 53.0 11 -0.022871339693665504
-2.5237233638763428 0.7821886539459229 -0.32441622018814087 9.0 4 -0.022869035601615906
-3.098008394241333 0.9607710838317871 0.5137308239936829 78.0 12 -0.022866731509566307
-3.0331828594207764 0.9412472248077393 -0.27785250544548035 21.0 5 -0.02286442741751671
-3.073038339614868 0.9542039036750793 0.6254718899726868 61.0 13 -0.02286212518811226
-2.4509048461914062 0.7614947557449341 -0.13450342416763306 52.0 6 -0.02285982109606266
-3.072486162185669 0.9546197056770325 0.7427884340286255 78.0 14 -0.02285751700401306
-2.501500129699707 0.7776933312416077 -0.04572530463337898 3.0 7 -0.022855212911963463
-3.03814959526062 0.9451150298118591 0.8525499701499939 88.0 15 -0.022852908819913864
-2.994581937789917 0.9355757832527161 -0.8406442999839783 3.0 0 -0.022832171991467476
-2.9220774173736572 0.9134835004806519 0.053439266979694366 3.0 8 -0.022829867899417877
-3.100405693054199 0.9698254466056824 -0.7499868273735046 29.0 1 -0.02282756380736828
-2.958387613296509 0.9254013895988464 0.16245082020759583 2.0 9 -0.02282525971531868
-2.5612406730651855 0.8016622066497803 -0.5216718316078186 24.0 2 -0.02282295562326908
-3.1048595905303955 0.9724085927009583 0.28465065360069275 50.0 10 -0.022820651531219482
-2.47309947013855 0.7750220894813538 -0.41048407554626465 12.0 3 -0.022818347439169884
-3.085573196411133 0.9675509929656982 0.3970503509044647 52.0 11 -0.022816045209765434
-2.4945976734161377 0.7822372913360596 -0.32100388407707214 2.0 4 -0.022813741117715836
-3.089150905609131 0.9692651629447937 0.5127922296524048 77.0 12 -0.022811437025666237
-3.071730136871338 0.9649778008460999 0.6258535385131836 65.0 13 -0.02280682884156704
-2.4407448768615723 0.7672224044799805 -0.13408473134040833 52.0 6 -0.02280452474951744
-3.078599214553833 0.9677252173423767 0.7450379729270935 81.0 14 -0.022802220657467842
-2.4989073276519775 0.7859843969345093 -0.04572530463337898 1.0 7 -0.022799916565418243
-3.046055316925049 0.95866459608078 0.8556557893753052 88.0 15 -0.022797612473368645
-2.9914627075195312 0.9455011487007141 -0.8406442999839783 4.0 0 -0.022776875644922256
-2.928565263748169 0.9261834621429443 0.05361378937959671 2.0 8 -0.022774571552872658
-3.10088849067688 0.9812774062156677 -0.7508866190910339 30.0 1 -0.02277226746082306
-2.9437150955200195 0.9321050643920898 0.16182279586791992 2.0 9 -0.02276996523141861
-2.552953004837036 0.8083732724189758 -0.5205269455909729 29.0 2 -0.02276766113936901
-3.1168124675750732 0.9875136613845825 0.2860451340675354 52.0 10 -0.022765357047319412
-2.4479193687438965 0.7760553956031799 -0.40672966837882996 7.0 3 -0.022763052955269814
-3.0785632133483887 0.9765774607658386 0.3965628743171692 55.0 11 -0.022760748863220215
-3.0932796001434326 0.9824343919754028 0.5140437483787537 80.0 12 -0.022756140679121017
-3.0722556114196777 0.9763473272323608 0.6266167759895325 67.0 13 -0.02275153249502182
-2.426767110824585 0.7716807126998901 -0.13345670700073242 28.0 6 -0.02274922840297222
-3.078916311264038 0.9796473979949951 0.7459377646446228 86.0 14 -0.022746924310922623
-2.6142868995666504 0.8323144316673279 -0.047889403998851776 1.0 7 -0.022744620218873024
-3.051893949508667 0.9722235202789307 0.858244001865387 95.0 15 -0.022742316126823425
-3.0102243423461914 0.9630003571510315 -0.8468559384346008 4.0 0 -0.022721581161022186
-2.9291234016418457 0.9376198053359985 0.053683605045080185 2.0 8 -0.022719277068972588
-3.1030118465423584 0.9938790202140808 -0.7522363662719727 28.0 1 -0.02271697297692299
-2.9556591510772705 0.9472507238388062 0.1626601666212082 2.0 9 -0.02271466888487339
-2.5407681465148926 0.8142834305763245 -0.5186188817024231 30.0 2 -0.02271236479282379
-3.117141008377075 0.9996042847633362 0.28639376163482666 50.0 10 -0.022710060700774193
-2.4339101314544678 0.7809743881225586 -0.40485242009162903 1.0 3 -0.022707756608724594
-3.094036102294922 0.9933861494064331 0.39900025725364685 53.0 11 -0.022705452516674995
-2.4474966526031494 0.7862762808799744 -0.3156416416168213 1.0 4 -0.022703148424625397
-3.089831590652466 0.9932259917259216 0.5140437483787537 80.0 12 -0.022700844332575798
-3.0763041973114014 0.9894700646400452 0.6281432509422302 66.0 13 -0.0226962361484766
-2.410749912261963 0.7758638262748718 -0.13272398710250854 9.0 6 -0.022693932056427002
-3.071768045425415 0.9891942739486694 0.7450379729270935 81.0 14 -0.022691627964377403
-2.527618885040283 0.8144508004188538 -0.04635359346866608 1.0 7 -0.022689323872327805
-3.0558362007141113 0.985241174697876 0.8603145480155945 92.0 15 -0.022687019780278206
-2.9774374961853027 0.9639822244644165 -0.8385737538337708 3.0 0 -0.022666284814476967
-2.935344696044922 0.9509201645851135 0.05385812744498253 3.0 8 -0.022663980722427368
-3.1050851345062256 1.0065064430236816 -0.7535860538482666 29.0 1 -0.02266167663037777
-2.9618337154388428 0.9606438279151917 0.1631835252046585 3.0 9 -0.02265937253832817
-2.530439853668213 0.82072514295578 -0.5170924067497253 30.0 2 -0.022657068446278572
-3.109842300415039 1.0092490911483765 0.2860451340675354 52.0 10 -0.022654764354228973
-2.3372294902801514 0.7589602470397949 -0.38920900225639343 1.0 3 -0.022652460262179375
-3.094325542449951 1.0054072141647339 0.3994877338409424 61.0 11 -0.022650156170129776
-2.444737434387207 0.794814944267273 -0.3156416416168213 1.0 4 -0.022647852078080177
-3.0807104110717773 1.0021716356277466 0.5131050944328308 85.0 12 -0.02264554798603058
-3.0915005207061768 1.0062791109085083 0.6319594383239746 66.0 13 -0.02264093980193138
-2.3738436698913574 0.7731409668922424 -0.13083989918231964 8.0 6 -0.022638635709881783
-3.07570743560791 1.0023267269134521 0.7468375563621521 86.0 14 -0.022636331617832184
-2.4848361015319824 0.8102498054504395 -0.04562059044837952 2.0 7 -0.022634027525782585
-3.0487053394317627 0.9947036504745483 0.8592792749404907 94.0 15 -0.022631723433732986
-2.939173460006714 0.9629418253898621 -0.8287386298179626 3.0 0 -0.022610988467931747
-2.935807943344116 0.962405800819397 0.053927935659885406 3.0 8 -0.02260868437588215
-3.1071078777313232 1.019161343574524 -0.7549358010292053 28.0 1 -0.02260638028383255
-2.9679508209228516 0.9740909337997437 0.16370689868927002 3.0 9 -0.02260407619178295
-2.5294249057769775 0.8301653861999512 -0.5174739956855774 31.0 2 -0.022601772099733353
-3.108193874359131 1.020719289779663 0.28621944785118103 54.0 10 -0.022599468007683754
-2.3871121406555176 0.7843809127807617 -0.3979693353176117 1.0 3 -0.022597163915634155
-3.088911533355713 1.0155824422836304 0.3992440104484558 58.0 11 -0.022594859823584557
-2.4117772579193115 0.7934178113937378 -0.31174179911613464 1.0 4 -0.022592555731534958
-3.0884509086608887 1.0166256427764893 0.514982283115387 85.0 12 -0.02259025163948536
-3.0898337364196777 1.0176786184310913 0.6323410272598267 71.0 13 -0.022585643455386162
-2.336986541748047 0.7701696157455444 -0.12895581126213074 3.0 6 -0.022583341225981712
-3.077742338180542 1.0148870944976807 0.748187243938446 83.0 14 -0.022581037133932114
-2.4705986976623535 0.815159261226654 -0.045411162078380585 3.0 7 -0.022578733041882515
-3.0488836765289307 1.0065501928329468 0.8603145480155945 98.0 15 -0.022576428949832916
-2.57271671295166 0.852837324142456 -0.7262462973594666 1.0 0 -0.022555692121386528
-2.9286346435546875 0.9713889360427856 0.05385812744498253 3.0 8 -0.02255338802933693
-3.1072301864624023 1.0312293767929077 -0.7558355927467346 28.0 1 -0.02255108393728733
-2.983487606048584 0.9907389283180237 0.16475361585617065 3.0 9 -0.022548779845237732
-2.524648427963257 0.8383703827857971 -0.5170924067497253 28.0 2 -0.022546475753188133
-3.1083931922912598 1.0328192710876465 0.2865680754184723 54.0 10 -0.022544171661138535
-2.36936354637146 0.7877231240272522 -0.3954663872718811 1.0 3 -0.022541867569088936
-3.0891151428222656 1.0276111364364624 0.39973148703575134 58.0 11 -0.022539563477039337
-2.390158176422119 0.7955625653266907 -0.309304416179657 3.0 4 -0.022537261247634888
-3.0923802852630615 1.0298970937728882 0.5162338018417358 85.0 12 -0.02253495715558529
-3.0732247829437256 1.024112582206726 0.629669725894928 77.0 13 -0.02253034897148609
-2.3058629035949707 0.7688468098640442 -0.1273857206106186 4.0 6 -0.022528044879436493
-3.090817928314209 1.0311747789382935 0.7522363662719727 94.0 14 -0.022525740787386894
-2.462048053741455 0.8218787908554077 -0.04530644789338112 1.0 7 -0.022523436695337296
-3.0526809692382812 1.0196356773376465 0.862385094165802 98.0 15 -0.022521132603287697
-2.538438320159912 0.851813793182373 -0.7174463868141174 15.0 0 -0.02250039577484131
-2.9290173053741455 0.9828788638114929 0.053927935659885406 3.0 8 -0.02249809168279171
-3.107306480407715 1.0433093309402466 -0.7567353844642639 20.0 1 -0.02249578759074211
-2.968651294708252 0.997330904006958 0.16412557661533356 3.0 9 -0.022493483498692513
-2.519697904586792 0.8469932079315186 -0.5167108178138733 7.0 2 -0.022491179406642914
-3.108363628387451 1.0454754829406738 0.28691670298576355 57.0 10 -0.022488877177238464
-2.33650541305542 0.7863205075263977 -0.39046046137809753 1.0 3 -0.022486573085188866
-3.087390184402466 1.0390210151672363 0.3999752104282379 62.0 11 -0.022484268993139267
-2.370434522628784 0.7982000708580017 -0.3071107864379883 20.0 4 -0.02248196490108967
-3.10187029838562 1.0450996160507202 0.518423855304718 87.0 12 -0.02247966080904007
-3.088052988052368 1.0416452884674072 0.6334859132766724 71.0 13 -0.022475052624940872
-2.280320882797241 0.7696287631988525 -0.12612967193126678 5.0 6 -0.022472748532891273
-3.0833253860473633 1.0412486791610718 0.7513365745544434 94.0 14 -0.022470444440841675
-2.220447063446045 0.7498519420623779 -0.040908440947532654 7.0 7 -0.022468140348792076
-3.0564239025115967 1.0327589511871338 0.8644556403160095 102.0 15 -0.022465836256742477
-2.5317907333374023 0.8594269156455994 -0.7164111733436584 27.0 0 -0.02244509942829609
-2.9405429363250732 0.9987519383430481 0.054207175970077515 3.0 8 -0.02244279719889164
-2.7289061546325684 0.9274008870124817 -0.6654052734375 2.0 1 -0.02244049310684204
-2.9764983654022217 1.0115433931350708 0.16475361585617065 3.0 9 -0.022438189014792442
-2.4776926040649414 0.8425100445747375 -0.5086967945098877 1.0 2 -0.022435884922742844
-3.1197850704193115 1.0614534616470337 0.2883111834526062 61.0 10 -0.022433580830693245
-2.3169164657592773 0.7887428402900696 -0.3876446485519409 8.0 3 -0.022431276738643646
-3.096715211868286 1.0548104047775269 0.40168139338493347 65.0 11 -0.022428972646594048
-2.3505825996398926 0.8011188507080078 -0.3049171268939972 27.0 4 -0.02242666855454445
-3.094464063644409 1.054646372795105 0.517798125743866 91.0 12 -0.02242436446249485
-2.1855931282043457 0.7453139424324036 -0.20202700793743134 1.0 5 -0.02242206037044525
-3.0899722576141357 1.0543203353881836 0.6346307396888733 73.0 13 -0.022419756278395653
-2.2738404273986816 0.7762928009033203 -0.12592032551765442 5.0 6 -0.022417452186346054
-3.083359956741333 1.0532658100128174 0.7522363662719727 94.0 14 -0.022415148094296455
-2.202677011489868 0.7524274587631226 -0.040629200637340546 47.0 7 -0.022412844002246857
-3.0637683868408203 1.0471705198287964 0.8675615191459656 102.0 15 -0.022410539910197258
-2.5214669704437256 0.8657500147819519 -0.7143406271934509 31.0 0 -0.02238980494439602
-2.952345371246338 1.013692855834961 0.05448641628026962 3.0 8 -0.02238750085234642
-2.55257248878479 0.8769281506538391 -0.6231144666671753 7.0 1 -0.02238519676029682
-2.995614528656006 1.029718279838562 0.16600966453552246 3.0 9 -0.022382892668247223
-3.1104087829589844 1.07039213180542 0.2877882421016693 60.0 10 -0.022378284484148026
-2.301213264465332 0.7919217348098755 -0.38545459508895874 11.0 3 -0.022375980392098427
-3.098830461502075 1.0670132637023926 0.4024125933647156 72.0 11 -0.022373676300048828
-2.34228253364563 0.8069694638252258 -0.3041858971118927 33.0 4 -0.02237137220799923
-3.094498872756958 1.0667293071746826 0.518423855304718 98.0 12 -0.02236906811594963
-2.1528420448303223 0.7425442337989807 -0.19923801720142365 10.0 5 -0.022366764023900032
-3.097594976425171 1.0684022903442383 0.6369204521179199 78.0 13 -0.022364459931850433
-2.252373695373535 0.7773133516311646 -0.12487360835075378 3.0 6 -0.022362155839800835
-3.085376262664795 1.065393090248108 0.7535860538482666 92.0 14 -0.022359851747751236
-2.192476987838745 0.757499635219574 -0.04048958420753479 56.0 7 -0.022357547655701637
-3.061920166015625 1.058489203453064 0.8680790662765503 106.0 15 -0.02235524356365204
-2.516757011413574 0.8734734058380127 -0.7138229608535767 37.0 0 -0.0223345085978508
-2.916675329208374 1.0128406286239624 0.05389302968978882 2.0 8 -0.0223322045058012
-2.529247522354126 0.8787968754768372 -0.6181655526161194 11.0 1 -0.022329900413751602
-2.9995477199554443 1.0427920818328857 0.1664283573627472 3.0 9 -0.022327596321702003
-2.308713912963867 0.8026239275932312 -0.4751144051551819 1.0 2 -0.022325292229652405
-3.103078603744507 1.079391598701477 0.28743961453437805 63.0 10 -0.022322988137602806
-2.281644105911255 0.7941064834594727 -0.38263875246047974 20.0 3 -0.022320684045553207
-3.1044607162475586 1.081087350845337 0.4036312997341156 75.0 11 -0.02231837995350361
-2.3413259983062744 0.8157939314842224 -0.30442965030670166 43.0 4 -0.02231607586145401
-3.094486713409424 1.0788260698318481 0.5190495848655701 91.0 12 -0.02231377176940441
-2.1257810592651367 0.741523265838623 -0.19697196781635284 20.0 5 -0.022311467677354813
-3.0919930934906006 1.0785611867904663 0.6365388631820679 83.0 13 -0.022309163585305214
-2.2175893783569336 0.7739823460578918 -0.12309417873620987 4.0 6 -0.022306859493255615
-3.087157964706421 1.078084111213684 0.7549358010292053 89.0 14 -0.022304557263851166
-2.1841564178466797 0.7631688714027405 -0.040384870022535324 56.0 7 -0.022302253171801567
-3.058206796646118 1.0691708326339722 0.8680790662765503 104.0 15 -0.02229994907975197
-2.5135390758514404 0.8826913833618164 -0.7138229608535767 39.0 0 -0.02227921225130558
-2.1999354362487793 0.7725617289543152 0.04069900885224342 6.0 8 -0.02227690815925598
-2.5169715881347656 0.8843908905982971 -0.6159160137176514 19.0 1 -0.022274604067206383
-3.005310297012329 1.0565683841705322 0.1669517159461975 3.0 9 -0.022272299975156784
-2.2390847206115723 0.787627100944519 -0.4613761901855469 2.0 2 -0.022269995883107185
-3.106619358062744 1.093403697013855 0.28813689947128296 63.0 10 -0.022267691791057587
-2.2619495391845703 0.7965579628944397 -0.3798229396343231 19.0 3 -0.022265387699007988
-3.096923589706421 1.090598702430725 0.40314382314682007 67.0 11 -0.02226308360695839
-2.306635618209839 0.8127464056015015 -0.30028611421585083 43.0 4 -0.02226077951490879
-3.1000170707702637 1.0929044485092163 0.520613968372345 93.0 12 -0.022258475422859192
-2.128816604614258 0.7509275674819946 -0.19749490916728973 30.0 5 -0.022256173193454742
-3.0935728549957275 1.0918476581573486 0.6376836895942688 81.0 13 -0.022253869101405144
-2.1525895595550537 0.7601582407951355 -0.11964000016450882 15.0 6 -0.022251565009355545
-3.09604811668396 1.0939357280731201 0.7580850720405579 92.0 14 -0.022249260917305946
-2.177708148956299 0.7694560289382935 -0.040315061807632446 46.0 7 -0.022246956825256348
-3.0653843879699707 1.083703875541687 0.8711849451065063 106.0 15 -0.02224465273320675
-2.5195446014404297 0.8946927189826965 -0.7164111733436584 44.0 0 -0.02222391590476036
-2.1876676082611084 0.7772728800773621 0.04052448645234108 47.0 8 -0.022221611812710762
-2.5008602142333984 0.8890404105186462 -0.6127667427062988 24.0 1 -0.022219307720661163
-2.999722480773926 1.066382884979248 0.16684705018997192 3.0 9 -0.022217003628611565
-2.2307722568511963 0.7934649586677551 -0.46023133397102356 10.0 2 -0.022214699536561966
-3.121554136276245 1.1109215021133423 0.28988000750541687 63.0 10 -0.022212395444512367
-2.257294178009033 0.8037856221199036 -0.3795100450515747 22.0 3 -0.022210093215107918
-3.0966451168060303 1.1032745838165283 0.4036312997341156 75.0 11 -0.02220778912305832
-2.29630446434021 0.8181287050247192 -0.2993111312389374 81.0 4 -0.02220548503100872
-3.1147899627685547 1.110351800918579 0.5237426161766052 93.0 12 -0.02220318093895912
-2.131812334060669 0.7603619694709778 -0.19801783561706543 38.0 5 -0.022200876846909523
-3.095289945602417 1.1046184301376343 0.6388285160064697 82.0 13 -0.022198572754859924
-2.1423990726470947 0.7649810910224915 -0.11922132223844528 30.0 6 -0.022196268662810326
-3.0905683040618896 1.1035414934158325 0.757635235786438 89.0 14 -0.022193964570760727
-2.1561777591705322 0.7703253030776978 -0.03996601328253746 27.0 7 -0.022191660478711128
-3.068859100341797 1.0969977378845215 0.8732554912567139 104.0 15 -0.02218935638666153
-2.5274739265441895 0.9069573879241943 -0.7195169925689697 58.0 0 -0.02216861955821514
-2.1850779056549072 0.7845232486724854 0.04052448645234108 48.0 8 -0.022166315466165543
-2.4978983402252197 0.8973287343978882 -0.6127667427062988 28.0 1 -0.022164013236761093
-2.99241042137146 1.0749740600585938 0.16663770377635956 2.0 9 -0.022161709144711494
-2.202263355255127 0.7915607690811157 -0.4548886716365814 12.0 2 -0.022159405052661896
-3.1178531646728516 1.1212669610977173 0.28988000750541687 69.0 10 -0.022157100960612297
-2.2453227043151855 0.8079232573509216 -0.3779457211494446 33.0 3 -0.0221547968685627
-3.100440502166748 1.116227149963379 0.40460625290870667 77.0 11 -0.0221524927765131
-2.284240245819092 0.8223770260810852 -0.29809242486953735 49.0 4 -0.0221501886844635
-3.098081588745117 1.1159887313842773 0.521552562713623 91.0 12 -0.022147884592413902
-2.1236557960510254 0.7654005885124207 -0.19749490916728973 39.0 5 -0.022145580500364304
-3.1100785732269287 1.1215368509292603 0.6426447629928589 82.0 13 -0.022143276408314705
-2.145486831665039 0.7741150856018066 -0.11953534185886383 45.0 6 -0.022140972316265106
-3.0868916511535645 1.1137841939926147 0.757635235786438 94.0 14 -0.022138668224215508
-2.153611421585083 0.7774713039398193 -0.03996601328253746 42.0 7 -0.02213636413216591
-3.076106309890747 1.1111063957214355 0.8763613104820251 104.0 15 -0.02213406004011631
-2.5226361751556396 0.9146752953529358 -0.7189993262290955 48.0 0 -0.02211332507431507
-2.1674256324768066 0.7863092422485352 0.04024524614214897 30.0 8 -0.022111020982265472
-2.5095632076263428 0.9109265208244324 -0.6163659691810608 34.0 1 -0.022108716890215874
-2.9942712783813477 1.0874583721160889 0.1669517159461975 2.0 9 -0.022106412798166275
-2.181173086166382 0.7921576499938965 -0.45107248425483704 12.0 2 -0.022104108706116676
-3.121608018875122 1.134321928024292 0.290577232837677 80.0 10 -0.022101804614067078
-2.2296359539031982 0.8106399178504944 -0.37575563788414 27.0 3 -0.02209950052201748
-3.1060497760772705 1.1298950910568237 0.4058249592781067 81.0 11 -0.02209719642996788
-2.2832210063934326 0.8310245275497437 -0.2983361780643463 24.0 4 -0.02209489233791828
-3.0997354984283447 1.128824234008789 0.5224911570549011 96.0 12 -0.022092588245868683
-2.1098732948303223 0.768348217010498 -0.19644904136657715 39.0 5 -0.022090284153819084
-3.1100316047668457 1.1331876516342163 0.6434080004692078 83.0 13 -0.022087980061769485
-2.135401964187622 0.7784891724586487 -0.1191166415810585 51.0 6 -0.022085675969719887
-3.086646318435669 1.1258883476257324 0.7585350275039673 94.0 14 -0.022083371877670288
-2.1433701515197754 0.7822417616844177 -0.03982638940215111 64.0 7 -0.02208106778562069
-3.068579912185669 1.1205120086669922 0.8753260374069214 104.0 15 -0.02207876369357109
-2.5266833305358887 0.9261348843574524 -0.721069872379303 46.0 0 -0.02205802872776985
-2.140261650085449 0.784919023513794 0.03979148715734482 44.0 8 -0.022055724635720253
-2.5008797645568848 0.9176670908927917 -0.6150162220001221 40.0 1 -0.022053420543670654
-2.2067513465881348 0.8101773262023926 0.12319885194301605 1.0 9 -0.022051116451621056
-2.150750160217285 0.7896172404289246 -0.44534823298454285 16.0 2 -0.022048812359571457
-3.1176295280456543 1.1452114582061768 0.290577232837677 82.0 10 -0.022046508267521858
-2.208251476287842 0.8116028904914856 -0.3726269602775574 31.0 3 -0.02204420417547226
-3.1169912815093994 1.1462119817733765 0.4077748656272888 93.0 11 -0.02204190008342266
-2.203923463821411 0.8108860850334167 -0.2883428931236267 24.0 4 -0.022039595991373062
-3.103191375732422 1.1423664093017578 0.5237426161766052 96.0 12 -0.022037291899323463
-2.1034390926361084 0.774331271648407 -0.1961004137992859 34.0 5 -0.022034987807273865
-3.102372407913208 1.1426805257797241 0.6426447629928589 85.0 13 -0.022032683715224266
-2.138293743133545 0.78801029920578 -0.11943066120147705 62.0 6 -0.022030379623174667
-3.0991532802581787 1.142722725868225 0.7625840902328491 99.0 14 -0.02202807553112507
-2.1293702125549316 0.7855661511421204 -0.039616964757442474 68.0 7 -0.02202577143907547
-3.064649820327759 1.1312166452407837 0.8753260374069214 104.0 15 -0.02202346920967102
