# .PCD v0.7 - Point Cloud Data file format
VERSION 0.7
FIELDS x y z intensity ring time
SIZE 4 4 4 4 4 4
TYPE F F F F F F
COUNT 1 1 1 1 1 1
WIDTH 539
HEIGHT 1
VIEWPOINT 0 0 0 1 0 0 0
POINTS 539
DATA ascii
-0.5031728148460388 1.7758084535598755 0.03221714124083519 100.0 8 -0.01689089648425579
-0.5054460763931274 1.7850191593170166 -0.42830681800842285 89.0 1 -0.016888592392206192
-0.504115879535675 1.7815072536468506 0.097030870616436 90.0 9 -0.016886288300156593
-0.5040858387947083 1.7814011573791504 -0.35986578464508057 90.0 2 -0.016883984208106995
-1.8568768501281738 6.566436290740967 0.5970168113708496 87.0 10 -0.016881680116057396
-0.506035566329956 1.7906765937805176 -0.2947225570678711 97.0 3 -0.016879376024007797
-1.8488712310791016 6.546852111816406 0.8352925181388855 86.0 11 -0.016877073794603348
-0.5014262199401855 1.7767356634140015 -0.22667700052261353 82.0 4 -0.01687476970255375
-1.8455911874771118 6.543970584869385 1.076894998550415 89.0 12 -0.01687246561050415
-0.5034990310668945 1.785272240638733 -0.1622839868068695 89.0 5 -0.01687016151845455
-1.842184066772461 6.536255359649658 1.320016622543335 100.0 13 -0.016867857426404953
-0.499773234128952 1.7744319438934326 -0.09661218523979187 82.0 6 -0.016865553334355354
-1.836332082748413 6.524212837219238 1.564759612083435 100.0 14 -0.016863249242305756
-0.5024700164794922 1.7863961458206177 -0.03239166736602783 100.0 7 -0.016860945150256157
-1.8348884582519531 6.527820110321045 1.8169097900390625 46.0 15 -0.016858641058206558
-0.5017502903938293 1.7934399843215942 -0.499003142118454 81.0 0 -0.01683790422976017
-0.49589449167251587 1.7737022638320923 0.03214733302593231 96.0 8 -0.01683560013771057
-0.5013100504875183 1.7942800521850586 -0.43010643124580383 87.0 1 -0.016833296045660973
-0.49843159317970276 1.785179615020752 0.09713554382324219 100.0 9 -0.016830991953611374
-0.49839285016059875 1.7850408554077148 -0.360247403383255 93.0 2 -0.016828689724206924
-1.8312684297561646 6.563282012939453 0.5961452722549438 90.0 10 -0.016826385632157326
-0.5013730525970459 1.7981407642364502 -0.29566118121147156 100.0 3 -0.016824081540107727
-1.824942946434021 6.549441814422607 0.8348050713539124 86.0 11 -0.01682177744805813
-0.49681907892227173 1.7842119932174683 -0.22740821540355682 85.0 4 -0.01681947335600853
-1.8142627477645874 6.519924640655518 1.071889042854309 85.0 12 -0.01681716926395893
-0.49299079179763794 1.7716633081436157 -0.16088949143886566 87.0 5 -0.016814865171909332
-1.819358468055725 6.5426459312438965 1.320016622543335 100.0 13 -0.016812561079859734
-0.5010623335838318 1.803106665611267 -0.09807758778333664 100.0 6 -0.016810256987810135
-1.8130239248275757 6.528706073760986 1.5643097162246704 100.0 14 -0.016807952895760536
-0.49088436365127563 1.7688703536987305 -0.032042618840932846 100.0 7 -0.016805648803710938
-1.807958960533142 6.51929235458374 1.812768578529358 47.0 15 -0.01680334471166134
-0.4934304654598236 1.787731647491455 -0.49693259596824646 81.0 0 -0.0167826097458601
-0.48544594645500183 1.7600008249282837 0.031868092715740204 100.0 8 -0.0167803056538105
-0.4960789978504181 1.799776554107666 -0.4310062527656555 85.0 1 -0.016778001561760902
-0.4916662573814392 1.7849832773208618 0.097030870616436 98.0 9 -0.016775697469711304
-0.4916369915008545 1.7848769426345825 -0.35986578464508057 90.0 2 -0.016773393377661705
-1.805701732635498 6.560030460357666 0.5952737331390381 85.0 10 -0.016771089285612106
-0.4924740791320801 1.7903566360473633 -0.29409682750701904 100.0 3 -0.016768785193562508
-1.8025944232940674 6.5576863288879395 0.8350487947463989 88.0 11 -0.01676648110151291
-0.4942682087421417 1.7993347644805908 -0.2291143834590912 86.0 4 -0.01676417700946331
-1.7962003946304321 6.543361663818359 1.074704885482788 88.0 12 -0.01676187291741371
-0.48680388927459717 1.7733732461929321 -0.16088949143886566 91.0 5 -0.016759568825364113
-1.7944300174713135 6.541383743286133 1.3184902667999268 100.0 13 -0.016757264733314514
-0.49370959401130676 1.8009923696517944 -0.09786824882030487 71.0 6 -0.016754960641264915
-1.79073965549469 6.536873817443848 1.564759612083435 100.0 14 -0.016752656549215317
-0.489986389875412 1.789860486984253 -0.03239166736602783 100.0 7 -0.016750352457165718
-1.782133936882019 6.514382839202881 1.8096628189086914 63.0 15 -0.01674804836511612
-0.4882025122642517 1.7931710481643677 -0.4979678690433502 81.0 0 -0.01672731339931488
-0.48034974932670593 1.7655435800552368 0.03193790465593338 100.0 8 -0.01672500930726528
-0.487748920917511 1.7939752340316772 -0.42920663952827454 87.0 1 -0.016722705215215683
-0.48784077167510986 1.7943130731582642 0.09744956344366074 100.0 9 -0.016720401123166084
-0.48540404438972473 1.786582112312317 -0.35986578464508057 90.0 2 -0.016718097031116486
-1.7817491292953491 6.562447547912598 0.5949251055717468 85.0 10 -0.016715792939066887
-0.48673924803733826 1.7939711809158325 -0.29440969228744507 100.0 3 -0.016713488847017288
-1.775535225868225 6.548611640930176 0.8330988883972168 88.0 11 -0.01671118475496769
-0.4857008755207062 1.7913845777511597 -0.22789569199085236 85.0 4 -0.01670888066291809
-1.7775928974151611 6.560721397399902 1.0765821933746338 88.0 12 -0.016706576570868492
-0.4826939105987549 1.7827543020248413 -0.16158674657344818 93.0 5 -0.016704272478818893
-1.7674815654754639 6.5324482917785645 1.3154373168945312 100.0 13 -0.016701968386769295
-0.4853350818157196 1.794992446899414 -0.09744956344366074 55.0 6 -0.016699664294719696
-1.7705799341201782 6.54841947555542 1.566109299659729 100.0 14 -0.016697360202670097
-0.4835270643234253 1.789544939994812 -0.032356761395931244 100.0 7 -0.0166950561106205
-1.7585057020187378 6.5127973556518555 1.8075922727584839 63.0 15 -0.0166927520185709
-0.48325639963150024 1.7985113859176636 -0.499003142118454 81.0 0 -0.01667201705276966
-0.4755290448665619 1.7709896564483643 0.03200771287083626 100.0 8 -0.016669712960720062
-0.4787665009498596 1.7842899560928345 -0.42650723457336426 89.0 1 -0.016667408868670464
-0.47774654626846313 1.7804887294769287 0.09661218523979187 100.0 9 -0.016665104776620865
-0.48049411177635193 1.7919743061065674 -0.36062902212142944 90.0 2 -0.016662800684571266
-1.7599756717681885 6.5683207511901855 0.5949251055717468 85.0 10 -0.016660496592521667
-0.4818088710308075 1.799391746520996 -0.2950354218482971 100.0 3 -0.01665819250047207
-1.750732421875 6.542957782745361 0.8316364884376526 90.0 11 -0.01665588840842247
-0.48027127981185913 1.7949029207229614 -0.22813943028450012 84.0 4 -0.01665358431637287
-1.7548044919967651 6.562763690948486 1.0759563446044922 88.0 12 -0.016651280224323273
-0.47677892446517944 1.784345269203186 -0.16158674657344818 91.0 5 -0.016648976132273674
-1.745810866355896 6.538272857666016 1.3154373168945312 100.0 13 -0.016646672040224075
-0.4747452735900879 1.7792243957519531 -0.09650751203298569 27.0 6 -0.016644369810819626
-1.7443313598632812 6.537309646606445 1.5620602369308472 100.0 14 -0.016642065718770027
-0.479135125875473 1.7969353199005127 -0.03246147558093071 26.0 7 -0.01663976162672043
-1.7388896942138672 6.526058673858643 1.8096628189086914 63.0 15 -0.01663745753467083
-0.47827935218811035 1.803838849067688 -0.5000383853912354 78.0 0 -0.01661672070622444
-0.47631213068962097 1.7976856231689453 0.03246147558093071 37.0 8 -0.016614416614174843
-0.47384488582611084 1.7896353006362915 -0.42740702629089355 85.0 1 -0.016612112522125244
-0.4743959903717041 1.7917168140411377 0.09713554382324219 45.0 9 -0.016609808430075645
-0.47253987193107605 1.785966157913208 -0.3591025471687317 90.0 2 -0.016607504338026047
-1.7392046451568604 6.577972888946533 0.5952737331390381 87.0 10 -0.016605200245976448
-0.4743257761001587 1.7952499389648438 -0.29409682750701904 100.0 3 -0.01660289615392685
-1.7290266752243042 6.548727035522461 0.8316364884376526 88.0 11 -0.01660059206187725
-0.46874257922172546 1.7753729820251465 -0.2254583090543747 85.0 4 -0.016598287969827652
-1.7244664430618286 6.536076068878174 1.070637583732605 87.0 12 -0.016595985740423203
-0.47187545895576477 1.7897695302963257 -0.16193535923957825 89.0 5 -0.016593681648373604
-1.7261216640472412 6.551619529724121 1.316963791847229 100.0 13 -0.016591377556324005
-0.4769790470600128 1.8116918802261353 -0.09818226099014282 38.0 6 -0.016589073464274406
-1.721156120300293 6.5374040603637695 1.5607105493545532 100.0 14 -0.016586769372224808
-0.46859490871429443 1.7811092138290405 -0.03214733302593231 15.0 7 -0.01658446528017521
-1.717240333557129 6.531789302825928 1.8096628189086914 63.0 15 -0.01658216118812561
-0.47033971548080444 1.7979390621185303 -0.4979678690433502 85.0 0 -0.016561424359679222
-0.4703485071659088 1.7992552518844604 0.03246147558093071 14.0 8 -0.016559120267629623
-0.4688921868801117 1.7949678897857666 -0.42830681800842285 85.0 1 -0.016556816175580025
-0.4679465591907501 1.791347861289978 0.097030870616436 30.0 9 -0.016554512083530426
-0.46562260389328003 1.7837244272232056 -0.3583393096923828 90.0 2 -0.016552209854125977
-1.7143656015396118 6.572136402130127 0.5942278504371643 87.0 10 -0.01654990389943123
-0.468867689371109 1.7987247705459595 -0.29440969228744507 100.0 3 -0.01654760167002678
-1.707298994064331 6.554425239562988 0.8316364884376526 88.0 11 -0.01654529757797718
-0.4653540849685669 1.7865227460861206 -0.22667700052261353 82.0 4 -0.016542993485927582
-1.7032815217971802 6.543670177459717 1.0709505081176758 87.0 12 -0.016540689393877983
-0.4639310836791992 1.7836116552352905 -0.16123811900615692 93.0 5 -0.016538385301828384
-1.7048782110214233 6.559207916259766 1.317345380783081 100.0 13 -0.016536081209778786
-0.46745431423187256 1.7997318506240845 -0.09744956344366074 28.0 6 -0.016533777117729187
-1.698979377746582 6.541189670562744 1.5602606534957886 100.0 14 -0.01653147302567959
-0.464695006608963 1.790395736694336 -0.032286953181028366 11.0 7 -0.01652916893362999
-1.6926589012145996 6.526228904724121 1.806557059288025 63.0 15 -0.01652686484158039
-0.46181806921958923 1.792168140411377 -0.4958973228931427 87.0 0 -0.016511201858520508
-0.4587636888027191 1.7816017866134644 0.032112427055835724 12.0 8 -0.01650889776647091
-0.4632818102836609 1.8004488945007324 -0.42920663952827454 89.0 1 -0.01650659367442131
-0.4605678915977478 1.7911969423294067 0.09692620486021042 28.0 9 -0.01650428958237171
-0.4610377848148346 1.7930244207382202 -0.35986578464508057 87.0 2 -0.016501985490322113
-1.6872893571853638 6.566797256469727 0.5931819677352905 87.0 10 -0.016499681398272514
-0.46178102493286133 1.7985177040100098 -0.29409682750701904 100.0 3 -0.016497377306222916
-1.6852391958236694 6.568329334259033 0.8326114416122437 90.0 11 -0.016495073214173317
-0.45750531554222107 1.7844504117965698 -0.226189523935318 82.0 4 -0.016492769122123718
-1.676180362701416 6.542508125305176 1.0696990489959717 84.0 12 -0.01649046503007412
-0.45640212297439575 1.7814399003982544 -0.16088949143886566 96.0 5 -0.01648816093802452
-1.675471544265747 6.544491291046143 1.3131475448608398 100.0 13 -0.01648585870862007
-0.4623393714427948 1.8072378635406494 -0.09776357561349869 27.0 6 -0.016483554616570473
-1.674331545829773 6.549552917480469 1.5607105493545532 100.0 14 -0.016481250524520874
-0.4602920413017273 1.801854133605957 -0.03246147558093071 14.0 7 -0.016478946432471275
-1.665677785873413 6.5251922607421875 1.8044863939285278 63.0 15 -0.016476642340421677
-0.4555589258670807 1.7937692403793335 -0.4958973228931427 83.0 0 -0.01645590551197529
-0.45155856013298035 1.7793158292770386 0.032042618840932846 12.0 8 -0.01645360141992569
-0.4541204571723938 1.7907212972640991 -0.42650723457336426 83.0 1 -0.01645129732787609
-0.4548027515411377 1.7947298288345337 0.097030870616436 30.0 9 -0.016448993235826492
-0.4547756612300873 1.7946230173110962 -0.35986578464508057 90.0 2 -0.016446689143776894
-1.6672927141189575 6.584235668182373 0.5942278504371643 81.0 10 -0.016444385051727295
-0.4530777335166931 1.7905434370040894 -0.2925325036048889 100.0 3 -0.016442080959677696
-1.6584064960479736 6.55877685546875 0.8306615352630615 90.0 11 -0.016439778730273247
-0.45370543003082275 1.7956595420837402 -0.22740821540355682 85.0 4 -0.016437474638223648
-1.661068081855774 6.5789642333984375 1.074704885482788 88.0 12 -0.01643517054617405
-0.45115599036216736 1.7868858575820923 -0.16123811900615692 96.0 5 -0.01643286645412445
-1.6506938934326172 6.5426859855651855 1.3116211891174316 100.0 13 -0.016430562362074852
-0.455540269613266 1.8069039583206177 -0.0976589024066925 21.0 6 -0.016428258270025253
-1.6528856754302979 6.5610270500183105 1.5620602369308472 100.0 14 -0.016425954177975655
-0.4520464241504669 1.795693039894104 -0.032321859151124954 10.0 7 -0.016423650085926056
-1.642891764640808 6.530966281890869 1.8044863939285278 62.0 15 -0.016421345993876457
-0.45117107033729553 1.8028446435928345 -0.4979678690433502 85.0 0 -0.01640060916543007
-0.44340386986732483 1.7731213569641113 0.03190299868583679 14.0 8 -0.01639830507338047
-0.44692152738571167 1.788514494895935 -0.4256074130535126 89.0 1 -0.01639600098133087
-0.4470840096473694 1.790493130683899 0.09671685099601746 32.0 9 -0.016393698751926422
-0.44946011900901794 1.80000901222229 -0.36062902212142944 90.0 2 -0.016391394659876823
-1.644297480583191 6.590015888214111 0.5942278504371643 87.0 10 -0.016389090567827225
-0.44873589277267456 1.799781084060669 -0.293783962726593 100.0 3 -0.016386786475777626
-1.6335868835449219 6.556818962097168 0.8296865224838257 94.0 11 -0.016384482383728027
-0.4440772533416748 1.7837483882904053 -0.22570204734802246 82.0 4 -0.01638217829167843
-1.6361868381500244 6.577054023742676 1.073453426361084 88.0 12 -0.01637987419962883
-0.4449162185192108 1.788449764251709 -0.16123811900615692 89.0 5 -0.01637757010757923
-1.6297415494918823 6.556028842926025 1.3131475448608398 100.0 13 -0.016375266015529633
-0.44634076952934265 1.796852946281433 -0.097030870616436 17.0 6 -0.016372961923480034
-1.6266883611679077 6.553516864776611 1.558910846710205 100.0 14 -0.016370657831430435
-0.4472200870513916 1.8030825853347778 -0.03242656961083412 13.0 7 -0.016368353739380836
-1.6210122108459473 6.540412425994873 1.8055217266082764 63.0 15 -0.016366049647331238
-0.4448755979537964 1.8044084310531616 -0.4979678690433502 87.0 0 -0.01634531468153
-0.4405598044395447 1.7882500886917114 0.03214733302593231 12.0 8 -0.0163430105894804
-0.441607803106308 1.7938480377197266 -0.42650723457336426 83.0 1 -0.0163407064974308
-0.4374920427799225 1.7784667015075684 0.09598415344953537 40.0 9 -0.016338402405381203
-0.4412986636161804 1.7939411401748657 -0.3591025471687317 90.0 2 -0.016336098313331604
-1.620331048965454 6.591846466064453 0.593879222869873 87.0 10 -0.016333794221282005
-0.44103753566741943 1.795581340789795 -0.29284536838531494 97.0 3 -0.016331490129232407
-1.610687494277954 6.562481880187988 0.8296865224838257 92.0 11 -0.016329186037182808
-0.43690189719200134 1.7814316749572754 -0.22521455585956573 79.0 4 -0.01632688194513321
-1.609458565711975 6.567376613616943 1.0709505081176758 88.0 12 -0.01632457785308361
-0.4396194815635681 1.793861985206604 -0.16158674657344818 93.0 5 -0.016322273761034012
-1.607782006263733 6.56549072265625 1.313910722732544 100.0 13 -0.016319969668984413
-0.4490851163864136 1.8352607488632202 -0.09901963919401169 22.0 6 -0.016317665576934814
-1.6024153232574463 6.553475856781006 1.5575611591339111 100.0 14 -0.016315361484885216
-0.43949997425079346 1.7988049983978271 -0.032321859151124954 17.0 7 -0.016313057392835617
-1.598170280456543 6.5460309982299805 1.8055217266082764 63.0 15 -0.01631075330078602
-0.4376620650291443 1.8021959066390991 -0.49693259596824646 87.0 0 -0.01629001833498478
-0.4343161880970001 1.7897766828536987 0.03214733302593231 12.0 8 -0.01628771424293518
-0.4362613558769226 1.7991663217544556 -0.42740702629089355 85.0 1 -0.016285410150885582
-0.43441545963287354 1.7915538549423218 0.09661218523979187 45.0 9 -0.016283106058835983
-0.4341088831424713 1.7916548252105713 -0.3583393096923828 90.0 2 -0.016280801966786385
-1.5963780879974365 6.593587875366211 0.5935305953025818 85.0 10 -0.016278497874736786
-0.4375535845756531 1.8086298704147339 -0.2947225570678711 100.0 3 -0.016276193782687187
-1.5915002822875977 6.58350133895874 0.8316364884376526 90.0 11 -0.01627388969063759
-0.4311482608318329 1.7848753929138184 -0.2254583090543747 85.0 4 -0.01627158559858799
-1.5876729488372803 6.572677135467529 1.0709505081176758 85.0 12 -0.01626928150653839
-0.4305497407913208 1.783765196800232 -0.1605408787727356 96.0 5 -0.016266977414488792
-1.5848525762557983 6.57106351852417 1.313910722732544 100.0 13 -0.016264673322439194
-0.44735682010650635 1.8562334775924683 -0.10006635636091232 26.0 6 -0.016262369230389595
-1.5795278549194336 6.559030055999756 1.5575611591339111 100.0 14 -0.016260065138339996
-0.4335319697856903 1.8002526760101318 -0.032321859151124954 17.0 7 -0.016257761046290398
-1.5737435817718506 6.540024757385254 1.8024158477783203 63.0 15 -0.0162554569542408
-0.4295715391635895 1.7961970567703247 -0.49486202001571655 87.0 0 -0.01623472198843956
-0.4269828200340271 1.7853726148605347 0.032042618840932846 12.0 8 -0.01623241789638996
-0.43210482597351074 1.8081846237182617 -0.42920663952827454 89.0 1 -0.016230113804340363
-0.4281586706638336 1.7930594682693481 0.09661218523979187 45.0 9 -0.016227809712290764
-0.42921948432922363 1.7988879680633545 -0.35948416590690613 93.0 2 -0.016225505620241165
-1.5705783367156982 6.587491989135742 0.592484712600708 85.0 10 -0.016223201528191566
-0.4297213852405548 1.802384614944458 -0.293471097946167 100.0 3 -0.016220897436141968
-1.5659775733947754 6.573294162750244 0.8296865224838257 90.0 11 -0.01621859334409237
-0.4261459410190582 1.790157675743103 -0.22594578564167023 85.0 4 -0.01621628925204277
-1.5638043880462646 6.574336051940918 1.0703247785568237 85.0 12 -0.01621398515999317
-0.4233986437320709 1.781380534172058 -0.16019225120544434 93.0 5 -0.016211681067943573
-1.5612356662750244 6.568643569946289 1.3123843669891357 100.0 13 -0.016209376975893974
-0.4453519284725189 1.875195860862732 -0.10100840777158737 29.0 6 -0.016207074746489525
-1.5568701028823853 6.560439586639404 1.5566614866256714 100.0 14 -0.016204770654439926
-0.42724481225013733 1.8017551898956299 -0.032321859151124954 16.0 7 -0.016202466562390327
-1.5500156879425049 6.54171895980835 1.8013806343078613 63.0 15 -0.01620016247034073
-0.42449939250946045 1.8013722896575928 -0.4958973228931427 87.0 0 -0.01617942564189434
-0.41983097791671753 1.7829594612121582 0.03197281062602997 9.0 8 -0.016177121549844742
-0.4231129288673401 1.7983002662658691 -0.42650723457336426 89.0 1 -0.016174817457795143
-0.42235541343688965 1.7964869737625122 0.09671685099601746 43.0 9 -0.016172513365745544
-0.4232521653175354 1.8003013134002686 -0.35948416590690613 93.0 2 -0.016170209273695946
-1.5487229824066162 6.59266471862793 0.592484712600708 85.0 10 -0.016167905181646347
-0.4211697280406952 1.7942582368850708 -0.2919067442417145 100.0 3 -0.01616560108959675
-1.5412143468856812 6.57098913192749 0.8287115693092346 99.0 11 -0.01616329699754715
-0.42125293612480164 1.797432541847229 -0.22667700052261353 89.0 4 -0.0161609947681427
-1.5417450666427612 6.583601474761963 1.0709505081176758 88.0 12 -0.0161586906760931
-0.41930657625198364 1.790534257888794 -0.16088949143886566 93.0 5 -0.016156386584043503
-1.5347235202789307 6.558759689331055 1.3093314170837402 100.0 13 -0.016154082491993904
-0.43607473373413086 1.8650702238082886 -0.10038037598133087 32.0 6 -0.016151778399944305
-1.53617525100708 6.57532262802124 1.558910846710205 100.0 14 -0.016149474307894707
-0.42322713136672974 1.8129719495773315 -0.0324963815510273 19.0 7 -0.016147170215845108
-1.5271695852279663 6.54709005355835 1.8013806343078613 63.0 15 -0.01614486612379551
-0.4182083308696747 1.8028433322906494 -0.4958973228931427 85.0 0 -0.01612412929534912
-0.4136059582233429 1.7844138145446777 0.03197281062602997 10.0 8 -0.016121825203299522
-0.41507384181022644 1.7921723127365112 -0.4247076213359833 87.0 1 -0.016119521111249924
-0.4160814583301544 1.7979503870010376 0.09671685099601746 41.0 9 -0.016117217019200325
-0.41607964038848877 1.7979425191879272 -0.35872092843055725 99.0 2 -0.016114912927150726
-1.52749764919281 6.605794906616211 0.5931819677352905 85.0 10 -0.016112610697746277
-0.41757261753082275 1.8072656393051147 -0.293783962726593 100.0 3 -0.016110306605696678
-1.5182660818099976 6.576329231262207 0.8287115693092346 95.0 11 -0.01610800251364708
-0.4149765372276306 1.7988920211791992 -0.22667700052261353 86.0 4 -0.01610569842159748
-1.5205307006835938 6.59664249420166 1.0722019672393799 88.0 12 -0.016103394329547882
-0.41305428743362427 1.7919869422912598 -0.16088949143886566 91.0 5 -0.016101090237498283
-1.513580560684204 6.57172966003418 1.310857892036438 100.0 13 -0.016098786145448685
-0.42821747064590454 1.8607419729232788 -0.10006635636091232 24.0 6 -0.016096482053399086
-1.5101583003997803 6.567350387573242 1.5557615756988525 100.0 14 -0.016094177961349487
-0.4177911877632141 1.8183361291885376 -0.032566189765930176 19.0 7 -0.01609187386929989
-1.5043050050735474 6.55238151550293 1.8013806343078613 63.0 15 -0.01608956977725029
-0.4127730131149292 1.8080588579177856 -0.49693259596824646 87.0 0 -0.0160688329488039
-0.4091531038284302 1.7936450242996216 0.032112427055835724 10.0 8 -0.016066530719399452
-0.4088149964809418 1.7936103343963623 -0.4247076213359833 83.0 1 -0.016064226627349854
-0.4071422219276428 1.7877075672149658 0.09608882665634155 41.0 9 -0.016061922535300255
-0.4084935784339905 1.7936410903930664 -0.35757607221603394 94.0 2 -0.016059618443250656
-1.5026628971099854 6.603315353393555 0.592484712600708 85.0 10 -0.016057314351201057
-0.40994712710380554 1.802933692932129 -0.29284536838531494 100.0 3 -0.01605501025915146
-1.4961823225021362 6.585460662841797 0.8291990756988525 92.0 11 -0.01605270616710186
-0.40473994612693787 1.7829070091247559 -0.22448335587978363 85.0 4 -0.01605040207505226
-1.4931234121322632 6.582645416259766 1.06907320022583 88.0 12 -0.016048097983002663
-0.40679609775543213 1.7934179306030273 -0.16088949143886566 98.0 5 -0.016045793890953064
-1.4897651672363281 6.573143005371094 1.3100945949554443 100.0 13 -0.016043489798903465
-0.42480888962745667 1.8758606910705566 -0.100799061357975 29.0 6 -0.016041185706853867
-1.4859325885772705 6.566879749298096 1.5544118881225586 100.0 14 -0.016038881614804268
-0.4114418625831604 1.819783329963684 -0.032566189765930176 21.0 7 -0.01603657752275467
-1.4814282655715942 6.557591438293457 1.8013806343078613 63.0 15 -0.01603427343070507
-0.40561193227767944 1.805719017982483 -0.4958973228931427 87.0 0 -0.01601353846490383
-0.40201330184936523 1.791160225868225 0.032042618840932846 10.0 8 -0.016011234372854233
-0.4025519788265228 1.795026421546936 -0.4247076213359833 85.0 1 -0.016008930280804634
-0.4008990228176117 1.7891179323196411 0.09608882665634155 42.0 9 -0.016006626188755035
-0.40051254630088806 1.7873932123184204 -0.3560495972633362 94.0 2 -0.016004322096705437
-1.4796020984649658 6.608520984649658 0.592484712600708 85.0 10 -0.016002018004655838
-0.40494534373283386 1.8101366758346558 -0.293783962726593 100.0 3 -0.01599971391260624
-1.4723176956176758 6.58676815032959 0.8287115693092346 97.0 11 -0.01599740982055664
-0.3993788957595825 1.7881836891174316 -0.22497083246707916 85.0 4 -0.015995105728507042
-1.4692776203155518 6.583961486816406 1.0684475898742676 85.0 12 -0.015992801636457443
-0.3987979590892792 1.787048578262329 -0.16019225120544434 98.0 5 -0.015990497544407845
-1.467664361000061 6.582136154174805 1.310857892036438 100.0 13 -0.015988193452358246
-0.4195607900619507 1.8831804990768433 -0.10111307352781296 30.0 6 -0.015985889360308647
-1.4634257555007935 6.573928356170654 1.5548617839813232 100.0 14 -0.01598358526825905
-0.40291574597358704 1.811448574066162 -0.03239166736602783 20.0 7 -0.01598128117620945
-1.4568507671356201 6.555179119110107 1.7993099689483643 63.0 15 -0.01597897708415985
-0.39763858914375305 1.7995785474777222 -0.4938267767429352 85.0 0 -0.015958242118358612
-0.39662110805511475 1.7964577674865723 0.032112427055835724 10.0 8 -0.015955938026309013
-0.39880284667015076 1.8078384399414062 -0.42740702629089355 87.0 1 -0.015953633934259415
-0.3955107033252716 1.7944073677062988 0.09629816561937332 46.0 9 -0.015951329842209816
-0.393425315618515 1.784946084022522 -0.3552863597869873 97.0 2 -0.015949025750160217
-1.4530982971191406 6.598079204559326 0.5910902619361877 87.0 10 -0.01594672165811062
-0.39777565002441406 1.807680606842041 -0.29315823316574097 100.0 3 -0.01594441756606102
-1.4493149518966675 6.591867923736572 0.8287115693092346 95.0 11 -0.01594211347401142
-0.3969683051109314 1.8070164918899536 -0.22716447710990906 86.0 4 -0.015939809381961823
-1.445440649986267 6.585190773010254 1.067821741104126 88.0 12 -0.015937505289912224
-0.39170363545417786 1.784537672996521 -0.15984363853931427 98.0 5 -0.015935201197862625
-1.4438365697860718 6.583384037017822 1.3100945949554443 100.0 13 -0.015932897105813026
-0.4134126305580139 1.8865846395492554 -0.10121775418519974 32.0 6 -0.015930593013763428
-1.4400540590286255 6.57709264755249 1.5544118881225586 100.0 14 -0.01592829078435898
-0.3995811939239502 1.8265186548233032 -0.03263600170612335 18.0 7 -0.01592598669230938
-1.4314862489700317 6.548901081085205 1.7962043285369873 63.0 15 -0.01592368260025978
-0.3921752870082855 1.804731011390686 -0.49486202001571655 89.0 0 -0.015902945771813393
-0.3886502981185913 1.7900148630142212 0.03197281062602997 10.0 8 -0.015900641679763794
-0.39166396856307983 1.805410623550415 -0.42650723457336426 89.0 1 -0.015898337587714195
-0.38966813683509827 1.7977288961410522 0.0964028462767601 49.0 9 -0.015896033495664597
-0.39051979780197144 1.801658034324646 -0.3583393096923828 91.0 2 -0.015893729403614998
-1.4308996200561523 6.607006072998047 0.5914388298988342 87.0 10 -0.0158914253115654
-0.3897916376590729 1.801335334777832 -0.2919067442417145 100.0 3 -0.0158891212195158
-1.4246195554733276 6.589125633239746 0.8277366757392883 97.0 11 -0.015886817127466202
-0.3906577527523041 1.8083913326263428 -0.22716447710990906 86.0 4 -0.015884513035416603
-1.4241105318069458 6.597919940948486 1.06907320022583 88.0 12 -0.015882208943367004
-0.3871530592441559 1.793684482574463 -0.1605408787727356 98.0 5 -0.015879906713962555
-1.417537808418274 6.573030948638916 1.3070416450500488 100.0 13 -0.015877602621912956
-0.40556207299232483 1.8821589946746826 -0.10090373456478119 30.0 6 -0.015875298529863358
-1.4174954891204834 6.583984851837158 1.5548617839813232 100.0 14 -0.01587299443781376
-0.39278286695480347 1.8259471654891968 -0.032601095736026764 16.0 7 -0.01587069034576416
-1.409427523612976 6.557635307312012 1.7972395420074463 63.0 15 -0.01586838625371456
-0.38587358593940735 1.806088924407959 -0.49486202001571655 87.0 0 -0.015847649425268173
-0.3840698003768921 1.7991830110549927 0.032112427055835724 9.0 8 -0.015845345333218575
-0.3829200863838196 1.795331597328186 -0.4238077998161316 89.0 1 -0.015843041241168976
-0.3817257881164551 1.791264533996582 0.09598415344953537 48.0 9 -0.015840737149119377
-0.38341042399406433 1.7991697788238525 -0.35757607221603394 94.0 2 -0.01583843305706978
-1.4078294038772583 6.611959934234619 0.5914388298988342 87.0 10 -0.01583612896502018
-0.3839128613471985 1.804617166519165 -0.2922196090221405 100.0 3 -0.01583382673561573
-1.3991355895996094 6.5824079513549805 0.8262742161750793 97.0 11 -0.01583152264356613
-0.3822813332080841 1.8000348806381226 -0.22594578564167023 86.0 4 -0.015829218551516533
-1.4010722637176514 6.602850437164307 1.06907320022583 85.0 12 -0.015826914459466934
-0.38047635555267334 1.793075680732727 -0.16036656498908997 100.0 5 -0.015824610367417336
-1.396211862564087 6.585621356964111 1.3085681200027466 100.0 13 -0.015822306275367737
-0.39981693029403687 1.8874709606170654 -0.10111307352781296 38.0 6 -0.015820002183318138
-1.3924882411956787 6.579360008239746 1.5526123046875 100.0 14 -0.01581769809126854
-0.3876473605632782 1.8331764936447144 -0.03270580992102623 16.0 7 -0.01581539399921894
-1.3873257637023926 6.566296577453613 1.7982748746871948 62.0 15 -0.015813089907169342
-0.3811553418636322 1.814987301826477 -0.49693259596824646 89.0 0 -0.015792353078722954
-0.37778666615486145 1.8005127906799316 0.032112427055835724 8.0 8 -0.015790048986673355
-0.37824973464012146 1.8042864799499512 -0.4256074130535126 87.0 1 -0.015787746757268906
-0.374652236700058 1.7886762619018555 0.095774807035923 45.0 9 -0.015785442665219307
-0.37551823258399963 1.7928109169006348 -0.3560495972633362 94.0 2 -0.015783138573169708
-1.385555386543274 6.620734691619873 0.5917875170707703 87.0 10 -0.01578083448112011
-0.3776107430458069 1.8059463500976562 -0.2922196090221405 100.0 3 -0.01577853038907051
-1.376963496208191 6.591137409210205 0.8267617225646973 99.0 11 -0.015776226297020912
-0.3751840591430664 1.7974720001220703 -0.2254583090543747 88.0 4 -0.015773922204971313
-1.3764005899429321 6.599966526031494 1.067821741104126 88.0 12 -0.015771618112921715
-0.37543484568595886 1.8002443313598633 -0.16088949143886566 100.0 5 -0.015769314020872116
-1.3732199668884277 6.5904541015625 1.3085681200027466 100.0 13 -0.015767009928822517
-0.3989253044128418 1.9162297248840332 -0.10257848352193832 37.0 6 -0.01576470583677292
-1.3687180280685425 6.58036470413208 1.5517125129699707 100.0 14 -0.01576240174472332
-0.37758535146713257 1.8168975114822388 -0.03239166736602783 14.0 7 -0.01576009765267372
-1.3643980026245117 6.571098804473877 1.7982748746871948 63.0 15 -0.015757793560624123
-0.37247446179389954 1.8049548864364624 -0.4938267767429352 89.0 0 -0.015737058594822884
-0.3706921935081482 1.7979035377502441 0.032042618840932846 7.0 8 -0.015734754502773285
-0.37037694454193115 1.7979611158370972 -0.4238077998161316 89.0 1 -0.015732450410723686
-0.36992713809013367 1.7957775592803955 0.09608882665634155 45.0 9 -0.015730146318674088
-0.367674320936203 1.7864189147949219 -0.3545231223106384 97.0 2 -0.01572784222662449
-1.3596253395080566 6.611870765686035 0.5905672907829285 90.0 10 -0.01572553813457489
-0.3724974989891052 1.8130582571029663 -0.29315823316574097 100.0 3 -0.01572323404252529
-1.3559417724609375 6.605627059936523 0.8279803395271301 100.0 11 -0.015720929950475693
-0.36970454454421997 1.8026601076126099 -0.22594578564167023 90.0 4 -0.015718625858426094
-1.3509330749511719 6.587079048156738 1.065005898475647 84.0 12 -0.015716321766376495
-0.3675491213798523 1.7937363386154175 -0.16019225120544434 96.0 5 -0.015714017674326897
-1.3494172096252441 6.591360569000244 1.307804822921753 100.0 13 -0.015711713582277298
-0.3946349322795868 1.9293512105941772 -0.10320651531219482 35.0 6 -0.0157094094902277
-1.3457412719726562 6.585102081298828 1.5517125129699707 100.0 14 -0.0157071053981781
-0.369555801153183 1.8083436489105225 -0.03221714124083519 15.0 7 -0.015704801306128502
-1.3402823209762573 6.564229488372803 1.7951689958572388 63.0 15 -0.015702497214078903
-0.36540356278419495 1.8024574518203735 -0.49279147386550903 85.0 0 -0.015681762248277664
-0.3631383776664734 1.7912836074829102 0.03190299868583679 7.0 8 -0.015679458156228065
-0.3659604489803314 1.806819200515747 -0.4256074130535126 90.0 1 -0.015677154064178467
-0.362863689661026 1.7931429147720337 0.09587948024272919 45.0 9 -0.015674849972128868
-0.3629920780658722 1.79538893699646 -0.3560495972633362 94.0 2 -0.01567254588007927
-1.3365418910980225 6.616575241088867 0.5905672907829285 90.0 10 -0.01567024178802967
-0.3649190068244934 1.8065383434295654 -0.2919067442417145 100.0 3 -0.015667937695980072
-1.333634614944458 6.608141899108887 0.8277366757392883 99.0 11 -0.015665633603930473
-0.36529454588890076 1.8116599321365356 -0.2269207388162613 88.0 4 -0.015663329511880875
-1.3306670188903809 6.605309009552002 1.0671961307525635 88.0 12 -0.015661025419831276
-0.36049884557724 1.7911021709442139 -0.15984363853931427 98.0 5 -0.015658721327781677
-1.326000690460205 6.588100910186768 1.3062784671783447 100.0 13 -0.01565641723573208
-0.3890226483345032 1.9345653057098389 -0.10341586172580719 31.0 6 -0.01565411314368248
-1.3246660232543945 6.593349933624268 1.5526123046875 100.0 14 -0.01565180905163288
-0.36402788758277893 1.8135440349578857 -0.032286953181028366 11.0 7 -0.015649504959583282
-1.3165992498397827 6.565080165863037 1.7941336631774902 63.0 15 -0.015647202730178833
-0.3594256341457367 1.8036589622497559 -0.49279147386550903 89.0 0 -0.015626465901732445
-0.35688379406929016 1.7925403118133545 0.03190299868583679 7.0 8 -0.015624161809682846
-0.3588903844356537 1.8042631149291992 -0.4247076213359833 89.0 1 -0.015621857717633247
-0.3589393198490143 1.8061519861221313 0.09650751203298569 46.0 9 -0.015619553625583649
-0.35780295729637146 1.800433874130249 -0.35681283473968506 94.0 2 -0.01561724953353405
-1.3149793148040771 6.622925758361816 0.5907416343688965 87.0 10 -0.015614945441484451
-0.3586103022098541 1.8078012466430664 -0.2919067442417145 100.0 3 -0.015612642280757427
-1.3090144395828247 6.604968070983887 0.8267617225646973 99.0 11 -0.015610338188707829
-0.3597399592399597 1.816818356513977 -0.22740821540355682 90.0 4 -0.01560803409665823
-1.3076002597808838 6.609914302825928 1.0671961307525635 85.0 12 -0.015605730004608631
-0.35455769300460815 1.792287826538086 -0.15984363853931427 100.0 5 -0.015603425912559032
-1.3022328615188599 6.58883810043335 1.3055152893066406 100.0 13 -0.015601121820509434
-0.3830416202545166 1.9398301839828491 -0.10362520813941956 36.0 6 -0.015598817728459835
-1.3031498193740845 6.605581283569336 1.5544118881225586 100.0 14 -0.015596513636410236
-0.357308030128479 1.8128416538238525 -0.03225204721093178 10.0 7 -0.015594209544360638
-1.2936761379241943 6.569635391235352 1.7941336631774902 63.0 15 -0.015591905452311039
-0.35461074113845825 1.8124862909317017 -0.49486202001571655 83.0 0 -0.015571169555187225
-0.3513912260532379 1.7977004051208496 0.03197281062602997 6.0 8 -0.015568865463137627
-0.350349485874176 1.7940292358398438 -0.4220081865787506 85.0 1 -0.015566561371088028
-0.3495722711086273 1.7917115688323975 0.09567013382911682 58.0 9 -0.015564258210361004
-0.3530194163322449 1.8093795776367188 -0.3583393096923828 97.0 2 -0.015561954118311405
-1.2922323942184448 6.629431247711182 0.5909159183502197 90.0 10 -0.015559650026261806
-0.3526757061481476 1.8109809160232544 -0.2922196090221405 100.0 3 -0.015557345934212208
-1.2836806774139404 6.597805023193359 0.8252992630004883 95.0 11 -0.015555041842162609
-0.35112273693084717 1.8063714504241943 -0.22594578564167023 88.0 4 -0.01555273775011301
-1.2852740287780762 6.618316173553467 1.067821741104126 88.0 12 -0.015550433658063412
-0.3494391441345215 1.7993818521499634 -0.16036656498908997 100.0 5 -0.015548129566013813
-1.27848219871521 6.589488506317139 1.304751992225647 100.0 13 -0.015545825473964214
-0.37360700964927673 1.927430272102356 -0.10289250314235687 41.0 6 -0.01554352231323719
-1.278229832649231 6.600524425506592 1.5521622896194458 100.0 14 -0.015541218221187592
-0.3532581925392151 1.825857400894165 -0.03246147558093071 8.0 7 -0.015538914129137993
-1.2722007036209106 6.581698894500732 1.7962043285369873 63.0 15 -0.015536610037088394
-0.3490099608898163 1.8175076246261597 -0.4958973228931427 89.0 0 -0.01551587413996458
-0.8058966994285583 4.200743675231934 0.07466139644384384 12.0 8 -0.015513570047914982
-0.3448181748390198 1.7990691661834717 -0.4229080080986023 89.0 1 -0.015511265955865383
-0.34406667947769165 1.7968443632125854 0.09587948024272919 55.0 9 -0.015508961863815784
-0.34411630034446716 1.7971034049987793 -0.35566797852516174 99.0 2 -0.015506657771766186
-1.2690880298614502 6.6339006423950195 0.5909159183502197 90.0 10 -0.015504353679716587
-0.3459807336330414 1.8102607727050781 -0.2919067442417145 100.0 3 -0.015502049587666988
-1.2613850831985474 6.606145858764648 0.8257867693901062 97.0 11 -0.01549974549561739
-0.3448164463043213 1.8075858354568481 -0.22594578564167023 88.0 4 -0.015497442334890366
-1.2573546171188354 6.597536563873291 1.0637544393539429 84.0 12 -0.015495138242840767
-0.34278252720832825 1.7986336946487427 -0.16019225120544434 100.0 5 -0.015492834150791168
-1.2584086656570435 6.609339237213135 1.307804822921753 100.0 13 -0.01549053005874157
-0.36799776554107666 1.9346085786819458 -0.10320651531219482 37.0 6 -0.01548822596669197
-1.253727912902832 6.597288131713867 1.5503627061843872 100.0 14 -0.015485921874642372
-0.34315216541290283 1.8074333667755127 -0.032112427055835724 7.0 7 -0.015483617782592773
-1.2499399185180664 6.589894771575928 1.7972395420074463 63.0 15 -0.015481313690543175
-0.34123319387435913 1.8111209869384766 -0.4938267767429352 89.0 0 -0.015460577793419361
-0.790117621421814 4.197635650634766 0.07455668598413467 22.0 8 -0.015458273701369762
-0.3399762809276581 1.807922601699829 -0.4247076213359833 89.0 1 -0.015455969609320164
-0.3392678499221802 1.8058857917785645 0.09629816561937332 51.0 9 -0.015453665517270565
-0.3367540240287781 1.792504906654358 -0.3545231223106384 97.0 2 -0.015451362356543541
-1.2444517612457275 6.630458354949951 0.5902186632156372 93.0 10 -0.015449058264493942
-0.3411153554916382 1.8192237615585327 -0.29315823316574097 100.0 3 -0.015446754172444344
-1.239050030708313 6.614410877227783 0.8262742161750793 95.0 11 -0.015444450080394745
-0.33850419521331787 1.8087785243988037 -0.22594578564167023 90.0 4 -0.015442145988345146
-1.23540461063385 6.607710838317871 1.0646930932998657 85.0 12 -0.015439841896295547
-0.33576926589012146 1.7959024906158447 -0.15984363853931427 100.0 5 -0.015437537804245949
-1.235692024230957 6.615622043609619 1.3081865310668945 100.0 13 -0.01543523371219635
-0.36197468638420105 1.9398081302642822 -0.10341586172580719 32.0 6 -0.015432929620146751
-1.2324753999710083 6.611203193664551 1.5526123046875 100.0 14 -0.015430625528097153
-0.3346445560455322 1.7968249320983887 -0.03190299868583679 7.0 7 -0.015428321436047554
-1.2248104810714722 6.582822322845459 1.7941336631774902 63.0 15 -0.015426017343997955
-0.3335043787956238 1.8047024011611938 -0.4917562007904053 90.0 0 -0.015405282378196716
-0.7765483856201172 4.206267833709717 0.07466139644384384 9.0 8 -0.015402978286147118
-0.33437150716781616 1.8129308223724365 -0.4256074130535126 92.0 1 -0.015400674194097519
-0.33187586069107056 1.8011667728424072 0.09598415344953537 49.0 9 -0.01539837010204792
-0.3304944932460785 1.793669581413269 -0.3545231223106384 91.0 2 -0.015396066009998322
-1.2198551893234253 6.62692403793335 0.5895214676856995 93.0 10 -0.015393761917948723
-0.33333516120910645 1.8126318454742432 -0.2919067442417145 100.0 3 -0.015391457825899124
-1.2155934572219849 6.616743564605713 0.8260304927825928 93.0 11 -0.015389153733849525
-0.33218783140182495 1.8099491596221924 -0.22594578564167023 92.0 4 -0.015386849641799927
-1.2134020328521729 6.617811679840088 1.0656317472457886 83.0 12 -0.015384545549750328
-0.3284207284450531 1.7911841869354248 -0.15932069718837738 100.0 5 -0.01538224145770073
-1.2101136445999146 6.606377124786377 1.3055152893066406 100.0 13 -0.01537993736565113
-0.35735785961151123 1.9528477191925049 -0.1040438860654831 32.0 6 -0.015377634204924107
-1.2086910009384155 6.611630439758301 1.5517125129699707 100.0 14 -0.015375330112874508
-0.33052554726600647 1.809785008430481 -0.032112427055835724 7.0 7 -0.01537302602082491
-1.20112943649292 6.58325719833374 1.7930984497070312 63.0 15 -0.01537072192877531
-0.3272031545639038 1.8058555126190186 -0.4917562007904053 87.0 0 -0.015349986031651497
-0.3283948600292206 1.8142374753952026 0.0321822389960289 2.0 8 -0.015347681939601898
-0.32596009969711304 1.8025813102722168 -0.4229080080986023 90.0 1 -0.0153453778475523
-0.3245218098163605 1.7964178323745728 0.09567013382911682 58.0 9 -0.0153430737555027
-0.32562780380249023 1.8025401830673218 -0.3560495972633362 94.0 2 -0.015340769663453102
-1.1974244117736816 6.6350626945495605 0.589870035648346 93.0 10 -0.015338465571403503
-0.3263044059276581 1.809896469116211 -0.2912810146808624 100.0 3 -0.015336161479353905
-1.1907281875610352 6.611177921295166 0.8248117566108704 97.0 11 -0.015333857387304306
-0.3272744417190552 1.8189126253128052 -0.2269207388162613 94.0 4 -0.015331554226577282
-1.1899460554122925 6.620062828063965 1.0653188228607178 85.0 12 -0.015329250134527683
-0.32287168502807617 1.7962417602539062 -0.15966932475566864 100.0 5 -0.015326946042478085
-1.1856560707092285 6.602831840515137 1.3039886951446533 100.0 13 -0.015324641950428486
-0.3420756757259369 1.9069020748138428 -0.10153176635503769 12.0 6 -0.015322337858378887
-1.1866374015808105 6.6215643882751465 1.5530622005462646 100.0 14 -0.015320033766329288
-0.32350096106529236 1.8069911003112793 -0.032042618840932846 7.0 7 -0.01531772967427969
-1.177463412284851 6.583606243133545 1.7920631170272827 63.0 15 -0.015315425582230091
-0.32157349586486816 1.810790777206421 -0.49279147386550903 87.0 0 -0.015294689685106277
-0.32450464367866516 1.8291553258895874 0.03242656961083412 1.0 8 -0.015292385593056679
-0.3203464448451996 1.8075456619262695 -0.4238077998161316 90.0 1 -0.01529008150100708
-0.3175522983074188 1.7936064004898071 0.09546079486608505 78.0 9 -0.015287777408957481
-0.32070237398147583 1.8113987445831299 -0.35757607221603394 94.0 2 -0.015285474248230457
-1.1735607385635376 6.635278701782227 0.5895214676856995 93.0 10 -0.015283170156180859
-0.3199850916862488 1.8110243082046509 -0.2912810146808624 100.0 3 -0.01528086606413126
-1.1669549942016602 6.611384868621826 0.8243243098258972 97.0 11 -0.015278561972081661
-0.31885451078414917 1.8083144426345825 -0.2254583090543747 92.0 4 -0.015276257880032063
-1.1675171852111816 6.628066539764404 1.0659445524215698 88.0 12 -0.015273953787982464
-0.3176369071006775 1.8032441139221191 -0.16019225120544434 100.0 5 -0.015271649695932865
-1.1632826328277588 6.61079740524292 1.304751992225647 100.0 13 -0.015269345603883266
-0.3208935260772705 1.825466513633728 -0.09713554382324219 6.0 6 -0.015267041511833668
-1.1608184576034546 6.610311508178711 1.5494630336761475 100.0 14 -0.015264738351106644
-0.31684625148773193 1.806139588356018 -0.03200771287083626 6.0 7 -0.015262434259057045
-1.156474232673645 6.599093437194824 1.7951689958572388 63.0 15 -0.015260130167007446
-0.31591251492500305 1.815708875656128 -0.4938267767429352 89.0 0 -0.015239393338561058
-0.31503620743751526 1.8125454187393188 0.032112427055835724 1.0 8 -0.015237090177834034
-0.31403449177742004 1.8086529970169067 -0.4238077998161316 87.0 1 -0.015234786085784435
-0.31128990650177 1.7947038412094116 0.09546079486608505 87.0 9 -0.015232481993734837
-0.3116937279701233 1.7970319986343384 -0.3545231223106384 97.0 2 -0.015230177901685238
-1.1514140367507935 6.645224094390869 0.590044379234314 87.0 10 -0.01522787380963564
-0.31433480978012085 1.8160232305526733 -0.2919067442417145 100.0 3 -0.01522556971758604
-1.1445475816726685 6.61932897567749 0.8248117566108704 97.0 11 -0.015223265625536442
-0.3111892342567444 1.8015917539596558 -0.22448335587978363 92.0 4 -0.015220961533486843
-1.1430284976959229 6.62431526184082 1.0646930932998657 88.0 12 -0.015218658372759819
-0.31167879700660706 1.8063054084777832 -0.16036656498908997 100.0 5 -0.01521635428071022
-1.1402009725570679 6.6148176193237305 1.304751992225647 100.0 13 -0.015214050188660622
-0.3135031461715698 1.8206707239151 -0.09682153165340424 6.0 6 -0.015211746096611023
-1.1380687952041626 6.6162428855896 1.549912929534912 100.0 14 -0.015209442004561424
-0.30952414870262146 1.801322102546692 -0.03190299868583679 5.0 7 -0.015207137912511826
-1.13343346118927 6.603089809417725 1.7951689958572388 63.0 15 -0.015204833820462227
-0.3092395067214966 1.8129377365112305 -0.49279147386550903 87.0 0 -0.015169143676757812
-0.3103678226470947 1.821465253829956 0.03225204721093178 1.0 8 -0.015166839584708214
-0.30868858098983765 1.8135267496109009 -0.4247076213359833 87.0 1 -0.015164535492658615
-0.3060058057308197 1.7996642589569092 0.09567013382911682 94.0 9 -0.015162231400609016
-0.3057323396205902 1.79805588722229 -0.3545231223106384 97.0 2 -0.015159927308559418
-1.1283717155456543 6.643112659454346 0.5895214676856995 90.0 10 -0.015157623216509819
-0.30963224172592163 1.8248459100723267 -0.29315823316574097 100.0 3 -0.015155320055782795
-1.123252511024475 6.627003192901611 0.8252992630004883 97.0 11 -0.015153015963733196
-0.30720195174217224 1.8143571615219116 -0.22594578564167023 94.0 4 -0.015150711871683598
-1.1210533380508423 6.628069877624512 1.0646930932998657 88.0 12 -0.015148407779633999
-0.303693026304245 1.7955422401428223 -0.15932069718837738 100.0 5 -0.0151461036875844
-1.119565486907959 6.62630558013916 1.3062784671783447 100.0 13 -0.015143799595534801
-0.30679941177368164 1.8177613019943237 -0.09661218523979187 6.0 6 -0.015141495503485203
-1.116768479347229 6.623824119567871 1.5508127212524414 100.0 14 -0.015139191411435604
-0.3038806617259979 1.8043105602264404 -0.03193790465593338 3.0 7 -0.015136887319386005
-1.1096088886260986 6.595381736755371 1.7920631170272827 63.0 15 -0.015134583227336407
-0.30227330327033997 1.8101952075958252 -0.4917562007904053 89.0 0 -0.015113847330212593
-0.30203330516815186 1.810703158378601 0.032042618840932846 1.0 8 -0.015111543238162994
-0.30235669016838074 1.8145931959152222 -0.4247076213359833 89.0 1 -0.01510924007743597
-0.2997223138809204 1.800721526145935 0.09567013382911682 95.0 9 -0.015106935985386372
-0.30009913444519043 1.802985429763794 -0.3552863597869873 97.0 2 -0.015104631893336773
-1.1038670539855957 6.6391496658325195 0.5888242125511169 90.0 10 -0.015102327801287174
-0.30164259672164917 1.8161721229553223 -0.29159387946128845 100.0 3 -0.015100023709237576
-1.1014140844345093 6.638717174530029 0.8262742161750793 97.0 11 -0.015097719617187977
-0.3008663058280945 1.8154183626174927 -0.22594578564167023 92.0 4 -0.015095415525138378
-1.0966211557388306 6.624146938323975 1.0634416341781616 88.0 12 -0.01509311143308878
-0.2970985472202301 1.7946256399154663 -0.15914638340473175 100.0 5 -0.01509080734103918
-1.0951488018035889 6.622425556182861 1.304751992225647 100.0 13 -0.015088503248989582
-0.3011029362678528 1.822762370109558 -0.09682153165340424 7.0 6 -0.015086200088262558
-1.09300696849823 6.623836040496826 1.549912929534912 100.0 14 -0.01508389599621296
-0.29920706152915955 1.815225601196289 -0.032112427055835724 2.0 7 -0.01508159190416336
-1.0859503746032715 6.595402717590332 1.7910279035568237 63.0 15 -0.015079287812113762
-0.29657527804374695 1.8150526285171509 -0.49279147386550903 89.0 0 -0.015058551914989948
-0.2976440489292145 1.8235876560211182 0.03225204721093178 2.0 8 -0.01505624782294035
-0.2953939437866211 1.8117907047271729 -0.4238077998161316 90.0 1 -0.015053943730890751
-0.295039564371109 1.8116132020950317 0.09619349241256714 100.0 9 -0.015051639638841152
-0.29506558179855347 1.8117729425430298 -0.35681283473968506 100.0 2 -0.015049335546791553
-1.0806868076324463 6.6429619789123535 0.5888242125511169 90.0 10 -0.015047031454741955
-0.2949846684932709 1.815264105796814 -0.2912810146808624 100.0 3 -0.015044727362692356
-1.0756875276565552 6.626845836639404 0.8243243098258972 95.0 11 -0.015042423270642757
-0.29452699422836304 1.8164576292037964 -0.22594578564167023 92.0 4 -0.015040120109915733
-1.0747566223144531 6.635733604431152 1.0646930932998657 85.0 12 -0.015037816017866135
-0.2914698123931885 1.799585223197937 -0.15949499607086182 100.0 5 -0.015035511925816536
-1.070142388343811 6.614579677581787 1.3024622201919556 100.0 13 -0.015033207833766937
