# .PCD v0.7 - Point Cloud Data file format
VERSION 0.7
FIELDS x y z intensity ring time
SIZE 4 4 4 4 4 4
TYPE F F F F F F
COUNT 1 1 1 1 1 1
WIDTH 538
HEIGHT 1
VIEWPOINT 0 0 0 1 0 0 0
POINTS 538
DATA ascii
-2.7315306663513184 -1.608994483947754 -0.3892507255077362 45.0 4 -0.01770586147904396
-2.842702865600586 -1.6738117933273315 0.5224911570549011 53.0 12 -0.017703557386994362
-2.439682722091675 -1.436509609222412 -0.2476966232061386 7.0 5 -0.017701253294944763
-2.840775728225708 -1.6720093488693237 0.6407366394996643 50.0 13 -0.017698949202895164
-2.55631947517395 -1.5039849281311035 -0.15543779730796814 1.0 6 -0.017696645110845566
-2.8321115970611572 -1.6655791997909546 0.7585350275039673 50.0 14 -0.017694341018795967
-2.814805746078491 -1.654079556465149 0.8748083710670471 46.0 15 -0.01768973469734192
-1.851770281791687 -1.0851246118545532 -0.5750959515571594 1.0 0 -0.01766899786889553
-2.7555768489837646 -1.6141022443771362 0.055742986500263214 24.0 8 -0.017666693776845932
-2.771400213241577 -1.6227221488952637 -0.7414387464523315 32.0 1 -0.017664389684796333
-2.2681846618652344 -1.3280771970748901 0.13774825632572174 19.0 9 -0.017662085592746735
-2.7635226249694824 -1.617461085319519 -0.6224189400672913 45.0 2 -0.017659781500697136
-2.304389476776123 -1.3481954336166382 0.23357738554477692 3.0 10 -0.017657477408647537
-2.770922899246216 -1.620495080947876 -0.5084120631217957 45.0 3 -0.01765517331659794
-2.8568131923675537 -1.6700555086135864 0.40631240606307983 57.0 11 -0.01765286922454834
-2.7319884300231934 -1.5964449644088745 -0.3885194957256317 41.0 4 -0.01765056513249874
-2.8380043506622314 -1.6583956480026245 0.520613968372345 51.0 12 -0.017648261040449142
-2.436079978942871 -1.422960638999939 -0.24682505428791046 8.0 5 -0.017645956948399544
-2.8448994159698486 -1.66109299659729 0.6403550505638123 46.0 13 -0.017643654718995094
-2.3476595878601074 -1.3702130317687988 -0.1424584835767746 1.0 6 -0.017641350626945496
-2.8294918537139893 -1.6507737636566162 0.7562854886054993 44.0 14 -0.017639046534895897
-2.825281858444214 -1.647655725479126 0.8763613104820251 36.0 15 -0.0176344383507967
-1.8555471897125244 -1.0786535739898682 -0.5750959515571594 1.0 0 -0.01761370152235031
-2.696948289871216 -1.567771077156067 0.054451506584882736 35.0 8 -0.017611397430300713
-2.7919304370880127 -1.6223344802856445 -0.7454878091812134 46.0 1 -0.017609093338251114
-2.303893804550171 -1.3382083177566528 0.13963234424591064 19.0 9 -0.017606789246201515
-2.7708499431610107 -1.608790636062622 -0.6228005886077881 47.0 2 -0.017604485154151917
-2.6830146312713623 -1.5571671724319458 0.2714029848575592 20.0 10 -0.017602181062102318
-2.7591967582702637 -1.601381778717041 -0.5052834153175354 45.0 3 -0.01759987697005272
-2.8520328998565674 -1.6545965671539307 0.4048500061035156 46.0 11 -0.01759757474064827
-2.73726749420166 -1.5873764753341675 -0.3885194957256317 41.0 4 -0.01759527064859867
-2.836939811706543 -1.644517183303833 0.5193625092506409 45.0 12 -0.017592966556549072
-2.4393086433410645 -1.4134489297866821 -0.24665075540542603 7.0 5 -0.017590662464499474
-2.8469948768615723 -1.6496812105178833 0.6395918130874634 35.0 13 -0.017588358372449875
-2.331451416015625 -1.3504078388214111 -0.1412024199962616 2.0 6 -0.017586054280400276
-2.8602476119995117 -1.6560280323028564 0.7630340456962585 33.0 14 -0.017583750188350677
-2.847738027572632 -1.647457480430603 0.881537675857544 8.0 15 -0.01757914200425148
-1.8156063556671143 -1.0473954677581787 -0.5616373419761658 1.0 0 -0.017558405175805092
-2.3611390590667725 -1.3615566492080688 0.04757525771856308 11.0 8 -0.017556101083755493
-2.7773165702819824 -1.6009005308151245 -0.7400889992713928 48.0 1 -0.017553796991705894
-2.3137426376342773 -1.333148717880249 0.1399463564157486 26.0 9 -0.017551492899656296
-2.7727673053741455 -1.597632884979248 -0.6220373511314392 51.0 2 -0.017549190670251846
-2.864266872406006 -1.6496888399124146 0.28918275237083435 40.0 10 -0.017546886578202248
-2.761345863342285 -1.5897692441940308 -0.5046576261520386 47.0 3 -0.01754458248615265
-2.849189043045044 -1.6396795511245728 0.4036312997341156 42.0 11 -0.01754227839410305
-2.7410707473754883 -1.5768227577209473 -0.38827574253082275 47.0 4 -0.01753997430205345
-2.8666372299194336 -1.6483899354934692 0.5237426161766052 30.0 12 -0.017537670210003853
-2.438800573348999 -1.4023730754852295 -0.24612781405448914 8.0 5 -0.017535366117954254
-2.8663530349731445 -1.6475601196289062 0.6426447629928589 15.0 13 -0.017533062025904655
-2.3084423542022705 -1.3263416290283203 -0.13952767848968506 1.0 6 -0.017530757933855057
-2.8970353603363037 -1.6625076532363892 0.8949962854385376 9.0 15 -0.01752384565770626
-1.849432349205017 -1.058322787284851 -0.5709548592567444 1.0 0 -0.01750311069190502
-2.336369037628174 -1.336427092552185 0.04698187857866287 16.0 8 -0.017500806599855423
-2.7727372646331787 -1.5853923559188843 -0.7373896241188049 50.0 1 -0.017498502507805824
-2.3097116947174072 -1.3201093673706055 0.13942299783229828 17.0 9 -0.017496198415756226
-2.778326988220215 -1.5879449844360352 -0.6220373511314392 55.0 2 -0.017493894323706627
-2.658952474594116 -1.5191012620925903 0.267916738986969 9.0 10 -0.017491590231657028
-2.7703092098236084 -1.5820800065994263 -0.5052834153175354 51.0 3 -0.01748928613960743
-2.8669626712799072 -1.6366136074066162 0.40533748269081116 31.0 11 -0.01748698204755783
-2.7327651977539062 -1.559374213218689 -0.3863258361816406 48.0 4 -0.017484677955508232
-2.886101007461548 -1.646202564239502 0.5262455940246582 7.0 12 -0.017482373863458633
-2.450603723526001 -1.3977993726730347 -0.24682505428791046 8.0 5 -0.017480069771409035
-2.895963191986084 -1.6511589288711548 0.6479873657226562 6.0 13 -0.017477765679359436
-2.3408217430114746 -1.3340988159179688 -0.1412024199962616 1.0 6 -0.017475461587309837
-2.853113889694214 -1.6254076957702637 0.7580850720405579 2.0 14 -0.01747315749526024
-2.3424055576324463 -1.333918571472168 -0.04705168679356575 1.0 7 -0.01747085340321064
-2.8961052894592285 -1.6485621929168701 0.8929257392883301 9.0 15 -0.01746854931116104
-1.876636266708374 -1.065211534500122 -0.5782017707824707 1.0 0 -0.017447814345359802
-2.3931970596313477 -1.3578681945800781 0.04802902415394783 35.0 8 -0.017445510253310204
-2.781644821166992 -1.5776265859603882 -0.7382894158363342 54.0 1 -0.017443206161260605
-2.3021435737609863 -1.3051435947418213 0.1386902928352356 14.0 9 -0.017440902069211006
-2.7701900005340576 -1.570491075515747 -0.6189844012260437 51.0 2 -0.017438597977161407
-2.3920950889587402 -1.3555878400802612 0.24054984748363495 7.0 10 -0.01743629388511181
-2.7655022144317627 -1.5665582418441772 -0.5034061670303345 51.0 3 -0.01743398979306221
-2.734736680984497 -1.5478699207305908 -0.3858383595943451 47.0 4 -0.017429381608963013
-2.8626019954681396 -1.6195825338363647 0.520926833152771 3.0 12 -0.017427077516913414
-2.4557101726531982 -1.3888086080551147 -0.24682505428791046 8.0 5 -0.017424773424863815
-2.9256339073181152 -1.654570460319519 0.6533300280570984 5.0 13 -0.017422469332814217
-2.3454642295837402 -1.3259196281433105 -0.1412024199962616 1.0 6 -0.017420165240764618
-2.8519833087921143 -1.6116043329238892 0.7562854886054993 2.0 14 -0.01741786114871502
-2.3261539936065674 -1.3139320611953735 -0.046632830053567886 1.0 7 -0.01741555705666542
-2.9119362831115723 -1.6441409587860107 0.8960315585136414 10.0 15 -0.017413252964615822
-1.8973631858825684 -1.0678013563156128 -0.5833781957626343 1.0 0 -0.017392517998814583
-2.3595831394195557 -1.327930212020874 0.04726111888885498 20.0 8 -0.017390213906764984
-2.7786426544189453 -1.5631299018859863 -0.7360398769378662 52.0 1 -0.017387909814715385
-2.2962398529052734 -1.2912260293960571 0.1380622535943985 16.0 9 -0.017385605722665787
-2.7742159366607666 -1.559365153312683 -0.6186028122901917 58.0 2 -0.017383301630616188
-2.344937562942505 -1.3175326585769653 0.23532049357891083 9.0 10 -0.01738099753856659
-2.7729477882385254 -1.5573790073394775 -0.5037190318107605 55.0 3 -0.01737869344651699
-2.881779909133911 -1.6185027360916138 0.4058249592781067 2.0 11 -0.017376389354467392
-2.7401230335235596 -1.5383144617080688 -0.3858383595943451 47.0 4 -0.017374085262417793
-2.8665149211883545 -1.6086134910583496 0.520613968372345 3.0 12 -0.017371781170368195
-2.443166494369507 -1.3704806566238403 -0.24508193135261536 8.0 5 -0.017369477078318596
-2.916266679763794 -1.6351944208145142 0.6498954892158508 3.0 13 -0.017367172986268997
-2.322432279586792 -1.3016899824142456 -0.13952767848968506 1.0 6 -0.017364870756864548
-2.8578710556030273 -1.6011404991149902 0.7562854886054993 2.0 14 -0.01736256666481495
-2.28187894821167 -1.2784371376037598 -0.045655496418476105 2.0 7 -0.01736026257276535
-2.8991167545318604 -1.6235829591751099 0.8903375267982483 9.0 15 -0.01735795848071575
-1.8690290451049805 -1.0432809591293335 -0.5735430121421814 2.0 0 -0.017337221652269363
-2.3644347190856934 -1.3192723989486694 0.04726111888885498 23.0 8 -0.017334917560219765
-2.7843527793884277 -1.5529357194900513 -0.7360398769378662 57.0 1 -0.017332613468170166
-2.288745880126953 -1.2759933471679688 0.137329563498497 13.0 9 -0.017330309376120567
-2.767638921737671 -1.5429798364639282 -0.6159314513206482 55.0 2 -0.01732800528407097
-2.321676254272461 -1.2938212156295776 0.23253153264522552 7.0 10 -0.01732570119202137
-2.7697384357452393 -1.542884111404419 -0.5021546483039856 54.0 3 -0.01732339709997177
-2.8842241764068604 -1.6059980392456055 0.40533748269081116 2.0 11 -0.017321093007922173
-2.7440080642700195 -1.527295470237732 -0.38559460639953613 56.0 4 -0.017318788915872574
-2.882749080657959 -1.6038588285446167 0.5224911570549011 5.0 12 -0.017316486686468124
-2.4377260208129883 -1.3557066917419434 -0.24403607845306396 8.0 5 -0.017314182594418526
-2.9133780002593994 -1.6202338933944702 0.6479873657226562 5.0 13 -0.017311878502368927
-2.297285795211792 -1.2770780324935913 -0.13774825632572174 2.0 6 -0.01730957441031933
-2.885587453842163 -1.6034592390060425 0.7621342539787292 5.0 14 -0.01730727031826973
-2.293541669845581 -1.2739489078521729 -0.04579511284828186 3.0 7 -0.01730496622622013
-3.0198984146118164 -1.6767146587371826 0.9255369305610657 14.0 15 -0.017302662134170532
-1.8948137760162354 -1.0485843420028687 -0.5802723169326782 1.0 0 -0.017281925305724144
-2.3672754764556885 -1.310043215751648 0.04722621291875839 25.0 8 -0.017279621213674545
-2.781230926513672 -1.5384900569915771 -0.733790397644043 58.0 1 -0.017277317121624947
-2.303673267364502 -1.2737950086593628 0.1379576027393341 17.0 9 -0.017275013029575348
-2.774993658065796 -1.5337759256362915 -0.616313099861145 57.0 2 -0.0172727108001709
-2.3246588706970215 -1.2843395471572876 0.2323572039604187 7.0 10 -0.01727040484547615
-2.7753751277923584 -1.5327215194702148 -0.5021546483039856 59.0 3 -0.0172681026160717
-3.185223340988159 -1.7590631246566772 0.44677305221557617 12.0 11 -0.017265798524022102
-2.7493221759796143 -1.5177083015441895 -0.38559460639953613 50.0 4 -0.017263494431972504
-3.011127233505249 -1.661545991897583 0.5447048544883728 8.0 12 -0.017261190339922905
-2.452910900115967 -1.3529627323150635 -0.24508193135261536 8.0 5 -0.017258886247873306
-2.896946430206299 -1.5972228050231934 0.6430263519287109 3.0 13 -0.017256582155823708
-2.3071985244750977 -1.2715413570404053 -0.1380622535943985 2.0 6 -0.01725427806377411
-3.0433566570281982 -1.6765598058700562 0.8021755218505859 9.0 14 -0.01725197397172451
-2.294471502304077 -1.2640053033828735 -0.04572530463337898 2.0 7 -0.01724966987967491
-2.996965169906616 -1.6503205299377441 0.9167370796203613 17.0 15 -0.017247365787625313
-1.9321482181549072 -1.060890793800354 -0.5906250476837158 1.0 0 -0.0171964168548584
-2.3402798175811768 -1.2844533920288086 0.0465979240834713 27.0 8 -0.0171941127628088
-2.774624824523926 -1.5222110748291016 -0.7306410670280457 57.0 1 -0.0171918086707592
-2.3796777725219727 -1.3055356740951538 0.14224915206432343 15.0 9 -0.017189504578709602
-2.780064821243286 -1.5245652198791504 -0.616313099861145 61.0 2 -0.017187200486660004
-2.435478925704956 -1.335044264793396 0.24299021065235138 2.0 10 -0.017184896394610405
-2.7752456665039062 -1.52066171169281 -0.5012161135673523 63.0 3 -0.017182592302560806
-2.8988475799560547 -1.5877312421798706 0.4058249592781067 3.0 11 -0.017180288210511208
-2.7476391792297363 -1.5042884349822998 -0.38461968302726746 55.0 4 -0.01717798411846161
-3.084195852279663 -1.6885477304458618 0.5569067597389221 11.0 12 -0.01717568002641201
-2.4608798027038574 -1.3467340469360352 -0.2454305738210678 8.0 5 -0.01717337593436241
-3.0021252632141113 -1.6422547101974487 0.6651601791381836 7.0 13 -0.017171073704957962
-2.3043930530548096 -1.2600505352020264 -0.13764357566833496 2.0 6 -0.017168769612908363
-2.9121010303497314 -1.5916873216629028 0.7661833167076111 9.0 14 -0.017166465520858765
-2.2986507415771484 -1.2563896179199219 -0.04572530463337898 2.0 7 -0.017164161428809166
-2.83288836479187 -1.5477503538131714 0.8649733066558838 7.0 15 -0.017161857336759567
-1.9697721004486084 -1.0726172924041748 -0.6009778380393982 1.0 0 -0.01714112050831318
-2.455166816711426 -1.3369336128234863 0.04879692941904068 22.0 8 -0.01713881641626358
-2.7813689708709717 -1.5139331817626953 -0.7310910224914551 59.0 1 -0.01713651232421398
-2.3719396591186523 -1.2905399799346924 0.14151644706726074 18.0 9 -0.017134208232164383
-2.775021553039551 -1.5092235803604126 -0.6140233874320984 61.0 2 -0.017131904140114784
-2.469882011413574 -1.3427112102508545 0.2459534853696823 2.0 10 -0.017129600048065186
-2.7733309268951416 -1.507676362991333 -0.4999645948410034 58.0 3 -0.017127295956015587
-3.123866319656372 -1.6975338459014893 0.43653604388237 9.0 11 -0.017124993726611137
-2.738657236099243 -1.4875891208648682 -0.3826697766780853 57.0 4 -0.01712268963456154
-3.022367238998413 -1.641011357307434 0.5447048544883728 10.0 12 -0.01712038554251194
-2.4603121280670166 -1.3352850675582886 -0.24490763247013092 9.0 5 -0.01711808145046234
-2.8798675537109375 -1.5629905462265015 0.6369204521179199 3.0 13 -0.017115777358412743
-2.306802988052368 -1.2514500617980957 -0.13753889501094818 1.0 6 -0.017113473266363144
-2.8402748107910156 -1.540218472480774 0.7459377646446228 3.0 14 -0.017111169174313545
-2.313570737838745 -1.2540758848190308 -0.04593473672866821 1.0 7 -0.017108865082263947
-2.8263840675354004 -1.5314092636108398 0.8613498210906982 7.0 15 -0.017106560990214348
-2.797658681869507 -1.5114269256591797 -0.8520323038101196 57.0 0 -0.01708582416176796
-2.385918617248535 -1.288447618484497 0.04733092710375786 19.0 8 -0.01708352006971836
-2.7866365909576416 -1.5042158365249634 -0.7310910224914551 59.0 1 -0.017081215977668762
-2.4818925857543945 -1.339156985282898 0.14779675006866455 9.0 9 -0.017078913748264313
-2.7765555381774902 -1.4981484413146973 -0.6132601499557495 61.0 2 -0.017076609656214714
-2.4322352409362793 -1.311814546585083 0.24177002906799316 1.0 10 -0.017074305564165115
-2.790748119354248 -1.5045487880706787 -0.5021546483039856 59.0 3 -0.017072001472115517
-2.9602651596069336 -1.5952723026275635 0.4128933846950531 5.0 11 -0.017069697380065918
-2.747328758239746 -1.4799023866653442 -0.38315722346305847 65.0 4 -0.01706739328801632
-2.8558883666992188 -1.5377380847930908 0.5137308239936829 5.0 12 -0.01706508919596672
-2.457709312438965 -1.323340654373169 -0.2442103773355484 9.0 5 -0.017062785103917122
-2.864560842514038 -1.5417628288269043 0.6323410272598267 3.0 13 -0.017060481011867523
-2.351611614227295 -1.2651535272598267 -0.1399463564157486 4.0 6 -0.017058176919817924
-2.85249924659729 -1.5339863300323486 0.7477373480796814 3.0 14 -0.017055872827768326
-2.3390698432922363 -1.2573543787002563 -0.04635359346866608 1.0 7 -0.017053568735718727
-2.8249053955078125 -1.517876386642456 0.8592792749404907 6.0 15 -0.01705126464366913
-2.794403076171875 -1.497090458869934 -0.8494440913200378 61.0 0 -0.01703052967786789
-2.4591522216796875 -1.316928744316101 0.048692215234041214 2.0 8 -0.01702822558581829
-2.788433790206909 -1.4926398992538452 -0.730191171169281 59.0 1 -0.017025921493768692
-2.437243700027466 -1.304101824760437 0.144865944981575 9.0 9 -0.017023617401719093
-2.7800369262695312 -1.4875209331512451 -0.6128785014152527 68.0 2 -0.017021313309669495
-2.4069321155548096 -1.2873425483703613 0.23880673944950104 8.0 10 -0.017019009217619896
-2.775078296661377 -1.4836220741271973 -0.4984002709388733 59.0 3 -0.017016705125570297
-2.887030839920044 -1.5428266525268555 0.40192511677742004 2.0 11 -0.0170144010335207
-2.7682361602783203 -1.4787218570709229 -0.38535091280937195 87.0 4 -0.0170120969414711
-2.861238956451416 -1.5277597904205322 0.5137308239936829 5.0 12 -0.0170097928494215
-2.453526020050049 -1.3100613355636597 -0.24333882331848145 9.0 5 -0.017007488757371902
-2.871657609939575 -1.5326780080795288 0.6327226758003235 2.0 13 -0.017005184665322304
-2.3630621433258057 -1.2606977224349976 -0.14036504924297333 10.0 6 -0.017002880573272705
-2.859555721282959 -1.524937629699707 0.748187243938446 5.0 14 -0.017000576481223106
-2.3787379264831543 -1.2679941654205322 -0.04705168679356575 1.0 7 -0.016998272389173508
-2.8182523250579834 -1.5016472339630127 0.8556557893753052 7.0 15 -0.01699596829712391
-2.797905921936035 -1.4864213466644287 -0.8489265441894531 58.0 0 -0.01697523333132267
-2.269461154937744 -1.2051701545715332 0.04485268518328667 18.0 8 -0.01697292923927307
-2.783299684524536 -1.4774153232574463 -0.7274917960166931 60.0 1 -0.016970625147223473
-2.360623598098755 -1.2525248527526855 0.14005103707313538 9.0 9 -0.016968321055173874
-2.7817440032958984 -1.475967288017273 -0.6121153235435486 64.0 2 -0.016966016963124275
-2.4202120304107666 -1.2836005687713623 0.239678293466568 7.0 10 -0.016963712871074677
-2.7715139389038086 -1.4692997932434082 -0.4968359172344208 58.0 3 -0.016961408779025078
-2.8748586177825928 -1.5234438180923462 0.3994877338409424 2.0 11 -0.01695910468697548
-2.780397891998291 -1.4727665185928345 -0.3863258361816406 79.0 4 -0.01695680059492588
-2.8560798168182373 -1.5122166872024536 0.5118536353111267 5.0 12 -0.016954496502876282
-2.463594675064087 -1.3038554191589355 -0.24386176466941833 9.0 5 -0.016952192410826683
-2.847491502761841 -1.5070323944091797 0.6262351274490356 3.0 13 -0.016949888318777084
-2.356855630874634 -1.246838092803955 -0.13973701000213623 9.0 6 -0.016947584226727486
-2.8579704761505127 -1.5113024711608887 0.7463876008987427 6.0 14 -0.016945280134677887
-2.3831496238708496 -1.2596830129623413 -0.04705168679356575 1.0 7 -0.01694297604262829
-2.826892614364624 -1.4936062097549438 0.8566910624504089 8.0 15 -0.01694067195057869
-2.7999167442321777 -1.4743555784225464 -0.8478912711143494 58.0 0 -0.01691993698477745
-2.2718849182128906 -1.196309208869934 0.04481777921319008 22.0 8 -0.016917632892727852
-2.781541585922241 -1.464060664176941 -0.7256921529769897 59.0 1 -0.016915328800678253
-2.2819066047668457 -1.2005691528320312 0.13513144850730896 21.0 9 -0.016913024708628654
-2.7940855026245117 -1.4694169759750366 -0.6136417388916016 68.0 2 -0.016910720616579056
-2.4407718181610107 -1.2830655574798584 0.24124708771705627 6.0 10 -0.016908416524529457
-2.7803778648376465 -1.4609695672988892 -0.4974616467952728 64.0 3 -0.01690611243247986
-2.866100549697876 -1.5060131549835205 0.39753782749176025 2.0 11 -0.01690380834043026
-2.7802493572235107 -1.460282802581787 -0.38559460639953613 67.0 4 -0.01690150424838066
-2.868337392807007 -1.5059102773666382 0.5131050944328308 5.0 12 -0.016899200156331062
-2.4751875400543213 -1.2989517450332642 -0.24455901980400085 9.0 5 -0.016896896064281464
-2.8703813552856445 -1.5057063102722168 0.63005131483078 3.0 13 -0.016894591972231865
-2.372023105621338 -1.2437556982040405 -0.14036504924297333 1.0 6 -0.016892289742827415
-2.8479561805725098 -1.492675542831421 0.7423385381698608 5.0 14 -0.016889985650777817
-2.8320891857147217 -1.4837292432785034 0.8566910624504089 7.0 15 -0.01688537746667862
-2.8050458431243896 -1.464573621749878 -0.8478912711143494 60.0 0 -0.01686464063823223
-2.288663625717163 -1.1944507360458374 0.0450621135532856 21.0 8 -0.016862336546182632
-2.7868893146514893 -1.453855276107788 -0.7256921529769897 58.0 1 -0.016860032454133034
-2.2916040420532227 -1.1949684619903564 0.1354454606771469 32.0 9 -0.016857728362083435
-2.785270929336548 -1.4523935317993164 -0.610588788986206 68.0 2 -0.016855424270033836
-2.856898069381714 -1.489108920097351 0.28186166286468506 3.0 10 -0.016853120177984238
-2.7854607105255127 -1.451255202293396 -0.4974616467952728 58.0 3 -0.01685081608593464
-2.885685920715332 -1.5028342008590698 0.3994877338409424 2.0 11 -0.01684851199388504
-2.7714967727661133 -1.442750096321106 -0.3836447298526764 61.0 4 -0.01684620976448059
-2.863323211669922 -1.4899168014526367 0.5112279057502747 5.0 12 -0.016843905672430992
-2.4726369380950928 -1.2866250276565552 -0.24386176466941833 9.0 5 -0.016841601580381393
-2.865169048309326 -1.4902420043945312 0.6277616620063782 3.0 13 -0.016839297488331795
-2.408247232437134 -1.2520521879196167 -0.14224915206432343 1.0 6 -0.016836993396282196
-2.847961664199829 -1.4800292253494263 0.7409887909889221 6.0 14 -0.016834689304232597
-2.8443663120269775 -1.4769001007080078 0.8587616086006165 7.0 15 -0.0168300811201334
-2.792985200881958 -1.4458917379379272 -0.8427148461341858 58.0 0 -0.01680934429168701
-2.809635877609253 -1.4538891315460205 0.055219411849975586 35.0 8 -0.016807040199637413
-2.788485288619995 -1.4423283338546753 -0.7247923612594604 59.0 1 -0.016804736107587814
-2.3720505237579346 -1.2264043092727661 0.1399463564157486 15.0 9 -0.016802432015538216
-2.78509259223938 -1.439956545829773 -0.6094439625740051 66.0 2 -0.016800127923488617
-2.8815484046936035 -1.4891892671585083 0.2837790846824646 3.0 10 -0.016797825694084167
-2.7905092239379883 -1.4415239095687866 -0.4974616467952728 64.0 3 -0.01679552160203457
-2.8873870372772217 -1.4909298419952393 0.39900025725364685 3.0 11 -0.01679321750998497
-2.7765161991119385 -1.433066964149475 -0.3836447298526764 61.0 4 -0.01679091341793537
-2.868506669998169 -1.4799127578735352 0.5112279057502747 6.0 12 -0.016788609325885773
-2.473571538925171 -1.2761589288711548 -0.24351313710212708 10.0 5 -0.016786305233836174
-2.8703536987304688 -1.480231523513794 0.6277616620063782 3.0 13 -0.016784001141786575
-2.385974168777466 -1.2299115657806396 -0.14067906141281128 1.0 6 -0.016781697049736977
-2.8565752506256104 -1.4718639850616455 0.7418886423110962 6.0 14 -0.016779392957687378
-2.695089340209961 -1.3880624771118164 -0.05291569605469704 1.0 7 -0.01677708886563778
-2.8323280811309814 -1.4581197500228882 0.8535852432250977 7.0 15 -0.01677478477358818
-2.798015594482422 -1.4361329078674316 -0.8427148461341858 60.0 0 -0.016754047945141792
-2.800459861755371 -1.436771035194397 0.054940178990364075 50.0 8 -0.016751745715737343
-2.7935030460357666 -1.4325858354568481 -0.7247923612594604 60.0 1 -0.016749441623687744
-2.3834264278411865 -1.2217612266540527 0.14036504924297333 26.0 9 -0.016747137531638145
-2.790102005004883 -1.4302258491516113 -0.6094439625740051 66.0 2 -0.016744833439588547
-2.8831827640533447 -1.4773045778274536 0.28343045711517334 3.0 10 -0.016742529347538948
-2.783216953277588 -1.4254709482192993 -0.49527156352996826 59.0 3 -0.01674022525548935
-2.910243511199951 -1.4898878335952759 0.4014376401901245 2.0 11 -0.01673792116343975
-2.7815017700195312 -1.4233663082122803 -0.3836447298526764 59.0 4 -0.016735617071390152
-2.863102912902832 -1.4644932746887207 0.5093506574630737 6.0 12 -0.016733312979340553
-2.4709157943725586 -1.2638874053955078 -0.24281588196754456 10.0 5 -0.016731008887290955
-2.8685109615325928 -1.466628074645996 0.6262351274490356 3.0 13 -0.016728704795241356
-2.4898464679718018 -1.2724742889404297 -0.14654070138931274 9.0 6 -0.016726400703191757
-2.8616955280303955 -1.4618836641311646 0.7418886423110962 5.0 14 -0.01672409661114216
-2.7658135890960693 -1.4122941493988037 -0.054207175970077515 48.0 7 -0.01672179251909256
-2.8391213417053223 -1.449102520942688 0.8541029095649719 8.0 15 -0.01671948842704296
-2.803011178970337 -1.4263578653335571 -0.8427148461341858 60.0 0 -0.016698753461241722
-2.810805320739746 -1.4297064542770386 0.05504488945007324 58.0 8 -0.016696449369192123
-2.7880642414093018 -1.417526125907898 -0.7220929265022278 58.0 1 -0.016694145277142525
-2.3556272983551025 -1.1971462965011597 0.13848096132278442 14.0 9 -0.016691841185092926
-2.7933268547058105 -1.419588327407837 -0.6090623736381531 68.0 2 -0.016689537093043327
-2.886545419692993 -1.4663296937942505 0.2832561731338501 2.0 10 -0.01668723300099373
-2.7776081562042236 -1.4103801250457764 -0.4933943450450897 60.0 3 -0.01668492890894413
-2.8871045112609863 -1.4653451442718506 0.39753782749176025 3.0 11 -0.01668262481689453
-2.7864527702331543 -1.4136489629745483 -0.3836447298526764 61.0 4 -0.016680320724844933
-2.868197441101074 -1.4544901847839355 0.5093506574630737 6.0 12 -0.016678016632795334
-2.4788668155670166 -1.2570568323135376 -0.243164524435997 10.0 5 -0.016675712540745735
-2.8701109886169434 -1.4548307657241821 0.6254718899726868 3.0 13 -0.016673408448696136
-2.6688716411590576 -1.3522400856018066 -0.15679854154586792 10.0 6 -0.016671104356646538
-2.8685197830200195 -1.4527660608291626 0.7423385381698608 3.0 14 -0.01666880026459694
-2.781430959701538 -1.4080499410629272 -0.05441660061478615 72.0 7 -0.01666649617254734
-2.8372676372528076 -1.4356942176818848 0.8520323038101196 8.0 15 -0.01666419208049774
-2.8079731464385986 -1.416564702987671 -0.8427148461341858 58.0 0 -0.016643457114696503
-2.824706554412842 -1.4243879318237305 0.055219411849975586 64.0 8 -0.016641153022646904
-2.7877750396728516 -1.4051538705825806 -0.7207432389259338 57.0 1 -0.016638848930597305
-2.3383874893188477 -1.1781330108642578 0.13722489774227142 22.0 9 -0.016636544838547707
-2.798264980316162 -1.4098297357559204 -0.6090623736381531 68.0 2 -0.016634240746498108
-2.884528398513794 -1.452660083770752 0.2825589179992676 3.0 10 -0.01663193665444851
-2.786043405532837 -1.4024522304534912 -0.49402010440826416 59.0 3 -0.01662963256239891
-2.902841091156006 -1.460612416267395 0.39900025725364685 3.0 11 -0.016627328470349312
-2.7842769622802734 -1.4003452062606812 -0.3826697766780853 61.0 4 -0.016625024378299713
-2.8732571601867676 -1.4444693326950073 0.5093506574630737 5.0 12 -0.016622720286250114
-2.463658571243286 -1.238552212715149 -0.24124708771705627 8.0 5 -0.016620416194200516
-2.875171422958374 -1.4448039531707764 0.6254718899726868 3.0 13 -0.016618112102150917
-2.6842846870422363 -1.3482939004898071 -0.15742656588554382 12.0 6 -0.01661580801010132
-2.850933074951172 -1.4313770532608032 0.7364898324012756 6.0 14 -0.01661350578069687
-2.7809672355651855 -1.3956422805786133 -0.05431189015507698 72.0 7 -0.01661120168864727
-2.8405351638793945 -1.4249151945114136 0.8515146970748901 7.0 15 -0.01660889759659767
-2.8163564205169678 -1.4084826707839966 -0.8437501192092896 60.0 0 -0.016588160768151283
-2.8332390785217285 -1.416306734085083 0.05528922379016876 63.0 8 -0.016585856676101685
-2.7926626205444336 -1.3954148292541504 -0.7207432389259338 57.0 1 -0.016583552584052086
-2.3675007820129395 -1.1824570894241333 0.1386902928352356 26.0 9 -0.016581248492002487
-2.7891180515289307 -1.3930355310440063 -0.6060094237327576 64.0 2 -0.01657894439995289
-2.896712303161621 -1.4461413621902466 0.2832561731338501 4.0 10 -0.01657664030790329
-2.787386178970337 -1.3909549713134766 -0.4933943450450897 60.0 3 -0.01657433621585369
-2.897263765335083 -1.4451543092727661 0.39753782749176025 3.0 11 -0.016572032123804092
-2.7820420265197754 -1.3870747089385986 -0.38169482350349426 61.0 4 -0.016569728031754494
-2.867673635482788 -1.429145097732544 0.5074734687805176 5.0 12 -0.016567423939704895
-2.4750993251800537 -1.2335002422332764 -0.2419443279504776 8.0 5 -0.016565121710300446
-2.8731682300567627 -1.4312573671340942 0.6239454746246338 3.0 13 -0.016562817618250847
-2.6800355911254883 -1.3344645500183105 -0.1569032073020935 11.0 6 -0.016560513526201248
-11.153233528137207 -5.55108118057251 2.8762242794036865 4.0 14 -0.01655820943415165
-2.773289442062378 -1.3796905279159546 -0.05406755208969116 74.0 7 -0.01655590534210205
-2.8524107933044434 -1.4184318780899048 0.8535852432250977 7.0 15 -0.016553601250052452
-2.810870409011841 -1.3934953212738037 -0.8406442999839783 60.0 0 -0.016532864421606064
-2.838165283203125 -1.4064089059829712 0.05528922379016876 64.0 8 -0.016530560329556465
-2.7975165843963623 -1.3856579065322876 -0.7207432389259338 57.0 1 -0.016528256237506866
-2.561121940612793 -1.268567681312561 0.14978553354740143 11.0 9 -0.016525952145457268
-2.78340744972229 -1.3780637979507446 -0.6037196516990662 68.0 2 -0.01652364805340767
-2.899956703186035 -1.4351379871368408 0.28308185935020447 3.0 10 -0.01652134396135807
-2.799307107925415 -1.3847202062606812 -0.4946458339691162 59.0 3 -0.01651904173195362
-2.8987321853637695 -1.4332717657089233 0.3970503509044647 3.0 11 -0.016516737639904022
-2.7833075523376465 -1.3755966424942017 -0.38120734691619873 64.0 4 -0.016514433547854424
-2.8723974227905273 -1.4196276664733887 0.5074734687805176 6.0 12 -0.016512129455804825
-2.468672275543213 -1.2195582389831543 -0.2408984750509262 9.0 5 -0.016509825363755226
-2.8781471252441406 -1.421218752861023 0.6239454746246338 3.0 13 -0.016507521271705627
-2.6757218837738037 -1.3206819295883179 -0.1563798487186432 11.0 6 -0.01650521717965603
-2.8556132316589355 -1.4088529348373413 0.7351400852203369 7.0 14 -0.01650291308760643
-2.7706758975982666 -1.3669480085372925 -0.053927935659885406 74.0 7 -0.01650060899555683
-2.850168466567993 -1.4055472612380981 0.8515146970748901 8.0 15 -0.016498304903507233
-2.8053150177001953 -1.378562092781067 -0.8375384211540222 60.0 0 -0.016477568075060844
-2.8266613483428955 -1.389051914215088 0.054975081235170364 61.0 8 -0.016475263983011246
-2.7950997352600098 -1.372936725616455 -0.7189435958862305 57.0 1 -0.016472961753606796
-2.624697685241699 -1.2886676788330078 0.15323969721794128 10.0 9 -0.016470657661557198
-2.7917258739471436 -1.370070219039917 -0.6044829487800598 68.0 2 -0.0164683535695076
-2.892427444458008 -1.4188642501831055 0.28186166286468506 4.0 10 -0.016466049477458
-2.7896957397460938 -1.3684697151184082 -0.4921428859233856 61.0 3 -0.0164637453854084
-2.9177277088165283 -1.4306434392929077 0.39900025725364685 2.0 11 -0.016461441293358803
-2.79141902923584 -1.368106484413147 -0.38169482350349426 61.0 4 -0.016459137201309204
-2.880882978439331 -1.4113303422927856 0.5080991983413696 5.0 12 -0.016456833109259605
-2.4460742473602295 -1.1977896690368652 -0.23828379809856415 1.0 5 -0.016454529017210007
-2.875791311264038 -1.4082127809524536 0.6224189400672913 3.0 13 -0.016452224925160408
-2.635239601135254 -1.2898504734039307 -0.1537630558013916 11.0 6 -0.01644992083311081
-2.8742733001708984 -1.4062267541885376 0.7387393116950989 7.0 14 -0.01644761674106121
-2.779024124145508 -1.3590245246887207 -0.053997743874788284 74.0 7 -0.016445312649011612
-2.8481147289276123 -1.3921968936920166 0.8494440913200378 7.0 15 -0.016443008556962013
-2.809870719909668 -1.369252324104309 -0.8375384211540222 60.0 0 -0.016422273591160774
-2.8243017196655273 -1.3756738901138306 0.05483546108007431 59.0 8 -0.016419969499111176
-2.794618844985962 -1.360612392425537 -0.7175939083099365 56.0 1 -0.016417665407061577
-2.758483648300171 -1.3424237966537476 0.1607760637998581 20.0 9 -0.016415361315011978
-2.7944884300231934 -1.3599456548690796 -0.604101300239563 66.0 2 -0.01641305722296238
-2.895324945449829 -1.408393144607544 0.28168734908103943 5.0 10 -0.01641075313091278
-2.7873499393463135 -1.3552684783935547 -0.4908914268016815 61.0 3 -0.016408449038863182
-2.9012792110443115 -1.4100373983383179 0.39607539772987366 3.0 11 -0.016406144946813583
-2.7926063537597656 -1.3566193580627441 -0.38120734691619873 61.0 4 -0.016403840854763985
-2.8786842823028564 -1.397814154624939 0.5068477392196655 5.0 12 -0.016401536762714386
-2.8806889057159424 -1.3981664180755615 0.6224189400672913 3.0 13 -0.01639692857861519
-2.5121424198150635 -1.2187474966049194 -0.14633135497570038 28.0 6 -0.01639462448656559
-2.8598763942718506 -1.3868318796157837 0.733790397644043 7.0 14 -0.01639232039451599
-2.780151605606079 -1.3475717306137085 -0.053927935659885406 74.0 7 -0.016390016302466393
-2.8512187004089355 -1.3814042806625366 0.8489265441894531 8.0 15 -0.016387712210416794
-2.807675361633301 -1.3560742139816284 -0.8354679346084595 58.0 0 -0.016366977244615555
-2.8290865421295166 -1.3658068180084229 0.05483546108007431 61.0 8 -0.016364673152565956
-2.794085741043091 -1.3483089208602905 -0.7162442207336426 58.0 1 -0.016362369060516357
-2.876485586166382 -1.3874518871307373 0.16737040877342224 30.0 9 -0.01636006496846676
-2.797450065612793 -1.3493298292160034 -0.6037196516990662 64.0 2 -0.01635776087641716
-2.903812885284424 -1.4000084400177002 0.2820359766483307 5.0 10 -0.01635545678436756
-2.78672456741333 -1.3429584503173828 -0.48995280265808105 64.0 3 -0.016353152692317963
-2.8954527378082275 -1.3947323560714722 0.39461296796798706 5.0 11 -0.016350848600268364
-2.786593437194824 -1.3416959047317505 -0.37974491715431213 64.0 4 -0.016348544508218765
-2.894225835800171 -1.3928970098495483 0.5087249279022217 6.0 12 -0.016346240416169167
-2.472123384475708 -1.1897526979446411 -0.24002692103385925 8.0 5 -0.016343936324119568
-2.874937057495117 -1.3829960823059082 0.6201292872428894 3.0 13 -0.01634163223206997
-2.5505807399749756 -1.2264153957366943 -0.14832010865211487 12.0 6 -0.01633932814002037
-2.8647003173828125 -1.376840353012085 0.733790397644043 7.0 14 -0.016337024047970772
-2.781233787536621 -1.3361271619796753 -0.05385812744498253 74.0 7 -0.016334719955921173
-2.8612477779388428 -1.37395179271698 0.8504794239997864 7.0 15 -0.016332417726516724
-2.812391757965088 -1.3462653160095215 -0.8354679346084595 60.0 0 -0.016311680898070335
-2.8356401920318604 -1.3567867279052734 0.0548703633248806 64.0 8 -0.016309376806020737
-2.7987756729125977 -1.3385467529296875 -0.7162442207336426 58.0 1 -0.016307072713971138
-2.793015718460083 -1.335193157196045 0.16224147379398346 28.0 9 -0.01630476862192154
-2.787973403930664 -1.3327826261520386 -0.6006667613983154 68.0 2 -0.01630246452987194
-2.9212658405303955 -1.3958773612976074 0.2832561731338501 6.0 10 -0.016300160437822342
-2.7949607372283936 -1.3349246978759766 -0.4905785322189331 64.0 3 -0.016297856345772743
-2.8967208862304688 -1.382906436920166 0.39412549138069153 3.0 11 -0.016295552253723145
-2.7805099487304688 -1.3268318176269531 -0.37828245759010315 60.0 4 -0.016293248161673546
-2.8848066329956055 -1.3759822845458984 0.5062219500541687 5.0 12 -0.016290944069623947
-2.481656074523926 -1.1836893558502197 -0.24054984748363495 8.0 5 -0.01628863997757435
-2.885063409805298 -1.3754867315292358 0.6212741136550903 5.0 13 -0.0162863377481699
-2.603527069091797 -1.2407041788101196 -0.15114626288414001 12.0 6 -0.0162840336561203
-2.8536548614501953 -1.3592900037765503 0.7297412753105164 7.0 14 -0.0162817295640707
-2.7822699546813965 -1.3246912956237793 -0.05378831923007965 76.0 7 -0.016279425472021103
-2.855560302734375 -1.3589740991592407 0.8473736047744751 8.0 15 -0.016277121379971504
-2.8066012859344482 -1.331472396850586 -0.8323620557785034 58.0 0 -0.016256384551525116
-2.8349387645721436 -1.34430992603302 0.05476565286517143 61.0 8 -0.016254080459475517
-2.808713674545288 -1.331272840499878 -0.7175939083099365 57.0 1 -0.01625177636742592
-2.6875576972961426 -1.2732739448547363 0.15585649013519287 65.0 9 -0.01624947227537632
-2.7908339500427246 -1.3222025632858276 -0.6002851128578186 66.0 2 -0.01624716818332672
-2.906313419342041 -1.376291036605835 0.28133872151374817 6.0 10 -0.016244864091277122
-2.801389217376709 -1.326005458831787 -0.4908914268016815 61.0 3 -0.016242559999227524
-2.899735927581787 -1.3719381093978882 0.39388173818588257 6.0 11 -0.016240257769823074
-2.7923033237457275 -1.320511817932129 -0.3792574405670166 60.0 4 -0.016237953677773476
-2.8788769245147705 -1.3608388900756836 0.5043447613716125 5.0 12 -0.016235649585723877
-2.4587533473968506 -1.1622474193572998 -0.2379351705312729 7.0 5 -0.016233345493674278
-2.893397331237793 -1.3670856952667236 0.6220373511314392 5.0 13 -0.01623104140162468
-2.5663046836853027 -1.2119908332824707 -0.1487388014793396 12.0 6 -0.01622873730957508
-2.865431070327759 -1.3526480197906494 0.731540858745575 7.0 14 -0.016226433217525482
-2.7760255336761475 -1.309851884841919 -0.05357888713479042 74.0 7 -0.016224129125475883
-2.865528106689453 -1.351470947265625 0.8489265441894531 7.0 15 -0.016221825033426285
-2.8059871196746826 -1.3192015886306763 -0.8308091163635254 57.0 0 -0.016201088204979897
-2.8287553787231445 -1.329302191734314 0.0545562244951725 59.0 8 -0.016198784112930298
-2.8098156452178955 -1.319804072380066 -0.7166941165924072 57.0 1 -0.0161964800208807
-2.908935785293579 -1.3657424449920654 0.16841712594032288 48.0 9 -0.0161941759288311
-2.7954323291778564 -1.3124526739120483 -0.6002851128578186 66.0 2 -0.01619187369942665
-2.9147071838378906 -1.367830514907837 0.28168734908103943 6.0 10 -0.016189569607377052
-2.7916932106018066 -1.309508204460144 -0.4883884787559509 61.0 3 -0.016187265515327454
-2.908101797103882 -1.3634932041168213 0.3943692147731781 5.0 11 -0.016184961423277855
-2.7968955039978027 -1.310756802558899 -0.3792574405670166 57.0 4 -0.016182657331228256
-2.8853979110717773 -1.351619839668274 0.5046576261520386 7.0 12 -0.016180353239178658
-2.4718165397644043 -1.157884120941162 -0.23880673944950104 3.0 5 -0.01617804914712906
-2.883927822113037 -1.3503166437149048 0.6189844012260437 6.0 13 -0.01617574505507946
-2.4565558433532715 -1.1496893167495728 -0.14214447140693665 22.0 6 -0.01617344096302986
-2.8701350688934326 -1.3426382541656494 0.731540858745575 7.0 14 -0.016171136870980263
-2.7896387577056885 -1.304388165473938 -0.05375341325998306 81.0 7 -0.016168832778930664
-2.8544766902923584 -1.3340983390808105 0.844267725944519 7.0 15 -0.016166528686881065
-2.817579507827759 -1.3126620054244995 -0.8328797221183777 61.0 0 -0.016145793721079826
-2.8333778381347656 -1.3194204568862915 0.0545562244951725 56.0 8 -0.016143489629030228
-2.803805112838745 -1.305053949356079 -0.7139947414398193 57.0 1 -0.01614118553698063
-2.9100639820098877 -1.3538942337036133 0.1682077795267105 49.0 9 -0.01613888144493103
-2.7964370250701904 -1.3010298013687134 -0.5995218753814697 66.0 2 -0.01613657735288143
-2.9176571369171143 -1.3568084239959717 0.2815130650997162 6.0 10 -0.016134273260831833
-2.7908735275268555 -1.297257423400879 -0.48744985461235046 64.0 3 -0.016131969168782234
-2.894841194152832 -1.3449686765670776 0.39193183183670044 6.0 11 -0.016129665076732635
-2.7942519187927246 -1.2976418733596802 -0.37828245759010315 57.0 4 -0.016127360984683037
-2.8883068561553955 -1.3407080173492432 0.5043447613716125 6.0 12 -0.016125056892633438
-2.452349901199341 -1.1383434534072876 -0.23654069006443024 1.0 5 -0.01612275280058384
-2.8850622177124023 -1.338589072227478 0.6182212233543396 5.0 13 -0.01612044870853424
-2.4261276721954346 -1.1251423358917236 -0.14015570282936096 49.0 6 -0.016118144616484642
-2.878340244293213 -1.3342504501342773 0.7324406504631042 7.0 14 -0.016115840524435043
-2.788731336593628 -1.292120337486267 -0.0536486990749836 76.0 7 -0.016113536432385445
-2.862622022628784 -1.3257505893707275 0.8453030586242676 8.0 15 -0.016111232340335846
-2.8133747577667236 -1.2987703084945679 -0.8302915096282959 58.0 0 -0.016090497374534607
-2.8307032585144043 -1.3061705827713013 0.05441660061478615 56.0 8 -0.016088193282485008
-2.8048043251037598 -1.293626308441162 -0.7130948901176453 57.0 1 -0.01608588919043541
-2.900261640548706 -1.3370392322540283 0.16737040877342224 50.0 9 -0.01608358509838581
-2.8080928325653076 -1.294548749923706 -0.6010483503341675 66.0 2 -0.016081281006336212
-2.913327932357788 -1.3424464464187622 0.28064149618148804 6.0 10 -0.016078976914286613
-2.7935903072357178 -1.2866809368133545 -0.48713696002960205 61.0 3 -0.016076672822237015
-2.895911693572998 -1.3331959247589111 0.3914443552494049 7.0 11 -0.016074368730187416
-2.791551351547241 -1.2845609188079834 -0.3773075342178345 60.0 4 -0.016072064638137817
-2.8983535766601562 -1.333093285560608 0.5052834153175354 7.0 12 -0.01606976054608822
-2.8861491680145264 -1.3268705606460571 0.617457926273346 7.0 13 -0.01606515236198902
-2.3919293880462646 -1.0991536378860474 -0.1379576027393341 41.0 6 -0.016062848269939423
-2.8581883907318115 -1.3128068447113037 0.7261420488357544 7.0 14 -0.016060544177889824
-2.7950422763824463 -1.2832123041152954 -0.053683605045080185 81.0 7 -0.016058240085840225
-2.807535171508789 -1.2883553504943848 0.8277033567428589 18.0 15 -0.016055935993790627
-2.821404457092285 -1.2905489206314087 -0.8313267827033997 58.0 0 -0.016035201027989388
-2.8407015800476074 -1.2987760305404663 0.05452131852507591 54.0 8 -0.01603289693593979
-2.809302806854248 -1.283827781677246 -0.7130948901176453 57.0 1 -0.01603059284389019
-2.897644281387329 -1.3235877752304077 0.1669517159461975 55.0 9 -0.01602828875184059
-2.794736623764038 -1.2765816450119019 -0.5972321629524231 61.0 2 -0.016025984659790993
-2.925246000289917 -1.3355787992477417 0.28133872151374817 6.0 10 -0.016023680567741394
-2.798064708709717 -1.2769216299057007 -0.48713696002960205 61.0 3 -0.016021376475691795
-2.8969359397888184 -1.3214313983917236 0.3909568786621094 7.0 11 -0.016019072383642197
-2.7887935638427734 -1.271514654159546 -0.376332551240921 59.0 4 -0.016016768291592598
-2.8850135803222656 -1.31477689743042 0.5021546483039856 7.0 12 -0.016014464199543
-2.8746836185455322 -1.309463381767273 0.6140233874320984 8.0 13 -0.016009856015443802
-2.3884806632995605 -1.087486982345581 -0.13753889501094818 31.0 6 -0.016007553786039352
-2.8113162517547607 -1.2794129848480225 0.7130948901176453 32.0 14 -0.016005249693989754
-2.79404354095459 -1.270964503288269 -0.05357888713479042 74.0 7 -0.016002945601940155
-2.789153575897217 -1.268151879310608 0.8209740519523621 41.0 15 -0.016000641509890556
-2.8153347969055176 -1.2759076356887817 -0.8282209634780884 55.0 0 -0.015979904681444168
-2.8379316329956055 -1.2855523824691772 0.05438169836997986 54.0 8 -0.01597760058939457
-2.813767194747925 -1.274013638496399 -0.7130948901176453 56.0 1 -0.01597529649734497
-2.907705783843994 -1.3159356117248535 0.16726572811603546 54.0 9 -0.015972992405295372
-2.7955987453460693 -1.2651995420455933 -0.5964689254760742 61.0 2 -0.015970688313245773
-2.915367841720581 -1.3187901973724365 0.2799442410469055 6.0 10 -0.015968384221196175
-2.8079047203063965 -1.2695882320404053 -0.4880755841732025 64.0 3 -0.015966080129146576
-2.8979129791259766 -1.309676170349121 0.39046943187713623 8.0 11 -0.015963776037096977
-2.796833038330078 -1.26340651512146 -0.37682005763053894 61.0 4 -0.01596147194504738
-2.840975761413574 -1.2827500104904175 0.49370723962783813 17.0 12 -0.01595916971564293
-2.823763847351074 -1.2743853330612183 0.6021932363510132 62.0 13 -0.01595456153154373
-2.3831593990325928 -1.0750360488891602 -0.13701553642749786 43.0 6 -0.015952257439494133
-2.8104352951049805 -1.2671895027160645 0.7117451429367065 42.0 14 -0.015949953347444534
-2.787524461746216 -1.256273865699768 -0.05336945876479149 74.0 7 -0.015947649255394936
-2.7900402545928955 -1.2568212747573853 0.8199387788772583 27.0 15 -0.015945345163345337
-2.8056724071502686 -1.2597429752349854 -0.8240798711776733 55.0 0 -0.01592460833489895
-2.8387532234191895 -1.2740000486373901 0.05431189015507698 52.0 8 -0.01592230424284935
-2.818197250366211 -1.2641838788986206 -0.7130948901176453 57.0 1 -0.01592000015079975
-2.904991388320923 -1.3025099039077759 0.16684705018997192 52.0 9 -0.015917696058750153
-2.8017890453338623 -1.2562370300292969 -0.596850574016571 64.0 2 -0.015915393829345703
-2.9054081439971924 -1.3020868301391602 0.2785497307777405 9.0 10 -0.015913087874650955
-2.8033053874969482 -1.2557411193847656 -0.48651123046875 60.0 3 -0.015910785645246506
-2.846301555633545 -1.274405598640442 0.3829135298728943 35.0 11 -0.015908481553196907
-2.8012261390686035 -1.2536360025405884 -0.37682005763053894 61.0 4 -0.01590617746114731
-2.8219945430755615 -1.2623393535614014 0.48963993787765503 70.0 12 -0.01590387336909771
-2.77173113822937 -1.2398552894592285 -0.2656506896018982 7.0 5 -0.01590156927704811
-2.824610948562622 -1.2629172801971436 0.6014299988746643 62.0 13 -0.015899265184998512
-2.3759565353393555 -1.061821699142456 -0.13638751208782196 48.0 6 -0.015896961092948914
-2.8201792240142822 -1.2597558498382568 0.7130948901176453 28.0 14 -0.015894657000899315
-2.7918930053710938 -1.246535301208496 -0.05336945876479149 74.0 7 -0.015892352908849716
-2.7926461696624756 -1.2462877035140991 0.819421112537384 28.0 15 -0.015890048816800117
-2.817112922668457 -1.253082036972046 -0.8261504173278809 55.0 0 -0.015899658203125
-2.8303921222686768 -1.2583962678909302 0.05406755208969116 50.0 8 -0.0158973541110754
-2.815469264984131 -1.251173973083496 -0.7112953066825867 56.0 1 -0.015895050019025803
-2.8766653537750244 -1.2777670621871948 0.16496294736862183 54.0 9 -0.015892745926976204
-2.804363489151001 -1.2456517219543457 -0.5964689254760742 61.0 2 -0.015890441834926605
-2.8480224609375 -1.2644492387771606 0.2726231813430786 63.0 10 -0.015888137742877007
-2.7986435890197754 -1.2419425249099731 -0.4849469065666199 64.0 3 -0.015885833650827408
-2.8398451805114746 -1.2596323490142822 0.3814510703086853 73.0 11 -0.01588352955877781
-2.8055851459503174 -1.2438501119613647 -0.37682005763053894 57.0 4 -0.01588122546672821
-2.8408312797546387 -1.258884072303772 0.4921428859233856 76.0 12 -0.015878921374678612
-2.8124728202819824 -1.2463172674179077 -0.2691369354724884 60.0 5 -0.015876617282629013
-2.809256076812744 -1.2443045377731323 0.5972321629524231 68.0 13 -0.015874315053224564
-2.3650381565093994 -1.047053337097168 -0.1355501413345337 48.0 6 -0.015872010961174965
-2.8316876888275146 -1.253058910369873 0.7148945331573486 41.0 14 -0.015869706869125366
-2.79988431930542 -1.2384004592895508 -0.053439266979694366 74.0 7 -0.015867402777075768
-2.7969794273376465 -1.2365319728851318 0.819421112537384 60.0 15 -0.01586509868502617
-2.819702386856079 -1.242461085319519 -0.8256327509880066 54.0 0 -0.01584436185657978
-2.8347673416137695 -1.2485092878341675 0.05406755208969116 49.0 8 -0.015842057764530182
-2.8091182708740234 -1.236627459526062 -0.708595871925354 57.0 1 -0.015839753672480583
-2.85917067527771 -1.2580649852752686 0.16370689868927002 58.0 9 -0.015837449580430984
-2.812288284301758 -1.237436294555664 -0.5972321629524231 61.0 2 -0.015835145488381386
-2.8578896522521973 -1.2569068670272827 0.2731460928916931 69.0 10 -0.015832841396331787
-2.8047704696655273 -1.232960820198059 -0.4852597713470459 61.0 3 -0.01583053730428219
-2.829685926437378 -1.2433234453201294 0.3795011639595032 70.0 11 -0.01582823507487774
-2.799004554748535 -1.2292605638504028 -0.37535759806632996 56.0 4 -0.01582593098282814
-2.8379738330841064 -1.2457834482192993 0.4908914268016815 75.0 12 -0.01582362689077854
-2.811333656311035 -1.2340891361236572 -0.2686139941215515 64.0 5 -0.015821322798728943
-2.8225717544555664 -1.238434910774231 0.5991402864456177 71.0 13 -0.015819018706679344
-2.3503878116607666 -1.0307698249816895 -0.13450342416763306 54.0 6 -0.015816714614629745
-2.82533597946167 -1.2384718656539917 0.712195098400116 78.0 14 -0.015814410522580147
