# .PCD v0.7 - Point Cloud Data file format
VERSION 0.7
FIELDS x y z intensity ring time
SIZE 4 4 4 4 4 4
TYPE F F F F F F
COUNT 1 1 1 1 1 1
WIDTH 544
HEIGHT 1
VIEWPOINT 0 0 0 1 0 0 0
POINTS 544
DATA ascii
-1.9965052604675293 0.8339284062385559 -0.03776700794696808 1.0 7 -0.018885118886828423
-3.046236276626587 1.2730183601379395 0.8846435546875 84.0 15 -0.018882814794778824
-2.4585468769073486 1.030954122543335 -0.7143406271934509 24.0 0 -0.018862077966332436
-1.9693772792816162 0.8262325525283813 0.03727834299206734 1.0 8 -0.018859773874282837
-3.160689353942871 1.326683521270752 -0.7913778424263 49.0 1 -0.018857469782233238
-2.0994296073913574 0.881225049495697 0.11932599544525146 35.0 9 -0.01885516569018364
-1.996559500694275 0.8384562730789185 -0.42092466354370117 12.0 2 -0.01885286346077919
-2.283198595046997 0.9592993259429932 0.21666917204856873 30.0 10 -0.01885055936872959
-2.0796127319335938 0.8741891980171204 -0.3572963774204254 9.0 3 -0.018848255276679993
-2.2799923419952393 0.958888590335846 0.30369842052459717 27.0 11 -0.018845951184630394
-2.0950236320495605 0.881527304649353 -0.2790808379650116 1.0 4 -0.018843647092580795
-2.0584988594055176 0.8665821552276611 -0.19540317356586456 6.0 5 -0.018839038908481598
-3.066797971725464 1.2916828393936157 0.6468425393104553 67.0 13 -0.018836734816432
-2.0595459938049316 0.8678686618804932 -0.11712788045406342 7.0 6 -0.0188344307243824
-3.068817138671875 1.2937954664230347 0.7688827514648438 81.0 14 -0.018832126632332802
-2.0287389755249023 0.8553045392036438 -0.03843019902706146 4.0 7 -0.018829822540283203
-3.045557975769043 1.2846148014068604 0.8856788277626038 82.0 15 -0.018827518448233604
-2.7786993980407715 1.1766271591186523 -0.8085507154464722 6.0 0 -0.018806783482432365
-1.9703092575073242 0.834318220615387 0.037348151206970215 1.0 8 -0.018804479390382767
-3.149095058441162 1.334116816520691 -0.7895782589912415 54.0 1 -0.018802175298333168
-2.109212875366211 0.8940046429634094 0.12005870044231415 43.0 9 -0.01879987120628357
-2.002657651901245 0.8492528200149536 -0.42283275723457336 9.0 2 -0.01879756711423397
-2.268831729888916 0.9625939130783081 0.21562331914901733 32.0 10 -0.018795263022184372
-2.076702833175659 0.8810796737670898 -0.3572963774204254 7.0 3 -0.018792958930134773
-2.2365994453430176 0.949380099773407 0.2983361780643463 33.0 11 -0.018790654838085175
-2.068336009979248 0.8783824443817139 -0.27591222524642944 5.0 4 -0.018788350746035576
-2.060962438583374 0.8761003017425537 -0.19592611491680145 8.0 5 -0.01878374256193638
-3.0697250366210938 1.3049180507659912 0.6483690142631531 66.0 13 -0.01878143846988678
-2.054818630218506 0.8739120960235596 -0.11702320724725723 8.0 6 -0.01877913437783718
-3.075268507003784 1.308543086051941 0.7715821266174316 81.0 14 -0.018776830285787582
-2.036780595779419 0.8670802116394043 -0.038639627397060394 7.0 7 -0.018774526193737984
-3.0517191886901855 1.299780011177063 0.888784646987915 84.0 15 -0.018772222101688385
-2.884921073913574 1.2329044342041016 -0.8406442999839783 7.0 0 -0.018751487135887146
-2.037255048751831 0.8710644841194153 0.03867453336715698 2.0 8 -0.018749183043837547
-3.142627239227295 1.3443347215652466 -0.7891283631324768 50.0 1 -0.01874687895178795
-2.0932259559631348 0.8958607912063599 0.11932599544525146 49.0 9 -0.01874457485973835
-2.0016353130340576 0.8566617965698242 -0.4232143759727478 6.0 2 -0.01874227076768875
-2.2711215019226074 0.9724650979042053 0.21614623069763184 43.0 10 -0.018739966675639153
-2.07906174659729 0.8906574845314026 -0.3582349717617035 8.0 3 -0.018737662583589554
-2.2350964546203613 0.9579635858535767 0.2985799014568329 50.0 11 -0.018735358491539955
-2.0470130443573 0.8777732253074646 -0.2734748423099518 6.0 4 -0.018733054399490356
-2.2728395462036133 0.9750794768333435 0.391711950302124 1.0 12 -0.018730750307440758
-2.0580458641052246 0.8829299807548523 -0.19592611491680145 8.0 5 -0.01872844621539116
-3.0723674297332764 1.3187228441238403 0.6498954892158508 66.0 13 -0.01872614212334156
-2.044414758682251 0.8779271245002747 -0.1166045218706131 8.0 6 -0.01872383803129196
-3.0653111934661865 1.316961407661438 0.7702324986457825 83.0 14 -0.018721533939242363
-2.0227184295654297 0.8694465160369873 -0.03843019902706146 7.0 7 -0.018719229847192764
-3.061361074447632 1.3165303468704224 0.8929257392883301 76.0 15 -0.018716925755143166
-2.8894689083099365 1.2467933893203735 -0.8432324528694153 6.0 0 -0.018696190789341927
-2.047053337097168 0.8837185502052307 0.038918863981962204 3.0 8 -0.018693886697292328
-3.1522271633148193 1.3614788055419922 -0.7927275896072388 50.0 1 -0.01869158260524273
-2.0790858268737793 0.8984081149101257 0.11869796365499496 51.0 9 -0.01868927851319313
-1.9950286149978638 0.8620855808258057 -0.42245110869407654 6.0 2 -0.018686974421143532
-2.2658843994140625 0.9795962572097778 0.2159719318151474 45.0 10 -0.018684670329093933
-2.085005283355713 0.9018304944038391 -0.359799325466156 8.0 3 -0.018682366237044334
-2.248135566711426 0.9728545546531677 0.300773561000824 44.0 11 -0.018680062144994736
-2.0512232780456543 0.8880680799484253 -0.27444979548454285 6.0 4 -0.018677758052945137
-2.2694220542907715 0.9830072522163391 0.391711950302124 1.0 12 -0.01867545396089554
-2.0549511909484863 0.890108585357666 -0.19592611491680145 8.0 5 -0.01867314986884594
-3.078554153442383 1.3341234922409058 0.6521852016448975 66.0 13 -0.01867084577679634
-2.0358402729034424 0.8826746940612793 -0.11629050970077515 11.0 6 -0.01866854354739189
-3.062483072280884 1.3284287452697754 0.7706823348999023 81.0 14 -0.018666239455342293
-2.025174617767334 0.8788902163505554 -0.03853491693735123 6.0 7 -0.018663935363292694
-3.060291051864624 1.3287473917007446 0.8939610123634338 76.0 15 -0.018661631271243095
-2.8709301948547363 1.250699520111084 -0.8390913605690002 7.0 0 -0.018640894442796707
-2.0311238765716553 0.8852664828300476 0.03867453336715698 6.0 8 -0.01863859035074711
-3.168891429901123 1.3818202018737793 -0.7981263995170593 48.0 1 -0.01863628625869751
-2.0777676105499268 0.9064587354660034 0.11880263686180115 52.0 9 -0.01863398216664791
-1.9884083271026611 0.8674743175506592 -0.42168790102005005 5.0 2 -0.018631678074598312
-2.2514946460723877 0.9827181696891785 0.21492604911327362 45.0 10 -0.018629373982548714
-2.0908961296081543 0.9130555987358093 -0.3613636791706085 8.0 3 -0.018627069890499115
-2.2429070472717285 0.9799014329910278 0.300529807806015 44.0 11 -0.018624765798449516
-2.0553863048553467 0.8984034657478333 -0.2754247188568115 6.0 4 -0.018622461706399918
-2.265976905822754 0.9909230470657349 0.391711950302124 1.0 12 -0.018620159476995468
-2.050006151199341 0.896477997303009 -0.19575178623199463 11.0 5 -0.01861785538494587
-3.084670305252075 1.349582314491272 0.6544748544692993 66.0 13 -0.01861555129289627
-2.030917167663574 0.8889748454093933 -0.11618582904338837 11.0 6 -0.018613247200846672
-3.068537712097168 1.3438013792037964 0.773381769657135 81.0 14 -0.018610943108797073
-2.0184311866760254 0.8843485116958618 -0.03846510127186775 8.0 7 -0.018608639016747475
-3.0556342601776123 1.3394217491149902 0.8939610123634338 78.0 15 -0.018606334924697876
-2.847095012664795 1.2521584033966064 -0.833397388458252 6.0 0 -0.018585598096251488
-2.031682252883911 0.8939612507820129 0.03874434158205986 8.0 8 -0.01858329400420189
-3.189018487930298 1.4038656949996948 -0.804425060749054 47.0 1 -0.01858098991215229
-2.085557699203491 0.9185361266136169 0.11943066120147705 53.0 9 -0.01857868582010269
-1.9799779653549194 0.8720359206199646 -0.42054301500320435 6.0 2 -0.018576383590698242
-2.2334647178649902 0.9841444492340088 0.21353155374526978 38.0 10 -0.018574077636003494
-2.0768511295318604 0.91556715965271 -0.3594864308834076 8.0 3 -0.018571775406599045
-2.246737480163574 0.9909295439720154 0.30150479078292847 29.0 11 -0.018569471314549446
-2.0522377490997314 0.9055726528167725 -0.2754247188568115 5.0 4 -0.018567167222499847
-2.2625043392181396 0.998826265335083 0.391711950302124 1.0 12 -0.01856486313045025
-2.028637647628784 0.8955814242362976 -0.19400867819786072 12.0 5 -0.01856255903840065
-3.0817363262176514 1.361135721206665 0.6548565030097961 62.0 13 -0.01856025494635105
-2.046070098876953 0.9041313529014587 -0.117232546210289 14.0 6 -0.018557950854301453
-3.0763049125671387 1.360019326210022 0.7765311002731323 83.0 14 -0.018555646762251854
-2.013502836227417 0.8905804753303528 -0.03843019902706146 7.0 7 -0.018553342670202255
-3.0474066734313965 1.3485162258148193 0.8929257392883301 78.0 15 -0.018551038578152657
-2.849769353866577 1.265224575996399 -0.8354679346084595 6.0 0 -0.0184786319732666
-2.0175843238830566 0.896177351474762 0.03853491693735123 8.0 8 -0.018476327881217003
-3.2001259326934814 1.4221113920211792 -0.8084741234779358 42.0 1 -0.018474023789167404
-2.085988759994507 0.9274339079856873 0.11964000016450882 55.0 9 -0.018471719697117805
-1.9911189079284668 0.8856702446937561 -0.42359596490859985 3.0 2 -0.018469415605068207
-2.230015993118286 0.9919341802597046 0.21353155374526978 39.0 10 -0.018467111513018608
-2.068228244781494 0.9204018115997314 -0.3585478365421295 9.0 3 -0.01846480742096901
-2.063570976257324 0.9191921949386597 -0.27737462520599365 4.0 4 -0.018460199236869812
-2.2590038776397705 1.0067179203033447 0.391711950302124 1.0 12 -0.018457895144820213
-2.0398993492126465 0.9095019102096558 -0.19540317356586456 9.0 5 -0.018455591052770615
-3.0695550441741943 1.369221806526184 0.6533300280570984 63.0 13 -0.018453288823366165
-2.029975414276123 0.9059268236160278 -0.11649984866380692 17.0 6 -0.018450984731316566
-3.0733180046081543 1.371544361114502 0.776980996131897 75.0 14 -0.018448680639266968
-2.0085561275482178 0.8967882990837097 -0.038395293056964874 8.0 7 -0.01844637654721737
-3.053264617919922 1.3638724088668823 0.8960315585136414 76.0 15 -0.01844407245516777
-2.0142862796783447 0.9035657048225403 0.03853491693735123 7.0 8 -0.018421031534671783
-3.2020039558410645 1.4370225667953491 -0.8102737665176392 28.0 1 -0.018418727442622185
-2.0752875804901123 0.931800365447998 0.11922132223844528 55.0 9 -0.018416423350572586
-1.9663686752319336 0.883309006690979 -0.419016569852829 3.0 2 -0.018414119258522987
-2.2209129333496094 0.9976523518562317 0.21300862729549408 37.0 10 -0.01841181516647339
-2.070246458053589 0.93040531873703 -0.3594864308834076 8.0 3 -0.01840951107442379
-2.230536937713623 1.0029107332229614 0.30028611421585083 1.0 11 -0.01840720884501934
-2.060187816619873 0.9267499446868896 -0.27737462520599365 5.0 4 -0.018404904752969742
-2.0420024394989014 0.9194259643554688 -0.19592611491680145 8.0 5 -0.018400296568870544
-3.0716757774353027 1.383689284324646 0.6548565030097961 63.0 13 -0.018397992476820946
-2.0175373554229736 0.9092574715614319 -0.1159764900803566 10.0 6 -0.018395688384771347
-3.070047378540039 1.3835994005203247 0.7774308919906616 78.0 14 -0.01839338429272175
-2.0107247829437256 0.9066094160079956 -0.03850000724196434 8.0 7 -0.01839108020067215
-3.0605716705322266 1.3806153535842896 0.8996549844741821 72.0 15 -0.01838877610862255
-2.020068407058716 0.9150684475898743 0.03870943933725357 4.0 8 -0.018365735188126564
-2.0647456645965576 0.935741126537323 0.11880263686180115 55.0 9 -0.018361128866672516
-1.9722139835357666 0.894220769405365 -0.42092466354370117 4.0 2 -0.018358824774622917
-2.2190561294555664 1.006608247756958 0.2131829410791397 29.0 10 -0.01835652068257332
-2.0740175247192383 0.9412523508071899 -0.3607378900051117 8.0 3 -0.01835421659052372
-2.2376911640167236 1.0160033702850342 0.30174851417541504 1.0 11 -0.01835191249847412
-2.046095609664917 0.9290112257003784 -0.27591222524642944 5.0 4 -0.018349608406424522
-2.251742124557495 1.0228571891784668 0.391711950302124 1.0 12 -0.018347304314374924
-2.042407989501953 0.92819744348526 -0.19627472758293152 8.0 5 -0.018345000222325325
-3.086486339569092 1.4033408164978027 0.6590543389320374 67.0 13 -0.018342696130275726
-2.0107150077819824 0.9146405458450317 -0.11576715111732483 9.0 6 -0.018340392038226128
-3.0705204010009766 1.396728277206421 0.7787805795669556 74.0 14 -0.01833808794617653
-1.9966270923614502 0.9086533188819885 -0.03829057887196541 9.0 7 -0.01833578385412693
-3.0662832260131836 1.3960927724838257 0.9027608633041382 70.0 15 -0.01833347976207733
-2.0242977142333984 0.9250868558883667 0.038849055767059326 4.0 8 -0.018310440704226494
-2.2720754146575928 1.038798451423645 -0.576774537563324 3.0 1 -0.018308136612176895
-2.0725297927856445 0.9475657343864441 0.11943066120147705 52.0 9 -0.018305832520127296
-1.9692378044128418 0.9007560014724731 -0.42092466354370117 3.0 2 -0.018303528428077698
-2.1939656734466553 1.0040125846862793 0.21109120547771454 24.0 10 -0.0183012243360281
-2.076272964477539 0.9505918622016907 -0.36167651414871216 9.0 3 -0.0182989202439785
-2.2234809398651123 1.018458366394043 0.30028611421585083 1.0 11 -0.0182966161519289
-2.043003559112549 0.9357912540435791 -0.27591222524642944 4.0 4 -0.018294312059879303
-2.248337745666504 1.0303187370300293 0.391711950302124 1.0 12 -0.018292007967829704
-2.0338854789733887 0.9324737787246704 -0.19575178623199463 9.0 5 -0.018289703875780106
-3.088953733444214 1.4168423414230347 0.6605807542800903 66.0 13 -0.018287399783730507
-2.009485960006714 0.9221362471580505 -0.11587180942296982 10.0 6 -0.018285095691680908
-3.0694141387939453 1.408528447151184 0.7796803712844849 74.0 14 -0.01828279159963131
-1.999055027961731 0.9177719950675964 -0.038395293056964874 11.0 7 -0.01828048750758171
-3.0616369247436523 1.4062533378601074 0.9027608633041382 70.0 15 -0.018278183415532112
-2.0175869464874268 0.9301203489303589 0.03877924755215645 5.0 8 -0.018255144357681274
-2.2562308311462402 1.0406142473220825 -0.5736252665519714 37.0 1 -0.018252840265631676
-2.0673961639404297 0.9539573192596436 0.11932599544525146 50.0 9 -0.018250536173582077
-1.955544352531433 0.9023455381393433 -0.41863495111465454 2.0 2 -0.01824823208153248
-2.1707255840301514 1.0020966529846191 0.209173783659935 27.0 10 -0.01824592798948288
-2.058762311935425 0.9508457183837891 -0.35917356610298157 9.0 3 -0.01824362389743328
-2.212883472442627 1.022494912147522 0.2993111312389374 1.0 11 -0.018241319805383682
-2.036120891571045 0.9412510395050049 -0.2754247188568115 3.0 4 -0.018239015713334084
-2.244727611541748 1.0381606817245483 0.391711950302124 1.0 12 -0.018236711621284485
-2.0343987941741943 0.9408860206604004 -0.1961004137992859 9.0 5 -0.018234407529234886
-3.084238290786743 1.4270780086517334 0.6605807542800903 65.0 13 -0.018232103437185287
-2.0209169387817383 0.9355071187019348 -0.11670918762683868 11.0 6 -0.01822979934513569
-3.078625202178955 1.425785779953003 0.7832795977592468 74.0 14 -0.01822749525308609
-1.9994678497314453 0.9264256954193115 -0.03846510127186775 13.0 7 -0.01822519116103649
-3.058462142944336 1.417744517326355 0.9032785296440125 76.0 15 -0.018222887068986893
-2.001636505126953 0.9312528371810913 0.03853491693735123 6.0 8 -0.018199848011136055
-2.071295738220215 0.9645411372184753 0.1197446808218956 51.0 9 -0.018195239827036858
-1.9701796770095825 0.9174543619155884 -0.42245110869407654 1.0 2 -0.01819293573498726
-2.1672143936157227 1.0096678733825684 0.209173783659935 33.0 10 -0.01819063164293766
-2.0697546005249023 0.9647021293640137 -0.36167651414871216 11.0 3 -0.01818832755088806
-2.191309690475464 1.0218244791030884 0.2968737483024597 1.0 11 -0.018186023458838463
-2.043616533279419 0.9533883333206177 -0.2768871784210205 3.0 4 -0.018183719366788864
-2.2410902976989746 1.0459893941879272 0.391711950302124 1.0 12 -0.018181415274739265
-2.031102180480957 0.9479811787605286 -0.1961004137992859 9.0 5 -0.018179111182689667
-3.0827958583831787 1.4394967555999756 0.6613439917564392 67.0 13 -0.018176807090640068
-2.006781816482544 0.9374838471412659 -0.11608116328716278 11.0 6 -0.01817450486123562
-3.0824568271636963 1.4406484365463257 0.7855291366577148 72.0 14 -0.01817220076918602
-1.996221899986267 0.9333996176719666 -0.03846510127186775 11.0 7 -0.01816989667713642
-3.0604939460754395 1.4316861629486084 0.90534907579422 74.0 15 -0.018167592585086823
-1.9983737468719482 0.9382337331771851 0.03853491693735123 6.0 8 -0.018144551664590836
-3.095560073852539 1.454020619392395 -0.7895782589912415 27.0 1 -0.018142247572541237
-2.06791615486145 0.9717654585838318 0.1197446808218956 50.0 9 -0.018139943480491638
-1.9598580598831177 0.9209861755371094 -0.42092466354370117 1.0 2 -0.01813763938844204
-2.170889377593994 1.0206170082092285 0.20987103879451752 43.0 10 -0.01813533529639244
-2.0735244750976562 0.9752846360206604 -0.36292800307273865 11.0 3 -0.018133031204342842
-2.2092831134796143 1.0396097898483276 0.2997986078262329 1.0 11 -0.018130727112293243
-2.0295000076293945 0.9554424285888672 -0.2754247188568115 3.0 4 -0.018128424882888794
-2.2374250888824463 1.0538065433502197 0.391711950302124 1.0 12 -0.018126120790839195
-2.029582977294922 0.9559148550033569 -0.19627472758293152 10.0 5 -0.018123816698789597
-3.0813043117523193 1.4519227743148804 0.6621072888374329 66.0 13 -0.018121512606739998
-1.9980777502059937 0.9419277310371399 -0.11576715111732483 12.0 6 -0.0181192085146904
-3.077409029006958 1.4514002799987793 0.7855291366577148 72.0 14 -0.0181169044226408
-1.9929513931274414 0.9403620362281799 -0.03846510127186775 9.0 7 -0.018114600330591202
-3.0694539546966553 1.4489573240280151 0.909490168094635 76.0 15 -0.018112296238541603
-2.8180065155029297 1.334472894668579 -0.8354679346084595 3.0 0 -0.018091559410095215
-2.0059292316436768 0.9503405690193176 0.03874434158205986 6.0 8 -0.018089255318045616
-3.0869433879852295 1.4631487131118774 -0.7886784672737122 31.0 1 -0.018086951225996017
-2.057293176651001 0.9755544662475586 0.11932599544525146 49.0 9 -0.01808464713394642
-1.9566313028335571 0.9278213381767273 -0.42092466354370117 1.0 2 -0.01808234304189682
-2.1691133975982666 1.0290426015853882 0.21004533767700195 45.0 10 -0.01808004081249237
-2.0772457122802734 0.9859046936035156 -0.36417946219444275 10.0 3 -0.018077736720442772
-2.205641031265259 1.0473148822784424 0.2997986078262329 1.0 11 -0.018075432628393173
-2.0297389030456543 0.9642245769500732 -0.27591222524642944 3.0 4 -0.018073128536343575
-2.0244343280792236 0.9621383547782898 -0.1961004137992859 13.0 5 -0.018068520352244377
-3.0904016494750977 1.469413161277771 0.6651601791381836 65.0 13 -0.01806621626019478
-2.0037953853607178 0.9531868696212769 -0.11629050970077515 12.0 6 -0.01806391216814518
-3.0740838050842285 1.4629710912704468 0.7859790325164795 70.0 14 -0.01806160807609558
-1.978824257850647 0.9421549439430237 -0.03825567662715912 8.0 7 -0.018059303984045982
-3.0748417377471924 1.4646483659744263 0.9125959873199463 74.0 15 -0.018056999891996384
-2.8272757530212402 1.3509646654129028 -0.8396090269088745 6.0 0 -0.018036263063549995
-2.0025997161865234 0.9573368430137634 0.03874434158205986 7.0 8 -0.018033960834145546
-3.062479257583618 1.4646658897399902 -0.7837295532226562 30.0 1 -0.018031656742095947
-2.063055992126465 0.9866801500320435 0.11984935402870178 48.0 9 -0.01802935265004635
-1.988800048828125 0.9515929222106934 -0.42855700850486755 1.0 2 -0.01802704855799675
-2.1673049926757812 1.0374687910079956 0.21021965146064758 43.0 10 -0.01802474446594715
-2.077354907989502 0.9948555827140808 -0.3648051917552948 9.0 3 -0.018022440373897552
-2.2019717693328857 1.0550076961517334 0.2997986078262329 1.0 11 -0.018020136281847954
-2.0174102783203125 0.9670141935348511 -0.2746935188770294 2.0 4 -0.018017832189798355
-2.0174708366394043 0.9674757122993469 -0.19575178623199463 13.0 5 -0.018013224005699158
-3.095874309539795 1.4852873086929321 0.6674498915672302 68.0 13 -0.01801091991364956
-2.0058577060699463 0.9627684354782104 -0.1166045218706131 12.0 6 -0.01800861582159996
-3.0812554359436035 1.4795969724655151 0.7891283631324768 72.0 14 -0.01800631172955036
-1.98289954662323 0.9521742463111877 -0.038395293056964874 8.0 7 -0.018004007637500763
-3.0734505653381348 1.4765093326568604 0.91363126039505 76.0 15 -0.018001703545451164
-2.8138418197631836 1.3566306829452515 -0.8370208144187927 6.0 0 -0.017980968579649925
-2.010221481323242 0.9691832065582275 0.03895376995205879 8.0 8 -0.017978664487600327
-3.0470738410949707 1.469733715057373 -0.7810301184654236 32.0 1 -0.017976360395550728
-2.0667941570281982 0.9973476529121399 0.12026803940534592 47.0 9 -0.01797405630350113
-1.9536422491073608 0.9431657195091248 -0.42168790102005005 1.0 2 -0.01797175221145153
-2.1582882404327393 1.0424277782440186 0.2096967101097107 40.0 10 -0.017969448119401932
-2.0687081813812256 0.9991616606712341 -0.3638666272163391 10.0 3 -0.017967144027352333
-2.1948864459991455 1.0605766773223877 0.2993111312389374 1.0 11 -0.017964839935302734
-2.0463624000549316 0.9892498850822449 -0.2790808379650116 1.0 4 -0.017962535843253136
-2.0140814781188965 0.9745121002197266 -0.19575178623199463 12.0 5 -0.01795792765915394
-3.087397336959839 1.4938353300094604 0.6666866540908813 67.0 13 -0.01795562356710434
-2.0188331604003906 0.9772466421127319 -0.11754656583070755 15.0 6 -0.01795331947505474
-3.088608980178833 1.4957523345947266 0.7922776341438293 74.0 14 -0.017951015383005142
-1.986762285232544 0.9625778198242188 -0.03853491693735123 9.0 7 -0.017948711290955544
-3.06480073928833 1.4855443239212036 0.9125959873199463 82.0 15 -0.017946407198905945
-2.816276788711548 1.369333267211914 -0.8390913605690002 6.0 0 -0.017925672233104706
-2.001431703567505 0.9735701680183411 0.038849055767059326 9.0 8 -0.017923368141055107
-3.012136697769165 1.4658645391464233 -0.773381769657135 31.0 1 -0.01792106404900551
-2.0794618129730225 1.0124247074127197 0.12121009081602097 50.0 9 -0.01791875995695591
-2.01051926612854 0.9788587093353271 -0.43466290831565857 1.0 2 -0.01791645586490631
-2.167358160018921 1.055686593055725 0.2109168916940689 35.0 10 -0.017914151772856712
-2.0723109245300293 1.0098379850387573 -0.3651180863380432 10.0 3 -0.017911847680807114
-2.194739580154419 1.0699715614318848 0.2997986078262329 2.0 11 -0.017909543588757515
-2.0500335693359375 0.9998679161071777 -0.2800557613372803 1.0 4 -0.017907239496707916
-2.0160388946533203 0.9841588139533997 -0.19627472758293152 11.0 5 -0.01790263131260872
-3.0856926441192627 1.5063259601593018 0.6674498915672302 68.0 13 -0.01790032722055912
-2.0046420097351074 0.9790285229682922 -0.11691854149103165 17.0 6 -0.01789802312850952
-3.0921237468719482 1.5108020305633545 0.7945271730422974 71.0 14 -0.017895720899105072
-1.9797967672348022 0.967750608921051 -0.03846510127186775 8.0 7 -0.017893416807055473
-3.0665388107299805 1.4996274709701538 0.9146665334701538 78.0 15 -0.017891112715005875
-2.81817626953125 1.383050799369812 -0.8411619663238525 7.0 0 -0.017870375886559486
-2.0016112327575684 0.9823126196861267 0.038918863981962204 9.0 8 -0.017868071794509888
-2.982511520385742 1.4643460512161255 -0.7670831084251404 31.0 1 -0.01786576770246029
-2.068744421005249 1.0161545276641846 0.12079139798879623 50.0 9 -0.01786346361041069
-1.9998701810836792 0.9827577471733093 -0.4331364631652832 1.0 2 -0.01786115951836109
-2.1795661449432373 1.071534514427185 0.21248570084571838 25.0 10 -0.017858855426311493
-2.057960271835327 1.0121957063674927 -0.3632408678531647 11.0 3 -0.017856551334261894
-2.194553852081299 1.0793784856796265 0.30028611421585083 2.0 11 -0.017854247242212296
-2.028719425201416 0.9982535243034363 -0.2776183784008026 1.0 4 -0.017851943150162697
-3.089068651199341 1.5206795930862427 0.5453305840492249 7.0 12 -0.017849639058113098
-2.0125911235809326 0.9911901354789734 -0.19627472758293152 10.0 5 -0.01784733682870865
-3.090717315673828 1.522831678390503 0.6697396039962769 74.0 13 -0.01784503273665905
-1.993874192237854 0.9828371405601501 -0.11649984866380692 19.0 6 -0.01784272864460945
-3.0900607109069824 1.5238497257232666 0.7954270243644714 71.0 14 -0.017840424552559853
-1.9853737354278564 0.9790782332420349 -0.038639627397060394 9.0 7 -0.017838120460510254
-3.0751450061798096 1.5171605348587036 0.9188076257705688 80.0 15 -0.017835816368460655
-2.8150625228881836 1.3937368392944336 -0.841679573059082 7.0 0 -0.017815079540014267
-1.997997760772705 0.9896418452262878 0.038918863981962204 9.0 8 -0.01781277544796467
-2.970139980316162 1.4718067646026611 -0.7652835249900818 30.0 1 -0.01781047135591507
-2.0598158836364746 1.020709753036499 0.12047737836837769 48.0 9 -0.01780816726386547
-1.985873818397522 0.9845005869865417 -0.4308467507362366 1.0 2 -0.017805863171815872
-2.068570852279663 1.0263973474502563 -0.36574381589889526 10.0 3 -0.017801256850361824
-2.20125150680542 1.0927106142044067 0.30174851417541504 1.0 11 -0.017798952758312225
-2.064161539077759 1.0251069068908691 -0.28298062086105347 1.0 4 -0.017796648666262627
-3.0890495777130127 1.534088373184204 0.5462691783905029 53.0 12 -0.017794344574213028
-2.0126874446868896 0.9999823570251465 -0.19662334024906158 9.0 5 -0.01779204048216343
-3.095930814743042 1.5388541221618652 0.6720293164253235 74.0 13 -0.01778973639011383
-1.999372959136963 0.9942380785942078 -0.11702320724725723 21.0 6 -0.017787432298064232
-3.0847229957580566 1.5346261262893677 0.7954270243644714 71.0 14 -0.017785128206014633
-1.9765733480453491 0.9833301305770874 -0.03853491693735123 8.0 7 -0.017782824113965034
-3.080207347869873 1.533050298690796 0.9219135046005249 80.0 15 -0.017780520021915436
-2.8136372566223145 1.405280590057373 -0.8427148461341858 9.0 0 -0.017759783193469048
-1.9947049617767334 0.9962620735168457 0.038918863981962204 9.0 8 -0.01775747910141945
-2.9478108882904053 1.472936987876892 -0.7607845067977905 30.0 1 -0.017755176872015
-2.0651726722717285 1.0323587656021118 0.121000736951828 43.0 9 -0.0177528727799654
-1.961354374885559 0.9808884263038635 -0.4262673258781433 1.0 2 -0.017750568687915802
-3.1342122554779053 1.5681284666061401 0.30661389231681824 37.0 10 -0.017748264595866203
-2.066922187805176 1.0341352224349976 -0.3660567104816437 11.0 3 -0.017745960503816605
-2.3112242221832275 1.1568703651428223 0.31734779477119446 1.0 11 -0.017743656411767006
-2.032351016998291 1.017724871635437 -0.2790808379650116 1.0 4 -0.017741352319717407
-3.0995709896087646 1.5528260469436646 0.5490850210189819 76.0 12 -0.01773904822766781
-2.012746810913086 1.0087873935699463 -0.19697196781635284 9.0 5 -0.01773674413561821
-3.1083621978759766 1.5579091310501099 0.6758455038070679 71.0 13 -0.01773444004356861
-2.0014214515686035 1.0035475492477417 -0.11733722686767578 22.0 6 -0.017732135951519012
-3.0918099880218506 1.5509635210037231 0.798576295375824 70.0 14 -0.017729831859469414
-1.9659796953201294 0.9866359233856201 -0.038395293056964874 8.0 7 -0.017727527767419815
-3.0713846683502197 1.5420585870742798 0.9208781719207764 80.0 15 -0.017725223675370216
-2.8055107593536377 1.412865400314331 -0.841679573059082 7.0 0 -0.017704488709568977
-1.982285976409912 0.998720109462738 0.03874434158205986 8.0 8 -0.01770218461751938
-2.9304697513580322 1.4770785570144653 -0.757635235786438 30.0 1 -0.01769988052546978
-2.068690299987793 1.0431580543518066 0.12141943722963333 43.0 9 -0.01769757643342018
-2.007174491882324 1.0121381282806396 -0.4369526505470276 1.0 2 -0.017695272341370583
-3.1272165775299072 1.5776152610778809 0.306439608335495 41.0 10 -0.017692968249320984
-2.072117328643799 1.045794129371643 -0.3676210343837738 13.0 3 -0.017690664157271385
-3.134706497192383 1.5827666521072388 0.43117377161979675 42.0 11 -0.017688360065221786
-2.081942081451416 1.0516639947891235 -0.2863929867744446 1.0 4 -0.017686055973172188
-3.1029467582702637 1.5680910348892212 0.5506494045257568 71.0 12 -0.01768375188112259
-2.0093905925750732 1.0154564380645752 -0.19697196781635284 9.0 5 -0.01768144778907299
-3.095897674560547 1.5652060508728027 0.6743190288543701 71.0 13 -0.01767914369702339
-2.0014703273773193 1.0123311281204224 -0.11754656583070755 21.0 6 -0.017676839604973793
-3.100287914276123 1.568785548210144 0.8021755218505859 68.0 14 -0.017674535512924194
-1.9714442491531372 0.9980078339576721 -0.038569819182157516 9.0 7 -0.017672231420874596
-3.0763235092163086 1.5580083131790161 0.9239840507507324 78.0 15 -0.017669927328824997
-2.804006576538086 1.4243998527526855 -0.8427148461341858 9.0 0 -0.017649192363023758
-1.9859182834625244 1.0092580318450928 0.038883961737155914 7.0 8 -0.01764688827097416
-2.9096622467041016 1.4793494939804077 -0.7535860538482666 32.0 1 -0.01764458417892456
-2.0863986015319824 1.0612387657165527 0.12267549335956573 43.0 9 -0.017642280086874962
-2.003629207611084 1.0191384553909302 -0.4369526505470276 1.0 2 -0.017639975994825363
-3.13767147064209 1.5966548919677734 0.3080084025859833 40.0 10 -0.017637671902775764
-2.0649335384368896 1.0512280464172363 -0.36699530482292175 13.0 3 -0.017635367810726166
-3.132699966430664 1.5955009460449219 0.4316612482070923 68.0 11 -0.017633063718676567
-2.1136326789855957 1.0769498348236084 -0.2912677526473999 1.0 4 -0.01763075962662697
-3.0992140769958496 1.5798090696334839 0.5509622097015381 73.0 12 -0.01762845553457737
-2.002283811569214 1.020654320716858 -0.19662334024906158 10.0 5 -0.01762615144252777
-3.0869171619415283 1.5742194652557373 0.6735557913780212 74.0 13 -0.017623847350478172
-1.9961457252502441 1.0184038877487183 -0.11744190007448196 23.0 6 -0.017621543258428574
-3.0999999046325684 1.5822559595108032 0.8035252690315247 67.0 14 -0.017619239166378975
-1.9839773178100586 1.0130680799484253 -0.038883961737155914 8.0 7 -0.017616935074329376
-3.0743067264556885 1.5704948902130127 0.9250192642211914 74.0 15 -0.017614632844924927
-2.795578718185425 1.4324171543121338 -0.841679573059082 9.0 0 -0.01759389601647854
-1.982383370399475 1.016183614730835 0.038883961737155914 7.0 8 -0.01759159192442894
-2.8871402740478516 1.480604648590088 -0.7490870356559753 33.0 1 -0.01758928783237934
-2.075573444366455 1.064868450164795 0.1222568079829216 41.0 9 -0.017586983740329742
-2.0227675437927246 1.0377765893936157 -0.4419136643409729 1.0 2 -0.017584679648280144
-3.142714500427246 1.6130558252334595 0.30905425548553467 40.0 10 -0.017582375556230545
-2.0647661685943604 1.0602343082427979 -0.3676210343837738 10.0 3 -0.017580071464180946
-3.130642890930176 1.6082415580749512 0.4321487247943878 67.0 11 -0.017577767372131348
-2.109860897064209 1.0843206644058228 -0.2912677526473999 1.0 4 -0.01757546328008175
-3.100707769393921 1.5942308902740479 0.552213728427887 76.0 12 -0.01757315918803215
-2.0128841400146484 1.0349255800247192 -0.19801783561706543 10.0 5 -0.01757085509598255
-3.088385820388794 1.5885779857635498 0.675082266330719 75.0 13 -0.017568552866578102
-1.990802526473999 1.0244516134262085 -0.11733722686767578 21.0 6 -0.017566248774528503
-3.103121519088745 1.5975264310836792 0.8057747483253479 70.0 14 -0.017563944682478905
-1.9839839935302734 1.021818995475769 -0.03895376995205879 8.0 7 -0.017561640590429306
-3.0825443267822266 1.588295340538025 0.9291604161262512 78.0 15 -0.017559336498379707
-2.793994188308716 1.4439407587051392 -0.8427148461341858 10.0 0 -0.01753859966993332
-1.9823766946792603 1.024933934211731 0.03895376995205879 7.0 8 -0.01753629557788372
-2.875030994415283 1.4870926141738892 -0.7472874522209167 36.0 1 -0.01753399148583412
-2.073617458343506 1.0730249881744385 0.12236147373914719 35.0 9 -0.017531687393784523
-1.9982091188430786 1.034003734588623 -0.43733423948287964 1.0 2 -0.017529383301734924
-3.151219606399536 1.631343960762024 0.3104487657546997 38.0 10 -0.017527079209685326
-2.0628066062927246 1.0683436393737793 -0.36793389916419983 9.0 3 -0.017524775117635727
-3.128535032272339 1.6209862232208252 0.43263620138168335 66.0 11 -0.017522472888231277
-2.106062889099121 1.0916789770126343 -0.2912677526473999 1.0 4 -0.01752016879618168
-3.0933704376220703 1.604135274887085 0.5519008636474609 72.0 12 -0.01751786470413208
-2.0110280513763428 1.042862892150879 -0.19819216430187225 13.0 5 -0.01751556061208248
-3.098506212234497 1.6074857711791992 0.6785168647766113 70.0 13 -0.017513256520032883
-1.9872145652770996 1.031394124031067 -0.11733722686767578 20.0 6 -0.017510952427983284
-3.099254846572876 1.6092474460601807 0.8062246441841125 67.0 14 -0.017508648335933685
-1.9733070135116577 1.0250509977340698 -0.038814153522253036 8.0 7 -0.017506344243884087
-3.083838701248169 1.602608561515808 0.9312310218811035 74.0 15 -0.017504040151834488
-2.77180552482605 1.4447556734085083 -0.8375384211540222 9.0 0 -0.0174833033233881
-1.989425778388977 1.0373952388763428 0.03916320204734802 6.0 8 -0.0174809992313385
-2.8508174419403076 1.4872039556503296 -0.7423385381698608 34.0 1 -0.017478695139288902
-2.0822534561157227 1.0867253541946411 0.12309417873620987 35.0 9 -0.017476391047239304
-1.9945875406265259 1.0409725904464722 -0.43733423948287964 1.0 2 -0.017474088817834854
-3.145505905151367 1.6423338651657104 0.3104487657546997 36.0 10 -0.017471784725785255
-2.067819118499756 1.0801111459732056 -0.36949828267097473 8.0 3 -0.017469480633735657
-3.140451431274414 1.6410900354385376 0.435073584318161 66.0 11 -0.017467176541686058
-2.1022393703460693 1.0990239381790161 -0.2912677526473999 1.0 4 -0.01746487244963646
-3.093003034591675 1.6176707744598389 0.552839457988739 73.0 12 -0.01746256835758686
-2.0056097507476807 1.0489534139633179 -0.19801783561706543 11.0 5 -0.017460264265537262
-3.105053186416626 1.6246623992919922 0.68118816614151 71.0 13 -0.017457960173487663
-1.9906800985336304 1.042029619216919 -0.11775590479373932 18.0 6 -0.017455656081438065
-3.102250337600708 1.624576449394226 0.8084741234779358 70.0 14 -0.017453351989388466
-1.9661743640899658 1.030076503753662 -0.03874434158205986 8.0 7 -0.017451047897338867
-3.0850696563720703 1.6169506311416626 0.9333015084266663 78.0 15 -0.01744874380528927
-2.773585796356201 1.4580180644989014 -0.8396090269088745 10.0 0 -0.01742800883948803
-1.982252597808838 1.042471170425415 0.039093390107154846 7.0 8 -0.01742570474743843
-2.838709592819214 1.493517279624939 -0.7405388951301575 37.0 1 -0.017423400655388832
-2.0943539142608643 1.102359652519226 0.12403623014688492 33.0 9 -0.017421096563339233
-2.008314371109009 1.0570728778839111 -0.44115039706230164 1.0 2 -0.017418792471289635
-3.139754295349121 1.6533031463623047 0.3104487657546997 36.0 10 -0.017416488379240036
-2.0570454597473145 1.08363938331604 -0.36824676394462585 9.0 3 -0.017414184287190437
-3.1522650718688965 1.6612975597381592 0.43751096725463867 67.0 11 -0.01741188019514084
-3.1048099994659424 1.637672781944275 0.555968165397644 73.0 12 -0.01740727201104164
-2.012509822845459 1.061524748802185 -0.1990637183189392 10.0 5 -0.017404967918992043
-3.104572296142578 1.6382399797439575 0.6823329925537109 68.0 13 -0.017402663826942444
-1.9923292398452759 1.0517698526382446 -0.11806992441415787 11.0 6 -0.017400359734892845
-3.106900215148926 1.6408551931381226 0.8111735582351685 66.0 14 -0.017398055642843246
-1.9678709506988525 1.039736032485962 -0.038849055767059326 9.0 7 -0.017395751550793648
-3.086237907409668 1.6313215494155884 0.9353720545768738 82.0 15 -0.01739344745874405
-2.768479585647583 1.4676902294158936 -0.8396090269088745 10.0 0 -0.01737271249294281
-1.978601336479187 1.0493847131729126 0.039093390107154846 7.0 8 -0.01737040840089321
-2.8093791007995605 1.490630030632019 -0.7342402935028076 36.0 1 -0.017368104308843613
-2.0957858562469482 1.112472414970398 0.12435024976730347 35.0 9 -0.017365800216794014
-2.021953582763672 1.073281168937683 -0.444966584444046 1.0 2 -0.017363496124744415
-3.1427619457244873 1.6689258813858032 0.31132030487060547 35.0 10 -0.017361192032694817
-2.070695161819458 1.1000810861587524 -0.3713754713535309 10.0 3 -0.017358887940645218
-3.1394357681274414 1.6685636043548584 0.43653604388237 66.0 11 -0.01735658384859562
-3.1112823486328125 1.6549944877624512 0.5581582188606262 66.0 12 -0.017351975664496422
-2.0158281326293945 1.0722860097885132 -0.19976095855236053 9.0 5 -0.017349671572446823
-3.0971014499664307 1.6481447219848633 0.6819514036178589 71.0 13 -0.017347367480397224
-1.9886459112167358 1.0587174892425537 -0.11806992441415787 12.0 6 -0.017345063388347626
-3.1097536087036133 1.6562707424163818 0.8134230971336365 67.0 14 -0.017342759296298027
-1.9854072332382202 1.0578830242156982 -0.03926791250705719 9.0 7 -0.01734045520424843
-3.083934783935547 1.6439014673233032 0.9364073872566223 80.0 15 -0.01733815111219883
-2.7701539993286133 1.4809882640838623 -0.841679573059082 11.0 0 -0.01731741614639759
-1.9855064153671265 1.061943769454956 0.03930281847715378 6.0 8 -0.017315112054347992
-2.7869765758514404 1.4912331104278564 -0.7297412753105164 27.0 1 -0.017312807962298393
-2.0936505794525146 1.120723843574524 0.12445490807294846 40.0 9 -0.017310503870248795
-2.004347801208496 1.0729204416275024 -0.4419136643409729 1.0 2 -0.017308199778199196
-3.150968074798584 1.6874107122421265 0.3127147853374481 33.0 10 -0.017305895686149597
-2.0685837268829346 1.1082353591918945 -0.3716883361339569 9.0 3 -0.0173035915941
-3.140590190887451 1.683263897895813 0.43751096725463867 68.0 11 -0.0173012875020504
-3.110708713531494 1.668646216392517 0.5590968132019043 62.0 12 -0.017296679317951202
-2.012073040008545 1.0793160200119019 -0.19976095855236053 9.0 5 -0.017294375225901604
-3.106898546218872 1.667300820350647 0.6853859424591064 68.0 13 -0.017292071133852005
-1.9814188480377197 1.0637633800506592 -0.1178605854511261 12.0 6 -0.017289768904447556
-3.1108200550079346 1.6708040237426758 0.8152226805686951 67.0 14 -0.017287464812397957
-1.981702446937561 1.0648069381713867 -0.03926791250705719 9.0 7 -0.017285160720348358
-3.09519362449646 1.6638033390045166 0.9415837526321411 78.0 15 -0.01728285662829876
-2.7717692852020264 1.494316816329956 -0.8437501192092896 11.0 0 -0.01726211979985237
-1.9888275861740112 1.072664499282837 0.03944243863224983 6.0 8 -0.017259815707802773
-2.7714641094207764 1.4954001903533936 -0.7270418405532837 10.0 1 -0.017257511615753174
-2.087968111038208 1.1270771026611328 0.12435024976730347 41.0 9 -0.017255207523703575
-2.0247769355773926 1.0929666757583618 -0.44725629687309265 1.0 2 -0.017252903431653976
-3.150317907333374 1.7012395858764648 0.313237726688385 31.0 10 -0.017250599339604378
-2.0699167251586914 1.1182657480239868 -0.3726269602775574 8.0 3 -0.01724829524755478
-3.1451737880706787 1.699879765510559 0.43897342681884766 66.0 11 -0.01724599115550518
-3.0996527671813965 1.676674246788025 0.5581582188606262 63.0 12 -0.017241384834051132
-2.022312641143799 1.0939159393310547 -0.20115545392036438 9.0 5 -0.017239080742001534
-3.107966184616089 1.6818733215332031 0.6869124174118042 68.0 13 -0.017236776649951935
-1.9952572584152222 1.0801820755004883 -0.11890730261802673 12.0 6 -0.017234472557902336
-3.1032555103302 1.6807247400283813 0.8147727847099304 66.0 14 -0.017232168465852737
-1.9726990461349487 1.0688600540161133 -0.03916320204734802 10.0 7 -0.01722986437380314
-3.096160411834717 1.6782801151275635 0.9436542987823486 76.0 15 -0.01722756028175354
-2.7529585361480713 1.496600866317749 -0.8396090269088745 11.0 0 -0.017206823453307152
-1.9920979738235474 1.0834219455718994 0.039582058787345886 7.0 8 -0.017204519361257553
-2.7662272453308105 1.5050654411315918 -0.7270418405532837 9.0 1 -0.017202215269207954
-2.1015634536743164 1.143907070159912 0.1253969669342041 46.0 9 -0.017199911177158356
-2.0312957763671875 1.1056596040725708 -0.44954603910446167 1.0 2 -0.017197608947753906
-3.147860527038574 1.7141308784484863 0.31358635425567627 32.0 10 -0.01719530299305916
-2.078143358230591 1.1320997476577759 -0.37481701374053955 7.0 3 -0.01719300076365471
-3.1444497108459473 1.713697910308838 0.43970462679862976 64.0 11 -0.01719069667160511
-3.102451801300049 1.6922142505645752 0.5597225427627563 61.0 12 -0.017186088487505913
-2.0097360610961914 1.0961987972259521 -0.20028388500213623 9.0 5 -0.017183784395456314
-3.112416982650757 1.6983543634414673 0.6892021298408508 66.0 13 -0.017181480303406715
-1.9984872341156006 1.0909677743911743 -0.11932599544525146 12.0 6 -0.017179176211357117
-3.1076316833496094 1.6971511840820312 0.8174721598625183 70.0 14 -0.017176872119307518
-1.9759753942489624 1.079574704170227 -0.03930281847715378 11.0 7 -0.01717456802725792
-3.0902836322784424 1.6890767812728882 0.9436542987823486 76.0 15 -0.01717226393520832
-2.751105546951294 1.5080586671829224 -0.8406442999839783 11.0 0 -0.018151283264160156
-1.981290340423584 1.0865230560302734 0.03944243863224983 7.0 8 -0.018148979172110558
-2.7353286743164062 1.5006530284881592 -0.7202933430671692 23.0 1 -0.01814667508006096
-2.108264684677124 1.156633973121643 0.1260250061750412 41.0 9 -0.01814437098801136
-2.0446345806121826 1.122188925743103 -0.45336219668388367 6.0 2 -0.01814206689596176
-3.138364791870117 1.7231906652450562 0.313237726688385 31.0 10 -0.018139762803912163
-2.062059164047241 1.1326895952224731 -0.3726269602775574 6.0 3 -0.018137458711862564
-3.154106378555298 1.7332673072814941 0.44189828634262085 66.0 11 -0.018135154619812965
-3.103747606277466 1.7062989473342896 0.5609740614891052 62.0 12 -0.018130546435713768
-2.02335524559021 1.1128089427947998 -0.20202700793743134 8.0 5 -0.01812824234366417
-3.109910011291504 1.7111005783081055 0.6899653673171997 67.0 13 -0.01812594011425972
-2.005164623260498 1.103716254234314 -0.11995401978492737 12.0 6 -0.01812363602221012
-3.1119306087493896 1.7136286497116089 0.820171594619751 66.0 14 -0.018121331930160522
-1.9706326723098755 1.085156798362732 -0.03926791250705719 9.0 7 -0.018119027838110924
-3.084665298461914 1.6993154287338257 0.9436542987823486 76.0 15 -0.018116723746061325
-2.7390615940093994 1.5139145851135254 -0.8385737538337708 11.0 0 -0.018095986917614937
-1.9846771955490112 1.096956729888916 0.039582058787345886 6.0 8 -0.018093682825565338
-2.7064619064331055 1.496513843536377 -0.7139947414398193 32.0 1 -0.01809137873351574
-2.123439311981201 1.1746200323104858 0.12717638909816742 31.0 9 -0.01808907464146614
-2.0561649799346924 1.1378746032714844 -0.4567967355251312 17.0 2 -0.018086770549416542
-3.146275043487549 1.7418562173843384 0.31463223695755005 31.0 10 -0.018084466457366943
-2.0600197315216064 1.140478253364563 -0.372939795255661 5.0 3 -0.018082162365317345
-3.143131732940674 1.740831732749939 0.44116705656051636 63.0 11 -0.018079860135912895
-3.115049362182617 1.7267004251480103 0.5641027688980103 62.0 12 -0.018075251951813698
-2.019458770751953 1.119864583015442 -0.20202700793743134 8.0 5 -0.0180729478597641
-3.0990676879882812 1.7185477018356323 0.688820481300354 64.0 13 -0.0180706437677145
-1.9997475147247314 1.109390377998352 -0.11984935402870178 10.0 6 -0.0180683396756649
-3.124974012374878 1.7343411445617676 0.8251205086708069 79.0 14 -0.018066035583615303
-1.984316110610962 1.1017355918884277 -0.039616964757442474 8.0 7 -0.018063731491565704
-3.093914270401001 1.7185150384902954 0.9483130574226379 72.0 15 -0.018061427399516106
-2.740776777267456 1.526749849319458 -0.8406442999839783 10.0 0 -0.018040690571069717
-1.987823247909546 1.1077711582183838 0.03972167521715164 6.0 8 -0.01803838647902012
-2.687605142593384 1.49836003780365 -0.7103955149650574 33.0 1 -0.01803608238697052
-2.117581844329834 1.181052327156067 0.12707172334194183 22.0 9 -0.01803378015756607
-2.078099250793457 1.1590315103530884 -0.4625210165977478 30.0 2 -0.018031476065516472
-3.1578805446624756 1.7619872093200684 0.31637534499168396 31.0 10 -0.018029171973466873
-2.0715503692626953 1.1563270092010498 -0.37575563788414 6.0 3 -0.018026867881417274
-3.147434949874878 1.757599949836731 0.44262948632240295 64.0 11 -0.018024563789367676
-3.1176249980926514 1.74238121509552 0.5656670928001404 63.0 12 -0.01801995560526848
-2.036604166030884 1.1382193565368652 -0.2041187435388565 3.0 5 -0.01801765151321888
-3.1067588329315186 1.7370198965072632 0.6918734312057495 64.0 13 -0.01801534742116928
-1.9888898134231567 1.112464427947998 -0.11943066120147705 10.0 6 -0.018013043329119682
-3.0933923721313477 1.7309640645980835 0.8183720111846924 63.0 14 -0.018010739237070084
-1.9961622953414917 1.1174465417861938 -0.03993110731244087 7.0 7 -0.018008435145020485
-3.1013805866241455 1.7368566989898682 0.9524540901184082 70.0 15 -0.018006131052970886
-2.738799571990967 1.5381990671157837 -0.841679573059082 11.0 0 -0.017985396087169647
-2.0066077709198 1.127437710762024 0.040175437927246094 5.0 8 -0.01798309199512005
-2.6789605617523193 1.505822777748108 -0.7094956636428833 36.0 1 -0.01798078790307045
-2.127373218536377 1.1962683200836182 0.1279090791940689 6.0 9 -0.01797848381102085
-2.075752019882202 1.1672406196594238 -0.46290263533592224 54.0 2 -0.017976179718971252
-3.1621296405792236 1.7788608074188232 0.31742119789123535 30.0 10 -0.017973875626921654
-2.0829944610595703 1.17227041721344 -0.37857145071029663 3.0 3 -0.017971571534872055
-3.1481995582580566 1.7724714279174805 0.443604439496994 63.0 11 -0.017969267442822456
-3.1166868209838867 1.756162405014038 0.5666056871414185 62.0 12 -0.01796465925872326
-2.0551841259002686 1.158036470413208 -0.2063847929239273 2.0 5 -0.01796235516667366
-3.121199369430542 1.7594226598739624 0.6964528560638428 60.0 13 -0.01796005107462406
-2.005871295928955 1.1311726570129395 -0.12068671733140945 11.0 6 -0.017957746982574463
-3.109395742416382 1.7541996240615845 0.8242207169532776 63.0 14 -0.017955442890524864
-1.9800586700439453 1.117527961730957 -0.03968677297234535 6.0 7 -0.017953138798475266
-3.1053926944732666 1.7533702850341797 0.9555599689483643 70.0 15 -0.017950834706425667
-2.6829817295074463 1.5191936492919922 -0.8261504173278809 20.0 0 -0.017930099740624428
-2.0235393047332764 1.146262526512146 0.040594298392534256 4.0 8 -0.01792779564857483
-2.6686017513275146 1.5122826099395752 -0.7081459760665894 38.0 1 -0.01792549155652523
-2.6148881912231445 1.4824455976486206 0.1575312465429306 2.0 9 -0.01792318746447563
-2.073373317718506 1.1754471063613892 -0.46328428387641907 74.0 2 -0.017920883372426033
-3.1576340198516846 1.7908709049224854 0.31759554147720337 30.0 10 -0.017918579280376434
-2.090916395187378 1.1863579750061035 -0.3807615041732788 4.0 3 -0.017916275188326836
-3.162709951400757 1.7952090501785278 0.4465293288230896 60.0 11 -0.017913971096277237
-3.112255334854126 1.7680068016052246 0.5669185519218445 65.0 12 -0.01790936291217804
-3.121866226196289 1.7741873264312744 0.6979793310165405 61.0 13 -0.017904754728078842
-2.0123279094696045 1.1440905332565308 -0.12131475657224655 9.0 6 -0.017902450636029243
-3.113416910171509 1.7708234786987305 0.8269200921058655 73.0 14 -0.017900146543979645
-1.9813603162765503 1.1273994445800781 -0.03979148715734482 5.0 7 -0.017897842451930046
-3.095895290374756 1.7622880935668945 0.9545246958732605 72.0 15 -0.017895538359880447
-2.6455211639404297 1.510815143585205 -0.8163152933120728 31.0 0 -0.01787480339407921
-2.0125796794891357 1.1493523120880127 0.0404546782374382 3.0 8 -0.01787249930202961
-2.6430022716522217 1.5099875926971436 -0.702747106552124 43.0 1 -0.01787019520998001
-2.6391754150390625 1.5084129571914673 0.15931066870689392 2.0 9 -0.017867891117930412
-2.0809810161590576 1.189860463142395 -0.46595558524131775 80.0 2 -0.017865587025880814
-3.1510493755340576 1.8024314641952515 0.31759554147720337 28.0 10 -0.017863282933831215
-2.0916976928710938 1.196956992149353 -0.3817001283168793 3.0 3 -0.017860978841781616
-3.159869909286499 1.808210015296936 0.44701680541038513 66.0 11 -0.017858674749732018
-3.112921953201294 1.7827860116958618 0.5681700706481934 71.0 12 -0.01785406656563282
-3.115342617034912 1.785617709159851 0.6979793310165405 61.0 13 -0.017849458381533623
