# .PCD v0.7 - Point Cloud Data file format
VERSION 0.7
FIELDS x y z intensity ring time
SIZE 4 4 4 4 4 4
TYPE F F F F F F
COUNT 1 1 1 1 1 1
WIDTH 541
HEIGHT 1
VIEWPOINT 0 0 0 1 0 0 0
POINTS 541
DATA ascii
-2.8450112342834473 0.24190278351306915 -0.7650691270828247 21.0 0 -0.02334492653608322
-2.642023801803589 0.22510778903961182 0.0462837815284729 83.0 8 -0.023342622444033623
-2.8950393199920654 0.24717365205287933 -0.6708040833473206 12.0 1 -0.023340318351984024
-1.904448390007019 0.1625986397266388 0.1001710295677185 0.0 9 -0.023338014259934425
-2.859830617904663 0.2446710169315338 -0.5579255223274231 12.0 2 -0.023335710167884827
-2.8557536602020264 0.24532563984394073 -0.45397287607192993 13.0 3 -0.02333110198378563
-3.0240225791931152 0.2603133022785187 0.3726764917373657 38.0 11 -0.02332879789173603
-2.834113597869873 0.24446389079093933 -0.3492775857448578 12.0 4 -0.023326493799686432
-3.028857946395874 0.26126205921173096 0.4815053343772888 30.0 12 -0.023324189707636833
-2.8047890663146973 0.242428258061409 -0.24630212783813477 11.0 5 -0.023321885615587234
-3.0414745807647705 0.26341989636421204 0.5934159755706787 27.0 13 -0.023319581523537636
-2.4275314807891846 0.21067357063293457 -0.12769974768161774 35.0 6 -0.023317277431488037
-3.0305464267730713 0.2635399103164673 0.7022972702980042 26.0 14 -0.023314975202083588
-2.494205951690674 0.2168990969657898 -0.04370082914829254 19.0 7 -0.02331267111003399
-3.004236936569214 0.2617795765399933 0.8080331087112427 29.0 15 -0.02331036701798439
-2.8056631088256836 0.24842458963394165 -0.7547163367271423 7.0 0 -0.023289630189538002
-2.581505298614502 0.22857676446437836 0.04523663595318794 67.0 8 -0.023287326097488403
-2.8398523330688477 0.2519506812095642 -0.6582068204879761 12.0 1 -0.023285022005438805
-3.019930362701416 0.2684590518474579 0.15889199078083038 3.0 9 -0.023282717913389206
-2.8120269775390625 0.25047194957733154 -0.5487667322158813 12.0 2 -0.023280413821339607
-2.7882251739501953 0.24884170293807983 0.24490763247013092 1.0 10 -0.02327810972929001
-2.7919626235961914 0.24917525053024292 -0.4439610540866852 12.0 3 -0.02327580563724041
-3.064664125442505 0.27405300736427307 0.37779501080513 28.0 11 -0.02327350154519081
-2.783858060836792 0.24943207204341888 -0.34318411350250244 12.0 4 -0.023271197453141212
-3.055471897125244 0.274306058883667 0.48588550090789795 30.0 12 -0.023268893361091614
-2.756300687789917 0.2479327768087387 -0.24211864173412323 11.0 5 -0.023266591131687164
-3.04645037651062 0.2740321159362793 0.5945608615875244 26.0 13 -0.023264287039637566
-2.4347763061523438 0.21943962574005127 -0.12811844050884247 39.0 6 -0.023261982947587967
-3.0413005352020264 0.2746390700340271 0.704996645450592 27.0 14 -0.023259678855538368
-2.4655513763427734 0.22308090329170227 -0.0432121567428112 17.0 7 -0.02325737476348877
-3.001380681991577 0.272090345621109 0.8075154423713684 22.0 15 -0.02325507067143917
-2.7586538791656494 0.2534847855567932 -0.7422930002212524 9.0 0 -0.023234333842992783
-2.5826830863952637 0.23776930570602417 0.04527154192328453 59.0 8 -0.023232029750943184
-2.7671570777893066 0.2552395164966583 -0.6415604948997498 10.0 1 -0.023229725658893585
-3.0269787311553955 0.27920517325401306 0.15931066870689392 3.0 9 -0.023227421566843987
-2.7564430236816406 0.25473707914352417 -0.5380814075469971 12.0 2 -0.023225117474794388
-2.767545461654663 0.2562496066093445 0.243164524435997 1.0 10 -0.02322281338274479
-2.737968683242798 0.2539936602115631 -0.43551361560821533 12.0 3 -0.02322051115334034
-3.0498530864715576 0.28346312046051025 0.37608882784843445 21.0 11 -0.02321820706129074
-2.7394862174987793 0.2550989091396332 -0.3378218412399292 11.0 4 -0.023215902969241142
-3.050611972808838 0.2840706706047058 0.4852597713470459 16.0 12 -0.023213598877191544
-2.699917793273926 0.25188958644866943 -0.23723793029785156 11.0 5 -0.023211294785141945
-3.025927782058716 0.28283751010894775 0.59074467420578 12.0 13 -0.023208990693092346
-2.4260413646698 0.22719240188598633 -0.12769974768161774 42.0 6 -0.023206686601042747
-3.032562732696533 0.28452545404434204 0.7031970620155334 5.0 14 -0.02320438250899315
-2.438915729522705 0.22882746160030365 -0.04275839403271675 14.0 7 -0.02320207841694355
-2.726982355117798 0.26017647981643677 -0.7340108752250671 9.0 0 -0.023179037496447563
-2.5878524780273438 0.24690234661102295 0.045376256108284 87.0 8 -0.023176733404397964
-2.7080984115600586 0.25885170698165894 -0.6280633807182312 10.0 1 -0.023174431174993515
-3.0239975452423096 0.2895800471305847 0.15920598804950714 2.0 9 -0.023172127082943916
-2.6988627910614014 0.25892025232315063 -0.5270144939422607 11.0 2 -0.023169822990894318
-2.683337688446045 0.2579028010368347 0.23584343492984772 1.0 10 -0.02316751889884472
-2.693852663040161 0.25891342759132385 -0.4286305010318756 11.0 3 -0.02316521480679512
-2.6714441776275635 0.25770142674446106 -0.32953473925590515 11.0 4 -0.023160606622695923
-3.0908920764923096 0.2987073063850403 0.4918299913406372 1.0 12 -0.023158302530646324
-2.655393362045288 0.2570886015892029 -0.23340308666229248 12.0 5 -0.023155998438596725
-3.0542852878570557 0.2957083284854889 0.5964689254760742 1.0 13 -0.023153694346547127
-2.449129819869995 0.23755009472370148 -0.12895581126213074 27.0 6 -0.023151390254497528
-2.46994686126709 0.2404395043849945 -0.04331687465310097 20.0 7 -0.02314678207039833
-9.640569686889648 0.9401695132255554 2.595437526702881 0.0 15 -0.023144477978348732
-2.687654733657837 0.2654210031032562 -0.7236580848693848 9.0 0 -0.023123743012547493
-2.6606366634368896 0.26369062066078186 -0.6172657608985901 9.0 1 -0.023119134828448296
-3.0329055786132812 0.30112069845199585 0.15972934663295746 3.0 9 -0.023116830736398697
-2.639333963394165 0.26250967383384705 -0.5155659317970276 11.0 2 -0.023114526644349098
-2.638850212097168 0.2624615728855133 0.23200859129428864 1.0 10 -0.0231122225522995
-2.6378941535949707 0.26283201575279236 -0.41987013816833496 11.0 3 -0.0231099184602499
-2.6310231685638428 0.26307427883148193 -0.32465994358062744 10.0 4 -0.023105310276150703
-2.626725673675537 0.26357123255729675 -0.23096270859241486 11.0 5 -0.023100702092051506
-2.462153196334839 0.2479257732629776 -0.12968851625919342 24.0 6 -0.02309609390795231
-2.5148532390594482 0.2536757290363312 -0.04411968216300011 25.0 7 -0.02309148572385311
-9.644916534423828 0.9745904803276062 2.597507953643799 0.0 15 -0.023089181631803513
-2.6174793243408203 0.26818153262138367 -0.7050231099128723 9.0 0 -0.023068446666002274
-2.956019401550293 0.30338963866233826 0.05186855047941208 6.0 8 -0.023066142573952675
-2.617004632949829 0.26905596256256104 -0.6073678731918335 10.0 1 -0.023063838481903076
-3.0178744792938232 0.3108018934726715 0.15899664163589478 2.0 9 -0.023061534389853477
-2.591484785079956 0.2673470079898834 -0.5064070820808411 11.0 2 -0.02305923029780388
-2.5387768745422363 0.26190945506095886 0.2232930064201355 1.0 10 -0.02305692620575428
-2.5995798110961914 0.26864001154899597 -0.4139256477355957 12.0 3 -0.02305462211370468
-2.598449468612671 0.26944053173065186 -0.32076016068458557 12.0 4 -0.023050013929605484
-2.578181505203247 0.2682484984397888 -0.2267792522907257 11.0 5 -0.023045405745506287
-2.475132942199707 0.25839948654174805 -0.1304212212562561 26.0 6 -0.02304079756140709
-2.5536837577819824 0.26705116033554077 -0.04481777921319008 18.0 7 -0.023036189377307892
-9.602852821350098 1.0059114694595337 2.587155342102051 0.0 15 -0.023033887147903442
-2.558846950531006 0.2716549336910248 -0.6894939541816711 9.0 0 -0.023013150319457054
-2.771946907043457 0.29476746916770935 0.048657309263944626 6.0 8 -0.023010846227407455
-2.5772454738616943 0.27451854944229126 -0.598369836807251 10.0 1 -0.023008542135357857
-3.0365750789642334 0.32397985458374023 0.1600433737039566 2.0 9 -0.023006238043308258
-2.5495405197143555 0.27201688289642334 -0.49839314818382263 12.0 2 -0.02300393395125866
-2.5378000736236572 0.27121222019195557 0.2232930064201355 1.0 10 -0.02300162985920906
-2.549474000930786 0.2729104459285736 -0.4061039388179779 11.0 3 -0.022999325767159462
-2.540205955505371 0.2728145718574524 -0.3136917054653168 12.0 4 -0.022994717583060265
-2.5376100540161133 0.2729843854904175 -0.2232930064201355 12.0 5 -0.022990109398961067
-2.4742159843444824 0.2670378088951111 -0.1304212212562561 29.0 6 -0.02298550307750702
-2.524854898452759 0.27339473366737366 -0.04432911425828934 17.0 7 -0.02298089489340782
-9.629831314086914 1.0444340705871582 2.595437526702881 0.0 15 -0.022978590801358223
-2.534839153289795 0.27805760502815247 -0.6832823157310486 10.0 0 -0.022957853972911835
-2.6416983604431152 0.29024603962898254 0.046388499438762665 3.0 8 -0.022955549880862236
-2.52978253364563 0.2783966064453125 -0.5875722169876099 11.0 1 -0.022953245788812637
-3.0374107360839844 0.33479639887809753 0.1601480394601822 2.0 9 -0.02295094169676304
-2.519303560256958 0.2776884138584137 -0.49266883730888367 11.0 2 -0.02294863760471344
-2.4813876152038574 0.2739481031894684 0.21841228008270264 1.0 10 -0.02294633351266384
-2.5112006664276123 0.27768248319625854 -0.40015941858291626 12.0 3 -0.022944029420614243
-25.43233299255371 2.8167386054992676 3.141791820526123 2.0 11 -0.022941727191209793
-2.5116159915924072 0.27861642837524414 -0.31027936935424805 12.0 4 -0.022939423099160194
-2.4950578212738037 0.2772198021411896 -0.21963247656822205 13.0 5 -0.022934814915060997
-2.4514341354370117 0.27323976159095764 -0.1292698234319687 23.0 6 -0.0229302067309618
-9.749393463134766 1.0883992910385132 2.2648074626922607 1.0 14 -0.0229279026389122
-2.4980499744415283 0.27931779623031616 -0.043875351548194885 16.0 7 -0.022925598546862602
-9.633806228637695 1.0789023637771606 2.597507953643799 0.0 15 -0.022923294454813004
-2.4954614639282227 0.2825571596622467 -0.6729295253753662 9.0 0 -0.022902557626366615
-2.598942995071411 0.2947336435317993 0.045655496418476105 6.0 8 -0.022900253534317017
-2.474579334259033 0.2810675799846649 -0.5749749541282654 10.0 1 -0.022897949442267418
-3.0163791179656982 0.34313949942588806 0.15910132229328156 2.0 9 -0.02289564535021782
-2.4890589714050293 0.2831522226333618 -0.4869445562362671 12.0 2 -0.02289334312081337
-2.4408247470855713 0.27809664607048035 0.21492604911327362 1.0 10 -0.02289103902876377
-2.469000816345215 0.2817434072494507 -0.3935891389846802 13.0 3 -0.022888734936714172
-2.459350824356079 0.2815118730068207 -0.30394217371940613 13.0 4 -0.022884126752614975
-2.4584450721740723 0.2818428575992584 -0.2164948731660843 12.0 5 -0.022879518568515778
-2.4345922470092773 0.27996930480003357 -0.12843245267868042 19.0 6 -0.02287491038441658
-9.745534896850586 1.122424602508545 2.2648074626922607 1.0 14 -0.02287260629236698
-2.459315538406372 0.28368279337882996 -0.0432121567428112 17.0 7 -0.022870302200317383
-9.63765811920166 1.1134088039398193 2.599578619003296 0.0 15 -0.022867998108267784
-2.4714341163635254 0.2885771095752716 -0.6667178869247437 10.0 0 -0.022847263142466545
-2.5581753253936768 0.29915860295295715 0.04495739936828613 1.0 8 -0.022844959050416946
-2.446485757827759 0.2865302264690399 -0.5686762928962708 11.0 1 -0.022842654958367348
-2.433950662612915 0.28549274802207947 0.12843245267868042 1.0 9 -0.02284035086631775
-2.4159095287323 0.2833765745162964 -0.47282472252845764 11.0 2 -0.02283804677426815
-2.3923487663269043 0.28103625774383545 0.21074259281158447 1.0 10 -0.02283574268221855
-2.4385745525360107 0.28689801692962646 -0.388896107673645 13.0 3 -0.022833438590168953
-2.430753469467163 0.2868380844593048 -0.300529807806015 12.0 4 -0.022828830406069756
-2.4297454357147217 0.2871491014957428 -0.21405449509620667 12.0 5 -0.022824222221970558
-2.4137661457061768 0.28611496090888977 -0.1273857206106186 19.0 6 -0.02281961403787136
-9.741557121276855 1.1564363241195679 2.2648074626922607 1.0 14 -0.022817309945821762
-2.3987390995025635 0.28518280386924744 -0.042165014892816544 13.0 7 -0.022815005853772163
-9.664405822753906 1.1506984233856201 2.607860803604126 0.0 15 -0.022812701761722565
-2.4128711223602295 0.2902804911136627 -0.6511887311935425 11.0 0 -0.022791966795921326
-2.3665225505828857 0.2851235568523407 0.041606537997722626 9.0 8 -0.022789662703871727
-2.4106459617614746 0.29086586833000183 -0.5605780482292175 12.0 1 -0.02278735861182213
-2.357591390609741 0.28488239645957947 0.12445490807294846 22.0 9 -0.02278505451977253
-2.3876185417175293 0.2885107398033142 -0.4674820601940155 14.0 2 -0.02278275042772293
-2.363661289215088 0.28603440523147583 0.20830221474170685 10.0 10 -0.022780446335673332
-2.4042210578918457 0.2913678288459778 -0.3835773468017578 16.0 3 -0.022778142243623734
-2.3804726600646973 0.2893334627151489 -0.29443636536598206 23.0 4 -0.022773534059524536
-2.3792834281921387 0.2896102964878082 -0.2096967101097107 23.0 5 -0.02276892587542534
-2.3849973678588867 0.29115062952041626 -0.12592032551765442 55.0 6 -0.02276431769132614
-9.73746109008789 1.1904338598251343 2.2648074626922607 1.0 14 -0.022762013599276543
-2.3580315113067627 0.2886941432952881 -0.04146691784262657 51.0 7 -0.022759709507226944
-9.660329818725586 1.1844267845153809 2.607860803604126 0.0 15 -0.022757405415177345
-2.4003400802612305 0.29727667570114136 -0.6480829119682312 32.0 0 -0.022736670449376106
-2.3536062240600586 0.29190531373023987 0.041397109627723694 74.0 8 -0.022734366357326508
-2.4154176712036133 0.30000004172325134 -0.5619277954101562 39.0 1 -0.02273206226527691
-2.3645107746124268 0.29409632086753845 0.12487360835075378 82.0 9 -0.02272975817322731
-2.392441749572754 0.2975703775882721 -0.4686269164085388 51.0 2 -0.02272745408117771
-2.348809003829956 0.29255905747413635 0.20708204805850983 82.0 10 -0.022725149989128113
-2.385547161102295 0.29755842685699463 -0.3807615041732788 52.0 3 -0.022722845897078514
-2.383387804031372 0.29813337326049805 -0.2949238419532776 64.0 4 -0.022718237712979317
-2.3703503608703613 0.29692327976226807 -0.20899945497512817 72.0 5 -0.02271362952888012
-2.389911413192749 0.3002203702926636 -0.12623433768749237 92.0 6 -0.02270902320742607
-2.362961530685425 0.2976733148097992 -0.041571635752916336 96.0 7 -0.022704415023326874
-9.69063663482666 1.222495198249817 2.617178201675415 0.0 15 -0.022702110931277275
-2.414618730545044 0.30760616064071655 -0.652224063873291 31.0 0 -0.022681374102830887
-2.3505892753601074 0.2998661696910858 0.041362203657627106 76.0 8 -0.022679070010781288
-2.4220876693725586 0.3094174265861511 -0.5637273788452148 46.0 1 -0.02267676591873169
-2.3595075607299805 0.3018408715724945 0.12466426193714142 55.0 9 -0.02267446182668209
-2.4089150428771973 0.30816131830215454 -0.47206148505210876 55.0 2 -0.022672157734632492
-2.355678081512451 0.3017694056034088 0.20777928829193115 82.0 10 -0.022669853642582893
-2.408006191253662 0.3088999390602112 -0.3845159709453583 62.0 3 -0.022667549550533295
-2.4039900302886963 0.3092377185821533 -0.2976049780845642 60.0 4 -0.022662941366434097
-2.3692994117736816 0.3051955997943878 -0.20899945497512817 53.0 5 -0.02265833504498005
-2.373002529144287 0.3065146505832672 -0.1253969669342041 61.0 6 -0.022653726860880852
-9.728913307189941 1.258385181427002 2.2648074626922607 1.0 14 -0.022651422768831253
-2.3658742904663086 0.3064329922199249 -0.041641443967819214 62.0 7 -0.022649118676781654
-9.686310768127441 1.2563124895095825 2.617178201675415 0.0 15 -0.022646814584732056
-2.55719256401062 0.3348443806171417 -0.6910468935966492 68.0 0 -0.022626077756285667
-2.8848636150360107 0.3782631754875183 0.05078650265932083 50.0 8 -0.02262377366423607
-2.554311752319336 0.335374116897583 -0.594770610332489 81.0 1 -0.02262146957218647
-3.041614294052124 0.399895578622818 0.1607760637998581 30.0 9 -0.02261916548013687
-2.5674376487731934 0.3375532925128937 -0.5033541321754456 94.0 2 -0.022616863250732422
-2.5498788356781006 0.3361501693725586 -0.407355397939682 82.0 3 -0.022612255066633224
-2.540653944015503 0.3358369469642639 -0.31466665863990784 54.0 4 -0.022607646882534027
-2.6842455863952637 0.3552936613559723 -0.2368893027305603 12.0 5 -0.02260303869843483
-2.3976569175720215 0.31821221113204956 -0.1267576962709427 22.0 6 -0.022598430514335632
-2.9951367378234863 0.3985724151134491 -0.052741169929504395 72.0 7 -0.022593822330236435
-9.681866645812988 1.2901166677474976 2.617178201675415 0.0 15 -0.022591518238186836
-2.5886778831481934 0.3472427427768707 -0.6998467445373535 73.0 0 -0.022569894790649414
-3.034285306930542 0.40755516290664673 0.053439266979694366 47.0 8 -0.022567590698599815
-2.5571084022521973 0.3439166843891144 -0.5956704616546631 72.0 1 -0.022565286606550217
-3.036384344100952 0.40891608595848083 0.16056673228740692 33.0 9 -0.022562982514500618
-2.5546905994415283 0.34404540061950684 -0.5010644793510437 82.0 2 -0.02256067842245102
-3.0012669563293457 0.4047200381755829 0.26495346426963806 2.0 10 -0.02255837433040142
-2.554682970046997 0.34495291113853455 -0.4082939922809601 75.0 3 -0.022556070238351822
-2.5376195907592773 0.3435502052307129 -0.31442293524742126 63.0 4 -0.022551462054252625
-2.762024164199829 0.3749125599861145 -0.24386176466941833 10.0 5 -0.022546853870153427
-2.3887288570404053 0.3246666491031647 -0.12633900344371796 19.0 6 -0.02254224754869938
-9.720353126525879 1.3228824138641357 2.2648074626922607 1.0 14 -0.02253994345664978
-2.9899070262908936 0.40743935108184814 -0.05267136171460152 72.0 7 -0.02253763936460018
-9.689249992370605 1.3220919370651245 2.620284080505371 0.0 15 -0.022535335272550583
-2.5778191089630127 0.3554092049598694 -0.6972585916519165 72.0 0 -0.022514598444104195
-3.0407681465148926 0.4192369282245636 0.05357888713479042 46.0 8 -0.022512294352054596
-2.567474842071533 0.3544396162033081 -0.598369836807251 70.0 1 -0.022509990260004997
-3.0428524017333984 0.4206065535545349 0.16098542511463165 31.0 9 -0.0225076861679554
-2.5534121990203857 0.35340654850006104 -0.5010644793510437 82.0 2 -0.0225053820759058
-2.982001543045044 0.41325607895851135 0.2633846402168274 2.0 10 -0.0225030779838562
-2.572967529296875 0.35702845454216003 -0.4114226996898651 86.0 3 -0.022500773891806602
-2.536404848098755 0.3524061441421509 -0.31442293524742126 66.0 4 -0.022496167570352554
-2.7606985569000244 0.38455161452293396 -0.24386176466941833 9.0 5 -0.022491559386253357
-2.3934569358825684 0.33424893021583557 -0.1266530305147171 18.0 6 -0.02248695120215416
-9.715439796447754 1.358498215675354 2.2648074626922607 1.0 14 -0.02248464711010456
-2.9845058917999268 0.4173198342323303 -0.05260155349969864 65.0 7 -0.022482343018054962
-9.68840217590332 1.3564438819885254 2.62131929397583 0.0 15 -0.022480038926005363
-2.5650858879089355 0.36278215050697327 -0.6941527128219604 72.0 0 -0.022459302097558975
-3.023371458053589 0.42813605070114136 0.05329965054988861 45.0 8 -0.022456998005509377
-3.0472981929779053 0.43206682801246643 0.1612994372844696 30.0 9 -0.02245239168405533
-2.5599381923675537 0.36342135071754456 -0.5025908946990967 78.0 2 -0.02245008759200573
-2.9844861030578613 0.4242236018180847 0.26373329758644104 2.0 10 -0.02244778349995613
-2.5482378005981445 0.36266767978668213 -0.40766826272010803 75.0 3 -0.022445479407906532
-2.558678150177002 0.365064799785614 -0.31734779477119446 71.0 4 -0.022440871223807335
-9.676173210144043 1.380568504333496 1.5480756759643555 0.0 12 -0.022438567131757736
-2.755394697189331 0.3936224579811096 -0.24351313710212708 9.0 5 -0.022436263039708138
-9.832038879394531 1.4063111543655396 1.930605411529541 1.0 13 -0.02243395894765854
-2.4021613597869873 0.3440168499946594 -0.12717638909816742 18.0 6 -0.02243165485560894
-2.998866558074951 0.4300059378147125 -0.05288079380989075 72.0 7 -0.022427046671509743
-9.69125747680664 1.391352891921997 2.623389959335327 0.0 15 -0.022424742579460144
-2.571451187133789 0.3728426694869995 -0.696223258972168 69.0 0 -0.022404007613658905
-3.023914337158203 0.43844667077064514 0.0533345565199852 36.0 8 -0.022401703521609306
-3.0536773204803467 0.44384968280792236 0.16171811521053314 30.0 9 -0.02239709533751011
-2.5586540699005127 0.37235504388809204 -0.5025908946990967 78.0 2 -0.02239479124546051
-2.981015205383301 0.4343515932559967 0.263558954000473 2.0 10 -0.02239248715341091
-2.566568613052368 0.37396425008773804 -0.41079697012901306 86.0 3 -0.022390183061361313
-2.559417963027954 0.3738347589969635 -0.3175915479660034 69.0 4 -0.022385574877262115
-9.769024848937988 1.4286283254623413 1.5637190341949463 0.0 12 -0.022383270785212517
-2.7540037631988525 0.4032388925552368 -0.24351313710212708 9.0 5 -0.022380966693162918
-9.82732105255127 1.4389079809188843 1.930605411529541 1.0 13 -0.02237866260111332
-2.3851981163024902 0.34966331720352173 -0.12633900344371796 17.0 6 -0.02237635850906372
-3.0013039112091064 0.441053569316864 -0.052950602024793625 72.0 7 -0.022371750324964523
-9.74367904663086 1.4336073398590088 2.638918876647949 0.0 15 -0.022369446232914925
-2.5816662311553955 0.38306924700737 -0.6993290781974792 72.0 0 -0.022348711267113686
-3.0203871726989746 0.44870564341545105 0.05329965054988861 35.0 8 -0.022346407175064087
-3.0521092414855957 0.45450714230537415 0.16171811521053314 28.0 9 -0.02234179899096489
-2.567047595977783 0.38273176550865173 -0.5044990181922913 71.0 2 -0.02233949489891529
-2.9854705333709717 0.44511616230010986 0.2640818953514099 3.0 10 -0.022337190806865692
-2.5496177673339844 0.38058730959892273 -0.4082939922809601 77.0 3 -0.022334886714816093
-2.554171085357666 0.38217902183532715 -0.3171040713787079 71.0 4 -0.022330278530716896
-9.810864448547363 1.469741702079773 1.57122802734375 0.0 12 -0.022327974438667297
-2.76046085357666 0.4140312373638153 -0.2442103773355484 9.0 5 -0.0223256703466177
-2.387850761413574 0.3589976727962494 -0.12654836475849152 15.0 6 -0.0223210621625185
-3.0076558589935303 0.4527173340320587 -0.05309021845459938 72.0 7 -0.022316453978419304
-9.738615989685059 1.4676107168197632 2.638918876647949 0.0 15 -0.022314149886369705
-2.5821549892425537 0.3928188979625702 -0.6998467445373535 41.0 0 -0.022293414920568466
-3.0206995010375977 0.4600733518600464 0.0533345565199852 32.0 8 -0.022291110828518867
-3.0504231452941895 0.46568992733955383 0.16171811521053314 28.0 9 -0.02228650264441967
-2.9798800945281982 0.455453485250473 0.26373329758644104 2.0 10 -0.022281894460320473
-2.5521106719970703 0.39052778482437134 -0.40891972184181213 79.0 3 -0.022279590368270874
-2.554715156555176 0.391838937997818 -0.31734779477119446 69.0 4 -0.022274982184171677
-2.754986524581909 0.4235406219959259 -0.24386176466941833 9.0 5 -0.02227037400007248
-2.3963887691497803 0.3692674934864044 -0.12707172334194183 18.0 6 -0.02226576767861843
-3.003999948501587 0.46343305706977844 -0.05305531620979309 74.0 7 -0.022261159494519234
-9.733171463012695 1.503294825553894 2.638918876647949 0.0 15 -0.022258855402469635
-3.022944211959839 0.4717583656311035 0.05340436473488808 30.0 8 -0.022235814481973648
-2.4702656269073486 0.38594940304756165 -0.5772244930267334 1.0 1 -0.02223351038992405
-3.0527255535125732 0.4769517481327057 0.1619274616241455 27.0 9 -0.02223120629787445
-2.539027452468872 0.39714714884757996 -0.49953794479370117 1.0 2 -0.022228902205824852
-2.9939377307891846 0.4688374698162079 0.2651277482509613 2.0 10 -0.022226598113775253
-2.560420036315918 0.4014083445072174 -0.41048407554626465 71.0 3 -0.022224294021725655
-2.5533316135406494 0.40075424313545227 -0.31734779477119446 69.0 4 -0.022219687700271606
-2.7416818141937256 0.43129706382751465 -0.24281588196754456 9.0 5 -0.02221507951617241
-2.3970580101013184 0.3779413402080536 -0.12717638909816742 19.0 6 -0.02221047133207321
-2.9944629669189453 0.4726690948009491 -0.05291569605469704 69.0 7 -0.022205863147974014
-9.727864265441895 1.5372610092163086 2.638918876647949 0.0 15 -0.022203559055924416
-2.4324488639831543 0.3874385356903076 -0.6599885821342468 1.0 0 -0.022182822227478027
-3.0213634967803955 0.48178038001060486 0.05340436473488808 29.0 8 -0.02218051813542843
-2.4997620582580566 0.39905425906181335 -0.5844228863716125 1.0 1 -0.02217821404337883
-3.060988187789917 0.48864665627479553 0.16245082020759583 25.0 9 -0.02217590995132923
-2.9746601581573486 0.4759303629398346 0.263558954000473 2.0 10 -0.022171303629875183
-2.559828996658325 0.41047653555870056 -0.3183227777481079 67.0 4 -0.022164391353726387
-2.744171142578125 0.4410182237625122 -0.243164524435997 9.0 5 -0.02215978316962719
-2.4036788940429688 0.38715869188308716 -0.12759508192539215 17.0 6 -0.022155174985527992
-3.0007760524749756 0.4838692247867584 -0.05305531620979309 69.0 7 -0.022150566801428795
-9.722713470458984 1.5695117712020874 2.638918876647949 0.0 15 -0.022148262709379196
-2.473099946975708 0.4023265838623047 -0.671376645565033 1.0 0 -0.022127525880932808
-3.009880781173706 0.49018988013267517 0.05322984233498573 27.0 8 -0.02212522365152836
-2.4099512100219727 0.3929169476032257 -0.5637273788452148 2.0 1 -0.02212291955947876
-3.0651776790618896 0.5002938508987427 0.16276483237743378 28.0 9 -0.02212061546742916
-2.9927287101745605 0.48900580406188965 0.26530206203460693 2.0 10 -0.022116007283329964
-2.491419792175293 0.4075387418270111 -0.39984655380249023 1.0 3 -0.022113703191280365
-2.566216230392456 0.42069411277770996 -0.3192977011203766 69.0 4 -0.022109095007181168
-2.738682746887207 0.44994914531707764 -0.24281588196754456 9.0 5 -0.02210448682308197
-2.3964693546295166 0.3941550850868225 -0.127281054854393 18.0 6 -0.022099878638982773
-3.0049877166748047 0.49531739950180054 -0.05316003039479256 65.0 7 -0.022095270454883575
-2.460174798965454 0.4094851315021515 -0.6682707667350769 1.0 0 -0.022072231397032738
-3.019986391067505 0.5026633143424988 0.053439266979694366 25.0 8 -0.02206992730498314
-3.065382480621338 0.5113196969032288 0.16286951303482056 25.0 9 -0.02206531912088394
-2.4108707904815674 0.4025760591030121 -0.4751144051551819 1.0 2 -0.022063015028834343
-2.977160692214966 0.49767133593559265 0.2640818953514099 2.0 10 -0.022060710936784744
-2.4821157455444336 0.41536399722099304 -0.39859506487846375 1.0 3 -0.022058406844735146
-2.560816526412964 0.4289928376674652 -0.31881022453308105 69.0 4 -0.022053798660635948
-2.742990016937256 0.46049588918685913 -0.24333882331848145 9.0 5 -0.02204919047653675
-2.3851609230041504 0.4012792110443115 -0.1267576962709427 15.0 6 -0.022044582292437553
-3.0052125453948975 0.5061359405517578 -0.053194932639598846 63.0 7 -0.022039974108338356
-2.4358763694763184 0.4141843616962433 -0.6620591282844543 1.0 0 -0.02201693505048752
-3.0200953483581543 0.5140636563301086 0.053474172949790955 23.0 8 -0.02201463095843792
-2.464709520339966 0.41997218132019043 -0.5772244930267334 1.0 1 -0.02201232686638832
-3.061519145965576 0.522214949131012 0.16276483237743378 23.0 9 -0.022010022774338722
-2.995044708251953 0.5114148259162903 0.2658250033855438 2.0 10 -0.022005414590239525
-2.496227979660034 0.4266878068447113 -0.40109801292419434 1.0 3 -0.022003110498189926
-2.5514004230499268 0.43703582882881165 -0.31783527135849 66.0 4 -0.02199850231409073
-2.733511209487915 0.4687204658985138 -0.24264158308506012 8.0 5 -0.02199389412999153
-2.393587589263916 0.41129374504089355 -0.127281054854393 15.0 6 -0.021989285945892334
-3.005308151245117 0.5174859166145325 -0.05322984233498573 67.0 7 -0.021984679624438286
-3.0301034450531006 0.5266579985618591 0.053683605045080185 22.0 8 -0.0219593346118927
-2.3557143211364746 0.40986692905426025 -0.5520299673080444 2.0 1 -0.0219570305198431
-3.063612937927246 0.5335832238197327 0.16297417879104614 22.0 9 -0.021954726427793503
-2.408001661300659 0.4193967282772064 -0.4751144051551819 1.0 2 -0.021952422335743904
-2.993241310119629 0.521865725517273 0.2658250033855438 2.0 10 -0.021950118243694305
-2.4207770824432373 0.42249301075935364 -0.38920900225639343 1.0 3 -0.021947814151644707
-25.988243103027344 4.540346145629883 3.2392873764038086 3.0 11 -0.021945510059595108
-2.569413661956787 0.4493584930896759 -0.32027265429496765 64.0 4 -0.02194320596754551
-2.727933406829834 0.4775722920894623 -0.24229297041893005 8.0 5 -0.02193859964609146
-2.4019734859466553 0.4213714599609375 -0.12780441343784332 18.0 6 -0.021933991461992264
-2.993635654449463 0.5262429714202881 -0.05305531620979309 58.0 7 -0.021929383277893066
-3.0223398208618164 0.5361839532852173 0.05357888713479042 20.0 8 -0.02190403826534748
-2.388805866241455 0.4242207407951355 -0.5601281523704529 1.0 1 -0.021901734173297882
-3.0637929439544678 0.5440896153450012 0.16307885944843292 22.0 9 -0.021899430081248283
-2.9698243141174316 0.5284714102745056 0.2639075815677643 2.0 10 -0.021894821897149086
-2.5679094791412354 0.457876592874527 -0.32027265429496765 61.0 4 -0.02188791148364544
-2.7184040546417236 0.4856899380683899 -0.24159571528434753 8.0 5 -0.021883303299546242
-2.4083518981933594 0.4311612546443939 -0.12822310626506805 18.0 6 -0.021878695115447044
-2.9958109855651855 0.5368722081184387 -0.05312512442469597 56.0 7 -0.021874086931347847
-2.3972628116607666 0.4330631494522095 -0.6527416706085205 1.0 0 -0.02185104601085186
-3.0166096687316895 0.5454919934272766 0.05350907891988754 15.0 8 -0.02184874191880226
-2.4103970527648926 0.43630531430244446 -0.5655270218849182 1.0 1 -0.021846439689397812
-3.073763847351074 0.5563811659812927 0.16370689868927002 21.0 9 -0.021844135597348213
-2.4050910472869873 0.43577781319618225 -0.4751144051551819 1.0 2 -0.021841831505298615
-2.983738660812378 0.5411613583564758 0.26530206203460693 3.0 10 -0.021839527413249016
-2.5780956745147705 0.46851933002471924 -0.32173508405685425 61.0 4 -0.02183261513710022
-3.595442056655884 0.6540507078170776 0.5788075923919678 1.0 12 -0.02183031104505062
-2.7285397052764893 0.496843546628952 -0.24264158308506012 8.0 5 -0.021828006953001022
-2.399049758911133 0.4377114474773407 -0.12780441343784332 18.0 6 -0.021823398768901825
-3.617553949356079 0.660029947757721 0.8489653468132019 1.0 14 -0.021821094676852226
-2.999915599822998 0.5478816628456116 -0.05322984233498573 47.0 7 -0.021818790584802628
-3.5232625007629395 0.644097089767456 0.9597010612487793 1.0 15 -0.02181648649275303
-2.395813465118408 0.4410104751586914 -0.6527416706085205 1.0 0 -0.02179575152695179
-3.020683526992798 0.5565795302391052 0.05361378937959671 14.0 8 -0.02179344743490219
-2.458763837814331 0.45348605513572693 -0.5772244930267334 1.0 1 -0.021791143342852592
-3.0678749084472656 0.5663813352584839 0.16349753737449646 22.0 9 -0.021788839250802994
-2.403632879257202 0.4437510669231415 -0.4751144051551819 1.0 2 -0.021786535158753395
-3.00347900390625 0.5550355911254883 0.26721951365470886 3.0 10 -0.021784231066703796
-3.495879888534546 0.6472911834716797 0.43653604388237 2.0 11 -0.0217796228826046
-2.5647332668304443 0.4753451943397522 -0.32027265429496765 63.0 4 -0.021777318790555
-3.5115628242492676 0.6514636278152466 0.5656670928001404 1.0 12 -0.0217750146985054
-2.7170822620391846 0.5040719509124756 -0.24177002906799316 7.0 5 -0.021772710606455803
-3.5342965126037598 0.6563183665275574 0.6987425684928894 2.0 13 -0.021770406514406204
-2.4015121459960938 0.4463946521282196 -0.1280137598514557 20.0 6 -0.021768102422356606
-3.4964444637298584 0.6505526900291443 0.8210713863372803 1.0 14 -0.021765798330307007
-3.5020010471343994 0.6528513431549072 0.9545246958732605 3.0 15 -0.02176119014620781
-2.4246387481689453 0.4550726115703583 -0.6610238552093506 1.0 0 -0.02174045518040657
-3.0167572498321533 0.5667511820793152 0.05357888713479042 12.0 8 -0.021738151088356972
-3.0658791065216064 0.577086865901947 0.16349753737449646 21.0 9 -0.021733542904257774
-2.421363115310669 0.4557703733444214 -0.47893062233924866 1.0 2 -0.021731238812208176
-3.009355068206787 0.566991925239563 0.267916738986969 4.0 10 -0.021728934720158577
-3.5404140949249268 0.6683284044265747 0.442385733127594 2.0 11 -0.02172432653605938
-2.5669596195220947 0.48503217101097107 -0.32076016068458557 58.0 4 -0.02172202244400978
-3.4277470111846924 0.6482983827590942 0.552526593208313 2.0 12 -0.021719718351960182
-2.7270522117614746 0.5157741904258728 -0.24281588196754456 8.0 5 -0.021717414259910583
-3.310149669647217 0.6266561150550842 0.6548565030097961 2.0 13 -0.021715110167860985
-2.4117133617401123 0.45700597763061523 -0.12864179909229279 20.0 6 -0.021712806075811386
-3.2912044525146484 0.6242586970329285 0.773381769657135 1.0 14 -0.021710501983761787
-3.0612893104553223 0.5817574262619019 0.8349502682685852 9.0 15 -0.02170589566230774
-2.4306249618530273 0.4649859666824341 -0.6630944013595581 1.0 0 -0.02168515883386135
-3.0167245864868164 0.5776535868644714 0.05361378937959671 11.0 8 -0.021682854741811752
-2.455538034439087 0.47063982486724854 -0.5772244930267334 1.0 1 -0.021680550649762154
-3.0716919898986816 0.5892912745475769 0.1639162302017212 19.0 9 -0.021678246557712555
-2.4003958702087402 0.4609397053718567 -0.4751144051551819 1.0 2 -0.021675942465662956
-3.007357597351074 0.5774924755096436 0.267916738986969 6.0 10 -0.021673638373613358
-3.078014612197876 0.5921752452850342 0.3848634362220764 3.0 11 -0.02166903018951416
-2.561352252960205 0.493238240480423 -0.32027265429496765 50.0 4 -0.02166672609746456
-3.062744379043579 0.5903453826904297 0.49402010440826416 20.0 12 -0.021664422005414963
-2.7134058475494385 0.5235020518302917 -0.24177002906799316 8.0 5 -0.021662117913365364
-3.0630202293395996 0.5915074944496155 0.6063910126686096 22.0 13 -0.021659815683960915
-2.410022258758545 0.4658423066139221 -0.12864179909229279 21.0 6 -0.021657511591911316
-3.049839735031128 0.5895150303840637 0.7171440124511719 31.0 14 -0.021655207499861717
-3.021307945251465 0.5850933194160461 0.8245974779129028 32.0 15 -0.02165059931576252
-3.0067365169525146 0.5871742963790894 0.053474172949790955 10.0 8 -0.021627558395266533
-3.0734317302703857 0.6013119220733643 0.16412557661533356 18.0 9 -0.021622950211167336
-2.3986902236938477 0.46973511576652527 -0.4751144051551819 1.0 2 -0.021620646119117737
-3.063878297805786 0.5999987721443176 0.2731460928916931 33.0 10 -0.021618342027068138
-3.0660839080810547 0.60154128074646 0.3836447298526764 36.0 11 -0.02161373570561409
-2.567318916320801 0.5041534900665283 -0.3212476074695587 49.0 4 -0.02161143161356449
-3.062498092651367 0.6019479632377625 0.4943329691886902 51.0 12 -0.021609127521514893
-2.7036490440368652 0.5319045782089233 -0.24107277393341064 8.0 5 -0.021606823429465294
-3.0454213619232178 0.5996963381767273 0.6033380627632141 47.0 13 -0.021604519337415695
-2.4259345531463623 0.47814780473709106 -0.12958383560180664 26.0 6 -0.021602215245366096
-3.057218551635742 0.6025728583335876 0.7193935513496399 43.0 14 -0.021599911153316498
-2.7407495975494385 0.5406942963600159 -0.04876202344894409 1.0 7 -0.0215976070612669
-3.0172479152679443 0.5957896113395691 0.8240798711776733 38.0 15 -0.0215953029692173
-2.389256715774536 0.47525250911712646 -0.6527416706085205 1.0 0 -0.021574566140770912
-2.998680591583252 0.5970185399055481 0.05336945876479149 10.0 8 -0.021572262048721313
-3.0829596519470215 0.6149167418479919 0.16475361585617065 19.0 9 -0.021567653864622116
-2.4663479328155518 0.49192944169044495 -0.4888526499271393 1.0 2 -0.021565351635217667
-3.049935817718506 0.6088833808898926 0.2721002399921417 28.0 10 -0.021563047543168068
-3.0658047199249268 0.6131643056869507 0.38388845324516296 53.0 11 -0.02155843935906887
-2.5771329402923584 0.5158971548080444 -0.3227100670337677 46.0 4 -0.021556135267019272
-3.054460287094116 0.6120049953460693 0.4933943450450897 32.0 12 -0.021553831174969673
-2.6939616203308105 0.5397738814353943 -0.24037553369998932 7.0 5 -0.021551527082920074
-3.0259852409362793 0.6068481802940369 0.5999035239219666 35.0 13 -0.021549222990870476
-2.400752305984497 0.481896311044693 -0.12832777202129364 22.0 6 -0.021546918898820877
-3.0377938747406006 0.6103201508522034 0.7153443694114685 27.0 14 -0.02154461480677128
-2.695619583129883 0.5420630574226379 -0.04799411818385124 18.0 7 -0.02154231071472168
-2.9998929500579834 0.6037942171096802 0.8199387788772583 31.0 15 -0.02154000662267208
-2.3875832557678223 0.483589768409729 -0.6527416706085205 1.0 0 -0.021519271656870842
-3.0122568607330322 0.61066073179245 0.0536486990749836 9.0 8 -0.021516967564821243
-3.080794334411621 0.6256746053695679 0.16475361585617065 19.0 9 -0.021512359380722046
-2.4338321685791016 0.4942839443683624 -0.48274680972099304 1.0 2 -0.021510055288672447
-3.0477917194366455 0.6195260286331177 0.2721002399921417 28.0 10 -0.02150775119662285
-3.028632879257202 0.6167324781417847 0.3795011639595032 41.0 11 -0.02150314301252365
-2.567535877227783 0.5233041644096375 -0.32173508405685425 46.0 4 -0.021500838920474052
-3.038757085800171 0.6198988556861877 0.49120426177978516 43.0 12 -0.021498534828424454
-2.7037742137908936 0.5515631437301636 -0.2414214164018631 7.0 5 -0.021496230736374855
-3.027695894241333 0.6181927919387817 0.6006667613983154 42.0 13 -0.021493926644325256
-2.41471004486084 0.4934733808040619 -0.1291651576757431 26.0 6 -0.021491622552275658
-3.02609920501709 0.6189671158790588 0.7130948901176453 36.0 14 -0.02148931846022606
-2.705465316772461 0.5538756847381592 -0.048203546553850174 7.0 7 -0.02148701436817646
-3.0147995948791504 0.6177530288696289 0.8245974779129028 35.0 15 -0.02148471027612686
-3.0101070404052734 0.6211711168289185 0.0536486990749836 9.0 8 -0.021461671218276024
-2.3874804973602295 0.4931198060512543 -0.5628275871276855 1.0 1 -0.021459367126226425
-3.082503080368042 0.6372334957122803 0.16496294736862183 20.0 9 -0.021457063034176826
-3.055366039276123 0.6321796178817749 0.2729717791080475 38.0 10 -0.02145245485007763
-3.0381243228912354 0.6297180652618408 0.38096359372138977 40.0 11 -0.02144784666597843
-2.5695807933807373 0.5330698490142822 -0.3222225606441498 45.0 4 -0.021445542573928833
-3.0578501224517822 0.6349199414253235 0.4946458339691162 36.0 12 -0.021443238481879234
-2.7057340145111084 0.5618079900741577 -0.24177002906799316 7.0 5 -0.021440934389829636
-3.0601189136505127 0.635948121547699 0.6075358986854553 42.0 13 -0.021438630297780037
-2.411017417907715 0.5014926195144653 -0.12906047701835632 24.0 6 -0.021436326205730438
-3.054445505142212 0.6358813643455505 0.7202933430671692 36.0 14 -0.02143402211368084
-3.059903860092163 0.6381328701972961 0.8375384211540222 37.0 15 -0.021429413929581642
-3.0118343830108643 0.6324973106384277 0.053718507289886475 9.0 8 -0.021406374871730804
-3.0802602767944336 0.6479889154434204 0.16496294736862183 20.0 9 -0.021401766687631607
-3.0784859657287598 0.6481775641441345 0.2752378284931183 29.0 10 -0.02139715850353241
-3.1019482612609863 0.6542474627494812 0.3892507255077362 53.0 11 -0.021392550319433212
-2.5754737854003906 0.5436763167381287 -0.32319754362106323 44.0 4 -0.021390246227383614
-3.0846059322357178 0.6517151594161987 0.49933886528015137 43.0 12 -0.021387942135334015
-2.70375657081604 0.5712493658065796 -0.24177002906799316 6.0 5 -0.021385638043284416
-3.102058172225952 0.6559688448905945 0.616313099861145 48.0 13 -0.021383333951234818
-2.4053444862365723 0.5090780258178711 -0.12885113060474396 25.0 6 -0.021381031721830368
-3.099868059158325 0.6566354036331177 0.731540858745575 46.0 14 -0.02137872762978077
-3.0538785457611084 0.6480074524879456 0.8365032076835632 40.0 15 -0.021374119445681572
-3.005697011947632 0.6421712040901184 0.0536486990749836 9.0 8 -0.021351078525185585
-3.0896973609924316 0.6612457633018494 0.16559097170829773 19.0 9 -0.021346470341086388
-3.091790199279785 0.662257969379425 0.2766323387622833 36.0 10 -0.02134186215698719
-3.1074087619781494 0.6667379140853882 0.39022567868232727 52.0 11 -0.021337253972887993
-2.585204839706421 0.5551638007164001 -0.32465994358062744 43.0 4 -0.021334949880838394
-3.099693775177002 0.6662136316299438 0.5021546483039856 47.0 12 -0.021332647651433945
-2.6764233112335205 0.5752406120300293 -0.23950397968292236 7.0 5 -0.021330343559384346
-3.0959107875823975 0.6659665703773499 0.6155498623847961 41.0 13 -0.021328039467334747
-2.4133152961730957 0.5195730328559875 -0.12937450408935547 23.0 6 -0.02132573537528515
-3.0880322456359863 0.665398895740509 0.7292913794517517 40.0 14 -0.02132343128323555
-3.0553746223449707 0.6594787836074829 0.8375384211540222 40.0 15 -0.021318823099136353
-3.001483201980591 0.652233898639679 0.05361378937959671 8.0 8 -0.021295782178640366
-3.0951766967773438 0.6737260818481445 0.16600966453552246 21.0 9 -0.021291173994541168
-3.0972466468811035 0.6747420430183411 0.27732956409454346 36.0 10 -0.02128656581044197
-3.1031229496002197 0.6771575808525085 0.3899819254875183 55.0 11 -0.021281959488987923
-2.587130308151245 0.5650310516357422 -0.32514744997024536 41.0 4 -0.021279655396938324
-3.093489408493042 0.6761866807937622 0.5015289187431335 41.0 12 -0.021277351304888725
-2.6919164657592773 0.5884093642234802 -0.24107277393341064 6.0 5 -0.021275047212839127
-3.083977699279785 0.674671471118927 0.6136417388916016 41.0 13 -0.021272743120789528
-2.411486864089966 0.527993381023407 -0.12937450408935547 23.0 6 -0.02127043902873993
-3.07997989654541 0.6749234795570374 0.727941632270813 38.0 14 -0.02126813493669033
-3.0304107666015625 0.6651699542999268 0.8313267827033997 38.0 15 -0.021263526752591133
-2.2657690048217773 0.4994051456451416 -0.6216834187507629 1.0 0 -0.02126288414001465
-3.0150411128997803 0.6651071310043335 0.05389302968978882 8.0 8 -0.02126058004796505
-3.0852441787719727 0.6817222237586975 0.16559097170829773 21.0 9 -0.021255971863865852
-3.0912208557128906 0.6836094856262207 0.2769809365272522 34.0 10 -0.021251363679766655
-3.0583419799804688 0.6774575114250183 0.38461968302726746 46.0 11 -0.021246755495667458
-2.565962314605713 0.5688602328300476 -0.3227100670337677 39.0 4 -0.02124445140361786
-3.0739939212799072 0.6820502877235413 0.4987131357192993 37.0 12 -0.02124214731156826
-2.6821706295013428 0.595604658126831 -0.24037553369998932 7.0 5 -0.02123984321951866
-3.0492613315582275 0.677121102809906 0.6071542501449585 36.0 13 -0.021237540990114212
-2.405916690826416 0.5347007513046265 -0.1291651576757431 23.0 6 -0.021235236898064613
-3.0436036586761475 0.6769803762435913 0.7198433876037598 35.0 14 -0.021232932806015015
-3.0339627265930176 0.6759474277496338 0.8328797221183777 41.0 15 -0.021228324621915817
-2.271463394165039 0.5093972682952881 -0.6237539052963257 3.0 0 -0.02120758779346943
-3.016603946685791 0.6765020489692688 0.053962841629981995 8.0 8 -0.02120528370141983
-3.0808968544006348 0.6920499801635742 0.16548630595207214 22.0 9 -0.021200675517320633
-3.0770316123962402 0.6923099756240845 0.2759350836277008 36.0 10 -0.021196067333221436
-3.065641403198242 0.6903101801872253 0.3858383595943451 48.0 11 -0.021191461011767387
-2.571706771850586 0.5795586705207825 -0.3236849904060364 37.0 4 -0.02118915691971779
-3.0638864040374756 0.6910379528999329 0.4974616467952728 37.0 12 -0.02118685282766819
-2.682018756866455 0.6054030060768127 -0.24054984748363495 5.0 5 -0.02118454873561859
-3.060163974761963 0.6913217306137085 0.6098255515098572 41.0 13 -0.021182244643568993
-2.409785509109497 0.5448361039161682 -0.12947916984558105 20.0 6 -0.021179940551519394
-3.0525062084198 0.6907116770744324 0.7225428223609924 40.0 14 -0.021177636459469795
-3.0372374057769775 0.687813937664032 0.8344326615333557 43.0 15 -0.021173028275370598
-2.2696714401245117 0.5173230767250061 -0.6237539052963257 1.0 0 -0.02115229144692421
-3.025801658630371 0.6902223229408264 0.054172269999980927 8.0 8 -0.02114998735487461
-3.084181070327759 0.7046720385551453 0.1658003330230713 25.0 9 -0.021145381033420563
-3.076538562774658 0.7034908533096313 0.27610939741134644 37.0 10 -0.021140772849321365
-2.588003396987915 0.5922561883926392 -0.4204958975315094 1.0 3 -0.021138468757271767
-3.0611557960510254 0.7010977864265442 0.38559460639953613 46.0 11 -0.021136164665222168
-2.573435068130493 0.5898676514625549 -0.3241724669933319 37.0 4 -0.02113386057317257
-3.0574820041656494 0.7013804316520691 0.4968359172344208 40.0 12 -0.02113155648112297
-2.6701793670654297 0.6125339865684509 -0.239678293466568 5.0 5 -0.021129252389073372
-3.0672996044158936 0.7041953802108765 0.6117336750030518 42.0 13 -0.021126948297023773
-2.4098150730133057 0.5536923408508301 -0.12958383560180664 8.0 6 -0.021124644204974174
-3.059572458267212 0.703546404838562 0.7247923612594604 53.0 14 -0.021122340112924576
-2.6249759197235107 0.6040929555892944 -0.04701678454875946 1.0 7 -0.021120036020874977
-3.027165651321411 0.6972070336341858 0.8323620557785034 53.0 15 -0.02111773192882538
-3.0272700786590576 0.7016833424568176 0.054242078214883804 8.0 8 -0.02109469287097454
-3.0914299488067627 0.717691957950592 0.1663236916065216 28.0 9 -0.021090084686875343
-3.066301107406616 0.7124229073524475 0.2754121422767639 41.0 10 -0.021085476502776146
-2.5801479816436768 0.5999442934989929 -0.4195573031902313 18.0 3 -0.021083172410726547
-3.0760910511016846 0.7158284187316895 0.3877882957458496 53.0 11 -0.02108086831867695
-2.5790939331054688 0.6006487607955933 -0.32514744997024536 39.0 4 -0.02107856422662735
-3.0530917644500732 0.7115998268127441 0.49652308225631714 47.0 12 -0.02107626013457775
-2.668025255203247 0.6218503713607788 -0.239678293466568 5.0 5 -0.021073956042528152
-3.0571751594543457 0.7131141424179077 0.610207200050354 46.0 13 -0.021071651950478554
-2.437041997909546 0.5689114928245544 -0.1311539113521576 23.0 6 -0.021069347858428955
-3.0495076179504395 0.712448000907898 0.7229927778244019 52.0 14 -0.021067043766379356
-3.0247135162353516 0.7077696323394775 0.8323620557785034 53.0 15 -0.02106243558228016
-2.2283947467803955 0.5243062376976013 -0.6134011745452881 1.0 0 -0.02104170061647892
-3.0170164108276367 0.7104129791259766 0.05410246178507805 8.0 8 -0.02103939652442932
-3.096681833267212 0.7303118109703064 0.16674236953258514 28.0 9 -0.021034788340330124
-3.0715525150299072 0.724951982498169 0.27610939741134644 38.0 10 -0.021030180156230927
-2.5914952754974365 0.612125813961029 -0.4217473566532135 33.0 3 -0.021027876064181328
-3.067777633666992 0.7251923680305481 0.3870570659637451 56.0 11 -0.02102557197213173
-2.596299409866333 0.6142174005508423 -0.327584832906723 34.0 4 -0.02102326788008213
-3.0678889751434326 0.7263487577438354 0.49933886528015137 48.0 12 -0.021020963788032532
-2.747267246246338 0.6504388451576233 -0.2469993680715561 1.0 5 -0.021018659695982933
-3.0432050228118896 0.7210662364959717 0.6079174876213074 46.0 13 -0.021016355603933334
-2.431154727935791 0.5764927268028259 -0.13094457983970642 30.0 6 -0.021014051511883736
-3.0697550773620605 0.7284880876541138 0.7283915877342224 52.0 14 -0.021011747419834137
-3.0222244262695312 0.7183229327201843 0.8323620557785034 55.0 15 -0.02100713923573494
-2.226550817489624 0.532082200050354 -0.6134011745452881 3.0 0 -0.0209864042699337
-3.0184078216552734 0.7218703031539917 0.054172269999980927 7.0 8 -0.020984100177884102
-3.0863442420959473 0.7392566800117493 0.1663236916065216 29.0 9 -0.020979491993784904
-3.069002866744995 0.7356694340705872 0.27610939741134644 38.0 10 -0.020974883809685707
-2.585501194000244 0.6202458739280701 -0.42112162709236145 11.0 3 -0.02097257971763611
-3.0613670349121094 0.7349690794944763 0.3865695893764496 58.0 11 -0.02097027562558651
-2.594139575958252 0.6232764720916748 -0.327584832906723 9.0 4 -0.02096797153353691
-3.0787792205810547 0.7402859926223755 0.5015289187431335 47.0 12 -0.020965667441487312
-2.6694300174713135 0.6418588161468506 -0.2402012199163437 3.0 5 -0.020963363349437714
-3.0521223545074463 0.7344398498535156 0.610207200050354 46.0 13 -0.020961059257388115
