# .PCD v0.7 - Point Cloud Data file format
VERSION 0.7
FIELDS x y z intensity ring time
SIZE 4 4 4 4 4 4
TYPE F F F F F F
COUNT 1 1 1 1 1 1
WIDTH 547
HEIGHT 1
VIEWPOINT 0 0 0 1 0 0 0
POINTS 547
DATA ascii
1.0324727296829224 6.900214672088623 1.105053186416626 74.0 12 -0.019029200077056885
0.2798004448413849 1.8699604272842407 -0.16542160511016846 29.0 5 -0.019026895985007286
1.0325690507888794 6.89263916015625 1.3547439575195312 100.0 13 -0.019024591892957687
0.47162705659866333 3.1444647312164307 -0.16663770377635956 46.0 6 -0.01902228780090809
1.0322461128234863 6.87408447265625 1.6048009395599365 100.0 14 -0.01901998370885849
0.4747861921787262 3.158022880554199 -0.055742986500263214 1.0 7 -0.01901767961680889
1.03401780128479 6.869554042816162 1.8614267110824585 47.0 15 -0.019015375524759293
0.284372478723526 1.8736897706985474 -0.5078030228614807 72.0 0 -0.018994638696312904
0.28658586740493774 1.8860605955123901 0.033299192786216736 1.0 8 -0.018992334604263306
0.2851735055446625 1.8745567798614502 -0.4377547800540924 75.0 1 -0.018990030512213707
1.0534522533416748 6.916634559631348 0.3666657507419586 45.0 9 -0.01898772642016411
0.28348854184150696 1.8612960577011108 -0.3659716844558716 80.0 2 -0.01898542419075966
1.052985668182373 6.905496597290039 0.6111360788345337 100.0 10 -0.01898312009871006
0.28738322854042053 1.8824529647827148 -0.3016056716442108 48.0 3 -0.01898081600666046
1.0539332628250122 6.895536422729492 0.8564978241920471 86.0 11 -0.018978511914610863
0.28645429015159607 1.871988296508789 -0.2325267344713211 77.0 4 -0.018976207822561264
1.0535629987716675 6.877042293548584 1.1019244194030762 70.0 12 -0.018973903730511665
0.28572317957878113 1.865033507347107 -0.1650729775428772 30.0 5 -0.018971599638462067
1.0557314157485962 6.883171081542969 1.3535990715026855 100.0 13 -0.018969295546412468
0.4844185709953308 3.1546437740325928 -0.16726572811603546 43.0 6 -0.01896699145436287
1.058306336402893 6.883922576904297 1.607950210571289 100.0 14 -0.01896468736231327
0.4882413148880005 3.1721575260162354 -0.056022223085165024 1.0 7 -0.018962383270263672
1.0574007034301758 6.862083435058594 1.86039137840271 47.0 15 -0.018960079178214073
0.2909107506275177 1.8726856708526611 -0.5078030228614807 72.0 0 -0.018939344212412834
0.2894805073738098 1.8613371849060059 0.032880332320928574 1.0 8 -0.018937040120363235
0.2929149270057678 1.8812520503997803 -0.4395543932914734 74.0 1 -0.018934736028313637
1.078818440437317 6.920809268951416 0.36708444356918335 45.0 9 -0.018932431936264038
0.29119306802749634 1.8680546283721924 -0.36749815940856934 83.0 2 -0.01893012784421444
1.077700138092041 6.905716419219971 0.6114846467971802 100.0 10 -0.01892782375216484
0.29212337732315063 1.8697282075881958 -0.29972848296165466 48.0 3 -0.018925519660115242
1.0798360109329224 6.903584003448486 0.8579602837562561 84.0 11 -0.018923215568065643
0.29421505331993103 1.878821611404419 -0.23350168764591217 79.0 4 -0.018920911476016045
1.0821532011032104 6.902595520019531 1.1066175699234009 73.0 12 -0.018918607383966446
0.2928493022918701 1.8679612874984741 -0.16542160511016846 29.0 5 -0.018916303291916847
1.0803592205047607 6.8833231925964355 1.3543623685836792 100.0 13 -0.01891399919986725
0.4960467219352722 3.1568799018859863 -0.16747507452964783 46.0 6 -0.01891169510781765
1.0835423469543457 6.8878865242004395 1.6097497940063477 100.0 14 -0.01890939101576805
0.4949551820755005 3.1427791118621826 -0.05553355813026428 1.0 7 -0.018907086923718452
1.0819478034973145 6.862168312072754 1.8614267110824585 47.0 15 -0.018904782831668854
0.29835596680641174 1.8773823976516724 -0.509355902671814 74.0 0 -0.018884047865867615
0.2962907552719116 1.8622901439666748 0.03291523829102516 1.0 8 -0.018881743773818016
0.2982534170150757 1.8725202083587646 -0.4377547800540924 77.0 1 -0.018879439681768417
1.1048587560653687 6.928834915161133 0.36771246790885925 47.0 9 -0.01887713558971882
0.29894912242889404 1.8747817277908325 -0.3690246343612671 83.0 2 -0.01887483149766922
1.1033713817596436 6.911749362945557 0.6123562455177307 95.0 10 -0.01887252740561962
0.29958298802375793 1.8745490312576294 -0.30066707730293274 45.0 3 -0.018870223313570023
1.1039291620254517 6.8997721672058105 0.8579602837562561 82.0 11 -0.018867919221520424
0.30265581607818604 1.8895437717437744 -0.23496411740779877 79.0 4 -0.018865615129470825
1.1049885749816895 6.890974044799805 1.1053661108016968 70.0 12 -0.018863311037421227
0.2999984323978424 1.8708621263504028 -0.16577021777629852 27.0 5 -0.018861006945371628
1.1050039529800415 6.883386135101318 1.3551255464553833 100.0 13 -0.01885870285332203
0.505796492099762 3.1472411155700684 -0.1670563817024231 47.0 6 -0.01885639876127243
1.1094348430633545 6.895606517791748 1.612449288368225 100.0 14 -0.01885409466922283
0.5027434229850769 3.1212894916534424 -0.055184509605169296 1.0 7 -0.018851790577173233
1.1077415943145752 6.869792461395264 1.864532470703125 47.0 15 -0.018849486485123634
0.3055267930030823 1.880143165588379 -0.5103911757469177 74.0 0 -0.018828751519322395
0.30375242233276367 1.8671659231185913 0.03301995247602463 1.0 8 -0.018826447427272797
0.3047875463962555 1.8714678287506104 -0.4377547800540924 75.0 1 -0.018824143335223198
1.129679560661316 6.9288787841796875 0.3679217994213104 46.0 9 -0.0188218392431736
0.30612295866012573 1.877602219581604 -0.3697878420352936 80.0 2 -0.018819535151124
1.1290943622589111 6.91768741607666 0.6132277846336365 100.0 10 -0.018817231059074402
0.30612415075302124 1.873491883277893 -0.30066707730293274 45.0 3 -0.018814926967024803
1.1270475387573242 6.889998435974121 0.8572290539741516 82.0 11 -0.018812622874975204
0.30668291449546814 1.8728036880493164 -0.23301419615745544 77.0 4 -0.018810318782925606
1.1328692436218262 6.910468101501465 1.109120488166809 73.0 12 -0.018808014690876007
0.3078160285949707 1.8776683807373047 -0.16646745800971985 25.0 5 -0.01880571059882641
1.130298376083374 6.88723611831665 1.356652021408081 100.0 13 -0.01880340650677681
0.516454815864563 3.1434855461120605 -0.1669517159461975 40.0 6 -0.01880110427737236
1.1331804990768433 6.889769077301025 1.6119993925094604 100.0 14 -0.01879880018532276
0.5172102451324463 3.1412200927734375 -0.05556846410036087 9.0 7 -0.018796496093273163
1.1348553895950317 6.884945392608643 1.8697088956832886 46.0 15 -0.018794192001223564
0.3127213716506958 1.8828766345977783 -0.5114264488220215 76.0 0 -0.018773455172777176
0.311580628156662 1.873984694480896 0.03315957263112068 1.0 8 -0.018771151080727577
0.31323763728141785 1.8819262981414795 -0.4404541850090027 75.0 1 -0.01876884698867798
1.1538608074188232 6.924892902374268 0.3679217994213104 46.0 9 -0.01876654289662838
0.31170758605003357 1.870712399482727 -0.36864298582077026 87.0 2 -0.01876423880457878
1.1552033424377441 6.925495147705078 0.6142736673355103 100.0 10 -0.018761934712529182
0.31396299600601196 1.8802053928375244 -0.30191853642463684 45.0 3 -0.018759630620479584
1.1543627977371216 6.90560245513916 0.8596664071083069 82.0 11 -0.018757326528429985
0.31387412548065186 1.8756376504898071 -0.23350168764591217 75.0 4 -0.018755022436380386
1.1582884788513184 6.914264678955078 1.1103719472885132 73.0 12 -0.018752720206975937
0.3156847655773163 1.8844425678253174 -0.16716471314430237 25.0 5 -0.018750416114926338
1.1575781106948853 6.902611255645752 1.3604681491851807 100.0 13 -0.01874811202287674
1.1578712463378906 6.889615058898926 1.6128991842269897 100.0 14 -0.018743503838777542
0.5261807441711426 3.127563714981079 -0.05535903573036194 66.0 7 -0.018741199746727943
1.159524917602539 6.884751319885254 1.8707441091537476 46.0 15 -0.018738895654678345
0.3183220326900482 1.876059889793396 -0.5098735690116882 72.0 0 -0.018718158826231956
0.3207986354827881 1.8886573314666748 0.03343881294131279 2.0 8 -0.018715854734182358
0.31980541348457336 1.8808213472366333 -0.4404541850090027 75.0 1 -0.01871355064213276
1.1786950826644897 6.924760818481445 0.368131160736084 47.0 9 -0.01871124655008316
0.3182353079319 1.8696129322052002 -0.36864298582077026 87.0 2 -0.01870894432067871
1.1786999702453613 6.917492389678955 0.613925039768219 100.0 10 -0.018706638365983963
0.32251766324043274 1.8907816410064697 -0.30379578471183777 43.0 3 -0.018704336136579514
1.1804640293121338 6.913271427154541 0.8611288666725159 82.0 11 -0.018702032044529915
0.32108795642852783 1.8784440755844116 -0.2339891642332077 79.0 4 -0.018699727952480316
1.1824184656143188 6.910179138183594 1.1103719472885132 73.0 12 -0.018697423860430717
0.32024505734443665 1.8715460300445557 -0.16611884534358978 23.0 5 -0.01869511976838112
1.1836528778076172 6.910139083862305 1.362757921218872 100.0 13 -0.01869281567633152
1.1835603713989258 6.895134925842285 1.615148663520813 100.0 14 -0.018688207492232323
0.53641676902771 3.1217663288116455 -0.05528922379016876 40.0 7 -0.018685903400182724
1.1842036247253418 6.884469985961914 1.871779441833496 46.0 15 -0.018683599308133125
0.3248715400695801 1.8768973350524902 -0.5103911757469177 74.0 0 -0.018680095672607422
0.3253525495529175 1.8777315616607666 0.03326428681612015 2.0 8 -0.018677791580557823
0.32670727372169495 1.883590579032898 -0.44135400652885437 75.0 1 -0.018675487488508224
1.2043870687484741 6.936555862426758 0.36896851658821106 48.0 9 -0.018673183396458626
0.3251056671142578 1.8724159002304077 -0.36940622329711914 87.0 2 -0.018670879304409027
1.2036784887313843 6.925323963165283 0.6149709224700928 100.0 10 -0.01866857521235943
0.3267548084259033 1.878024697303772 -0.30191853642463684 45.0 3 -0.01866627112030983
1.2054284811019897 6.921052932739258 0.8625913262367249 80.0 11 -0.01866396702826023
0.3279968798160553 1.8812801837921143 -0.23447664082050323 77.0 4 -0.018661662936210632
1.2073665857315063 6.9178948402404785 1.1122491359710693 73.0 12 -0.018659358844161034
0.3267926275730133 1.8724364042282104 -0.1662931591272354 24.0 5 -0.018657054752111435
1.2065632343292236 6.90617561340332 1.362757921218872 100.0 13 -0.018654752522706985
1.2091091871261597 6.906528472900391 1.6187479496002197 100.0 14 -0.018650144338607788
0.5484927892684937 3.1298186779022217 -0.055463749915361404 24.0 7 -0.01864784024655819
1.207693099975586 6.884311199188232 1.8728147745132446 46.0 15 -0.01864553615450859
0.3317568898200989 1.8776544332504272 -0.510908842086792 69.0 0 -0.018624799326062202
0.33051246404647827 1.8687077760696411 0.033124666661024094 2.0 8 -0.018622495234012604
0.33260035514831543 1.8786009550094604 -0.4404541850090027 75.0 1 -0.018620191141963005
1.231379747390747 6.948043346405029 0.3698059022426605 48.0 9 -0.018617887049913406
0.33300963044166565 1.879002332687378 -0.3709326982498169 87.0 2 -0.018615582957863808
1.2278468608856201 6.921079635620117 0.6149709224700928 100.0 10 -0.01861327886581421
0.33399873971939087 1.8807626962661743 -0.3025442957878113 43.0 3 -0.01861097477376461
1.2288837432861328 6.912893772125244 0.8621038198471069 80.0 11 -0.01860867254436016
0.33595338463783264 1.8879412412643433 -0.2354515790939331 77.0 4 -0.018606368452310562
1.2321985960006714 6.9175286293029785 1.1128748655319214 71.0 12 -0.018604064360260963
0.3340250253677368 1.8752071857452393 -0.16664177179336548 24.0 5 -0.018601760268211365
1.2306615114212036 6.90192174911499 1.362757921218872 100.0 13 -0.018599456176161766
1.2366394996643066 6.921449184417725 1.6232469081878662 100.0 14 -0.01859484799206257
1.233760952949524 6.891462802886963 1.8759204149246216 46.0 15 -0.01859023980796337
0.33968067169189453 1.8840895891189575 -0.5129793882369995 72.0 0 -0.018569502979516983
0.33845365047454834 1.8754143714904785 0.03326428681612015 2.0 8 -0.018567198887467384
0.3377697467803955 1.8697577714920044 -0.4386545717716217 75.0 1 -0.018564894795417786
1.2542057037353516 6.935841083526611 0.3693872392177582 47.0 9 -0.018562592566013336
0.34026575088500977 1.8816921710968018 -0.37169593572616577 87.0 2 -0.018560288473963737
1.254836082458496 6.932436466217041 0.6163654327392578 100.0 10 -0.01855798438191414
0.3405614197254181 1.8795853853225708 -0.3025442957878113 43.0 3 -0.01855568028986454
1.2523000240325928 6.9046549797058105 0.861616313457489 80.0 11 -0.01855337619781494
0.3411235809326172 1.8789443969726562 -0.23447664082050323 77.0 4 -0.018551072105765343
1.258455514907837 6.924846649169922 1.114752173423767 71.0 12 -0.018548768013715744
0.3416370451450348 1.8799108266830444 -0.16716471314430237 25.0 5 -0.018546463921666145
1.2568563222885132 6.909173488616943 1.365047574043274 100.0 13 -0.018544159829616547
1.2586909532546997 6.905588150024414 1.6205475330352783 100.0 14 -0.01853955164551735
0.35461658239364624 1.9436137676239014 -0.03448595479130745 0.0 7 -0.01853724755346775
1.2598934173583984 6.8985161781311035 1.8790262937545776 46.0 15 -0.018534943461418152
0.3466033935546875 1.8847925662994385 -0.513496994972229 74.0 0 -0.018514208495616913
0.34427446126937866 1.8702881336212158 0.03319447860121727 4.0 8 -0.018511904403567314
0.34641361236572266 1.880066156387329 -0.44135400652885437 75.0 1 -0.018509600311517715
1.2791284322738647 6.935349464416504 0.36959657073020935 48.0 9 -0.018507296219468117
0.3457624614238739 1.8747011423110962 -0.37055110931396484 83.0 2 -0.018504992127418518
1.281561017036438 6.941728591918945 0.6175855994224548 100.0 10 -0.01850268803536892
0.3485566973686218 1.886155128479004 -0.30379578471183777 41.0 3 -0.01850038394331932
1.28000009059906 6.91976261138916 0.8640536665916443 80.0 11 -0.018498079851269722
0.34767985343933105 1.8777422904968262 -0.23447664082050323 79.0 4 -0.018495775759220123
1.2833417654037476 6.924295425415039 1.1153777837753296 71.0 12 -0.018493471667170525
0.34964990615844727 1.886542797088623 -0.1678619533777237 21.0 5 -0.018491167575120926
1.2838263511657715 6.920187473297119 1.368100643157959 100.0 13 -0.018488863483071327
0.3825250267982483 2.059908390045166 -0.10980084538459778 1.0 6 -0.01848655939102173
1.2831461429595947 6.903067588806152 1.620997428894043 100.0 14 -0.01848425529897213
0.3467678427696228 1.8637257814407349 -0.033089764416217804 0.0 7 -0.01848195120692253
1.2850258350372314 6.899774551391602 1.8805792331695557 46.0 15 -0.018479647114872932
0.3531809151172638 1.8835711479187012 -0.513496994972229 74.0 0 -0.018458912149071693
0.3552279472351074 1.8926595449447632 0.033613335341215134 5.0 8 -0.018456608057022095
0.3536933660507202 1.8826760053634644 -0.44225379824638367 74.0 1 -0.018454303964972496
1.3055459260940552 6.942619323730469 0.37022459506988525 48.0 9 -0.018451999872922897
0.35230475664138794 1.8734828233718872 -0.37055110931396484 83.0 2 -0.0184496957808733
1.3054176568984985 6.935254096984863 0.6174112558364868 100.0 10 -0.0184473916888237
0.3558695614337921 1.8888094425201416 -0.3044215142726898 39.0 3 -0.0184450875967741
1.3063559532165527 6.926955699920654 0.8655161261558533 80.0 11 -0.018442783504724503
0.35496923327445984 1.880418300628662 -0.23496411740779877 77.0 4 -0.018440479412674904
1.3082364797592163 6.923656463623047 1.1160036325454712 71.0 12 -0.018438175320625305
0.3547529876232147 1.8774800300598145 -0.16716471314430237 22.0 5 -0.018435871228575706
1.3094356060028076 6.923379898071289 1.3696271181106567 100.0 13 -0.018433567136526108
0.3993729054927826 2.1095829010009766 -0.11252231895923615 1.0 6 -0.01843126304447651
1.3097728490829468 6.911949634552002 1.6241466999053955 100.0 14 -0.01842895895242691
0.3577418327331543 1.886080026626587 -0.03350862115621567 0.0 7 -0.01842665486037731
1.3094648122787476 6.897144317626953 1.8810968399047852 46.0 15 -0.018424350768327713
0.3590288758277893 1.878531813621521 -0.5124617218971252 78.0 0 -0.018403615802526474
0.35807374119758606 1.8717674016952515 0.03326428681612015 3.0 8 -0.018401311710476875
0.36246243119239807 1.8929134607315063 -0.44495320320129395 74.0 1 -0.018399007618427277
1.3331578969955444 6.955673694610596 0.3711666464805603 49.0 9 -0.018396703526377678
0.360321044921875 1.8799540996551514 -0.3720775544643402 83.0 2 -0.01839439943432808
1.329613447189331 6.9306559562683105 0.6174112558364868 100.0 10 -0.01839209534227848
0.36171603202819824 1.8836756944656372 -0.30379578471183777 39.0 3 -0.018389791250228882
1.3331522941589355 6.935999870300293 0.8672223091125488 82.0 11 -0.018387487158179283
0.3622797131538391 1.8830666542053223 -0.2354515790939331 75.0 4 -0.018385183066129684
1.3335189819335938 6.924866199493408 1.1169421672821045 69.0 12 -0.018382878974080086
0.3624351918697357 1.8820993900299072 -0.16768765449523926 24.0 5 -0.018380574882030487
1.3343397378921509 6.922622203826904 1.3703902959823608 100.0 13 -0.01837827078998089
0.38024795055389404 1.9708995819091797 -0.10519527643918991 1.0 6 -0.01837596856057644
1.3368500471115112 6.922642230987549 1.6277459859848022 100.0 14 -0.01837366446852684
0.3597697615623474 1.8612596988677979 -0.033089764416217804 0.0 7 -0.01837136037647724
1.333527684211731 6.8925323486328125 1.8810968399047852 46.0 15 -0.018369056284427643
0.36706069111824036 1.8848519325256348 -0.5145322680473328 76.0 0 -0.018348319455981255
0.3661360740661621 1.87835693359375 0.0334039069712162 4.0 8 -0.018346015363931656
0.3675755560398102 1.8839861154556274 -0.44315361976623535 74.0 1 -0.018343711271882057
1.3597248792648315 6.962738990783691 0.3717946708202362 49.0 9 -0.01834140717983246
0.36763331294059753 1.8825386762619019 -0.3728407919406891 83.0 2 -0.01833910308778286
1.3564752340316772 6.93966007232666 0.6186314821243286 100.0 10 -0.01833679899573326
0.36866888403892517 1.8843401670455933 -0.3041086494922638 38.0 3 -0.018334494903683662
1.355446457862854 6.921563625335693 0.8660036325454712 82.0 11 -0.018332190811634064
0.3703784644603729 1.889582633972168 -0.23642654716968536 77.0 4 -0.018329888582229614
1.360347032546997 6.933737754821777 1.1191322803497314 67.0 12 -0.018327584490180016
0.3686196506023407 1.878867506980896 -0.16751332581043243 22.0 5 -0.018325280398130417
1.3577380180358887 6.914069652557373 1.3696271181106567 100.0 13 -0.018322976306080818
0.38019227981567383 1.9342845678329468 -0.10331118851900101 0.0 6 -0.01832067221403122
1.3625129461288452 6.925581932067871 1.6295455694198608 100.0 14 -0.01831836812198162
0.37244585156440735 1.8913848400115967 -0.03364824131131172 0.0 7 -0.018316064029932022
1.359822154045105 6.899207592010498 1.8842027187347412 46.0 15 -0.018313759937882423
0.37589365243911743 1.8949286937713623 -0.517638087272644 79.0 0 -0.018293023109436035
0.3742479085922241 1.8849132061004639 0.03354352340102196 4.0 8 -0.018290719017386436
0.37262898683547974 1.8750463724136353 -0.44135400652885437 75.0 1 -0.018288414925336838
1.3832436800003052 6.9540324211120605 0.37158533930778503 49.0 9 -0.01828611083328724
0.37611788511276245 1.8908714056015015 -0.3747488856315613 90.0 2 -0.01828380674123764
1.3830235004425049 6.946606636047363 0.6196773052215576 100.0 10 -0.01828150451183319
0.37640106678009033 1.8888537883758545 -0.30504724383354187 39.0 3 -0.018279200419783592
1.38115394115448 6.924576759338379 0.8669785857200623 80.0 11 -0.018276896327733994
0.37697261571884155 1.8882781267166138 -0.23642654716968536 75.0 4 -0.018274592235684395
1.3872467279434204 6.942507743835449 1.1213223934173584 65.0 12 -0.018272288143634796
0.3755649924278259 1.8795233964920044 -0.16768765449523926 20.0 5 -0.018269984051585197
1.38417649269104 6.920838832855225 1.3719167709350586 100.0 13 -0.0182676799595356
0.38459017872810364 1.921195149421692 -0.1026831567287445 0.0 6 -0.018265375867486
1.3874402046203613 6.924605846405029 1.6304453611373901 100.0 14 -0.0182630717754364
0.3798326551914215 1.8939943313598633 -0.0337180495262146 0.0 7 -0.018260767683386803
1.3861796855926514 6.905783176422119 1.8873085975646973 46.0 15 -0.018258463591337204
0.38250550627708435 1.89360511302948 -0.517638087272644 79.0 0 -0.018237726762890816
0.37963685393333435 1.8777151107788086 0.03343881294131279 5.0 8 -0.018235424533486366
0.38187795877456665 1.8871041536331177 -0.4445033073425293 72.0 1 -0.018233120441436768
1.4066911935806274 6.951364517211914 0.3716900050640106 48.0 9 -0.01823081634938717
0.38115665316581726 1.881850242614746 -0.3732224106788635 90.0 2 -0.01822851225733757
1.4096404314041138 6.953453063964844 0.6207231879234314 100.0 10 -0.01822620816528797
0.38299259543418884 1.8875283002853394 -0.30504724383354187 35.0 3 -0.018223904073238373
1.4076858758926392 6.9313859939575195 0.8684410452842712 82.0 11 -0.018221599981188774
0.3827703893184662 1.883060336112976 -0.23593907058238983 79.0 4 -0.018219295889139175
1.408689260482788 6.930125713348389 1.1200709342956543 65.0 12 -0.018216991797089577
0.3849044740200043 1.8918676376342773 -0.16890782117843628 21.0 5 -0.018214687705039978
1.4114586114883423 6.931354999542236 1.374969720840454 100.0 13 -0.01821238361299038
0.39129364490509033 1.9198411703109741 -0.1026831567287445 0.0 6 -0.01821007952094078
1.4119945764541626 6.921629905700684 1.6308952569961548 100.0 14 -0.018207775428891182
0.3853115141391754 1.888805866241455 -0.03364824131131172 1.0 7 -0.018205471336841583
1.411393165588379 6.91250467300415 1.8904143571853638 46.0 15 -0.018203167244791985
0.3883344531059265 1.8884739875793457 -0.5166028141975403 76.0 0 -0.018182432278990746
0.3874722123146057 1.8842809200286865 0.033578429371118546 6.0 8 -0.018180128186941147
0.38774141669273376 1.8839186429977417 -0.44405341148376465 74.0 1 -0.018177824094891548
1.4333637952804565 6.958148956298828 0.3723180294036865 47.0 9 -0.01817552000284195
0.3869299590587616 1.8766628503799438 -0.37245920300483704 87.0 2 -0.01817321591079235
1.4339057207107544 6.948489665985107 0.6207231879234314 100.0 10 -0.018170911818742752
0.3904479742050171 1.8920515775680542 -0.30598583817481995 34.0 3 -0.018168607726693153
1.4342758655548096 6.94417667388916 0.8706346750259399 82.0 11 -0.018166303634643555
0.3898161053657532 1.8856686353683472 -0.23642654716968536 79.0 4 -0.018163999542593956
1.4340739250183105 6.93096923828125 1.1210094690322876 63.0 12 -0.018161695450544357
0.39029350876808167 1.8846596479415894 -0.16838489472866058 20.0 5 -0.01815939135849476
1.4368234872817993 6.93817138671875 1.377259373664856 100.0 13 -0.01815708726644516
0.3960370123386383 1.910710096359253 -0.10226447135210037 0.0 6 -0.01815478317439556
1.4365251064300537 6.924541473388672 1.6326948404312134 100.0 14 -0.018152479082345963
0.3886496126651764 1.8717857599258423 -0.033369001001119614 0.0 7 -0.018150174990296364
1.4347261190414429 6.903753280639648 1.8893790245056152 46.0 15 -0.018147870898246765
0.39380452036857605 1.8833938837051392 -0.5155675411224365 78.0 0 -0.018127135932445526
0.39159002900123596 1.8711729049682617 0.033369001001119614 7.0 8 -0.018124831840395927
0.395912766456604 1.8901832103729248 -0.44585302472114563 77.0 1 -0.01812252774834633
1.4601171016693115 6.970951557159424 0.3732600808143616 49.0 9 -0.01812022365629673
0.3947628438472748 1.883055329322815 -0.3739856481552124 90.0 2 -0.01811791956424713
1.4573476314544678 6.945647239685059 0.6208975315093994 100.0 10 -0.018115615472197533
0.3962377607822418 1.8868108987808228 -0.3053601086139679 34.0 3 -0.018113311380147934
1.460141897201538 6.946897983551025 0.871609628200531 84.0 11 -0.018111007288098335
0.39721375703811646 1.8881815671920776 -0.2369140237569809 77.0 4 -0.018108703196048737
1.4615217447280884 6.947439193725586 1.1244510412216187 69.0 12 -0.018106399103999138
0.39654165506362915 1.8833550214767456 -0.16838489472866058 18.0 5 -0.01810409501194954
1.4618449211120605 6.936955451965332 1.37802255153656 100.0 13 -0.01810179091989994
0.40682563185691833 1.928858757019043 -0.10331118851900101 0.0 6 -0.018099486827850342
1.4651135206222534 6.94045877456665 1.6376436948776245 100.0 14 -0.018097184598445892
0.3973332643508911 1.8822261095046997 -0.033578429371118546 0.0 7 -0.018094880506396294
1.4584091901779175 6.902738094329834 1.8904143571853638 46.0 15 -0.018092576414346695
0.4023858904838562 1.8914555311203003 -0.5181557536125183 77.0 0 -0.018071839585900307
0.3990408778190613 1.8757319450378418 0.03347371518611908 8.0 8 -0.018069535493850708
0.40136662125587463 1.8850479125976562 -0.44495320320129395 75.0 1 -0.01806723140180111
1.4865211248397827 6.975579261779785 0.3737834393978119 47.0 9 -0.01806492730975151
0.4037911593914032 1.8931862115859985 -0.37627536058425903 87.0 2 -0.018062623217701912
1.4861575365066528 6.961950778961182 0.622814953327179 100.0 10 -0.018060319125652313
0.40249207615852356 1.8854866027832031 -0.3053601086139679 30.0 3 -0.018058015033602715
1.4840019941329956 6.945899486541748 0.8720970749855042 82.0 11 -0.018055710941553116
0.4043036997318268 1.8907361030578613 -0.23740150034427643 75.0 4 -0.018053406849503517
1.4886564016342163 6.955817222595215 1.1266411542892456 67.0 12 -0.01805110275745392
0.40269654989242554 1.880010962486267 -0.16821058094501495 16.0 5 -0.01804880052804947
1.4848426580429077 6.932069301605225 1.37802255153656 100.0 13 -0.01804649643599987
0.4081963300704956 1.9040641784667969 -0.102055124938488 0.0 6 -0.01804419234395027
1.4901635646820068 6.945089340209961 1.6398932933807373 100.0 14 -0.018041888251900673
1.5005654096603394 6.987607002258301 -0.1247498020529747 2.0 7 -0.018039584159851074
1.4849328994750977 6.908937454223633 1.8935202360153198 46.0 15 -0.018037280067801476
0.40824735164642334 1.8882226943969727 -0.517638087272644 84.0 0 -0.018016543239355087
0.4051635265350342 1.8723729848861694 0.03343881294131279 7.0 8 -0.01801423914730549
0.4075322449207306 1.8817307949066162 -0.4445033073425293 72.0 1 -0.01801193505525589
1.5108598470687866 6.970348358154297 0.3737834393978119 48.0 9 -0.01800963096320629
0.41172924637794495 1.8995118141174316 -0.3778018355369568 90.0 2 -0.018007326871156693
1.5105050802230835 6.962824821472168 0.6233378648757935 100.0 10 -0.018005022779107094
0.41032910346984863 1.8898612260818481 -0.30629870295524597 34.0 3 -0.018002720549702644
1.5090770721435547 6.944558143615723 0.8725845813751221 84.0 11 -0.018000416457653046
0.41132259368896484 1.891253113746643 -0.2376452386379242 75.0 4 -0.017998112365603447
1.5154502391815186 6.962158679962158 1.1285183429718018 71.0 12 -0.01799580827355385
0.4126489758491516 1.8941677808761597 -0.1696050763130188 17.0 5 -0.01799350418150425
1.5123727321624756 6.942190170288086 1.3810756206512451 100.0 13 -0.01799120008945465
0.4165417551994324 1.9104335308074951 -0.10247381031513214 0.0 6 -0.017988895997405052
1.5148147344589233 6.941749095916748 1.640343189239502 100.0 14 -0.017986591905355453
0.4151574373245239 1.900896430015564 -0.03396238386631012 1.0 7 -0.017984287813305855
1.5123392343521118 6.91880989074707 1.8976613283157349 46.0 15 -0.017981983721256256
0.4193183183670044 1.9055805206298828 -0.5228144526481628 82.0 0 -0.017961246892809868
0.4129866063594818 1.8768062591552734 0.03354352340102196 8.0 8 -0.01795894280076027
0.4149360954761505 1.8841031789779663 -0.445403128862381 72.0 1 -0.01795664057135582
1.5360435247421265 6.968932628631592 0.37399277091026306 48.0 9 -0.01795433647930622
0.4169982671737671 1.8903210163116455 -0.37627536058425903 87.0 2 -0.017952032387256622
1.538590669631958 6.9689154624938965 0.6243837475776672 100.0 10 -0.017949728295207024
0.41810503602027893 1.8922024965286255 -0.3069244623184204 34.0 3 -0.017947424203157425
1.5350239276885986 6.947000980377197 0.8735595345497131 84.0 11 -0.017945120111107826
0.4179222881793976 1.8898056745529175 -0.2376452386379242 73.0 4 -0.017942816019058228
1.5388883352279663 6.952969551086426 1.1278926134109497 67.0 12 -0.01794051192700863
0.4209814965724945 1.9004967212677002 -0.17030231654644012 16.0 5 -0.01793820783495903
1.540358304977417 6.948100566864014 1.383365273475647 100.0 13 -0.01793590374290943
0.42440587282180786 1.9127938747406006 -0.1026831567287445 0.0 6 -0.017933599650859833
1.540668249130249 6.938052654266357 1.6407930850982666 100.0 14 -0.017931295558810234
0.4248243272304535 1.9131008386611938 -0.03420671448111534 1.0 7 -0.017928991466760635
1.538997769355774 6.924804210662842 1.9007670879364014 47.0 15 -0.017926687374711037
0.42343568801879883 1.892794132232666 -0.5197086930274963 82.0 0 -0.017905952408909798
0.4229205846786499 1.888939619064331 0.03378785774111748 9.0 8 -0.0179036483168602
0.42311766743659973 1.8882743120193481 -0.4467528164386749 75.0 1 -0.0179013442248106
1.5633223056793213 6.9710516929626465 0.3744114637374878 48.0 9 -0.017899040132761
0.4235928952693939 1.8888541460037231 -0.37627536058425903 87.0 2 -0.017896736040711403
1.5633455514907837 6.965446472167969 0.6245580315589905 97.0 10 -0.017894431948661804
0.42557382583618164 1.8945860862731934 -0.30755019187927246 32.0 3 -0.017892127856612206
1.5639573335647583 6.956822872161865 0.8755094408988953 84.0 11 -0.017889823764562607
0.42484554648399353 1.888261318206787 -0.2376452386379242 77.0 4 -0.017887519672513008
1.5656654834747314 6.953063488006592 1.1288312673568726 69.0 12 -0.01788521558046341
0.42673802375793457 1.8951281309127808 -0.16995368897914886 16.0 5 -0.01788291148841381
1.5671873092651367 6.954174518585205 1.3856550455093384 100.0 13 -0.017880607396364212
0.4319595396518707 1.9151972532272339 -0.10289250314235687 0.0 6 -0.017878303304314613
1.567882776260376 6.945939064025879 1.6439424753189087 100.0 14 -0.017875999212265015
0.42874839901924133 1.8978772163391113 -0.03396238386631012 1.0 7 -0.017873695120215416
1.5643665790557861 6.919116973876953 1.9007670879364014 47.0 15 -0.017871391028165817
0.42918410897254944 1.8875370025634766 -0.5186734199523926 84.0 0 -0.017850656062364578
0.4277372658252716 1.8796523809432983 0.03364824131131172 10.0 8 -0.01784835197031498
0.43230241537094116 1.898186445236206 -0.4494522511959076 75.0 1 -0.01784604787826538
1.5911989212036133 6.981130599975586 0.37524884939193726 47.0 9 -0.017843743786215782
0.4310567080974579 1.8911923170089722 -0.3770385980606079 90.0 2 -0.017841439694166183
1.5889811515808105 6.965774059295654 0.6250810027122498 100.0 10 -0.017839135602116585
0.4317445456981659 1.8911633491516113 -0.30723732709884644 33.0 3 -0.017836831510066986
1.5917706489562988 6.96680212020874 0.8774593472480774 86.0 11 -0.017834527418017387
0.4332047402858734 1.8945072889328003 -0.23862019181251526 75.0 4 -0.01783222332596779
1.5925692319869995 6.959109783172607 1.1307084560394287 69.0 12 -0.01782991923391819
0.43157243728637695 1.885858416557312 -0.16925644874572754 16.0 5 -0.01782761514186859
1.5923306941986084 6.952487468719482 1.3864182233810425 100.0 13 -0.017825311049818993
0.435965359210968 1.9019969701766968 -0.10226447135210037 0.0 6 -0.017823006957769394
1.5947318077087402 6.951820373535156 1.646641731262207 100.0 14 -0.017820702865719795
0.4362660050392151 1.9002668857574463 -0.034032192081213 1.0 7 -0.017818398773670197
1.589376449584961 6.917379379272461 1.90180242061615 47.0 15 -0.017816096544265747
0.43750935792922974 1.8935562372207642 -0.5207439661026001 79.0 0 -0.01779535971581936
0.43429461121559143 1.8781481981277466 0.03364824131131172 12.0 8 -0.01779305562376976
0.4371687173843384 1.8890714645385742 -0.4476526379585266 74.0 1 -0.01779075153172016
1.6191649436950684 6.991098880767822 0.37608620524406433 46.0 9 -0.017788447439670563
0.4394279718399048 1.8973264694213867 -0.37856507301330566 90.0 2 -0.017786143347620964
1.6164308786392212 6.9737725257873535 0.6263011693954468 97.0 10 -0.017783839255571365
0.439236581325531 1.8934931755065918 -0.3078630566596985 33.0 3 -0.017781535163521767
1.6151838302612305 6.95733642578125 0.8769719004631042 82.0 11 -0.017779231071472168
0.44250938296318054 1.904585599899292 -0.24008263647556305 77.0 4 -0.01777692697942257
1.6204322576522827 6.968900203704834 1.133211374282837 69.0 12 -0.01777462288737297
0.4390556812286377 1.8882216215133667 -0.1696050763130188 16.0 5 -0.017772318795323372
1.616591453552246 6.9468865394592285 1.3864182233810425 100.0 13 -0.017770016565918922
0.4444126784801483 1.9082447290420532 -0.1026831567287445 0.0 6 -0.017767712473869324
1.622086763381958 6.959495544433594 1.6497911214828491 100.0 14 -0.017765408381819725
0.4392630159854889 1.8831530809402466 -0.03375295549631119 1.0 7 -0.017763104289770126
1.6161431074142456 6.9230780601501465 1.9049081802368164 47.0 15 -0.017760800197720528
0.44764870405197144 1.907063364982605 -0.5248850584030151 87.0 0 -0.01774006336927414
0.44039109349250793 1.8746740818023682 0.033613335341215134 12.0 8 -0.01773775927722454
0.44375884532928467 1.8875343799591064 -0.4476526379585266 74.0 1 -0.017735455185174942
1.6444720029830933 6.989293098449707 0.3762955665588379 47.0 9 -0.017733151093125343
0.4478464126586914 1.9034253358840942 -0.3800915479660034 90.0 2 -0.017730847001075745
1.6435058116912842 6.97972297668457 0.6273470520973206 97.0 10 -0.017728542909026146
0.44584211707115173 1.8919485807418823 -0.3078630566596985 34.0 3 -0.017726238816976547
1.6412807703018188 6.959383964538574 0.8779468536376953 77.0 11 -0.017723936587572098
0.44641944766044617 1.89143705368042 -0.23862019181251526 75.0 4 -0.0177216324955225
1.6479289531707764 6.976658344268799 1.1354014873504639 73.0 12 -0.0177193284034729
0.44747665524482727 1.8944334983825684 -0.17030231654644012 16.0 5 -0.0177170243114233
1.643539309501648 6.952665328979492 1.3887079954147339 100.0 13 -0.017714720219373703
0.449232280254364 1.89890718460083 -0.10226447135210037 0.0 6 -0.017712416127324104
1.646371841430664 6.953790664672852 1.6497911214828491 100.0 14 -0.017710112035274506
0.4495217502117157 1.8971748352050781 -0.034032192081213 1.0 7 -0.017707807943224907
1.643867015838623 6.932431697845459 1.909049391746521 47.0 15 -0.017705503851175308
0.4551994204521179 1.9092472791671753 -0.5259203314781189 87.0 0 -0.01768476702272892
0.4492523968219757 1.8828508853912354 0.03378785774111748 11.0 8 -0.01768246293067932
0.45215582847595215 1.8935555219650269 -0.4494522511959076 75.0 1 -0.017680158838629723
1.667638897895813 6.98380184173584 0.3762955665588379 46.0 9 -0.017677854746580124
0.4526630938053131 1.8942124843597412 -0.37856507301330566 90.0 2 -0.017675552517175674
1.6715654134750366 6.989445686340332 0.6287415027618408 93.0 10 -0.017673248425126076
0.4529038369655609 1.8923019170761108 -0.3081759512424469 32.0 3 -0.017670944333076477
1.6697269678115845 6.970986366271973 0.8801404237747192 75.0 11 -0.01766864024102688
0.4526897370815277 1.8899461030960083 -0.23862019181251526 75.0 4 -0.01766633614897728
1.6705901622772217 6.969236373901367 1.1350886821746826 69.0 12 -0.01766403205692768
0.4578036665916443 1.9083597660064697 -0.17169681191444397 16.0 5 -0.017661727964878082
1.6733001470565796 6.969793796539307 1.3932874202728271 100.0 13 -0.017659423872828484
0.4609900116920471 1.918689489364624 -0.10341586172580719 0.0 6 -0.017657119780778885
1.670328140258789 6.952083587646484 1.6506909132003784 100.0 14 -0.017654815688729286
0.4572126567363739 1.901506781578064 -0.03413690626621246 1.0 7 -0.017652511596679688
1.6695605516433716 6.938211917877197 1.912155270576477 46.0 15 -0.01765020750463009
0.4588022530078888 1.8964612483978271 -0.5228144526481628 87.0 0 -0.01762947253882885
0.4583165943622589 1.8930120468139648 0.03399728611111641 12.0 8 -0.01762716844677925
0.4584331214427948 1.8920456171035767 -0.4494522511959076 75.0 1 -0.017624864354729652
1.694553256034851 6.9937615394592285 0.37713292241096497 45.0 9 -0.017622560262680054
0.45894166827201843 1.8927010297775269 -0.37856507301330566 90.0 2 -0.017620256170630455
1.6937963962554932 6.979991912841797 0.6283929347991943 95.0 10 -0.017617952078580856
0.4624401330947876 1.9042264223098755 -0.3103660047054291 33.0 3 -0.017615647986531258
1.6956456899642944 6.976984977722168 0.8816028833389282 77.0 11 -0.01761334389448166
0.46082934737205505 1.8961505889892578 -0.23959514498710632 75.0 4 -0.01761103980243206
1.6960278749465942 6.9732537269592285 1.136652946472168 73.0 12 -0.01760873571038246
0.4617740213871002 1.8971515893936157 -0.17082524299621582 14.0 5 -0.017606431618332863
1.6991900205612183 6.975651264190674 1.395577073097229 100.0 13 -0.017604127526283264
0.4645124673843384 1.9055075645446777 -0.10278782993555069 0.0 6 -0.017601823434233665
1.6956826448440552 6.955973148345947 1.6529405117034912 100.0 14 -0.017599519342184067
0.4639902412891388 1.9019227027893066 -0.03417181223630905 1.0 7 -0.017597215250134468
1.6934741735458374 6.936390399932861 1.9131903648376465 46.0 15 -0.01759491115808487
0.46693116426467896 1.9024341106414795 -0.5248850584030151 82.0 0 -0.01757417619228363
0.46316108107566833 1.8856557607650757 0.03389257565140724 12.0 8 -0.01757187210023403
0.46749547123908997 1.901869297027588 -0.4521516263484955 83.0 1 -0.017569568008184433
1.7218201160430908 6.9994401931762695 0.37776097655296326 45.0 9 -0.017567263916134834
0.46709197759628296 1.8987942934036255 -0.3800915479660034 90.0 2 -0.017564959824085236
1.7188372611999512 6.9820756912231445 0.6290901303291321 93.0 10 -0.017562655732035637
0.4659167230129242 1.891174554824829 -0.3084888160228729 34.0 3 -0.017560351639986038
1.7206757068634033 6.97903299331665 0.8825778961181641 77.0 11 -0.01755804754793644
0.46839603781700134 1.8983851671218872 -0.24008263647556305 73.0 4 -0.01755574345588684
1.7231985330581665 6.9787983894348145 1.1385301351547241 71.0 12 -0.017553439363837242
0.4679160416126251 1.8935937881469727 -0.17065094411373138 14.0 5 -0.017551135271787643
1.7213729619979858 6.966166019439697 1.394813895225525 100.0 13 -0.017548831179738045
0.4756229817867279 1.9233453273773193 -0.10383454710245132 0.0 6 -0.017546527087688446
1.721824288368225 6.957578182220459 1.6547400951385498 100.0 14 -0.017544222995638847
0.46966543793678284 1.896409273147583 -0.034102004021406174 1.0 7 -0.01754191890358925
1.7186044454574585 6.934187889099121 1.914225697517395 47.0 15 -0.01753961481153965
0.47390034794807434 1.900710105895996 -0.5248850584030151 84.0 0 -0.01751887984573841
0.47022467851638794 1.8859678506851196 0.03392747789621353 14.0 8 -0.017516575753688812
0.47224390506744385 1.8926630020141602 -0.4503520429134369 79.0 1 -0.017514271661639214
1.7501115798950195 7.008889675140381 0.37859833240509033 45.0 9 -0.017511967569589615
0.4759516417980194 1.9046882390975952 -0.3816179931163788 93.0 2 -0.017509663477540016
1.748284935951233 6.9911909103393555 0.6304846405982971 97.0 10 -0.017507359385490417
0.47428420186042786 1.8952027559280396 -0.309427410364151 35.0 3 -0.01750505529344082
1.7459888458251953 6.97683572769165 0.8830653429031372 77.0 11 -0.01750275120139122
0.4769492745399475 1.9044408798217773 -0.24105757474899292 73.0 4 -0.01750044710934162
1.7494713068008423 6.980404853820801 1.1397815942764282 73.0 12 -0.017498143017292023
0.47597676515579224 1.8977465629577637 -0.17117387056350708 14.0 5 -0.017495838925242424
1.7468920946121216 6.959810733795166 1.394813895225525 100.0 13 -0.017493534833192825
0.4851025342941284 1.9312744140625 -0.10435790568590164 1.0 6 -0.017491232603788376
1.7530161142349243 6.973899841308594 1.6601388454437256 100.0 14 -0.017488928511738777
0.4772568643093109 1.898637056350708 -0.03417181223630905 1.0 7 -0.01748662441968918
1.7475135326385498 6.94688081741333 1.9194021224975586 46.0 15 -0.01748432032763958
0.48242732882499695 1.9065355062484741 -0.5269556045532227 82.0 0 -0.01746358349919319
0.47713354229927063 1.884231686592102 0.03392747789621353 15.0 8 -0.017461279407143593
0.4786994457244873 1.8890300989151 -0.44990211725234985 81.0 1 -0.017458975315093994
1.775787115097046 7.0024285316467285 0.37859833240509033 44.0 9 -0.017456671223044395
0.4840447008609772 1.9087245464324951 -0.3827628493309021 100.0 2 -0.017454367130994797
1.7770874500274658 7.002426624298096 0.6320534348487854 100.0 10 -0.017452063038945198
0.4828414022922516 1.9011942148208618 -0.3106788694858551 37.0 3 -0.0174497589468956
1.773013949394226 6.976161956787109 0.8837965726852417 77.0 11 -0.017447454854846
0.4829471707344055 1.8988324403762817 -0.2405700981616974 71.0 4 -0.017445150762796402
1.7789405584335327 6.989261150360107 1.142284631729126 71.0 12 -0.017442848533391953
0.48637211322784424 1.9095042943954468 -0.1723940521478653 14.0 5 -0.017440544441342354
1.7740851640701294 6.965085506439209 1.3971035480499268 100.0 13 -0.017438240349292755
0.4908539354801178 1.9256987571716309 -0.10414856672286987 1.0 6 -0.017435936257243156
1.7768657207489014 6.965849876403809 1.659688949584961 100.0 14 -0.017433632165193558
0.48767518997192383 1.9104379415512085 -0.03441614657640457 1.0 7 -0.01743132807314396
1.7767870426177979 6.9554033279418945 1.9235432147979736 46.0 15 -0.01742902398109436
0.4913354516029358 1.9122388362884521 -0.5290261507034302 87.0 0 -0.017408287152647972
0.48520123958587646 1.8883649110794067 0.034032192081213 17.0 8 -0.017405983060598373
0.4872312545776367 1.8948973417282104 -0.4517017602920532 83.0 1 -0.017403678968548775
1.802212119102478 7.0039238929748535 0.37901705503463745 46.0 9 -0.017401374876499176
0.4905482232570648 1.9050363302230835 -0.38238126039505005 93.0 2 -0.017399072647094727
1.8047277927398682 7.003583908081055 0.6327506899833679 100.0 10 -0.01739676669239998
0.49030008912086487 1.9013243913650513 -0.31099173426628113 38.0 3 -0.01739446446299553
1.801817536354065 6.987229824066162 0.8859902024269104 73.0 11 -0.01739216037094593
0.4885808527469635 1.893290638923645 -0.24008263647556305 75.0 4 -0.017389856278896332
1.803819179534912 6.984921455383301 1.1425974369049072 69.0 12 -0.017387552186846733
0.49253568053245544 1.905866026878357 -0.17221973836421967 13.0 5 -0.017385248094797134
1.803532361984253 6.9737420082092285 1.4001564979553223 100.0 13 -0.017382944002747536
0.5019115209579468 1.9393552541732788 -0.10498593747615814 3.0 6 -0.017380639910697937
1.8033640384674072 6.9630632400512695 1.6605888605117798 100.0 14 -0.01737833581864834
0.48982828855514526 1.8913016319274902 -0.034102004021406174 1.0 7 -0.01737603172659874
1.8049341440200806 6.964118957519531 1.9276843070983887 46.0 15 -0.01737372763454914
0.4963668882846832 1.9069468975067139 -0.5279908776283264 82.0 0 -0.01706075668334961
0.49498867988586426 1.9002914428710938 0.03427652642130852 15.0 8 -0.01705845259130001
0.4954789876937866 1.9008138179779053 -0.4535013437271118 83.0 1 -0.017056148499250412
1.8274431228637695 7.005639553070068 0.3794357180595398 46.0 9 -0.017053844407200813
0.4970257878303528 1.9053854942321777 -0.3827628493309021 100.0 2 -0.017051540315151215
1.8282331228256226 7.003663063049316 0.6332736015319824 100.0 10 -0.017049236223101616
0.49826759099960327 1.9074196815490723 -0.3122432231903076 34.0 3 -0.017046932131052017
1.8269848823547363 6.988898754119873 0.8869651556015015 71.0 11 -0.01704462803900242
0.49686574935913086 1.8993419408798218 -0.24105757474899292 75.0 4 -0.01704232394695282
1.8284748792648315 6.984633922576904 1.14353609085083 71.0 12 -0.01704001985490322
0.4995294511318207 1.908164381980896 -0.17256836593151093 12.0 5 -0.017037715762853622
1.8284159898757935 6.979437351226807 1.4024461507797241 100.0 13 -0.017035413533449173
0.5085088014602661 1.939700961112976 -0.10509061068296432 3.0 6 -0.017033109441399574
1.8281958103179932 6.9686737060546875 1.6632882356643677 100.0 14 -0.017030805349349976
0.4971124827861786 1.8935353755950928 -0.03417181223630905 1.0 7 -0.017028501257300377
1.826547622680664 6.952489376068115 1.9261313676834106 46.0 15 -0.017026197165250778
0.5020344853401184 1.9014666080474854 -0.5269556045532227 84.0 0 -0.01700546033680439
0.498553603887558 1.8869520425796509 0.034067098051309586 15.0 8 -0.01700315624475479
0.5041040778160095 1.9066087007522583 -0.4553009867668152 81.0 1 -0.017000852152705193
1.8559750318527222 7.0146636962890625 0.38027310371398926 44.0 9 -0.016998548060655594
0.5041765570640564 1.9055368900299072 -0.3831444978713989 93.0 2 -0.016996243968605995
1.852157711982727 6.995312690734863 0.6330993175506592 100.0 10 -0.016993939876556396
0.5028994679450989 1.8980306386947632 -0.31099173426628113 34.0 3 -0.016991635784506798
1.8549326658248901 6.995909690856934 0.888671338558197 70.0 11 -0.01698933355510235
0.5045104026794434 1.9014335870742798 -0.24154506623744965 73.0 4 -0.01698702946305275
1.8553810119628906 6.9877543449401855 1.1451003551483154 69.0 12 -0.01698472537100315
0.5061876177787781 1.9064087867736816 -0.17256836593151093 12.0 5 -0.016982421278953552
1.8568025827407837 6.988190650939941 1.4054991006851196 100.0 13 -0.016980117186903954
0.51270991563797 1.9282631874084473 -0.10456725209951401 2.0 6 -0.016977813094854355
1.857021450996399 6.979197978973389 1.6673372983932495 100.0 14 -0.016975509002804756
0.5068067908287048 1.903382658958435 -0.03438124060630798 1.0 7 -0.016973204910755157
1.8532871007919312 6.9554057121276855 1.9287195205688477 46.0 15 -0.01697090081870556
0.510667085647583 1.9071671962738037 -0.5290261507034302 87.0 0 -0.01695016399025917
0.5051378011703491 1.8852001428604126 0.034067098051309586 15.0 8 -0.016947859898209572
0.5097455978393555 1.9010730981826782 -0.4544011354446411 81.0 1 -0.016945555806159973
1.8835535049438477 7.019717216491699 0.38090112805366516 47.0 9 -0.016943253576755524
0.5118421912193298 1.9075578451156616 -0.3839077055454254 97.0 2 -0.016940949484705925
1.8812167644500732 7.006123065948486 0.6346681118011475 100.0 10 -0.016938645392656326
0.5110591650009155 1.9019869565963745 -0.3119303584098816 37.0 3 -0.016936341300606728
1.879855751991272 6.991309642791748 0.8889150619506836 71.0 11 -0.01693403720855713
0.5142398476600647 1.911162257194519 -0.24300749599933624 73.0 4 -0.01693173311650753
1.8833587169647217 6.994586944580078 1.1472904682159424 67.0 12 -0.01692942902445793
0.5138757228851318 1.9084779024124146 -0.17291699349880219 12.0 5 -0.016927124932408333
1.8822047710418701 6.985458850860596 1.4062623977661133 100.0 13 -0.016924820840358734
0.5168384313583374 1.916819453239441 -0.1040438860654831 1.0 6 -0.016922516748309135
1.8864506483078003 6.9914870262146 1.671836256980896 100.0 14 -0.016920212656259537
0.5155324339866638 1.909324288368225 -0.03452086076140404 1.0 7 -0.016917908564209938
1.880076289176941 6.958219051361084 1.9313077926635742 46.0 15 -0.01691560447216034
0.5203588604927063 1.9165589809417725 -0.5321319699287415 84.0 0 -0.0168948695063591
0.512763500213623 1.8872849941253662 0.03413690626621246 15.0 8 -0.0168925654143095
0.5153564214706421 1.8955210447311401 -0.4535013437271118 81.0 1 -0.016890261322259903
1.909096121788025 7.016953945159912 0.3811104893684387 48.0 9 -0.016887957230210304
0.5215906500816345 1.9171258211135864 -0.38619744777679443 97.0 2 -0.016885653138160706
1.9108935594558716 7.01873779296875 0.6364112496376038 100.0 10 -0.016883349046111107
0.5187333226203918 1.904003620147705 -0.31255611777305603 37.0 3 -0.016881044954061508
1.9058167934417725 6.990450382232666 0.8896462917327881 77.0 11 -0.01687874086201191
0.5188176035881042 1.9016951322555542 -0.24203252792358398 71.0 4 -0.01687643676996231
1.9119200706481934 7.003216743469238 1.1497935056686401 67.0 12 -0.016874132677912712
0.5226320028305054 1.9143610000610352 -0.1736142337322235 14.0 5 -0.016871828585863113
1.9086486101150513 6.98642110824585 1.407788872718811 100.0 13 -0.016869524493813515
0.5224733948707581 1.9111504554748535 -0.10383454710245132 1.0 6 -0.016867220401763916
1.9108390808105469 6.984861373901367 1.671836256980896 100.0 14 -0.016864916309714317
0.5190265774726868 1.8959405422210693 -0.034311432391405106 1.0 7 -0.01686261221766472
1.9084386825561523 6.966518402099609 1.9354488849639893 46.0 15 -0.01686030812561512
0.527044415473938 1.9147311449050903 -0.5321319699287415 84.0 0 -0.01683957315981388
0.5204107761383057 1.8893392086029053 0.03420671448111534 15.0 8 -0.016837269067764282
