# .PCD v0.7 - Point Cloud Data file format
VERSION 0.7
FIELDS x y z intensity ring time
SIZE 4 4 4 4 4 4
TYPE F F F F F F
COUNT 1 1 1 1 1 1
WIDTH 553
HEIGHT 1
VIEWPOINT 0 0 0 1 0 0 0
POINTS 553
DATA ascii
-3.4147908687591553 4.429397106170654 1.2912191152572632 30.0 14 -0.035334132611751556
-2.133709192276001 2.7686781883239746 -0.061013612896203995 1.0 7 -0.03533182665705681
-3.3883800506591797 4.398313045501709 1.487691879272461 45.0 15 -0.03532952442765236
-1.9751850366592407 2.5703930854797363 -0.8685967326164246 6.0 0 -0.03530878946185112
-2.9406578540802 3.8281872272491455 0.08426021784543991 1.0 8 -0.03530648350715637
-2.2467215061187744 2.9258687496185303 -0.8516647815704346 3.0 1 -0.03530418127775192
-3.0537049770355225 3.978227138519287 0.2628312110900879 0.0 9 -0.035301875323057175
-3.468865394592285 4.520712375640869 0.4985308349132538 20.0 10 -0.03529726713895798
-2.9948294162750244 3.9043476581573486 -0.7793565988540649 8.0 3 -0.03529496490955353
-3.4618358612060547 4.514813423156738 0.6985551714897156 28.0 11 -0.03529265895485878
-2.1568148136138916 2.8138647079467773 -0.43531733751296997 28.0 4 -0.03529035672545433
-3.449331283569336 4.501758575439453 0.8982467651367188 34.0 12 -0.03528805077075958
-2.1921215057373047 2.8609609603881836 -0.31532949209213257 1.0 5 -0.03528574854135513
-3.433351993560791 4.482524394989014 1.0975334644317627 28.0 13 -0.035283442586660385
-3.4194445610046387 4.467596530914307 1.2988674640655518 28.0 14 -0.03527883440256119
-3.3941328525543213 4.437734603881836 1.4970093965530396 43.0 15 -0.03527422621846199
-1.9708880186080933 2.5834155082702637 -0.8706672787666321 6.0 0 -0.03525349125266075
-2.929701328277588 3.8416097164154053 0.08433002978563309 1.0 8 -0.0352511890232563
-2.231769323348999 2.9274938106536865 -0.8498651385307312 3.0 1 -0.035248883068561554
-3.056748867034912 4.011101722717285 0.26429659128189087 0.0 9 -0.035246580839157104
-3.48083233833313 4.569247245788574 0.5025399923324585 20.0 10 -0.03524197265505791
-2.976396083831787 3.9084904193878174 -0.7781051397323608 8.0 3 -0.03523966670036316
-3.4616851806640625 4.547404766082764 0.7017237544059753 35.0 11 -0.03523736447095871
-2.1589999198913574 2.8371739387512207 -0.43775472044944763 16.0 4 -0.03523505851626396
-3.4623005390167236 4.551504135131836 0.9057556986808777 35.0 12 -0.03523275628685951
-2.199009656906128 2.8907949924468994 -0.3177698254585266 1.0 5 -0.035230450332164764
-3.4366962909698486 4.519486427307129 1.1036393642425537 28.0 13 -0.035228148102760315
-3.4297685623168945 4.513640403747559 1.3087652921676636 31.0 14 -0.03522353991866112
-2.114328145980835 2.7835068702697754 -0.061013612896203995 1.0 7 -0.03522123396396637
-3.400817394256592 4.47878885269165 1.5068446397781372 41.0 15 -0.03521893173456192
-1.9688557386398315 2.599519729614258 -0.8737731575965881 6.0 0 -0.03519819676876068
-2.8969614505767822 3.826303720474243 0.08377154916524887 1.0 8 -0.03519589081406593
-2.207423686981201 2.9166204929351807 -0.8444663286209106 4.0 1 -0.035193588584661484
-3.0258572101593018 3.9994490146636963 0.2628312110900879 0.0 9 -0.035191282629966736
-3.4840917587280273 4.606794834136963 0.5053290128707886 22.0 10 -0.03518667444586754
-2.9555859565734863 3.90940260887146 -0.7762279510498047 5.0 3 -0.03518437221646309
-3.462547540664673 4.581631183624268 0.7051360607147217 35.0 11 -0.03518206626176834
-2.153870105743408 2.851027727127075 -0.4387296736240387 10.0 4 -0.03517976403236389
-3.46781849861145 4.591937065124512 0.9113872647285461 33.0 12 -0.035177458077669144
-2.152883291244507 2.8507561683654785 -0.3125405013561249 1.0 5 -0.035175155848264694
-3.439826726913452 4.556524753570557 1.1097452640533447 28.0 13 -0.035172849893569946
-3.4304211139678955 4.547365665435791 1.3150639533996582 33.0 14 -0.03516824543476105
-2.1479437351226807 2.8483476638793945 -0.062270186841487885 1.0 7 -0.0351659394800663
-3.40144419670105 4.512228965759277 1.5140914916992188 40.0 15 -0.03516363725066185
-1.9586093425750732 2.6048319339752197 -0.8732554912567139 6.0 0 -0.03514289855957031
-2.979707717895508 3.9642717838287354 0.08656392991542816 1.0 8 -0.03514059633016586
-2.200740337371826 2.928982734680176 -0.8458160161972046 4.0 1 -0.035138290375471115
-3.4883272647857666 4.646013259887695 0.5082922577857971 23.0 10 -0.03513137996196747
-2.940734624862671 3.918116569519043 -0.7759150266647339 6.0 3 -0.03512907400727272
-3.4655961990356445 4.619095325469971 0.7090359330177307 35.0 11 -0.03512677177786827
-2.155816078186035 2.8744091987609863 -0.44116705656051636 1.0 4 -0.03512446582317352
-3.4695417881011963 4.62772274017334 0.9160803556442261 37.0 12 -0.035122163593769073
-2.9460644721984863 3.929501533508301 -0.429677814245224 1.0 5 -0.035119861364364624
-3.446272134780884 4.598352432250977 1.116995930671692 28.0 13 -0.035117555409669876
-3.430879831314087 4.581150531768799 1.3213624954223633 31.0 14 -0.03511294722557068
-2.8115031719207764 3.7554774284362793 -0.08188669383525848 1.0 7 -0.03511064499616623
-3.4134533405303955 4.561193943023682 1.5265147686004639 42.0 15 -0.03510833904147148
-1.9518154859542847 2.6147501468658447 -0.8742908239364624 6.0 0 -0.03508760407567024
-2.131108522415161 2.8559768199920654 0.06220037490129471 1.0 8 -0.035085298120975494
-2.2079811096191406 2.9600770473480225 -0.8525645732879639 5.0 1 -0.035082995891571045
-2.9906985759735107 4.01086950302124 0.2622031569480896 1.0 9 -0.0350806899368763
-3.4923291206359863 4.685318946838379 0.5112555623054504 24.0 10 -0.0350760854780674
-2.9376630783081055 3.942613363265991 -0.7787308692932129 8.0 3 -0.03507377952337265
-3.4779086112976074 4.669373035430908 0.7148855924606323 35.0 11 -0.0350714772939682
-2.925832986831665 3.929598093032837 -0.601547122001648 11.0 4 -0.03506917133927345
-3.463982582092285 4.65406608581543 0.9188961386680603 39.0 12 -0.035066869109869
-2.932330846786499 3.939760684967041 -0.429677814245224 1.0 5 -0.035064563155174255
-3.4559805393218994 4.645007610321045 1.1253914833068848 30.0 13 -0.035062260925769806
-3.4416110515594482 4.6290669441223145 1.3317103385925293 35.0 14 -0.03505765274167061
-3.4147911071777344 4.596343517303467 1.534279465675354 43.0 15 -0.03505304455757141
-1.9369258880615234 2.613785982131958 -0.8717026114463806 6.0 0 -0.035032305866479874
-2.9519593715667725 3.9849772453308105 0.08656392991542816 1.0 8 -0.035030003637075424
-2.1976356506347656 2.9677658081054688 -0.8525645732879639 5.0 1 -0.035027701407670975
-2.9940226078033447 4.0432353019714355 0.26366856694221497 0.0 9 -0.03502539545297623
-3.490175485610962 4.716699600219727 0.513347327709198 22.0 10 -0.03502078726887703
-2.913311243057251 3.9385499954223633 -0.7759150266647339 8.0 3 -0.03501848503947258
-3.480473041534424 4.707022666931152 0.7187854647636414 32.0 11 -0.03501617908477783
-3.468492269515991 4.692532062530518 0.9242149591445923 36.0 12 -0.035011570900678635
-2.890145778656006 3.9115140438079834 -0.42549434304237366 1.0 5 -0.035009268671274185
-3.4514107704162598 4.672834396362305 1.129207730293274 30.0 13 -0.03500696271657944
-3.448235273361206 4.67024040222168 1.3402584791183472 31.0 14 -0.03500235453248024
-3.415586471557617 4.629406452178955 1.5415263175964355 48.0 15 -0.03499774634838104
-1.9351171255111694 2.629530906677246 -0.8748083710670471 6.0 0 -0.0349770113825798
-2.872370958328247 3.9045400619506836 0.0846092626452446 1.0 8 -0.034974709153175354
-2.179699659347534 2.964047908782959 -0.8494152426719666 3.0 1 -0.034972403198480606
-2.9474663734436035 4.008089542388916 0.2607377767562866 1.0 9 -0.03497010096907616
-2.4849560260772705 3.380384683609009 -0.8155176639556885 1.0 2 -0.03496779501438141
-3.5063705444335938 4.771595478057861 0.5180537104606628 21.0 10 -0.03496549278497696
-2.9037418365478516 3.9529662132263184 -0.776853621006012 8.0 3 -0.03496318683028221
-3.478942632675171 4.7377400398254395 0.7217103242874146 27.0 11 -0.03496088460087776
-3.4762885570526123 4.735857963562012 0.9304723143577576 35.0 12 -0.034956276416778564
-2.9054458141326904 3.9596292972564697 -0.429677814245224 1.0 5 -0.034953970462083817
-3.4544737339019775 4.709583759307861 1.135313630104065 30.0 13 -0.03495166823267937
-3.451164722442627 4.706795692443848 1.347456932067871 31.0 14 -0.03494706004858017
-2.7733421325683594 3.7837462425231934 -0.08188669383525848 1.0 7 -0.03494475409388542
-3.4230523109436035 4.671873092651367 1.5518790483474731 47.0 15 -0.03494245186448097
-1.9377858638763428 2.6515302658081055 -0.8799847960472107 6.0 0 -0.03492171689867973
-2.8499693870544434 3.9011268615722656 0.08433002978563309 1.0 8 -0.034919410943984985
-2.083662271499634 2.853227376937866 -0.8156725764274597 1.0 1 -0.034917108714580536
-2.927570104598999 4.010287284851074 0.2602143883705139 5.0 9 -0.03491480275988579
-2.476048469543457 3.391777515411377 -0.8162809610366821 2.0 2 -0.03491250053048134
-3.5104928016662598 4.810557842254639 0.5210170149803162 22.0 10 -0.03491019457578659
-2.8894541263580322 3.96097731590271 -0.7765407562255859 8.0 3 -0.03490789234638214
-3.485435962677002 4.779724597930908 0.7263413667678833 32.0 11 -0.03490558639168739
-2.111809015274048 2.897073984146118 -0.4401921033859253 1.0 4 -0.034903284162282944
-3.4888200759887695 4.787874698638916 0.938293993473053 35.0 12 -0.034900978207588196
-2.8922998905181885 3.9692416191101074 -0.429677814245224 1.0 5 -0.034898675978183746
-3.465423822402954 4.757511138916016 1.1440907716751099 27.0 13 -0.034896370023489
-3.448477029800415 4.737719535827637 1.3528558015823364 32.0 14 -0.0348917618393898
-2.8354156017303467 3.8968892097473145 -0.08412060141563416 1.0 7 -0.03488945960998535
-3.4339964389801025 4.721287727355957 1.5643023252487183 38.0 15 -0.0348871573805809
-1.9217126369476318 2.648895740509033 -0.8768789768218994 6.0 0 -0.034866418689489365
-2.831639289855957 3.9045753479003906 0.08419041335582733 1.0 8 -0.034864116460084915
-2.066826581954956 2.8510172367095947 -0.812973141670227 1.0 1 -0.03486181050539017
-2.906522512435913 4.010777950286865 0.259586364030838 1.0 9 -0.03485950827598572
-2.4584343433380127 3.3924505710601807 -0.8143728375434875 2.0 2 -0.03485720232129097
-3.5112111568450928 4.846986293792725 0.5236316919326782 21.0 10 -0.03485490009188652
-2.8848776817321777 3.983839273452759 -0.7790436744689941 4.0 3 -0.03485259413719177
-3.4931752681732178 4.825629234313965 0.7314598560333252 30.0 11 -0.03485029190778732
-2.1342670917510986 2.9494588375091553 -0.44701680541038513 1.0 4 -0.034847985953092575
-3.4894514083862305 4.824033260345459 0.9429870843887329 24.0 12 -0.034845683723688126
-3.470654010772705 4.799805641174316 1.1513415575027466 23.0 13 -0.03484107553958893
-2.096653461456299 2.900675058364868 -0.18757207691669464 5.0 6 -0.03483877331018448
-3.4501779079437256 4.7750020027160645 1.3600542545318604 32.0 14 -0.03483646735548973
-3.4389808177948 4.763006210327148 1.5741374492645264 33.0 15 -0.03483185917139053
-1.9101957082748413 2.6524527072906494 -0.8758436441421509 6.0 0 -0.034811124205589294
-2.081948757171631 2.8920092582702637 0.06220037490129471 1.0 8 -0.034808818250894547
-2.0864577293395996 2.899339437484741 -0.8246706128120422 1.0 1 -0.0348065160214901
-2.886672019958496 4.01279354095459 0.2590630054473877 0.0 9 -0.03480421006679535
-2.4396979808807373 3.3914499282836914 -0.8120831251144409 2.0 2 -0.0348019078373909
-3.5163724422454834 4.889946460723877 0.5269436240196228 20.0 10 -0.03479960188269615
-2.8375179767608643 3.9473695755004883 -0.7699705362319946 2.0 3 -0.0347972996532917
-3.5064265727996826 4.8797078132629395 0.7377970814704895 25.0 11 -0.03479499742388725
-2.10774564743042 2.9343183040618896 -0.443604439496994 2.0 4 -0.034792691469192505
-3.4921786785125732 4.863461017608643 0.9483058452606201 28.0 12 -0.034790389239788055
-3.4779176712036133 4.845385551452637 1.1593555212020874 26.0 13 -0.03478578105568886
-2.0935025215148926 2.9177122116088867 -0.18820011615753174 4.0 6 -0.03478347510099411
-3.4630205631256104 4.828187465667725 1.3717516660690308 33.0 14 -0.03478117287158966
-2.150966167449951 3.000009775161743 -0.06443428248167038 1.0 7 -0.03477886691689491
-3.4358396530151367 4.7938232421875 1.5803492069244385 33.0 15 -0.03477656468749046
-1.891938328742981 2.646531820297241 -0.8717026114463806 6.0 0 -0.034755825996398926
-2.0718417167663574 2.8992583751678467 0.06220037490129471 1.0 8 -0.034753523766994476
-2.101245403289795 2.941490411758423 -0.8345685005187988 1.0 1 -0.03475122153759003
-2.806488513946533 3.930199146270752 0.25309672951698303 7.0 9 -0.03474891558289528
-2.4460980892181396 3.425509452819824 -0.8181890249252319 2.0 2 -0.03474661335349083
-3.525906801223755 4.939487934112549 0.5309528112411499 23.0 10 -0.03474430739879608
-2.8535544872283936 3.9990572929382324 -0.7781051397323608 2.0 3 -0.03474200516939163
-3.513577938079834 4.925856590270996 0.7429155707359314 25.0 11 -0.034739699214696884
-3.0379042625427246 4.260554790496826 -0.6424952149391174 4.0 4 -0.034737396985292435
-3.501552104949951 4.912618160247803 0.9555018544197083 29.0 12 -0.03473509103059769
-2.156724691390991 3.025848150253296 -0.3250909149646759 1.0 5 -0.03473278880119324
-3.4814882278442383 4.886277675628662 1.166224718093872 25.0 13 -0.03473048284649849
-2.0809881687164307 2.921748161315918 -0.18799078464508057 1.0 6 -0.03472818061709404
-3.471012592315674 4.87516975402832 1.3816494941711426 33.0 14 -0.03472587466239929
-2.1404802799224854 3.007500410079956 -0.06443428248167038 1.0 7 -0.03472357243299484
-3.4426043033599854 4.83884334564209 1.5912195444107056 36.0 15 -0.034721266478300095
-1.8905137777328491 2.6641485691070557 -0.8753260374069214 6.0 0 -0.034700531512498856
-2.136052370071411 3.0123934745788574 -0.8525645732879639 3.0 1 -0.03469592332839966
-2.791597843170166 3.9383411407470703 0.25299203395843506 27.0 9 -0.03469362109899521
-2.437532424926758 3.4388315677642822 -0.8193338513374329 1.0 2 -0.03469131514430046
-3.533982992172241 4.9875311851501465 0.5347875952720642 23.0 10 -0.03468901291489601
-2.8407187461853027 4.010606288909912 -0.7784180045127869 1.0 3 -0.03468670696020126
-3.5147171020507812 4.964012145996094 0.7468153834342957 32.0 11 -0.034684404730796814
-3.0436551570892334 4.300299167633057 -0.6468825340270996 17.0 4 -0.034682098776102066
-3.506058931350708 4.955450534820557 0.9614463448524475 27.0 12 -0.03467979654669762
-3.4802825450897217 4.920839786529541 1.1715673208236694 25.0 13 -0.03467518836259842
-2.9689576625823975 4.1994218826293945 -0.26953020691871643 1.0 6 -0.03467288240790367
-3.474217414855957 4.915903091430664 1.3897477388381958 31.0 14 -0.03467058017849922
-3.444636106491089 4.877657890319824 1.6000193357467651 35.0 15 -0.034665971994400024
-1.8845406770706177 2.675469160079956 -0.8768789768218994 6.0 0 -0.034645237028598785
-2.0515506267547607 2.913651943206787 0.06220037490129471 1.0 8 -0.03464293107390404
-2.1300113201141357 3.026205062866211 -0.8543641567230225 3.0 1 -0.03464062884449959
-2.807716131210327 3.9905312061309814 0.25571349263191223 5.0 9 -0.03463832288980484
-2.4266443252563477 3.4489243030548096 -0.8197154402732849 2.0 2 -0.03463602066040039
-3.537184715270996 5.029170036315918 0.5379252433776855 21.0 10 -0.03463371470570564
-2.82670259475708 4.0204973220825195 -0.7784180045127869 1.0 3 -0.03463141247630119
-3.519056558609009 5.007108211517334 0.7514464259147644 35.0 11 -0.034629106521606445
-3.0320498943328857 4.315769672393799 -0.6476137042045593 22.0 4 -0.034626804292201996
-3.509176015853882 4.996756553649902 0.9670779705047607 27.0 12 -0.03462449833750725
-3.051600456237793 4.345209121704102 -0.46454012393951416 1.0 5 -0.0346221961081028
-3.491286277770996 4.973127841949463 1.1811076402664185 25.0 13 -0.03461989015340805
-2.9680490493774414 4.229377269744873 -0.27078625559806824 26.0 6 -0.0346175879240036
-3.4760630130767822 4.95512056350708 1.3973960876464844 30.0 14 -0.03461528196930885
-3.44976544380188 4.921291351318359 1.6103720664978027 33.0 15 -0.034610673785209656
-1.869827389717102 2.676351308822632 -0.8748083710670471 6.0 0 -0.034586191177368164
-2.040347099304199 2.921508312225342 0.06220037490129471 1.0 8 -0.034583888947963715
-2.1161441802978516 3.0311663150787354 -0.8534643650054932 3.0 1 -0.03458158299326897
-2.7999300956726074 4.010622024536133 0.2563415467739105 7.0 9 -0.03457928076386452
-2.4133827686309814 3.458216905593872 -0.8197154402732849 2.0 2 -0.03457697480916977
-3.5429251194000244 5.078664779663086 0.5417600870132446 23.0 10 -0.03457467257976532
-2.8112432956695557 4.031322002410889 -0.7784180045127869 1.0 3 -0.03457236662507057
-3.5202364921569824 5.049896240234375 0.7558336853981018 28.0 11 -0.03457006439566612
-3.398770809173584 4.875649929046631 -0.7297537326812744 2.0 4 -0.034567758440971375
-3.5134241580963135 5.041999340057373 0.973335325717926 30.0 12 -0.034565456211566925
-3.0314762592315674 4.351990699768066 -0.46401718258857727 4.0 5 -0.03456315025687218
-3.496845006942749 5.021943092346191 1.1895033121109009 23.0 13 -0.03456084802746773
-2.971184015274048 4.268610954284668 -0.27256569266319275 32.0 6 -0.03455854207277298
-3.484596014022827 5.006214618682861 1.4081937074661255 40.0 14 -0.03455623984336853
-3.4592833518981934 4.973550319671631 1.623313069343567 32.0 15 -0.03455163165926933
-1.8642460107803345 2.6872987747192383 -0.8763613104820251 5.0 0 -0.034530896693468094
-2.826042890548706 4.0752410888671875 0.08656392991542816 1.0 8 -0.034528590738773346
-2.1171834468841553 3.054182291030884 -0.8579633831977844 3.0 1 -0.034526288509368896
-2.84350848197937 4.101955890655518 0.2615751326084137 0.0 9 -0.03452398255467415
-2.3940751552581787 3.4549050331115723 -0.8170441389083862 2.0 2 -0.0345216803252697
-3.5430831909179688 5.114952087402344 0.5443747639656067 25.0 10 -0.03451937437057495
-2.8023581504821777 4.047117710113525 -0.779669463634491 1.0 3 -0.0345170721411705
-3.5305874347686768 5.100715637207031 0.761683464050293 26.0 11 -0.034514766186475754
-3.448112726211548 4.98156213760376 -0.7438905239105225 3.0 4 -0.034512463957071304
-3.507925510406494 5.069865703582764 0.976464033126831 30.0 12 -0.034510158002376556
-3.5270421504974365 5.099401950836182 -0.5424573421478271 47.0 5 -0.03450785577297211
-3.5036206245422363 5.067422866821289 1.1975173950195312 27.0 13 -0.03450554981827736
-2.9763176441192627 4.306371212005615 -0.2743450999259949 30.0 6 -0.03450324758887291
-3.49013614654541 5.049803733825684 1.417191743850708 40.0 14 -0.03450094163417816
-3.4592397212982178 5.008837699890137 1.631077766418457 33.0 15 -0.034496333450078964
-1.8487493991851807 2.683919906616211 -0.8732554912567139 6.0 0 -0.034475598484277725
-2.762612819671631 4.012122631072998 0.08502812683582306 11.0 8 -0.034473296254873276
-2.103729724884033 3.056370258331299 -0.8566136360168457 3.0 1 -0.03447099030017853
-2.8201146125793457 4.098694324493408 0.2607377767562866 0.0 9 -0.03446868807077408
-2.3848297595977783 3.4660606384277344 -0.8178074359893799 2.0 2 -0.03446638211607933
-3.54416561126709 5.152939796447754 0.547163724899292 24.0 10 -0.03446407988667488
-2.7799696922302246 4.043365955352783 -0.7771665453910828 1.0 3 -0.03446177393198013
-3.531641721725464 5.138571262359619 0.7655832767486572 28.0 11 -0.034459471702575684
-3.423956871032715 4.983752727508545 -0.7424281239509583 3.0 4 -0.034457165747880936
-3.520402669906616 5.126044750213623 0.9849115610122681 31.0 12 -0.034454863518476486
-3.496817111968994 5.0936126708984375 -0.5405399203300476 40.0 5 -0.03445255756378174
-3.5045738220214844 5.1049113273620605 1.2036231756210327 27.0 13 -0.03445025533437729
-2.9823615550994873 4.345860004425049 -0.27622920274734497 11.0 6 -0.03444794937968254
-3.4945361614227295 5.094094753265381 1.4261897802352905 35.0 14 -0.03444564715027809
-3.4613935947418213 5.049564361572266 1.640395164489746 33.0 15 -0.034441038966178894
-1.847619652748108 2.7034380435943604 -0.8773965835571289 6.0 0 -0.034420304000377655
-2.748591661453247 4.021740913391113 0.08502812683582306 11.0 8 -0.03441799804568291
-2.094146728515625 3.065304756164551 -0.8570635914802551 3.0 1 -0.03441569581627846
-3.5773556232452393 5.238312244415283 0.33243802189826965 3.0 9 -0.03441338986158371
-2.3743247985839844 3.478020668029785 -0.8185706734657288 2.0 2 -0.03441108763217926
-3.551086902618408 5.2037458419799805 0.5511729121208191 21.0 10 -0.03440878167748451
-2.7539987564086914 4.037209987640381 -0.7740378379821777 1.0 3 -0.03440647944808006
-3.525989532470703 5.168905735015869 0.7682644128799438 26.0 11 -0.034404173493385315
-3.381936550140381 4.959590911865234 -0.737065851688385 3.0 4 -0.034401871263980865
-3.528076648712158 5.175845146179199 0.9921075105667114 30.0 12 -0.034399569034576416
-3.476773262023926 5.102494239807129 -0.5401912927627563 38.0 5 -0.03439726307988167
-3.50573468208313 5.146928310394287 1.2104923725128174 26.0 13 -0.03439496085047722
-3.468872547149658 5.094719886779785 -0.32301756739616394 38.0 6 -0.03439265489578247
-3.494480848312378 5.134256362915039 1.4338380098342896 31.0 14 -0.03439035266637802
-3.472001791000366 5.103143692016602 1.6538537740707397 34.0 15 -0.034385744482278824
-1.8370877504348755 2.7082717418670654 -0.8768789768218994 6.0 0 -0.034365005791187286
-2.741687774658203 4.043374538421631 0.08527245372533798 4.0 8 -0.03436270356178284
-2.0774316787719727 3.0648934841156006 -0.8548140525817871 3.0 1 -0.03436039760708809
-3.5837035179138184 5.287138938903809 0.3347408175468445 5.0 9 -0.03435809537768364
-2.3709802627563477 3.499289035797119 -0.8216235637664795 2.0 2 -0.03435578942298889
-3.5619490146636963 5.2590012550354 0.5557050108909607 21.0 10 -0.03435348719358444
-2.764254570007324 4.082784175872803 -0.7809209227561951 1.0 3 -0.03435118496417999
-3.5359504222869873 5.224536895751953 0.7746016383171082 23.0 11 -0.034348879009485245
-3.343712329864502 4.94235897064209 -0.7326785326004028 3.0 4 -0.034346576780080795
-3.539872646331787 5.23230504989624 1.0005549192428589 25.0 12 -0.03434427082538605
-3.4522430896759033 5.104698181152344 -0.5391454100608826 40.0 5 -0.0343419685959816
-3.515237331390381 5.199795246124268 1.220032811164856 23.0 13 -0.03433966264128685
-3.0809097290039062 4.559050559997559 -0.28837114572525024 34.0 6 -0.0343373604118824
-3.4939897060394287 5.1722612380981445 1.4410364627838135 31.0 14 -0.03433505445718765
-2.736865758895874 4.051466941833496 -0.08534227311611176 1.0 7 -0.0343327522277832
-3.4779505729675293 5.150455474853516 1.6652418375015259 33.0 15 -0.034330446273088455
-1.8384110927581787 2.7306935787200928 -0.8820553421974182 6.0 0 -0.034309711307287216
-2.0726959705352783 3.0798499584198 -0.8570635914802551 3.0 1 -0.03430510312318802
-3.614276885986328 5.372532367706299 0.33934637904167175 5.0 9 -0.03430280089378357
-2.347794532775879 3.49125337600708 -0.8178074359893799 2.0 2 -0.03430049493908882
-3.5702478885650635 5.311086177825928 0.559888482093811 21.0 10 -0.03429819270968437
-2.7573115825653076 4.101765155792236 -0.782798171043396 1.0 3 -0.034295886754989624
-3.546283483505249 5.277425765991211 0.7806950807571411 20.0 11 -0.034293584525585175
-3.048370122909546 4.538163185119629 -0.671256422996521 16.0 4 -0.03429127857089043
-3.533700942993164 5.262668132781982 1.00399649143219 18.0 12 -0.03428897634148598
-3.4299628734588623 5.110099792480469 -0.5384481549263 41.0 5 -0.03428667038679123
-3.5242326259613037 5.250546932220459 1.2291916608810425 20.0 13 -0.03428436815738678
-3.057985782623291 4.557631969451904 -0.28763845562934875 46.0 6 -0.03428206220269203
-3.502871513366699 5.222661018371582 1.4518342018127441 32.0 14 -0.03427975997328758
-3.485764265060425 5.201077938079834 1.677665114402771 33.0 15 -0.034275151789188385
-1.8207577466964722 2.723926067352295 -0.8779142498970032 6.0 0 -0.034254416823387146
-3.3862416744232178 5.067866325378418 0.10638986527919769 6.0 8 -0.0342521108686924
-2.0662624835968018 3.093547821044922 -0.8588631749153137 3.0 1 -0.03424980863928795
-3.6263937950134277 5.429330348968506 0.3421725034713745 4.0 9 -0.0342475026845932
-2.348196506500244 3.516979455947876 -0.8220051527023315 2.0 2 -0.03424520045518875
-3.6034953594207764 5.3991265296936035 0.5679067969322205 28.0 10 -0.034242894500494
-2.767096996307373 4.147516250610352 -0.7896813154220581 1.0 3 -0.034240592271089554
-3.5763041973114014 5.362438201904297 0.7914196252822876 22.0 11 -0.034238286316394806
-3.024801015853882 4.537214756011963 -0.6695502400398254 38.0 4 -0.034235984086990356
-3.5666325092315674 5.349964618682861 1.0183885097503662 24.0 12 -0.03423367813229561
-3.4019503593444824 5.104866027832031 -0.5367050766944885 41.0 5 -0.03423137590289116
-3.54288911819458 5.318370342254639 1.2421666383743286 18.0 13 -0.03422906994819641
-3.035414457321167 4.558304309844971 -0.28701040148735046 57.0 6 -0.03422676771879196
-3.5126965045928955 5.277032852172852 1.463531732559204 28.0 14 -0.034224461764097214
-3.486689805984497 5.2399516105651855 1.6864649057388306 25.0 15 -0.034219853579998016
-1.8101708889007568 2.7286548614501953 -0.8773965835571289 6.0 0 -0.03419911861419678
-3.3760509490966797 5.089065074920654 0.10659930109977722 48.0 8 -0.03419681638479233
-2.054914951324463 3.098759412765503 -0.8584132790565491 4.0 1 -0.03419451043009758
-3.5908656120300293 5.416986465454102 0.34060242772102356 6.0 9 -0.03419220820069313
-2.336989402770996 3.526792287826538 -0.8223868608474731 1.0 2 -0.03418990224599838
-3.6077308654785156 5.446554660797119 0.5715673565864563 32.0 10 -0.03418760001659393
-2.7511448860168457 4.153375625610352 -0.7890555262565613 1.0 3 -0.034185294061899185
-3.597954034805298 5.433854579925537 0.8001942038536072 38.0 11 -0.034182991832494736
-3.004261016845703 4.538943290710449 -0.668331503868103 48.0 4 -0.03418068587779999
-3.580636739730835 5.41180419921875 1.0277745723724365 39.0 12 -0.03417838364839554
-3.3731179237365723 5.10009241104126 -0.5349619388580322 42.0 5 -0.03417607769370079
-3.5663888454437256 5.392314434051514 1.2566680908203125 41.0 13 -0.03417377546429634
-3.029094934463501 4.5816731452941895 -0.2878477871417999 67.0 6 -0.03417146950960159
-3.5585689544677734 5.3845744132995605 1.490075945854187 46.0 14 -0.034169167280197144
-3.4939281940460205 5.290778636932373 1.6988881826400757 25.0 15 -0.034164559096097946
-1.8106751441955566 2.7491631507873535 -0.8820553421974182 6.0 0 -0.03414382413029671
-3.345069408416748 5.080777168273926 0.10618043690919876 46.0 8 -0.03414151817560196
-2.04087233543396 3.101029396057129 -0.8570635914802551 4.0 1 -0.03413921594619751
-3.6498730182647705 5.547954082489014 0.348034143447876 4.0 9 -0.03413690999150276
-2.333914041519165 3.5476434230804443 -0.8254397511482239 1.0 2 -0.03413460776209831
-3.6082611083984375 5.48678731918335 0.5745306611061096 28.0 10 -0.034132301807403564
-2.7344608306884766 4.159652233123779 -0.788429856300354 1.0 3 -0.034129999577999115
-3.575695276260376 5.441403388977051 0.7994629740715027 29.0 11 -0.03412769362330437
-2.9840407371520996 4.5427656173706055 -0.6673566102981567 49.0 4 -0.03412539139389992
-3.579073190689087 5.450688362121582 1.032780408859253 33.0 12 -0.03412308543920517
-3.35310697555542 5.108504772186279 -0.534613311290741 42.0 5 -0.03412078320980072
-3.5604708194732666 5.424426555633545 1.2612475156784058 38.0 13 -0.03411848098039627
-2.999936580657959 4.572179317474365 -0.2865917384624481 69.0 6 -0.03411617502570152
-3.5696780681610107 5.442588806152344 1.5026731491088867 56.0 14 -0.03411387279629707
-3.0096707344055176 4.590512752532959 -0.09581371396780014 1.0 7 -0.034111566841602325
-3.5199153423309326 5.3708038330078125 1.720629096031189 30.0 15 -0.034109264612197876
-1.7995294332504272 2.754164457321167 -0.881537675857544 6.0 0 -0.03408852592110634
-2.9149534702301025 4.461311340332031 0.09302133321762085 16.0 8 -0.03408622369170189
-2.0353641510009766 3.1162919998168945 -0.8593130707740784 4.0 1 -0.03408391773700714
-3.6097381114959717 5.528886795043945 0.3460453748703003 5.0 9 -0.03408161550760269
-2.3187484741210938 3.5528857707977295 -0.824676513671875 1.0 2 -0.034079309552907944
-3.618609666824341 5.546697616577148 0.5794113874435425 28.0 10 -0.034077007323503494
-2.742934465408325 4.206048488616943 -0.7953128814697266 1.0 3 -0.034074701368808746
-3.592461585998535 5.508723258972168 0.8075063228607178 29.0 11 -0.0340723991394043
-2.960575580596924 4.541513919830322 -0.6656504273414612 38.0 4 -0.03407009690999985
-3.596691846847534 5.519420146942139 1.043418049812317 36.0 12 -0.0340677909553051
-2.9861791133880615 4.584286689758301 -0.4786593019962311 9.0 5 -0.03406548872590065
-3.5587782859802246 5.4654083251953125 1.2677351236343384 35.0 13 -0.0340631827712059
-2.973351240158081 4.568079471588135 -0.28564968705177307 40.0 6 -0.03406088054180145
-3.531637191772461 5.427868843078613 1.4950248003005981 50.0 14 -0.034058574587106705
-2.9696366786956787 4.564115047454834 -0.09504580497741699 1.0 7 -0.034056272357702255
-3.5253708362579346 5.420306205749512 1.7325347661972046 33.0 15 -0.03405396640300751
-1.7857011556625366 2.7539451122283936 -0.8794671893119812 5.0 0 -0.03403323143720627
-2.895320415496826 4.466930389404297 0.09291661530733109 35.0 8 -0.03403092548251152
-2.0281665325164795 3.1302731037139893 -0.861112654209137 3.0 1 -0.03402862325310707
-3.6448230743408203 5.6275739669799805 0.35138362646102905 3.0 9 -0.03402631729841232
-2.304198741912842 3.55766224861145 -0.8239133358001709 1.0 2 -0.034024015069007874
-3.641453981399536 5.624522686004639 0.5862095355987549 31.0 10 -0.034021712839603424
-2.715358018875122 4.195696830749512 -0.7915585041046143 1.0 3 -0.034019406884908676
-3.6067521572113037 5.575188159942627 0.8153060078620911 29.0 11 -0.03401710465550423
-2.9514567852020264 4.56400203704834 -0.6673566102981567 9.0 4 -0.03401479870080948
-3.59895920753479 5.567401885986328 1.0499882698059082 36.0 12 -0.03401249647140503
-2.962588310241699 4.5829691886901855 -0.47743913531303406 24.0 5 -0.03401019051671028
-3.582300901412964 5.543754577636719 1.2829997539520264 37.0 13 -0.03400788828730583
-2.949802875518799 4.566686153411865 -0.2849169671535492 32.0 6 -0.034005582332611084
-3.568695306777954 5.526930332183838 1.5188696384429932 51.0 14 -0.034003280103206635
-2.9333698749542236 4.54472541809082 -0.0944175198674202 3.0 7 -0.03400097414851189
-3.5337603092193604 5.477019309997559 1.7465109825134277 38.0 15 -0.03399867191910744
-1.7802592515945435 2.7666594982147217 -0.881537675857544 5.0 0 -0.0339779369533062
-2.8742997646331787 4.468601226806641 0.09274208545684814 52.0 8 -0.03397563099861145
-2.0151188373565674 3.1340558528900146 -0.8602128624916077 3.0 1 -0.033973328769207
-3.6521551609039307 5.682265281677246 0.354000449180603 3.0 9 -0.03397102281451225
-2.2875208854675293 3.559077024459839 -0.8223868608474731 1.0 2 -0.0339687205851078
-3.636873722076416 5.660667896270752 0.5886498689651489 31.0 10 -0.033966414630413055
-2.707098960876465 4.215122699737549 -0.7934356927871704 1.0 3 -0.033964112401008606
-3.617298126220703 5.63451623916626 0.8221306800842285 29.0 11 -0.03396180644631386
-2.9505159854888916 4.597667217254639 -0.6707689166069031 2.0 4 -0.03395950421690941
-3.598701000213623 5.609859943389893 1.0556198358535767 35.0 12 -0.03395719826221466
-2.9422686100006104 4.586575984954834 -0.4767419099807739 33.0 5 -0.03395489603281021
-3.594719171524048 5.60580587387085 1.2944482564926147 37.0 13 -0.03395259007811546
-2.924142360687256 4.561822414398193 -0.28397491574287415 31.0 6 -0.033950287848711014
-3.572509527206421 5.5754523277282715 1.528767466545105 51.0 14 -0.033947981894016266
-2.920722484588623 4.5599894523620605 -0.09452223777770996 7.0 7 -0.033945679664611816
-3.544827699661255 5.536503791809082 1.7615224123001099 35.0 15 -0.03394337370991707
-1.7674710750579834 2.767972469329834 -0.8799847960472107 6.0 0 -0.03392263874411583
-2.844698190689087 4.456693649291992 0.09228832274675369 54.0 8 -0.03392033651471138
-2.011504888534546 3.1525704860687256 -0.8633622527122498 3.0 1 -0.03391803056001663
-3.3099257946014404 5.187546253204346 0.32249417901039124 4.0 9 -0.03391572833061218
-2.277194023132324 3.5703513622283936 -0.8231500387191772 2.0 2 -0.033913422375917435
-3.6428003311157227 5.713647365570068 0.5928333401679993 26.0 10 -0.033911120146512985
-2.677506685256958 4.201224327087402 -0.7890555262565613 1.0 3 -0.03390881419181824
-3.628537654876709 5.695661544799805 0.8291990756988525 24.0 11 -0.03390651196241379
-2.924853801727295 4.592867851257324 -0.6685752272605896 2.0 4 -0.03390420600771904
-3.6097896099090576 5.668415546417236 1.0643802881240845 33.0 12 -0.03390190377831459
-2.921961784362793 4.590095043182373 -0.4760446548461914 33.0 5 -0.03389959782361984
-3.596210479736328 5.651445388793945 1.3020806312561035 35.0 13 -0.03389729559421539
-2.9049859046936035 4.566945552825928 -0.283660888671875 46.0 6 -0.033894989639520645
-3.584395408630371 5.637221813201904 1.5422645807266235 55.0 14 -0.033892687410116196
-2.9098775386810303 4.576399326324463 -0.09466185420751572 10.0 7 -0.03389038145542145
-3.5513203144073486 5.587357044219971 1.773945689201355 35.0 15 -0.033888079226017
-1.7588316202163696 2.7757577896118164 -0.880502462387085 6.0 0 -0.03386734426021576
-2.820269823074341 4.450901508331299 0.0919741839170456 50.0 8 -0.03386503830552101
-1.9968690872192383 3.1526379585266113 -0.8615626096725464 3.0 1 -0.03386273607611656
-3.270430326461792 5.165318489074707 0.32040074467658997 1.0 9 -0.033860430121421814
-2.2752156257629395 3.5948679447174072 -0.8269662261009216 1.0 2 -0.033858127892017365
-3.652661085128784 5.773471355438232 0.5977140665054321 7.0 10 -0.03385582193732262
-2.659336805343628 4.203402519226074 -0.7878040671348572 1.0 3 -0.03385351970791817
-3.627668619155884 5.736184120178223 0.8333426117897034 22.0 11 -0.03385121375322342
-2.9159703254699707 4.612610340118408 -0.6700376868247986 1.0 4 -0.03384891152381897
-3.622694969177246 5.732747554779053 1.074079155921936 33.0 12 -0.03384660556912422
-2.9144325256347656 4.613742828369141 -0.47743913531303406 15.0 5 -0.03384430333971977
-3.5984179973602295 5.696537494659424 1.3097130060195923 35.0 13 -0.033841997385025024
-2.872762680053711 4.549534797668457 -0.28198617696762085 42.0 6 -0.033839695155620575
-3.590646982192993 5.688626289367676 1.5530622005462646 55.0 14 -0.033837392926216125
-2.9173598289489746 4.623736381530762 -0.09542976319789886 21.0 7 -0.03383508697152138
-3.5585885047912598 5.642204284667969 1.7874042987823486 34.0 15 -0.03383278474211693
-1.7537318468093872 2.7881157398223877 -0.8825729489326477 5.0 0 -0.03381204605102539
-2.80365252494812 4.4590253829956055 0.091939277946949 55.0 8 -0.03380974382162094
-1.981703281402588 3.1529901027679443 -0.8597630262374878 3.0 1 -0.03380743786692619
-3.2513160705566406 5.175012588500977 0.3202960789203644 15.0 9 -0.033805135637521744
-2.269549608230591 3.6123671531677246 -0.8292559385299683 1.0 2 -0.033802829682826996
-2.9277758598327637 4.661850452423096 0.4816226363182068 1.0 10 -0.033800527453422546
-2.6530492305755615 4.226044654846191 -0.7903069853782654 1.0 3 -0.0337982214987278
-3.641387701034546 5.802618980407715 0.8411422967910767 22.0 11 -0.03379591926932335
-2.8998525142669678 4.62276029586792 -0.6700376868247986 1.0 4 -0.0337936133146286
-3.6330935955047607 5.793892860412598 1.083152413368225 35.0 12 -0.03379131108522415
-3.2147016525268555 5.12864875793457 -0.5295583009719849 38.0 5 -0.0337890088558197
-3.607707977294922 5.755640506744385 1.3203983306884766 36.0 13 -0.033786702901124954
-2.8462605476379395 4.542609214782715 -0.2809394299983978 14.0 6 -0.033784400671720505
-3.5976614952087402 5.7440667152404785 1.564759612083435 55.0 14 -0.03378209471702576
-2.9203035831451416 4.664399147033691 -0.09605804830789566 22.0 7 -0.03377979248762131
-3.5624449253082275 5.692255973815918 1.7993099689483643 38.0 15 -0.03377748653292656
-1.7475923299789429 2.8010807037353516 -0.8846435546875 5.0 0 -0.03375675156712532
-2.795480966567993 4.4806599617004395 0.09218360483646393 50.0 8 -0.03375444561243057
-1.9727481603622437 3.1631946563720703 -0.8606628179550171 3.0 1 -0.03375214338302612
-3.2226672172546387 5.1693806648254395 0.31924936175346375 18.0 9 -0.033749837428331375
-2.2417585849761963 3.5973339080810547 -0.8239133358001709 2.0 2 -0.033747535198926926
-2.8706376552581787 4.608288288116455 0.47499880194664 1.0 10 -0.033745232969522476
-2.6312782764434814 4.225678443908691 -0.788429856300354 1.0 3 -0.03374292701482773
-3.6462948322296143 5.855735778808594 0.846992015838623 22.0 11 -0.03374062478542328
-2.889993190765381 4.642965316772461 -0.6715001463890076 1.0 4 -0.03373831883072853
-3.632673501968384 5.838407516479492 1.0890969038009644 33.0 12 -0.03373601660132408
-3.2009899616241455 5.146605968475342 -0.5302554965019226 47.0 5 -0.033733710646629333
-3.623906373977661 5.828845977783203 1.3341364860534668 35.0 13 -0.033731408417224884
-3.594067335128784 5.785353660583496 1.5724079608917236 47.0 14 -0.03372680023312569
-2.8829004764556885 4.640591621398926 -0.09535995125770569 40.0 7 -0.03372449427843094
-3.574148416519165 5.755531311035156 1.8153568506240845 26.0 15 -0.03372219204902649
-1.737803339958191 2.807164192199707 -0.8846435546875 5.0 0 -0.03370145335793495
-2.7979795932769775 4.521484851837158 0.09281189739704132 56.0 8 -0.0336991511285305
-1.9724173545837402 3.1886348724365234 -0.865611732006073 4.0 1 -0.03369684889912605
-3.1867401599884033 5.151724338531494 0.3174699544906616 6.0 9 -0.033694542944431305
-2.247771978378296 3.6351945400238037 -0.830782413482666 1.0 2 -0.033692240715026855
-2.894341468811035 4.682682037353516 0.4816226363182068 1.0 10 -0.03368993476033211
-2.6227402687072754 4.2449212074279785 -0.7903069853782654 1.0 3 -0.03368763253092766
-3.6571426391601562 5.921419143676758 0.854547917842865 24.0 11 -0.03368532657623291
-2.939695358276367 4.761631011962891 -0.6870994567871094 1.0 4 -0.03368302434682846
-3.642366409301758 5.899796485900879 1.0981700420379639 26.0 12 -0.03368071839213371
-3.1610305309295654 5.122143268585205 -0.5265949964523315 42.0 5 -0.03367841616272926
-3.6313672065734863 5.886575698852539 1.3444403409957886 33.0 13 -0.033676110208034515
-2.792715311050415 4.528860092163086 -0.27884599566459656 20.0 6 -0.033673807978630066
-3.6065709590911865 5.850949764251709 1.5868048667907715 56.0 14 -0.03367150202393532
-2.8352038860321045 4.5995588302612305 -0.09431280940771103 31.0 7 -0.03366919979453087
-3.577342987060547 5.8058013916015625 1.8272625207901 24.0 15 -0.03366689383983612
-1.718894362449646 2.7983975410461426 -0.8799847960472107 5.0 0 -0.03364615887403488
-2.7819247245788574 4.52903413772583 0.09277699887752533 54.0 8 -0.03364385664463043
-1.955715298652649 3.1851935386657715 -0.8629122972488403 3.0 1 -0.033641550689935684
-2.843820095062256 4.633426666259766 0.2849169671535492 2.0 9 -0.033639248460531235
-2.225829839706421 3.627957582473755 -0.8273478746414185 2.0 2 -0.03363694250583649
-2.594191789627075 4.230019569396973 -0.7859268188476562 1.0 3 -0.03363233432173729
-3.6675755977630615 5.9825921058654785 0.861616313457489 20.0 11 -0.03363003209233284
-3.077396869659424 5.021852970123291 -0.7231727838516235 1.0 4 -0.03362772613763809
-3.649610996246338 5.957954406738281 1.1066175699234009 28.0 12 -0.03362542390823364
-3.136890411376953 5.122950077056885 -0.5255491137504578 41.0 5 -0.033623117953538895
-3.6323320865631104 5.932070732116699 1.3520725965499878 38.0 13 -0.033620815724134445
-2.781853199005127 4.544909477233887 -0.2792646884918213 55.0 6 -0.0336185097694397
-3.612576484680176 5.9044342041015625 1.5980525016784668 55.0 14 -0.03361620754003525
-2.795135021209717 4.570190906524658 -0.09350999444723129 32.0 7 -0.0336139015853405
-3.5782172679901123 5.852865695953369 1.8381328582763672 25.0 15 -0.03361159935593605
-1.7216734886169434 2.8238754272460938 -0.886196494102478 6.0 0 -0.03359086439013481
-2.7608935832977295 4.530179500579834 0.09260246902704239 59.0 8 -0.033588558435440063
-1.9537088871002197 3.206979513168335 -0.8669614195823669 3.0 1 -0.033586256206035614
-2.8276302814483643 4.643324851989746 0.2849169671535492 6.0 9 -0.033583950251340866
-2.214808702468872 3.6369950771331787 -0.8277294635772705 1.0 2 -0.03358164802193642
-2.7836661338806152 4.57293176651001 0.46837493777275085 1.0 10 -0.03357934206724167
-2.593785285949707 4.2626752853393555 -0.7903069853782654 1.0 3 -0.03357703983783722
-3.664208173751831 6.024189472198486 0.8657599091529846 24.0 11 -0.03357473388314247
-3.0866611003875732 5.076665878295898 -0.7295099496841431 1.0 4 -0.03357243165373802
-3.6616203784942627 6.02467679977417 1.1166293621063232 30.0 12 -0.033570125699043274
-3.100222587585449 5.10097599029541 -0.5222371816635132 17.0 5 -0.033567823469638824
-3.631988525390625 5.978272438049316 1.3597049713134766 41.0 13 -0.03356551751494408
-2.7535300254821777 4.534107685089111 -0.2780086398124695 61.0 6 -0.03356321528553963
-3.6253135204315186 5.971981525421143 1.6128991842269897 50.0 14 -0.03356090933084488
-2.7781264781951904 4.578210830688477 -0.0934750959277153 72.0 7 -0.03355860710144043
-3.5818097591400146 5.90496301651001 1.8505562543869019 25.0 15 -0.03355630487203598
-1.7108051776885986 2.8282155990600586 -0.8856788277626038 6.0 0 -0.03353556618094444
-2.742995262145996 4.5363664627075195 0.09253265708684921 61.0 8 -0.03353326395153999
-1.9364548921585083 3.203772783279419 -0.864262044429779 3.0 1 -0.033530957996845245
-2.7845494747161865 4.608721733093262 0.282195508480072 4.0 9 -0.033528655767440796
-2.2102208137512207 3.6581473350524902 -0.830782413482666 1.0 2 -0.03352634981274605
-2.774898052215576 4.5945587158203125 0.46959516406059265 2.0 10 -0.0335240475833416
-2.582974672317505 4.278467178344727 -0.7915585041046143 1.0 3 -0.03352174162864685
-3.6739256381988525 6.087932109832764 0.87307208776474 28.0 11 -0.0335194393992424
-3.062770128250122 5.077210426330566 -0.7280475497245789 1.0 4 -0.03351713344454765
-3.667090654373169 6.0814032554626465 1.1247639656066895 28.0 12 -0.033514831215143204
-2.935275077819824 4.8677802085876465 -0.49731066823005676 22.0 5 -0.033512525260448456
-3.6415047645568848 6.041355609893799 1.371153473854065 41.0 13 -0.033510223031044006
-2.7315022945404053 4.533426284790039 -0.2773805856704712 63.0 6 -0.03350792080163956
-3.6245551109313965 6.017986297607422 1.6218972206115723 52.0 14 -0.03350561484694481
-2.7610979080200195 4.5861663818359375 -0.09344018250703812 70.0 7 -0.03350331261754036
-3.6000258922576904 5.981982231140137 1.8707441091537476 25.0 15 -0.03350100666284561
-1.7029098272323608 2.8374836444854736 -0.8867141008377075 5.0 0 -0.03348027169704437
-2.7302308082580566 4.5510573387146 0.09263737499713898 39.0 8 -0.033477965742349625
-1.9242583513259888 3.208840847015381 -0.8638120889663696 3.0 1 -0.033475663512945175
-2.737637519836426 4.567022323608398 0.2790553569793701 7.0 9 -0.03347335755825043
-2.191380500793457 3.6557371616363525 -0.8284926414489746 2.0 2 -0.03347105532884598
-2.753723621368408 4.595670700073242 0.4687235653400421 2.0 10 -0.03346874937415123
-2.5680229663848877 4.287458419799805 -0.7915585041046143 1.0 3 -0.03346644714474678
-3.6832425594329834 6.151814937591553 0.8803842067718506 22.0 11 -0.03346414491534233
-3.0511465072631836 5.098089694976807 -0.7295099496841431 1.0 4 -0.03346183896064758
-3.669163703918457 6.133156776428223 1.1319599151611328 29.0 12 -0.033459536731243134
-2.917241334915161 4.876287937164307 -0.49713635444641113 35.0 5 -0.033457230776548386
-3.649613857269287 6.102895259857178 1.3822205066680908 42.0 13 -0.033454928547143936
-2.645977020263672 4.4263596534729 -0.2702628970146179 68.0 6 -0.03345262259244919
-3.62951397895813 6.074096202850342 1.6335947513580322 56.0 14 -0.03345032036304474
-2.741995334625244 4.590627193450928 -0.09333546459674835 70.0 7 -0.03344801440834999
-3.599921941757202 6.02934455871582 1.8816145658493042 24.0 15 -0.03344571217894554
-1.6929954290390015 2.8434102535247803 -0.8867141008377075 5.0 0 -0.033424973487854004
-2.713303804397583 4.558842182159424 0.09260246902704239 12.0 8 -0.033422671258449554
-1.9180265665054321 3.2239127159118652 -0.8660616278648376 3.0 1 -0.033420369029045105
-2.7196383476257324 4.573116779327393 0.27884599566459656 7.0 9 -0.03341806307435036
-2.182621479034424 3.6701138019561768 -0.8300192356109619 1.0 2 -0.03341576084494591
-2.747844934463501 4.622382640838623 0.4704667031764984 1.0 10 -0.03341345489025116
-2.5732245445251465 4.330358982086182 -0.7978159189224243 1.0 3 -0.03341115266084671
-3.6931746006011963 6.217541217803955 0.8879401087760925 21.0 11 -0.03340884670615196
-2.9563064575195312 4.978986740112305 -0.7109857797622681 1.0 4 -0.03340654447674751
-3.6689064502716064 6.181599140167236 1.1385301351547241 28.0 12 -0.033404238522052765
-2.8981692790985107 4.883013725280762 -0.4967877268791199 9.0 5 -0.033401936292648315
-3.654334783554077 6.159496307373047 1.3921425342559814 42.0 13 -0.03339963033795357
-2.6356029510498047 4.444159030914307 -0.27078625559806824 76.0 6 -0.03339732810854912
-3.6381032466888428 6.137017250061035 1.6470917463302612 56.0 14 -0.03339502215385437
-2.7228970527648926 4.5950093269348145 -0.09323076158761978 72.0 7 -0.03339271992444992
-3.604450225830078 6.085090637207031 1.8950731754302979 24.0 15 -0.03339041396975517
-1.6801128387451172 2.8443121910095215 -0.8851611614227295 6.0 0 -0.033369679003953934
-2.691274642944336 4.557953834533691 0.09239304065704346 9.0 8 -0.033367376774549484
-1.9117146730422974 3.238978862762451 -0.8683111071586609 3.0 1 -0.033365070819854736
-2.7178683280944824 4.606664180755615 0.2803114056587219 4.0 9 -0.03336276859045029
-2.1618168354034424 3.664182186126709 -0.8269662261009216 1.0 2 -0.03336046263575554
-2.7276432514190674 4.625082015991211 0.4697694480419159 2.0 10 -0.03335816040635109
-2.546055793762207 4.318893909454346 -0.7940614223480225 1.0 3 -0.03335585445165634
-3.7057158946990967 6.288542747497559 0.896227240562439 36.0 11 -0.03335355222225189
-2.914726972579956 4.948226451873779 -0.7051360607147217 1.0 4 -0.033351246267557144
-3.6793806552886963 6.248838424682617 1.148542046546936 30.0 12 -0.033348944038152695
-2.795179843902588 4.747165203094482 -0.48197123408317566 1.0 5 -0.03334663808345795
-3.6616926193237305 6.221280574798584 1.4032094478607178 41.0 13 -0.0333443358540535
-2.622098445892334 4.456775665283203 -0.2709956169128418 73.0 6 -0.03334202989935875
-3.6492605209350586 6.205111980438232 1.6619385480880737 55.0 14 -0.0333397276699543
-2.7088687419891357 4.607933044433594 -0.09330056607723236 75.0 7 -0.03333742171525955
-3.6105904579162598 6.144271373748779 1.9095669984817505 24.0 15 -0.0333351194858551
-1.6711499691009521 2.8518266677856445 -0.8856788277626038 5.0 0 -0.033314384520053864
-2.6804003715515137 4.575948715209961 0.0925675630569458 7.0 8 -0.033312078565359116
-1.8935033082962036 3.233860969543457 -0.8651618361473083 3.0 1 -0.033309776335954666
-2.705805540084839 4.623019218444824 0.28073009848594666 6.0 9 -0.03330747038125992
-2.1609129905700684 3.6920394897460938 -0.8315456509590149 1.0 2 -0.03330516815185547
-2.719531774520874 4.648332118988037 0.47116392850875854 1.0 10 -0.03330286219716072
-2.53096342086792 4.327755928039551 -0.7940614223480225 1.0 3 -0.03330055996775627
-3.6957621574401855 6.322005748748779 0.8991521000862122 75.0 11 -0.03329825401306152
-2.6871156692504883 4.598446846008301 -0.6539509296417236 1.0 4 -0.033295951783657074
-3.6954047679901123 6.326461315155029 1.1604310274124146 66.0 12 -0.033293645828962326
-2.979573965072632 5.100972652435303 -0.5168335437774658 1.0 5 -0.03329134359955788
