# .PCD v0.7 - Point Cloud Data file format
VERSION 0.7
FIELDS x y z intensity ring time
SIZE 4 4 4 4 4 4
TYPE F F F F F F
COUNT 1 1 1 1 1 1
WIDTH 547
HEIGHT 1
VIEWPOINT 0 0 0 1 0 0 0
POINTS 547
DATA ascii
1.7285308837890625 -2.1254403591156006 0.0478195957839489 89.0 8 -0.06290380656719208
1.1125049591064453 -1.3684489727020264 -0.4071614444255829 6.0 1 -0.06290150433778763
1.7470972537994385 -2.1498024463653564 0.14517995715141296 81.0 9 -0.06289920210838318
1.3555127382278442 -1.6685529947280884 -0.41787171363830566 5.0 2 -0.06289689987897873
1.7420889139175415 -2.145169258117676 0.24177002906799316 81.0 10 -0.06289459019899368
1.7297040224075317 -2.1299188137054443 -0.43457499146461487 100.0 3 -0.06289228796958923
1.735335350036621 -2.137615203857422 0.33806559443473816 96.0 11 -0.06288998574018478
1.739965558052063 -2.1440837383270264 -0.3390405476093292 85.0 4 -0.06288768351078033
1.747255563735962 -2.1538350582122803 0.43926802277565 86.0 12 -0.06288537383079529
1.728041410446167 -2.1309101581573486 -0.24002692103385925 83.0 5 -0.06288307160139084
1.7398693561553955 -2.1454954147338867 0.5369365215301514 81.0 13 -0.06288076937198639
1.7344075441360474 -2.1395232677459717 -0.1443425863981247 99.0 6 -0.06287846714258194
1.7397592067718506 -2.146890878677368 0.6379612684249878 90.0 14 -0.06287616491317749
1.7370342016220093 -2.1442930698394775 -0.048168644309043884 84.0 7 -0.06287385523319244
1.7300175428390503 -2.1363937854766846 0.7365990281105042 82.0 15 -0.062871553003788
0.9104388952255249 -1.1271111965179443 -0.3882285952568054 6.0 0 -0.06285081803798676
1.7236137390136719 -2.1345725059509277 0.047889403998851776 86.0 8 -0.0628485158085823
1.102825403213501 -1.3662583827972412 -0.4053618311882019 6.0 1 -0.06284620612859726
1.7295485734939575 -2.1434528827667236 0.1443425863981247 81.0 9 -0.06284390389919281
1.349972128868103 -1.6730387210845947 -0.41787171363830566 6.0 2 -0.06284160166978836
1.7349656820297241 -2.1509344577789307 0.24177002906799316 85.0 10 -0.06283929944038391
1.718538761138916 -2.1313302516937256 -0.4336363673210144 104.0 3 -0.06283698976039886
1.7228800058364868 -2.137477397918701 0.3370906114578247 99.0 11 -0.06283468753099442
1.7225067615509033 -2.1377780437469482 -0.3370906114578247 85.0 4 -0.06283238530158997
1.7372485399246216 -2.1568443775177 0.438642293214798 96.0 12 -0.06283008307218552
1.7209656238555908 -2.1366286277770996 -0.24002692103385925 80.0 5 -0.06282778084278107
1.7348319292068481 -2.154613733291626 0.5376997590065002 85.0 13 -0.06282547116279602
1.7231718301773071 -2.140896797180176 -0.14402855932712555 100.0 6 -0.06282316893339157
1.7249248027801514 -2.143841028213501 0.6352618336677551 92.0 14 -0.06282086670398712
1.7295385599136353 -2.150343418121338 -0.048168644309043884 84.0 7 -0.06281856447458267
1.7201286554336548 -2.1394083499908447 0.7355638146400452 82.0 15 -0.06281625479459763
0.9040817618370056 -1.1272683143615723 -0.3871932923793793 6.0 0 -0.06279551982879639
1.7111485004425049 -2.1343352794647217 0.04774978384375572 89.0 8 -0.06279321759939194
1.0931748151779175 -1.364017128944397 -0.4035622179508209 6.0 1 -0.06279091536998749
1.714563250541687 -2.140124797821045 0.1437145471572876 87.0 9 -0.06278861314058304
1.3465789556503296 -1.6808053255081177 -0.41863495111465454 6.0 2 -0.06278630346059799
1.7274471521377563 -2.156977415084839 0.24177002906799316 85.0 10 -0.06278400123119354
1.7110885381698608 -2.1373159885406494 -0.4336363673210144 104.0 3 -0.06278169900178909
1.715408205986023 -2.1434783935546875 0.3370906114578247 99.0 11 -0.06277939677238464
1.7100738286972046 -2.137577772140503 -0.33611568808555603 88.0 4 -0.0627770870923996
1.7210731506347656 -2.1520962715148926 0.4364522099494934 88.0 12 -0.06277478486299515
1.7110084295272827 -2.1395108699798584 -0.239678293466568 83.0 5 -0.0627724826335907
1.7260746955871582 -2.159123182296753 0.5373181700706482 78.0 13 -0.06277018040418625
1.7169350385665894 -2.148458957672119 -0.14413323998451233 99.0 6 -0.0627678707242012
1.7125658988952637 -2.143758773803711 0.6334622502326965 90.0 14 -0.06276556849479675
1.7120392322540283 -2.143866777420044 -0.047889403998851776 91.0 7 -0.0627632662653923
1.7150607109069824 -2.1484193801879883 0.7365990281105042 84.0 15 -0.06276096403598785
0.9049549698829651 -1.1364622116088867 -0.3892638683319092 6.0 0 -0.06274022907018661
1.7086694240570068 -2.1465535163879395 0.047889403998851776 89.0 8 -0.06273791939020157
1.0981138944625854 -1.3800238370895386 -0.4071614444255829 6.0 1 -0.06273561716079712
1.7070825099945068 -2.146096706390381 0.1437145471572876 84.0 9 -0.06273331493139267
1.3358150720596313 -1.6793495416641235 -0.4171084761619568 5.0 2 -0.06273101270198822
1.7112269401550293 -2.1520779132843018 0.24054984748363495 90.0 10 -0.06272870302200317
1.6999298334121704 -2.138636827468872 -0.43269777297973633 100.0 3 -0.06272640079259872
1.7079155445098877 -2.1494534015655518 0.3370906114578247 93.0 11 -0.06272409856319427
1.7001327276229858 -2.140425205230713 -0.3356282114982605 88.0 4 -0.06272179633378983
1.7049517631530762 -2.147261619567871 0.43426209688186646 84.0 12 -0.06271948665380478
1.6960959434509277 -2.136108160018921 -0.2386324256658554 88.0 5 -0.06271718442440033
1.7173068523406982 -2.163597345352173 0.5369365215301514 81.0 13 -0.06271488219499588
1.7119076251983643 -2.1575682163238525 -0.1443425863981247 100.0 6 -0.06271257996559143
1.7026501893997192 -2.146669864654541 0.6325623989105225 90.0 14 -0.06271027028560638
1.6958484649658203 -2.1388611793518066 -0.047645069658756256 88.0 7 -0.06270796805620193
1.6931512355804443 -2.1362249851226807 0.7303873300552368 88.0 15 -0.06270566582679749
0.8854068517684937 -1.1199134588241577 -0.38253456354141235 6.0 0 -0.06268493086099625
1.6887670755386353 -2.1368160247802734 0.04754035547375679 91.0 8 -0.0626826286315918
1.0908739566802979 -1.38079035282135 -0.4062616229057312 5.0 1 -0.06268031895160675
1.6995807886123657 -2.1520423889160156 0.1437145471572876 90.0 9 -0.0626780167222023
1.3335952758789062 -1.688624382019043 -0.4182533621788025 6.0 2 -0.06267571449279785
1.6975317001342773 -2.150219202041626 0.239678293466568 85.0 10 -0.0626734122633934
1.6875593662261963 -2.138355016708374 -0.4314463138580322 100.0 3 -0.06267110258340836
1.7004022598266602 -2.1554019451141357 0.3370906114578247 95.0 11 -0.0626688003540039
1.6926509141921997 -2.1463465690612793 -0.3356282114982605 88.0 4 -0.06266649812459946
1.6950000524520874 -2.150097370147705 0.4336363673210144 84.0 12 -0.06266419589519501
1.6836950778961182 -2.1357572078704834 -0.2379351705312729 88.0 5 -0.06266188621520996
1.7048832178115845 -2.1634106636047363 0.5354101061820984 83.0 13 -0.06265958398580551
1.7006582021713257 -2.1588239669799805 -0.14402855932712555 100.0 6 -0.06265728175640106
1.692735195159912 -2.149538278579712 0.6316626071929932 94.0 14 -0.06265497952699661
1.6896092891693115 -2.1463394165039062 -0.047679975628852844 84.0 7 -0.06265267729759216
1.6809054613113403 -2.136049509048462 0.7283168435096741 88.0 15 -0.06265036761760712
0.8946132659912109 -1.1397130489349365 -0.3882285952568054 7.0 0 -0.06260371208190918
1.6738914251327515 -2.133258581161499 0.04733092710375786 94.0 8 -0.06260140985250473
1.0740203857421875 -1.369256615638733 -0.40176263451576233 4.0 1 -0.06259910762310028
1.68959379196167 -2.1548187732696533 0.14350520074367523 84.0 9 -0.06259679794311523
1.3216357231140137 -1.685544490814209 -0.4163452684879303 6.0 2 -0.06259449571371078
1.688786268234253 -2.1545636653900146 0.23950397968292236 90.0 10 -0.06259219348430634
1.673993468284607 -2.136458158493042 -0.4298819601535797 97.0 3 -0.06258989125490189
1.680627703666687 -2.1456966400146484 0.33465322852134705 93.0 11 -0.06258758157491684
1.6827008724212646 -2.149116277694702 -0.33514073491096497 88.0 4 -0.06258527934551239
1.6887023448944092 -2.1575565338134766 0.4339492619037628 88.0 12 -0.06258297711610794
1.6762298345565796 -2.1416211128234863 -0.2379351705312729 85.0 5 -0.06258067488670349
1.687643051147461 -2.1569788455963135 0.5323571562767029 87.0 13 -0.06257836520671844
1.6844990253448486 -2.1537346839904785 -0.14329586923122406 100.0 6 -0.062576062977314
1.685221552848816 -2.1554338932037354 0.6316626071929932 92.0 14 -0.06257376074790955
1.6808754205703735 -2.150648355484009 -0.047645069658756256 95.0 7 -0.0625714585185051
1.6734389066696167 -2.14190411567688 0.7283168435096741 86.0 15 -0.06256914883852005
0.8882544636726379 -1.1397813558578491 -0.3871932923793793 7.0 0 -0.06254841387271881
1.6688926219940186 -2.1422433853149414 0.047400735318660736 91.0 8 -0.06254611164331436
1.0788129568099976 -1.3852972984313965 -0.4053618311882019 4.0 1 -0.06254380941390991
1.6771541833877563 -2.1543993949890137 0.1430865228176117 90.0 9 -0.06254150718450546
1.3181560039520264 -1.6932458877563477 -0.4171084761619568 5.0 2 -0.06253919750452042
1.6751371622085571 -2.152583360671997 0.2386324256658554 87.0 10 -0.06253689527511597
1.661673903465271 -2.136051893234253 -0.4286305010318756 97.0 3 -0.06253459304571152
1.6658161878585815 -2.1421477794647217 0.33319082856178284 95.0 11 -0.06253229081630707
1.6678786277770996 -2.145573139190674 -0.33367830514907837 88.0 4 -0.06252998113632202
1.6763122081756592 -2.157198667526245 0.43269777297973633 88.0 12 -0.06252767890691757
1.6687438488006592 -2.1474592685699463 -0.2379351705312729 85.0 5 -0.06252537667751312
1.6801033020019531 -2.1628565788269043 0.5323571562767029 85.0 13 -0.06252307444810867
1.6671710014343262 -2.146981716156006 -0.1424584835767746 100.0 6 -0.06252076476812363
1.6705178022384644 -2.152067184448242 0.6289632320404053 90.0 14 -0.06251846253871918
1.6721320152282715 -2.1549227237701416 -0.047610167413949966 91.0 7 -0.06251616030931473
1.6695044040679932 -2.1523118019104004 0.7298697233200073 50.0 15 -0.06251385807991028
0.8913634419441223 -1.1520423889160156 -0.39029911160469055 7.0 0 -0.06249311938881874
1.6601810455322266 -2.1464743614196777 0.047365833073854446 97.0 8 -0.06249081715941429
1.0692027807235718 -1.382887840270996 -0.4035622179508209 6.0 1 -0.06248851120471954
1.6647381782531738 -2.1539194583892822 0.14266782999038696 90.0 9 -0.062486208975315094
1.3086357116699219 -1.693176507949829 -0.41596361994743347 6.0 2 -0.062483903020620346
1.6712675094604492 -2.163147449493408 0.2391553521156311 90.0 10 -0.0624816007912159
1.6517924070358276 -2.138712167739868 -0.42800474166870117 97.0 3 -0.06247929483652115
1.6559021472930908 -2.1448068618774414 0.3327033221721649 95.0 11 -0.0624769926071167
1.6543149948120117 -2.143524408340454 -0.33245959877967834 91.0 4 -0.06247468665242195
1.6627388000488281 -2.155216932296753 0.4311334192752838 86.0 12 -0.0624723844230175
1.6588035821914673 -2.150116205215454 -0.23758654296398163 88.0 5 -0.062470078468322754
1.6749411821365356 -2.1718175411224365 0.5331203937530518 83.0 13 -0.062467776238918304
1.6596665382385254 -2.152787923812866 -0.1424584835767746 100.0 6 -0.062465470284223557
1.6572774648666382 -2.1512417793273926 -0.047400735318660736 98.0 7 -0.06246086582541466
0.877921998500824 -1.1428906917572021 -0.3861580491065979 6.0 0 -0.06243782490491867
1.6514604091644287 -2.1506705284118652 0.04733092710375786 101.0 8 -0.06243551895022392
1.0691156387329102 -1.3927949666976929 -0.4053618311882019 5.0 1 -0.06243321672081947
1.6523460149765015 -2.153379201889038 0.14224915206432343 90.0 9 -0.062430910766124725
1.3027173280715942 -1.6977342367172241 -0.41596361994743347 6.0 2 -0.062428608536720276
1.65885591506958 -2.162644624710083 0.23845809698104858 93.0 10 -0.06242630258202553
1.6479229927062988 -2.149168014526367 -0.42894333600997925 93.0 3 -0.06242400035262108
1.653235912322998 -2.1568763256073 0.33367830514907837 96.0 11 -0.06242169439792633
1.6468225717544556 -2.1492860317230225 -0.33245959877967834 91.0 4 -0.06241939216852188
1.654004454612732 -2.1594398021698 0.4308205842971802 68.0 12 -0.06241708993911743
1.646442174911499 -2.149566650390625 -0.2368893027305603 88.0 5 -0.062414783984422684
1.652141809463501 -2.1585683822631836 -0.1424584835767746 100.0 6 -0.062410175800323486
1.630585789680481 -2.1311755180358887 0.6195152401924133 1.0 14 -0.06240787357091904
1.646113395690918 -2.1522486209869385 -0.04729602113366127 95.0 7 -0.06240556761622429
1.5863828659057617 -2.0749025344848633 0.6998467445373535 1.0 15 -0.06240326538681984
0.8668982982635498 -1.1367313861846924 -0.38305220007896423 7.0 0 -0.0623825266957283
1.6342443227767944 -2.1436996459960938 0.04705168679356575 97.0 8 -0.06238022446632385
1.0642472505569458 -1.3965184688568115 -0.4053618311882019 6.0 1 -0.062377918511629105
1.649660587310791 -2.1654887199401855 0.14266782999038696 93.0 9 -0.062375616282224655
1.2944040298461914 -1.6991479396820068 -0.415200412273407 6.0 2 -0.06237331032752991
1.6428472995758057 -2.1573262214660645 0.23723793029785156 85.0 10 -0.06237100809812546
1.6308389902114868 -2.1423327922821045 -0.42644038796424866 100.0 3 -0.06236870586872101
1.6505051851272583 -2.168952703475952 0.33465322852134705 31.0 11 -0.06236639991402626
1.6417137384414673 -2.1581811904907227 -0.3329470753669739 91.0 4 -0.06236409768462181
1.631692886352539 -2.145784854888916 -0.23584343492984772 88.0 5 -0.062359489500522614
1.576573371887207 -2.074050188064575 0.5064070820808411 1.0 13 -0.062357183545827866
1.6421802043914795 -2.161141872406006 -0.14224915206432343 100.0 6 -0.062354881316423416
1.5783441066741943 -2.077885150909424 0.6024189591407776 1.0 14 -0.06235257536172867
1.6325443983078003 -2.1500182151794434 -0.04712149500846863 98.0 7 -0.06235027313232422
0.8675895929336548 -1.145911455154419 -0.38512274622917175 7.0 0 -0.06232723221182823
1.6219245195388794 -2.1430132389068604 0.046912070363759995 94.0 8 -0.062324926257133484
1.0523114204406738 -1.3909003734588623 -0.4026624262332916 4.0 1 -0.062322624027729034
1.643296480178833 -2.1728270053863525 0.14277251064777374 48.0 9 -0.062320321798324585
1.2872806787490845 -1.7020899057388306 -0.41481876373291016 5.0 2 -0.06231801584362984
1.6185868978500366 -2.1417086124420166 -0.42518892884254456 107.0 3 -0.06231340765953064
1.6305813789367676 -2.159146308898926 -0.3322158455848694 97.0 4 -0.06230879947543144
1.5579557418823242 -2.063727378845215 0.4095454514026642 2.0 12 -0.06230649724602699
1.621791958808899 -2.148287296295166 -0.23549480736255646 85.0 5 -0.062304191291332245
1.6274094581604004 -2.1572940349578857 -0.14162111282348633 100.0 6 -0.06229958310723305
1.6286407709121704 -2.160494565963745 -0.04722621291875839 102.0 7 -0.06229497492313385
1.5718587636947632 -2.0859270095825195 0.6998467445373535 3.0 15 -0.0622926726937294
0.870548665523529 -1.1581984758377075 -0.3882285952568054 7.0 0 -0.06227193772792816
1.6204402446746826 -2.1566553115844727 0.04708659276366234 35.0 8 -0.062269631773233414
1.053301453590393 -1.4023560285568237 -0.40491193532943726 5.0 1 -0.062267329543828964
1.2872251272201538 -1.7144228219985962 -0.41672685742378235 6.0 2 -0.06226272135972977
1.5727306604385376 -2.095442056655884 0.22921960055828094 1.0 10 -0.06226041540503502
1.6122864484786987 -2.14892578125 -0.4255017936229706 104.0 3 -0.06225811317563057
1.5305100679397583 -2.0406720638275146 0.31320425868034363 2.0 11 -0.06225580722093582
1.6135083436965942 -2.152118682861328 -0.33026593923568726 86.0 4 -0.06225350499153137
1.6166727542877197 -2.1571238040924072 -0.23584343492984772 88.0 5 -0.062248896807432175
1.6162775754928589 -2.15816593170166 -0.14130708575248718 100.0 6 -0.06224428862333298
1.552120566368103 -2.0732531547546387 0.5979199409484863 2.0 14 -0.06224198266863823
1.615098476409912 -2.158161163330078 -0.04705168679356575 44.0 7 -0.06223968043923378
1.562253475189209 -2.0883071422576904 0.698811411857605 6.0 15 -0.06223737448453903
0.8618791699409485 -1.1550370454788208 -0.3861580491065979 6.0 0 -0.06221663951873779
1.0437405109405518 -1.3997751474380493 -0.4031123220920563 6.0 1 -0.062212031334638596
1.5314046144485474 -2.054536819458008 0.1342940777540207 4.0 9 -0.062209729105234146
1.2765398025512695 -1.7126095294952393 -0.415200412273407 6.0 2 -0.0622074231505394
1.5654066801071167 -2.100919246673584 0.22921960055828094 1.0 10 -0.06220512092113495
1.6035956144332886 -2.152956485748291 -0.42518892884254456 100.0 3 -0.0622028149664402
1.6012452840805054 -2.1513683795928955 -0.3292909860610962 95.0 4 -0.062198206782341
1.544689416885376 -2.076138496398926 0.4098583459854126 1.0 12 -0.062195904552936554
1.609133243560791 -2.1627540588378906 -0.23584343492984772 80.0 5 -0.062193598598241806
1.5489095449447632 -2.0825693607330322 0.5044990181922913 3.0 13 -0.06219129636883736
1.5448741912841797 -2.07865834236145 0.5979199409484863 5.0 14 -0.06218668818473816
1.557258129119873 -2.0968496799468994 0.6998467445373535 6.0 15 -0.06218208000063896
0.8578421473503113 -1.1580383777618408 -0.3861580491065979 7.0 0 -0.06216134503483772
1.5339429378509521 -2.0714921951293945 0.04499230161309242 4.0 8 -0.062159039080142975
1.045804500579834 -1.4128079414367676 -0.40581172704696655 5.0 1 -0.062156736850738525
1.2553725242614746 -1.6965385675430298 -0.4102393686771393 5.0 2 -0.06215212866663933
1.5948959589004517 -2.156952381134033 -0.42487606406211853 104.0 3 -0.06214752048254013
1.5610640048980713 -2.111968517303467 0.32246631383895874 2.0 11 -0.06214521452784538
1.5937259197235107 -2.156944513320923 -0.3292909860610962 94.0 4 -0.06214291229844093
1.545648455619812 -2.0926403999328613 0.41204842925071716 4.0 12 -0.062140606343746185
1.5427969694137573 -2.089543104171753 0.5048806071281433 4.0 13 -0.062136001884937286
1.5264500379562378 -2.0681583881378174 -0.13471277058124542 3.0 6 -0.06213369593024254
1.536451816558838 -2.082470178604126 0.5974700450897217 4.0 14 -0.06213139370083809
1.5157198905944824 -2.055121421813965 -0.04457344859838486 6.0 7 -0.06212908774614334
1.5453435182571411 -2.096052885055542 0.6977761387825012 6.0 15 -0.06212678551673889
0.849216639995575 -1.154800534248352 -0.384087473154068 6.0 0 -0.062106046825647354
1.0339428186416626 -1.4070277214050293 -0.4031123220920563 5.0 1 -0.06210143864154816
1.5584083795547485 -2.1215155124664307 0.1379576027393341 2.0 9 -0.06209913641214371
1.2587412595748901 -1.7135682106018066 -0.4132923185825348 6.0 2 -0.06209683045744896
1.543625831604004 -2.102160692214966 0.22817371785640717 3.0 10 -0.06209452822804451
1.5803439617156982 -2.152952194213867 -0.4229988753795624 104.0 3 -0.06209222227334976
1.5489847660064697 -2.1110029220581055 0.3214913308620453 3.0 11 -0.06208992004394531
1.5861871242523193 -2.162494421005249 -0.3292909860610962 90.0 4 -0.06208761781454086
1.5324939489364624 -2.090057849884033 0.41048407554626465 5.0 12 -0.062085311859846115
1.5209518671035767 -2.0743165016174316 -0.2250361144542694 3.0 5 -0.062083009630441666
1.5308510065078735 -2.0885815620422363 0.5033541321754456 3.0 13 -0.06208070367574692
1.5263041257858276 -2.0831408500671387 -0.13534079492092133 1.0 6 -0.06207840144634247
1.5326279401779175 -2.0925371646881104 0.5988197326660156 4.0 14 -0.06207609549164772
1.528889775276184 -2.088963031768799 0.6936350464820862 6.0 15 -0.06207148730754852
0.84745854139328 -1.1608784198760986 -0.38512274622917175 6.0 0 -0.062050752341747284
1.5241590738296509 -2.0886118412017822 0.045131925493478775 3.0 8 -0.062048446387052536
1.0244312286376953 -1.404330849647522 -0.4013127088546753 5.0 1 -0.06204614415764809
1.543125033378601 -2.1153769493103027 0.13722489774227142 5.0 9 -0.06204383820295334
1.2539087533950806 -1.7195379734039307 -0.41367393732070923 6.0 2 -0.06204153597354889
1.5327577590942383 -2.1027064323425293 0.22765080630779266 5.0 10 -0.06203923374414444
1.569329023361206 -2.1536660194396973 -0.4220602512359619 107.0 3 -0.06203692778944969
1.5322564840316772 -2.1035609245300293 0.31954145431518555 4.0 11 -0.06203462556004524
1.5751234292984009 -2.1632039546966553 -0.3285597860813141 91.0 4 -0.062032319605350494
1.5325312614440918 -2.1047096252441406 0.4123612940311432 4.0 12 -0.062030017375946045
1.5166207551956177 -2.08438777923584 0.5010644793510437 3.0 13 -0.06202540919184685
1.544869065284729 -2.123990058898926 -0.13764357566833496 1.0 6 -0.0620231032371521
1.5241681337356567 -2.0962982177734375 0.598369836807251 4.0 14 -0.06202080100774765
1.5275671482086182 -2.100973129272461 -0.04534135013818741 3.0 7 -0.0620184950530529
1.5174109935760498 -2.087770700454712 0.6915645003318787 6.0 15 -0.06201619282364845
0.8411338925361633 -1.160701036453247 -0.384087473154068 7.0 0 -0.061995457857847214
1.5183978080749512 -2.095273971557617 0.045166827738285065 6.0 8 -0.061993151903152466
1.0174822807312012 -1.4045639038085938 -0.400412917137146 4.0 1 -0.061990849673748016
1.5216745138168335 -2.1013383865356445 0.13596881926059723 5.0 9 -0.06198854371905327
1.2513524293899536 -1.728675365447998 -0.41481876373291016 9.0 2 -0.06198624148964882
1.5254085063934326 -2.108043909072876 0.22765080630779266 5.0 10 -0.06198393553495407
1.5575462579727173 -2.152456760406494 -0.4208087623119354 100.0 3 -0.06198163330554962
1.5136381387710571 -2.092546224594116 0.3171040713787079 3.0 11 -0.061979327350854874
1.5586360692977905 -2.155546188354492 -0.32660984992980957 91.0 4 -0.061977025121450424
1.5251750946044922 -2.11004638671875 0.4123612940311432 4.0 12 -0.061974719166755676
1.5097002983093262 -2.0894055366516113 0.5010644793510437 3.0 13 -0.06197011098265648
1.5109200477600098 -2.091862440109253 -0.13523612916469574 9.0 6 -0.06196780875325203
1.5092228651046753 -2.0902812480926514 0.5952205061912537 4.0 14 -0.06196550279855728
1.51788330078125 -2.1030495166778564 -0.04527154192328453 6.0 7 -0.06196320056915283
1.5078535079956055 -2.089921474456787 0.6905292868614197 6.0 15 -0.061960894614458084
0.8395370841026306 -1.166619896888733 -0.38512274622917175 7.0 0 -0.061940159648656845
1.5110749006271362 -2.1005613803863525 0.045166827738285065 6.0 8 -0.061937857419252396
1.0125731229782104 -1.408107042312622 -0.400412917137146 6.0 1 -0.06193555146455765
1.509667158126831 -2.1001503467559814 0.1355501413345337 6.0 9 -0.0619332492351532
1.2490507364273071 -1.7375978231430054 -0.41596361994743347 11.0 2 -0.06193094328045845
1.5160843133926392 -2.1098546981811523 0.2273021638393402 6.0 10 -0.061928641051054
1.5546334981918335 -2.1642980575561523 -0.4220602512359619 107.0 3 -0.06192633509635925
1.5063245296478271 -2.0978171825408936 0.3171040713787079 4.0 11 -0.0619240328669548
1.5476295948028564 -2.1561357975006104 -0.32587864995002747 95.0 4 -0.061921726912260056
1.506284236907959 -2.0993077754974365 0.40923261642456055 4.0 12 -0.061919424682855606
1.530872106552124 -2.133575916290283 -0.22974254190921783 1.0 5 -0.06191711872816086
1.5046863555908203 -2.097853422164917 0.5018276572227478 3.0 13 -0.06191481649875641
1.5001174211502075 -2.092254400253296 -0.1349221020936966 10.0 6 -0.06191251054406166
1.4973762035369873 -2.089200973510742 0.5934209227561951 5.0 14 -0.06191020831465721
1.4988869428634644 -2.0920794010162354 -0.044922493398189545 6.0 7 -0.06190790235996246
1.5005491971969604 -2.095172166824341 0.6905292868614197 6.0 15 -0.061905600130558014
0.8287222385406494 -1.160111665725708 -0.3820169270038605 7.0 0 -0.061884865164756775
1.4990850687026978 -2.099313497543335 0.04502721130847931 6.0 8 -0.06188255921006203
1.007651686668396 -1.411633014678955 -0.400412917137146 5.0 1 -0.06188025698065758
1.506967306137085 -2.111910343170166 0.13596881926059723 5.0 9 -0.06187795102596283
1.2372760772705078 -1.7339566946029663 -0.4140555262565613 13.0 2 -0.06187564879655838
1.499454379081726 -2.1021575927734375 0.22590766847133636 5.0 10 -0.06187334284186363
1.542481541633606 -2.1632778644561768 -0.4208087623119354 107.0 3 -0.06187104061245918
1.4966880083084106 -2.0998294353485107 0.31661656498908997 4.0 11 -0.061868734657764435
1.5423977375030518 -2.1647584438323975 -0.326366126537323 88.0 4 -0.061866432428359985
1.4966555833816528 -2.101335048675537 0.4086068868637085 4.0 12 -0.06186412647366524
1.4979865550994873 -2.103203773498535 -0.22590766847133636 1.0 5 -0.06186182424426079
1.4950768947601318 -2.0998942852020264 0.5010644793510437 3.0 13 -0.06185951828956604
1.492805004119873 -2.097477912902832 -0.1349221020936966 10.0 6 -0.06185721606016159
1.4821664094924927 -2.0833001136779785 0.5902715921401978 4.0 14 -0.06185491383075714
1.4892570972442627 -2.0940396785736084 -0.04485268518328667 6.0 7 -0.06185260787606239
1.4887489080429077 -2.0940990447998047 0.6884586811065674 6.0 15 -0.061850305646657944
0.8269023895263672 -1.1661490201950073 -0.38305220007896423 6.0 0 -0.061829566955566406
1.477871298789978 -2.084956407546997 0.044608354568481445 6.0 8 -0.06182726472616196
1.0027180910110474 -1.4151418209075928 -0.400412917137146 6.0 1 -0.06182495877146721
1.4972773790359497 -2.113898277282715 0.13575948774814606 5.0 9 -0.06182265654206276
1.249372124671936 -1.763898491859436 -0.4201614260673523 17.0 2 -0.06182035058736801
1.5070745944976807 -2.1285176277160645 0.22817371785640717 4.0 10 -0.06181804835796356
1.5303561687469482 -2.1621994972229004 -0.4195573031902313 107.0 3 -0.061815742403268814
1.4847630262374878 -2.0985589027404785 0.3156416416168213 4.0 11 -0.061813440173864365
1.5325393676757812 -2.1668877601623535 -0.32587864995002747 95.0 4 -0.06181113421916962
1.4858901500701904 -2.1017072200775146 0.40766826272010803 4.0 12 -0.06180883198976517
1.5029165744781494 -2.126577854156494 -0.2278251051902771 1.0 5 -0.06180652976036072
1.4809391498565674 -2.0954806804656982 0.4987747371196747 3.0 13 -0.06180422380566597
1.4889317750930786 -2.107569694519043 -0.13523612916469574 9.0 6 -0.06180192157626152
1.4838786125183105 -2.1011955738067627 0.5938708186149597 4.0 14 -0.06179961562156677
1.4888579845428467 -2.10902738571167 -0.0450621135532856 6.0 7 -0.06179731339216232
1.479202389717102 -2.0961263179779053 0.6874234080314636 6.0 15 -0.061795007437467575
0.8226226568222046 -1.169171929359436 -0.38305220007896423 6.0 0 -0.061774272471666336
1.465981364250183 -2.0835607051849365 0.04446873068809509 6.0 8 -0.06177196651697159
0.9955301284790039 -1.4154454469680786 -0.3995131254196167 6.0 1 -0.06176966428756714
1.48988938331604 -2.1191117763519287 0.13575948774814606 4.0 9 -0.06176735833287239
1.247414231300354 -1.7748907804489136 -0.42168790102005005 17.0 2 -0.06176505610346794
1.4855186939239502 -2.1144638061523438 0.2260819971561432 4.0 10 -0.06176275387406349
1.5190153121948242 -2.1629443168640137 -0.41861867904663086 111.0 3 -0.061760447919368744
1.468301773071289 -2.0907328128814697 0.3136917054653168 3.0 11 -0.061758145689964294
1.5295286178588867 -2.178723096847534 -0.32685360312461853 90.0 4 -0.061755839735269547
1.4796793460845947 -2.1084983348846436 0.40798112750053406 4.0 12 -0.0617535375058651
1.4771771430969238 -2.1057138442993164 -0.2250361144542694 1.0 5 -0.06175123155117035
1.4664859771728516 -2.09125018119812 0.49648505449295044 3.0 13 -0.0617489293217659
1.4720253944396973 -2.099928855895996 -0.13439874351024628 9.0 6 -0.06174662336707115
1.4661026000976562 -2.092256784439087 0.5898216962814331 4.0 14 -0.0617443211376667
1.4723066091537476 -2.1011104583740234 -0.04478287696838379 6.0 7 -0.061742015182971954
1.4740933179855347 -2.1044411659240723 0.6884586811065674 6.0 15 -0.061739712953567505
0.8207488656044006 -1.1752040386199951 -0.384087473154068 6.0 0 -0.06171897426247597
1.4629138708114624 -2.0954785346984863 0.044608354568481445 6.0 8 -0.06171667203307152
0.9836439490318298 -1.4094963073730469 -0.39681369066238403 6.0 1 -0.06171436980366707
1.4733390808105469 -2.111196756362915 0.1349221020936966 5.0 9 -0.06171206384897232
1.2501972913742065 -1.7921156883239746 -0.42474085092544556 19.0 2 -0.06170976161956787
1.4838272333145142 -2.1278076171875 0.22695355117321014 5.0 10 -0.06170745566487312
1.5069372653961182 -2.1617517471313477 -0.41736721992492676 111.0 3 -0.061705153435468674
1.460628867149353 -2.096100330352783 0.3136917054653168 3.0 11 -0.061702847480773926
1.5037554502487183 -2.157989978790283 -0.3229537904262543 88.0 4 -0.061700545251369476
1.4677940607070923 -2.1071667671203613 0.40672966837882996 4.0 12 -0.06169823929667473
1.4766488075256348 -2.1206676959991455 -0.2260819971561432 1.0 5 -0.06169593706727028
1.4591771364212036 -2.0963563919067383 0.49648505449295044 3.0 13 -0.06169363111257553
1.4578419923782349 -2.0952179431915283 -0.13377071917057037 9.0 6 -0.06169132888317108
1.45693039894104 -2.093907594680786 0.5889219045639038 5.0 14 -0.061689022928476334
1.4718142747879028 -2.116086483001709 -0.04499230161309242 6.0 7 -0.061686720699071884
1.457916021347046 -2.0968849658966064 0.6843175888061523 6.0 15 -0.061684414744377136
0.8157463073730469 -1.1763317584991455 -0.3835698664188385 5.0 0 -0.0616636797785759
1.4536782503128052 -2.0970311164855957 0.04453853890299797 6.0 8 -0.06166137754917145
0.9856241941452026 -1.422360897064209 -0.3995131254196167 6.0 1 -0.0616590715944767
1.4526792764663696 -2.0963711738586426 0.1336660534143448 5.0 9 -0.06165676936507225
1.2509552240371704 -1.8059347867965698 -0.4270305633544922 17.0 2 -0.0616544634103775
1.4642865657806396 -2.1146981716156006 0.2250361144542694 4.0 10 -0.06165216118097305
1.500884771347046 -2.168361186981201 -0.4176800549030304 114.0 3 -0.061649855226278305
1.4491519927978516 -2.09440279006958 0.3127167820930481 4.0 11 -0.061647552996873856
1.4909435510635376 -2.1548025608062744 -0.32173508405685425 91.0 4 -0.06164524704217911
1.4540563821792603 -2.1022748947143555 0.40485242009162903 5.0 12 -0.06164294481277466
1.4582775831222534 -2.1091647148132324 -0.22433887422084808 1.0 5 -0.06164063885807991
1.4522173404693604 -2.1011836528778076 0.49648505449295044 3.0 13 -0.06163833662867546
1.4554270505905151 -2.1066136360168457 -0.1341894119977951 9.0 6 -0.06163603067398071
1.4411171674728394 -2.0859014987945557 0.5853226780891418 4.0 14 -0.06163372844457626
1.4534252882003784 -2.104501485824585 -0.044643256813287735 6.0 7 -0.061631422489881516
1.4575397968292236 -2.1112468242645264 0.6874234080314636 6.0 15 -0.061629120260477066
0.8129366636276245 -1.1806213855743408 -0.384087473154068 6.0 0 -0.06160838529467583
1.44671630859375 -2.1018402576446533 0.04453853890299797 6.0 8 -0.06160607933998108
0.9853204488754272 -1.432043194770813 -0.4013127088546753 6.0 1 -0.06160377711057663
1.452143669128418 -2.1113030910491943 0.1342940777540207 4.0 9 -0.06160147115588188
1.248297095298767 -1.8149261474609375 -0.4281754195690155 15.0 2 -0.06159916892647743
1.4583947658538818 -2.1211841106414795 0.22521042823791504 5.0 10 -0.061596862971782684
1.4948046207427979 -2.1749541759490967 -0.4179929494857788 111.0 3 -0.061594560742378235
1.4399504661560059 -2.0959243774414062 0.3122292757034302 3.0 11 -0.06159225478768349
1.4811651706695557 -2.156721353530884 -0.3212476074695587 91.0 4 -0.06158995255827904
1.4444730281829834 -2.1040804386138916 0.404226690530777 4.0 12 -0.06158764660358429
1.4689439535140991 -2.140526533126831 -0.22712786495685577 1.0 5 -0.06158534437417984
1.4474632740020752 -2.109225034713745 0.4972482919692993 3.0 13 -0.06158303841948509
1.4439140558242798 -2.1048407554626465 -0.13377071917057037 9.0 6 -0.06158073619008064
1.4404398202896118 -2.1005618572235107 0.5880221128463745 6.0 14 -0.061578430235385895
1.4392865896224976 -2.099665641784668 -0.044433824717998505 6.0 7 -0.061576128005981445
1.4414252042770386 -2.1035728454589844 0.6832823157310486 6.0 15 -0.061573825776576996
0.802065372467041 -1.1740224361419678 -0.3809816539287567 7.0 0 -0.06155308708548546
1.421322226524353 -2.0804591178894043 0.04398006573319435 6.0 8 -0.06155078485608101
0.9803156852722168 -1.435473918914795 -0.4013127088546753 6.0 1 -0.06154847890138626
1.449269413948059 -2.1229569911956787 0.13471277058124542 6.0 9 -0.06154617667198181
1.2427432537078857 -1.8211106061935425 -0.42855700850486755 13.0 2 -0.061543870717287064
1.4506103992462158 -2.1265151500701904 0.22521042823791504 5.0 10 -0.061541568487882614
1.480145812034607 -2.170625925064087 -0.41611573100090027 111.0 3 -0.061539262533187866
1.4303889274597168 -2.0976579189300537 0.31174179911613464 3.0 11 -0.06153696030378342
1.4859267473220825 -2.1799211502075195 -0.32392874360084534 90.0 4 -0.06153465434908867
1.4437936544418335 -2.1189045906066895 0.4061039388179779 5.0 12 -0.06153235211968422
1.450247049331665 -2.129173994064331 -0.22538475692272186 1.0 5 -0.06153004616498947
1.4375131130218506 -2.1112709045410156 0.49648505449295044 3.0 13 -0.06152774393558502
1.4384373426437378 -2.1134207248687744 -0.13398006558418274 9.0 6 -0.06152544170618057
1.4261540174484253 -2.0961601734161377 0.5853226780891418 6.0 14 -0.061523135751485825
1.4296987056732178 -2.101370334625244 -0.04436401650309563 6.0 7 -0.061520833522081375
1.427554965019226 -2.0990071296691895 0.6801764369010925 6.0 15 -0.06151852756738663
0.8022990226745605 -1.1832104921340942 -0.38305220007896423 6.0 0 -0.06149779260158539
1.4159314632415771 -2.0889649391174316 0.04404987394809723 6.0 8 -0.06149548664689064
0.9663031101226807 -1.4261510372161865 -0.3977135121822357 6.0 1 -0.06149318441748619
1.4302783012390137 -2.11171817779541 0.1336660534143448 5.0 9 -0.06149087846279144
1.236378788948059 -1.8254374265670776 -0.42855700850486755 9.0 2 -0.06148857623338699
1.4342424869537354 -2.1183669567108154 0.2238159328699112 5.0 10 -0.061486270278692245
1.4670237302780151 -2.167599678039551 -0.41455137729644775 118.0 3 -0.061483968049287796
1.4249156713485718 -2.1061747074127197 0.3122292757034302 3.0 11 -0.06148166581988335
1.4701424837112427 -2.173842191696167 -0.3222225606441498 91.0 4 -0.0614793598651886
1.4271671772003174 -2.1110901832580566 0.4036009609699249 5.0 12 -0.06147705763578415
1.4539647102355957 -2.1507294178009033 -0.22712786495685577 1.0 5 -0.0614747516810894
1.4213405847549438 -2.103262424468994 0.49343210458755493 3.0 13 -0.06147244945168495
1.4221071004867554 -2.1051888465881348 -0.13314267992973328 9.0 6 -0.061470143496990204
1.4188284873962402 -2.101125717163086 0.5853226780891418 5.0 14 -0.061467841267585754
1.4175121784210205 -2.099966526031494 -0.04422440007328987 6.0 7 -0.061465535312891006
1.4198522567749023 -2.1042251586914062 0.6801764369010925 6.0 15 -0.06146323308348656
0.7981640100479126 -1.1860039234161377 -0.38305220007896423 6.0 0 -0.06144249439239502
1.4153279066085815 -2.1038498878479004 0.04425930231809616 6.0 8 -0.06144019216299057
0.9591440558433533 -1.4262810945510864 -0.39681369066238403 6.0 1 -0.06143788993358612
1.4184411764144897 -2.11006760597229 0.13324734568595886 6.0 9 -0.06143558397889137
1.2091890573501587 -1.7987849712371826 -0.421306312084198 6.0 2 -0.06143328174948692
1.4290618896484375 -2.1266682147979736 0.22416456043720245 6.0 10 -0.061430975794792175
1.46165132522583 -2.1759870052337646 -0.4151771068572998 114.0 3 -0.061428673565387726
1.409808874130249 -2.099599599838257 0.310523122549057 4.0 11 -0.06142636761069298
1.4525887966156006 -2.164126396179199 -0.3200289309024811 85.0 4 -0.06142406538128853
1.4197893142700195 -2.1160590648651123 0.4036009609699249 5.0 12 -0.06142175942659378
1.411802887916565 -2.104949951171875 0.49266883730888367 3.0 13 -0.06141715124249458
1.4125255346298218 -2.1068222522735596 -0.1329333484172821 9.0 6 -0.061414849013090134
1.413655400276184 -2.1093029975891113 0.5862225294113159 5.0 14 -0.061412543058395386
1.412399411201477 -2.108224630355835 -0.04429420828819275 6.0 7 -0.061410240828990936
1.4081987142562866 -2.102748155593872 0.6781059503555298 7.0 15 -0.06140793487429619
0.7961652278900146 -1.1919958591461182 -0.384087473154068 6.0 0 -0.06138719990849495
1.401313304901123 -2.098799228668213 0.04404987394809723 6.0 8 -0.0613848976790905
0.947668731212616 -1.4198951721191406 -0.39411428570747375 6.0 1 -0.06138259172439575
1.4066334962844849 -2.1083602905273438 0.13282866775989532 5.0 9 -0.0613802894949913
1.19309663772583 -1.7882964611053467 -0.41787171363830566 5.0 2 -0.061377983540296555
1.4194185733795166 -2.128328323364258 0.2238159328699112 6.0 10 -0.061375681310892105
1.4518554210662842 -2.177788496017456 -0.41455137729644775 118.0 3 -0.06137337535619736
1.4035720825195312 -2.1061599254608154 0.3107668459415436 3.0 11 -0.06137107312679291
1.44062340259552 -2.1625757217407227 -0.3190539479255676 88.0 4 -0.06136876717209816
1.4036351442337036 -2.1078484058380127 0.40109801292419434 4.0 12 -0.06136646494269371
1.4120618104934692 -2.121305227279663 0.4953401982784271 4.0 13 -0.06136185675859451
1.4029498100280762 -2.1084144115448 -0.13272398710250854 10.0 6 -0.061359550803899765
1.4019666910171509 -2.107734203338623 0.5844228863716125 5.0 14 -0.061357248574495316
1.397281289100647 -2.1014857292175293 -0.04404987394809723 7.0 7 -0.06135494261980057
1.4029886722564697 -2.110868453979492 0.6791411638259888 7.0 15 -0.06135264039039612
0.7855952978134155 -1.1851065158843994 -0.3809816539287567 6.0 0 -0.06133190542459488
1.3961877822875977 -2.107011556625366 0.04411968216300011 6.0 8 -0.06132959946990013
0.9470111131668091 -1.4296931028366089 -0.39591389894485474 6.0 1 -0.06132729724049568
1.3970599174499512 -2.10992693901062 0.13261932134628296 6.0 9 -0.061324991285800934
1.187930941581726 -1.794087290763855 -0.4182533621788025 6.0 2 -0.061322689056396484
1.3998843431472778 -2.114994525909424 0.22189851105213165 4.0 10 -0.061320383101701736
1.4464248418807983 -2.186138153076172 -0.4151771068572998 114.0 3 -0.06131808087229729
1.3973067998886108 -2.1127021312713623 0.31101056933403015 4.0 11 -0.06131577491760254
1.4352554082870483 -2.170902967453003 -0.31954145431518555 83.0 4 -0.06131347268819809
1.3984471559524536 -2.1160314083099365 0.4017237424850464 5.0 12 -0.06131116673350334
1.3992377519607544 -2.1180310249328613 0.49343210458755493 3.0 13 -0.061306558549404144
1.3944811820983887 -2.1116321086883545 -0.13261932134628296 10.0 6 -0.061304256319999695
1.3903064727783203 -2.106109857559204 0.582623302936554 4.0 14 -0.06130195036530495
1.383328914642334 -2.0963356494903564 -0.0438404455780983 7.0 7 -0.0612996481359005
1.391357183456421 -2.1093027591705322 0.677070677280426 6.0 15 -0.06129734218120575
0.7793301343917847 -1.184613585472107 -0.37994638085365295 6.0 0 -0.061292409896850586
1.37563955783844 -2.091823101043701 0.04370082914829254 6.0 8 -0.061290107667446136
0.9505786299705505 -1.4460173845291138 -0.3995131254196167 6.0 1 -0.06128780171275139
1.3874927759170532 -2.111452579498291 0.1324099898338318 6.0 9 -0.06128549948334694
1.1827392578125 -1.7998636960983276 -0.41863495111465454 6.0 2 -0.06128319352865219
1.3935871124267578 -2.1215333938598633 0.22207282483577728 5.0 10 -0.06128089129924774
1.4322794675827026 -2.1812665462493896 -0.41329991817474365 114.0 3 -0.061278585344552994
1.3801202774047852 -2.102631092071533 0.30881693959236145 4.0 11 -0.061276283115148544
1.423312783241272 -2.1692609786987305 -0.3185664713382721 85.0 4 -0.061273977160453796
1.3867188692092896 -2.114292860031128 0.4004722833633423 5.0 12 -0.06127167493104935
1.3821477890014648 -2.108125686645508 0.4899975061416626 4.0 13 -0.06126706674695015
1.3892911672592163 -2.11982798576355 -0.13282866775989532 10.0 6 -0.0612647607922554
1.3872177600860596 -2.1174705028533936 0.5844228863716125 5.0 14 -0.06126245856285095
1.3825763463974 -2.111189126968384 -0.04404987394809723 7.0 7 -0.061260152608156204
1.377637267112732 -2.1044485569000244 0.67396479845047 6.0 15 -0.061257850378751755
0.7773025631904602 -1.1905620098114014 -0.3809816539287567 6.0 0 -0.061237115412950516
1.3705148696899414 -2.099961519241333 0.04377063736319542 6.0 8 -0.06123480945825577
0.9348773956298828 -1.4330053329467773 -0.39501407742500305 6.0 1 -0.06123250722885132
1.3822959661483765 -2.11962890625 0.13261932134628296 5.0 9 -0.06123020127415657
1.1689423322677612 -1.7924697399139404 -0.41596361994743347 6.0 2 -0.06122789904475212
1.389437198638916 -2.131392002105713 0.22259576618671417 6.0 10 -0.06122559309005737
1.4214211702346802 -2.181288003921509 -0.4123612940311432 118.0 3 -0.061223290860652924
1.3673546314239502 -2.099119186401367 0.3075982630252838 4.0 11 -0.061220984905958176
1.4135656356811523 -2.170888900756836 -0.31807902455329895 88.0 4 -0.061218682676553726
1.3782525062561035 -2.117464780807495 0.40015941858291626 6.0 12 -0.06121637672185898
1.3704979419708252 -2.1063551902770996 0.48847106099128723 5.0 13 -0.06121176853775978
1.3742603063583374 -2.1129446029663086 -0.13209596276283264 10.0 6 -0.06120946630835533
1.3808804750442505 -2.1239335536956787 0.5848727822303772 6.0 14 -0.061207160353660583
1.3730189800262451 -2.1126489639282227 -0.04398006573319435 8.0 7 -0.061204858124256134
1.3681780099868774 -2.106004476547241 0.6729295253753662 7.0 15 -0.061202552169561386
0.7752429842948914 -1.196510672569275 -0.3820169270038605 7.0 0 -0.06118181720376015
1.3631762266159058 -2.1047325134277344 0.04377063736319542 6.0 8 -0.0611795149743557
0.9256333112716675 -1.4297164678573608 -0.39321446418762207 6.0 1 -0.06117720901966095
1.3687467575073242 -2.1141414642333984 0.13199129700660706 6.0 9 -0.0611749067902565
1.1680117845535278 -1.80478036403656 -0.41787171363830566 6.0 2 -0.06117260083556175
1.370084285736084 -2.117827892303467 0.22067832946777344 6.0 10 -0.0611702986061573
1.4116531610488892 -2.1829187870025635 -0.41173556447029114 111.0 3 -0.061167992651462555
1.3546308279037476 -2.09554386138916 0.3063795566558838 4.0 11 -0.061165690422058105
1.4020483493804932 -2.168896198272705 -0.3171040713787079 83.0 4 -0.06116338446736336
1.3744395971298218 -2.1270010471343994 0.40109801292419434 5.0 12 -0.06116108223795891
1.358877182006836 -2.1045289039611816 0.4869445562362671 4.0 13 -0.06115647405385971
1.3538792133331299 -2.0975918769836426 -0.13083989918231964 9.0 6 -0.06115416809916496
1.3622047901153564 -2.1104907989501953 0.5799238681793213 6.0 14 -0.06115186586976051
1.3660056591033936 -2.117190361022949 -0.04398006573319435 7.0 7 -0.061149563640356064
1.3643277883529663 -2.115400552749634 0.6744824647903442 7.0 15 -0.061147257685661316
0.7712708115577698 -1.1990748643875122 -0.3820169270038605 7.0 0 -0.06112652271986008
1.3518632650375366 -2.102513313293457 0.04363101348280907 6.0 8 -0.06112421676516533
0.9208871126174927 -1.432778239250183 -0.39321446418762207 6.0 1 -0.06112191453576088
1.3574090003967285 -2.1119484901428223 0.13157260417938232 6.0 9 -0.06111960858106613
1.1492860317230225 -1.788822889328003 -0.4132923185825348 6.0 2 -0.06111730635166168
1.3684370517730713 -2.130741596221924 0.2215498834848404 6.0 10 -0.061115000396966934
1.4033392667770386 -2.1859257221221924 -0.4114226996898651 114.0 3 -0.061112698167562485
1.3508905172348022 -2.105036497116089 0.3071107864379883 4.0 11 -0.06111039221286774
1.3905595541000366 -2.166851043701172 -0.31612908840179443 85.0 4 -0.06110808998346329
1.3567125797271729 -2.1149203777313232 0.3979693353176117 5.0 12 -0.06110578775405884
1.3582476377487183 -2.118940591812134 0.4892342984676361 4.0 13 -0.06110117956995964
1.3533811569213867 -2.1121597290039062 -0.13146793842315674 11.0 6 -0.06109887361526489
1.3541474342346191 -2.1133556365966797 0.5794739723205566 6.0 14 -0.06109657138586044
1.348191499710083 -2.1048696041107178 -0.04363101348280907 7.0 7 -0.061094265431165695
1.3583471775054932 -2.121539831161499 0.6750000715255737 6.0 15 -0.061091963201761246
0.7610522508621216 -1.1918566226959229 -0.3789111077785492 7.0 0 -0.06107122451066971
1.3491874933242798 -2.11372709274292 0.04377063736319542 7.0 8 -0.06106892228126526
0.9161307215690613 -1.4358240365982056 -0.39321446418762207 6.0 1 -0.06106661632657051
1.3478807210922241 -2.1133060455322266 0.13136327266693115 6.0 9 -0.06106431409716606
1.139124870300293 -1.7860032320022583 -0.41176581382751465 6.0 2 -0.061062008142471313
1.3474395275115967 -2.1134278774261475 0.2192838340997696 6.0 10 -0.061059705913066864
1.398206353187561 -2.193898916244507 -0.41204842925071716 114.0 3 -0.061057403683662415
1.35030198097229 -2.1195497512817383 0.3085731863975525 4.0 11 -0.06105509772896767
1.3851197957992554 -2.1750404834747314 -0.31661656498908997 85.0 4 -0.06105279549956322
1.340835452079773 -2.1063122749328613 0.3954663872718811 5.0 12 -0.06105048954486847
1.3469974994659424 -2.1168079376220703 0.48770785331726074 4.0 13 -0.06104588136076927
1.3452976942062378 -2.1149511337280273 -0.13136327266693115 11.0 6 -0.06104357913136482
1.3457164764404297 -2.116425037384033 0.579024076461792 6.0 14 -0.061041273176670074
1.3322547674179077 -2.0960617065429688 -0.043351780623197556 7.0 7 -0.061038970947265625
1.3353935480117798 -2.1018099784851074 0.6672354936599731 7.0 15 -0.06103666499257088
0.7546113133430481 -1.1913739442825317 -0.37787580490112305 6.0 0 -0.06101593002676964
1.3311008214950562 -2.1015305519104004 0.04342158883810043 6.0 8 -0.06101362407207489
0.9152830839157104 -1.4455991983413696 -0.39501407742500305 6.0 1 -0.06101132184267044
1.3469042778015137 -2.1281239986419678 0.13199129700660706 6.0 9 -0.06100901961326599
1.143067717552185 -1.8067575693130493 -0.4155820310115814 6.0 2 -0.06100671365857124
1.3301000595092773 -2.1031973361968994 0.2177150398492813 6.0 10 -0.061004411429166794
1.3827669620513916 -2.1873207092285156 -0.4098583459854126 118.0 3 -0.061002105474472046
1.3428953886032104 -2.1242501735687256 0.3085731863975525 4.0 11 -0.060999803245067596
1.3753983974456787 -2.1765058040618896 -0.31612908840179443 85.0 4 -0.06099749729037285
1.3334749937057495 -2.1109795570373535 0.3954663872718811 4.0 12 -0.0609951950609684
1.3371344804763794 -2.118410110473633 0.4869445562362671 5.0 13 -0.0609905868768692
1.3428657054901123 -2.1283133029937744 -0.13188663125038147 12.0 6 -0.060988280922174454
1.3389898538589478 -2.1229915618896484 0.5794739723205566 6.0 14 -0.060985978692770004
1.3291970491409302 -2.1074647903442383 -0.04349139705300331 7.0 7 -0.060983672738075256
1.31877601146698 -2.0917508602142334 0.6625767946243286 7.0 15 -0.06098137050867081
0.7586721181869507 -1.2070857286453247 -0.3820169270038605 7.0 0 -0.06096063554286957
1.3191338777542114 -2.0996220111846924 0.04328196495771408 7.0 8 -0.06095832958817482
0.9079056978225708 -1.445643663406372 -0.39411428570747375 6.0 1 -0.06095602735877037
1.3330942392349243 -2.122664451599121 0.13136327266693115 6.0 9 -0.06095372140407562
1.1263152360916138 -1.7941088676452637 -0.41176581382751465 6.0 2 -0.06095141917467117
1.3354589939117432 -2.1280786991119385 0.21980677545070648 6.0 10 -0.060949113219976425
1.3604272603988647 -2.1687066555023193 -0.4054781496524811 103.0 3 -0.060946810990571976
1.3245548009872437 -2.112339735031128 0.30613580346107483 4.0 11 -0.06094450503587723
1.3695205450057983 -2.184896230697632 -0.31661656498908997 83.0 4 -0.06094220280647278
1.3334420919418335 -2.127337694168091 0.3976564407348633 6.0 12 -0.06093989685177803
1.32764732837677 -2.119736909866333 0.4861813485622406 4.0 13 -0.06093528866767883
1.3205903768539429 -2.109287738800049 -0.1304212212562561 11.0 6 -0.060932986438274384
1.331571102142334 -2.127652645111084 0.5794739723205566 6.0 14 -0.060930680483579636
1.3175890445709229 -2.105311393737793 -0.043351780623197556 8.0 7 -0.060928378254175186
1.316589593887329 -2.1045303344726562 0.6651650071144104 7.0 15 -0.06092607229948044
0.7483202815055847 -1.199891448020935 -0.3789111077785492 7.0 0 -0.0609053373336792
1.3121641874313354 -2.103984832763672 0.04328196495771408 7.0 8 -0.06090303510427475
0.8969212770462036 -1.438724160194397 -0.3914148807525635 6.0 1 -0.06090072914958
1.3172259330749512 -2.1137444972991943 0.1305258870124817 6.0 9 -0.06089842692017555
1.130426287651062 -1.8146936893463135 -0.4155820310115814 6.0 2 -0.060896120965480804
