# .PCD v0.7 - Point Cloud Data file format
VERSION 0.7
FIELDS x y z intensity ring time
SIZE 4 4 4 4 4 4
TYPE F F F F F F
COUNT 1 1 1 1 1 1
WIDTH 532
HEIGHT 1
VIEWPOINT 0 0 0 1 0 0 0
POINTS 532
DATA ascii
0.6618986129760742 -0.0009241853840649128 0.011553493328392506 9.0 8 -0.07900692522525787
1.233551025390625 -0.0019376588752493262 -0.2847880423069 31.0 1 -0.07900461554527283
0.671078085899353 -0.001171253272332251 0.03516976535320282 48.0 9 -0.07900231331586838
1.1975833177566528 -0.0020901793614029884 -0.23278698325157166 40.0 2 -0.07900001108646393
0.6734264492988586 -0.0012928874930366874 0.05891728401184082 100.0 10 -0.07899770885705948
0.6538483500480652 -0.0013694186927750707 -0.10355963557958603 100.0 3 -0.07899540662765503
0.6808849573135376 -0.0015448814956471324 0.08360237628221512 13.0 11 -0.07899309694766998
0.6550785303115845 -0.0016006621299311519 -0.08043377101421356 90.0 4 -0.07899079471826553
0.6696504950523376 -0.0017531446646898985 0.10606258362531662 55.0 12 -0.07898849248886108
0.6574863195419312 -0.0017212987877428532 -0.057522788643836975 48.0 5 -0.07898619025945663
0.6655406951904297 -0.0018585448851808906 0.12936849892139435 49.0 13 -0.07898388057947159
0.6670816540718079 -0.00197927700355649 -0.03496042266488075 28.0 6 -0.07898157835006714
0.6898506283760071 -0.0021672367583960295 0.15926535427570343 24.0 14 -0.07897927612066269
0.669894278049469 -0.0022214618511497974 -0.011693112552165985 99.0 7 -0.07897697389125824
3.656973123550415 -0.012765294872224331 0.9798889756202698 115.0 15 -0.0789746642112732
1.2267123460769653 -0.005780788604170084 -0.3287002146244049 62.0 0 -0.07895392924547195
0.665890634059906 -0.0032541812397539616 0.011623302474617958 9.0 8 -0.0789516270160675
1.219895839691162 -0.006174500100314617 -0.2816387414932251 54.0 1 -0.07894932478666306
0.6670754551887512 -0.003492830554023385 0.03496042266488075 47.0 9 -0.0789470225572586
1.187752604484558 -0.006219114642590284 -0.23087888956069946 61.0 2 -0.07894471287727356
0.6634559631347656 -0.003589677158743143 0.05804572254419327 91.0 10 -0.07894241064786911
0.6577901840209961 -0.0036738316994160414 -0.10418536514043808 100.0 3 -0.07894010841846466
0.6729351878166199 -0.003875870956107974 0.08262742310762405 13.0 11 -0.07893780618906021
0.6610240936279297 -0.00392264174297452 -0.08116498589515686 82.0 4 -0.07893549650907516
0.6696402430534363 -0.004090650472790003 0.10606258362531662 53.0 12 -0.07893319427967072
0.6554839611053467 -0.004004173446446657 -0.057348478585481644 15.0 5 -0.07893089205026627
0.6733829975128174 -0.004231045488268137 0.1308949738740921 56.0 13 -0.07892858982086182
0.6770567297935486 -0.004372302442789078 -0.03548378124833107 71.0 6 -0.07892628014087677
0.6645058393478394 -0.004407234489917755 0.15341663360595703 16.0 14 -0.07892397791147232
0.6578845977783203 -0.004478147719055414 -0.011483684182167053 80.0 7 -0.07892167568206787
3.6569061279296875 -0.025530433282256126 0.9798889756202698 117.0 15 -0.07891937345266342
1.22861647605896 -0.01007862389087677 -0.3292178511619568 85.0 0 -0.07889863848686218
0.6758733987808228 -0.005662315990775824 0.011797827668488026 17.0 8 -0.07889632880687714
1.215969443321228 -0.01039936114102602 -0.2807389199733734 69.0 1 -0.07889402657747269
0.6550760269165039 -0.005716762039810419 0.03433239087462425 48.0 9 -0.07889172434806824
1.1504231691360474 -0.01003959123045206 -0.22362814843654633 88.0 2 -0.07888942211866379
0.6674240231513977 -0.005941017996519804 0.05839434638619423 84.0 10 -0.07888711243867874
0.6577733159065247 -0.0059699248522520065 -0.10418536514043808 100.0 3 -0.07888481020927429
0.6729175448417664 -0.006224828772246838 0.08262742310762405 13.0 11 -0.07888250797986984
0.6570364236831665 -0.006192605476826429 -0.08067751675844193 80.0 4 -0.0788802057504654
0.6656712889671326 -0.006390182767063379 0.10543683916330338 51.0 12 -0.07887789607048035
0.6395275592803955 -0.006139212753623724 -0.0559539832174778 11.0 5 -0.0788755938410759
0.6772904396057129 -0.006619941908866167 0.13165821135044098 60.0 13 -0.07887329161167145
0.6830288171768188 -0.0067952522076666355 -0.03579779714345932 100.0 6 -0.078870989382267
3.6692898273468018 -0.03714515641331673 0.8471657633781433 18.0 14 -0.07886867970228195
0.6398686766624451 -0.006589243654161692 -0.01116954069584608 49.0 7 -0.0788663774728775
3.6722488403320312 -0.038457103073596954 0.9840300679206848 113.0 15 -0.07886407524347305
1.2092565298080444 -0.014141334220767021 -0.3240414559841156 78.0 0 -0.07884334027767181
0.6798485517501831 -0.008068984374403954 0.011867635883390903 31.0 8 -0.07884103804826736
1.2061827182769775 -0.014526485465466976 -0.2784894108772278 69.0 1 -0.07883872836828232
0.6570492386817932 -0.008027770556509495 0.034437064081430435 50.0 9 -0.07883642613887787
1.1444917917251587 -0.013983301818370819 -0.222483292222023 70.0 2 -0.07883412390947342
0.6594303846359253 -0.008171971887350082 0.057697102427482605 72.0 10 -0.07883182168006897
0.6636742353439331 -0.008340414613485336 -0.10512397438287735 100.0 3 -0.07882951200008392
0.6808314323425293 -0.008674876764416695 0.08360237628221512 13.0 11 -0.07882720977067947
0.6689203381538391 -0.008639877662062645 -0.08213994652032852 71.0 4 -0.07882490754127502
0.6577441096305847 -0.00861034169793129 0.10418536514043808 42.0 12 -0.07882260531187057
0.6534478068351746 -0.00855410099029541 -0.057174164801836014 11.0 5 -0.07882029563188553
0.6713739037513733 -0.00890596304088831 0.13051335513591766 48.0 13 -0.07881799340248108
0.6630301475524902 -0.00891102198511362 -0.034751079976558685 100.0 6 -0.07881569117307663
3.669137716293335 -0.04995314031839371 0.8471657633781433 39.0 14 -0.07881338894367218
0.6298441886901855 -0.008684905245900154 -0.010995016433298588 13.0 7 -0.07881108671426773
3.6566388607025146 -0.051059626042842865 0.9798889756202698 117.0 15 -0.07880877703428268
1.2014732360839844 -0.01824500970542431 -0.3219709098339081 76.0 0 -0.07878804206848145
0.6658200025558472 -0.010227065533399582 0.011623302474617958 72.0 8 -0.078785739839077
1.2119702100753784 -0.018827568739652634 -0.2798391282558441 75.0 1 -0.07878343760967255
0.6610130667686462 -0.010268625803291798 0.0346464067697525 50.0 9 -0.0787811279296875
1.150325059890747 -0.018070749938488007 -0.22362814843654633 76.0 2 -0.07877882570028305
0.6633819937705994 -0.010537048801779747 0.05804572254419327 78.0 10 -0.0787765234708786
0.6537654995918274 -0.010498433373868465 -0.10355963557958603 97.0 3 -0.07877422124147415
0.6887363195419312 -0.011180248111486435 0.08457732945680618 19.0 11 -0.0787719115614891
0.6510226726531982 -0.010681698098778725 -0.07994629442691803 80.0 4 -0.07876960933208466
0.6695626378059387 -0.01098589412868023 0.10606258362531662 46.0 12 -0.0787673071026802
0.6494296789169312 -0.010768938809633255 -0.05682554095983505 11.0 5 -0.07876500487327576
0.6595609188079834 -0.011052082292735577 0.12822365760803223 45.0 13 -0.07876270264387131
0.6689859628677368 -0.011326809413731098 -0.03506509214639664 100.0 6 -0.07876039296388626
3.6845285892486572 -0.06302715092897415 0.8507649302482605 73.0 14 -0.07875809073448181
0.635810136795044 -0.01087610051035881 -0.011099730618298054 7.0 7 -0.07875578850507736
3.656449556350708 -0.0631851926445961 0.9798889756202698 115.0 15 -0.07875348627567291
1.2052652835845947 -0.022510971873998642 -0.32300618290901184 76.0 0 -0.07873274385929108
0.6537864208221436 -0.01221089530736208 0.011413874104619026 100.0 8 -0.07873044162988663
1.1963139772415161 -0.02255265787243843 -0.27623990178108215 75.0 1 -0.07872813940048218
0.6729545593261719 -0.01280389167368412 0.035274438560009 25.0 9 -0.07872583717107773
1.1561437845230103 -0.022199096158146858 -0.22477301955223083 80.0 2 -0.07872353494167328
0.6673252582550049 -0.01292981207370758 0.05839434638619423 91.0 10 -0.07872122526168823
0.653727114200592 -0.012666339986026287 -0.10355963557958603 100.0 3 -0.07871892303228378
0.6767871379852295 -0.013231310062110424 0.08311489969491959 48.0 11 -0.07871662080287933
0.6628919243812561 -0.013075395487248898 -0.08140873163938522 75.0 4 -0.07871431857347488
0.6872950792312622 -0.013676744885742664 0.10887840390205383 52.0 12 -0.07871200889348984
0.6493881344795227 -0.013035806827247143 -0.05682554095983505 11.0 5 -0.07870970666408539
0.6575577855110168 -0.013199803419411182 0.1278420239686966 42.0 13 -0.07870740443468094
0.6629541516304016 -0.013423883356153965 -0.034751079976558685 100.0 6 -0.07870510220527649
3.6862478256225586 -0.075284942984581 0.8512148261070251 88.0 14 -0.07870279252529144
0.6397668719291687 -0.013177786953747272 -0.01116954069584608 7.0 7 -0.078700490295887
3.6639323234558105 -0.07610867917537689 0.9819594621658325 115.0 15 -0.07869818806648254
1.1955269575119019 -0.02629525028169155 -0.32041797041893005 72.0 0 -0.0786774531006813
0.6517406105995178 -0.014448639936745167 0.011378969065845013 100.0 8 -0.07867515087127686
1.1923315525054932 -0.026641372591257095 -0.27534011006355286 84.0 1 -0.07867284119129181
0.6689148545265198 -0.014946186915040016 0.03506509214639664 8.0 9 -0.07867053896188736
1.1501754522323608 -0.025900287553668022 -0.22362814843654633 87.0 2 -0.07866823673248291
0.6672787070274353 -0.015142670832574368 0.05839434638619423 65.0 10 -0.07866593450307846
0.6576285362243652 -0.015038516372442245 -0.10418536514043808 100.0 3 -0.07866362482309341
0.6628448963165283 -0.01527355145663023 0.08140873163938522 71.0 11 -0.07866132259368896
0.6489503383636475 -0.015066711232066154 -0.07970255613327026 73.0 4 -0.07865902036428452
0.695145308971405 -0.01613922230899334 0.11012987792491913 66.0 12 -0.07865671813488007
0.6672679781913757 -0.015608514659106731 -0.05839434638619423 10.0 5 -0.07865440845489502
0.6594703793525696 -0.015541281551122665 0.12822365760803223 33.0 13 -0.07865210622549057
0.6648999452590942 -0.015785347670316696 -0.03485574945807457 100.0 6 -0.07864980399608612
3.670377016067505 -0.08777915686368942 0.8476155996322632 85.0 14 -0.07864750176668167
0.6317231059074402 -0.015108018182218075 -0.011029920540750027 5.0 7 -0.07864519208669662
3.6752476692199707 -0.08853746205568314 0.9850653409957886 113.0 15 -0.07864288985729218
1.1992905139923096 -0.030566703528165817 -0.3214532732963562 67.0 0 -0.07862215489149094
0.6476909518241882 -0.016507908701896667 0.011309158988296986 100.0 8 -0.07861985266208649
1.1922366619110107 -0.030595138669013977 -0.27534011006355286 84.0 1 -0.07861755043268204
0.6508892774581909 -0.016816778108477592 0.03412304446101189 7.0 9 -0.07861524075269699
1.1324148178100586 -0.02945554628968239 -0.22019359469413757 93.0 2 -0.07861293852329254
0.6672217845916748 -0.01747181825339794 0.05839434638619423 71.0 10 -0.07861063629388809
0.655600368976593 -0.017167501151561737 -0.10387250036001205 94.0 3 -0.07860833406448364
0.6627905964851379 -0.017471540719270706 0.08140873163938522 100.0 11 -0.0786060243844986
0.6429435610771179 -0.0170606542378664 -0.07897134125232697 78.0 4 -0.07860372215509415
0.6694140434265137 -0.017879972234368324 0.10606258362531662 70.0 12 -0.0786014199256897
0.6572510600090027 -0.01766989566385746 -0.057522788643836975 11.0 5 -0.07859911769628525
0.6633403301239014 -0.01783360354602337 0.1289868950843811 20.0 13 -0.0785968080163002
0.6648439168930054 -0.017990147694945335 -0.03485574945807457 100.0 6 -0.07859450578689575
3.673961877822876 -0.10005617886781693 0.8485153913497925 91.0 14 -0.0785922035574913
0.6376633644104004 -0.01747741550207138 -0.011134634725749493 7.0 7 -0.07858990132808685
3.6749160289764404 -0.10136592388153076 0.9850653409957886 115.0 15 -0.0785875916481018
1.1837340593338013 -0.03409852087497711 -0.3173121511936188 64.0 0 -0.07856685668230057
0.6556248664855957 -0.019000384956598282 0.011448778212070465 100.0 8 -0.07856455445289612
1.1940704584121704 -0.034813426434993744 -0.2757900059223175 88.0 1 -0.07856225222349167
0.6648013591766357 -0.019498582929372787 0.03485574945807457 6.0 9 -0.07855994999408722
1.1264234781265259 -0.033037930727005005 -0.21904872357845306 90.0 2 -0.07855764031410217
0.6811007857322693 -0.020095620304346085 0.059614524245262146 93.0 10 -0.07855533808469772
0.6436893939971924 -0.019104253500699997 -0.10199528187513351 64.0 3 -0.07855303585529327
0.6785992383956909 -0.020258896052837372 0.08335863798856735 100.0 11 -0.07855073362588882
0.6488327383995056 -0.019483592361211777 -0.07970255613327026 73.0 4 -0.07854842394590378
0.6673730611801147 -0.020156919956207275 0.1057497188448906 48.0 12 -0.07854612171649933
0.6571853756904602 -0.01996402069926262 -0.057522788643836975 11.0 5 -0.07854381948709488
3.6794047355651855 -0.11177320778369904 0.7155337929725647 12.0 13 -0.07854151725769043
0.672762393951416 -0.02055475115776062 -0.035274438560009 100.0 6 -0.07853920757770538
3.677485942840576 -0.1129998043179512 0.8494152426719666 97.0 14 -0.07853690534830093
0.6395972967147827 -0.019764935597777367 -0.01116954069584608 7.0 7 -0.07853460311889648
3.666815996170044 -0.1139531284570694 0.9829947352409363 115.0 15 -0.07853230088949203
1.1778085231781006 -0.038248784840106964 -0.31575924158096313 74.0 0 -0.0785115659236908
0.6435627341270447 -0.020899400115013123 0.011239349842071533 100.0 8 -0.07850925624370575
1.197836995124817 -0.039108481258153915 -0.2766897976398468 89.0 1 -0.0785069540143013
0.6647292971611023 -0.02181905508041382 0.03485574945807457 6.0 9 -0.07850465178489685
1.1184462308883667 -0.03690726310014725 -0.2175222784280777 87.0 2 -0.0785023495554924
0.6591184139251709 -0.02186521142721176 0.057697102427482605 92.0 10 -0.07850003987550735
0.6297950744628906 -0.021002495661377907 -0.09980519860982895 28.0 3 -0.0784977376461029
0.6864603757858276 -0.02289217710494995 0.08433359116315842 100.0 11 -0.07849543541669846
0.6586806178092957 -0.022080866619944572 -0.0809212476015091 52.0 4 -0.078493133187294
0.6672986745834351 -0.022486362606287003 0.1057497188448906 53.0 12 -0.07849082350730896
0.6591029763221741 -0.02232535555958748 -0.057697102427482605 11.0 5 -0.07848852127790451
3.6691596508026123 -0.12492412328720093 0.7136256694793701 26.0 13 -0.07848621904850006
0.6746786236763 -0.023088717833161354 -0.035379111766815186 100.0 6 -0.07848391681909561
3.682889699935913 -0.12667866051197052 0.8507649302482605 94.0 14 -0.07848161458969116
0.6335287690162659 -0.02179119922220707 -0.01106482557952404 7.0 7 -0.07847930490970612
3.666395902633667 -0.12675200402736664 0.9829947352409363 115.0 15 -0.07847700268030167
1.1853903532028198 -0.04263764247298241 -0.31782978773117065 85.0 0 -0.07845626771450043
0.6394850015640259 -0.023113572970032692 0.01116954069584608 100.0 8 -0.07845396548509598
1.189895749092102 -0.043215591460466385 -0.2748901844024658 87.0 1 -0.07845165580511093
0.6726285815238953 -0.02454661764204502 0.035274438560009 6.0 9 -0.07844935357570648
1.1438158750534058 -0.04174192249774933 -0.222483292222023 80.0 2 -0.07844705134630203
0.6650112271308899 -0.02438485249876976 0.0582200363278389 100.0 10 -0.07844474911689758
0.6455102562904358 -0.023782601580023766 -0.10230815410614014 20.0 3 -0.07844243943691254
0.6585995554924011 -0.024379953742027283 0.0809212476015091 100.0 11 -0.07844013720750809
0.6724813580513 -0.02501136250793934 -0.08262742310762405 42.0 4 -0.07843783497810364
3.6637423038482666 -0.13690459728240967 0.5806847810745239 32.0 12 -0.07843553274869919
0.6649940013885498 -0.02484911121428013 -0.0582200363278389 29.0 5 -0.07843323051929474
3.6569299697875977 -0.13728919625282288 0.7113359570503235 42.0 13 -0.07843092083930969
0.666610598564148 -0.02514253929257393 -0.03496042266488075 100.0 6 -0.07842861860990524
3.688267230987549 -0.13975493609905243 0.8521146178245544 91.0 14 -0.0784263163805008
0.657423734664917 -0.025025852024555206 -0.011483684182167053 7.0 7 -0.07842401415109634
3.6697678565979004 -0.14033682644367218 0.9840300679206848 115.0 15 -0.0784217044711113
1.1852343082427979 -0.04677516594529152 -0.31782978773117065 87.0 0 -0.07840096950531006
0.6513891220092773 -0.025820881128311157 0.011378969065845013 100.0 8 -0.07839866727590561
1.1858433485031128 -0.04721378535032272 -0.2739903926849365 90.0 1 -0.07839636504650116
0.6565735340118408 -0.026255939155817032 0.034437064081430435 6.0 9 -0.07839406281709671
1.1338547468185425 -0.0453420989215374 -0.22057519853115082 73.0 2 -0.07839175313711166
0.6788575053215027 -0.02726573497056961 0.05944021791219711 100.0 10 -0.07838945090770721
0.6355544924736023 -0.025637608021497726 -0.10074380785226822 10.0 3 -0.07838714867830276
0.6585104465484619 -0.026678748428821564 0.0809212476015091 100.0 11 -0.07838484644889832
0.6644561290740967 -0.0270357895642519 -0.08165246248245239 64.0 4 -0.07838253676891327
3.6731109619140625 -0.1500958949327469 0.5822491645812988 45.0 12 -0.07838023453950882
0.6668938994407654 -0.02725157141685486 -0.05839434638619423 90.0 5 -0.07837793231010437
3.662313222885132 -0.1502949297428131 0.7124808430671692 67.0 13 -0.07837563008069992
0.6585364937782288 -0.027140315622091293 -0.03454173356294632 95.0 6 -0.07837332040071487
3.6877567768096924 -0.15262854099273682 0.8521146178245544 97.0 14 -0.07837101817131042
0.6693201065063477 -0.02781878039240837 -0.011693112552165985 11.0 7 -0.07836871594190598
3.6808366775512695 -0.15362921357154846 0.9871358871459961 113.0 15 -0.07836641371250153
1.1850638389587402 -0.050912123173475266 -0.31782978773117065 89.0 0 -0.07834567874670029
0.661284327507019 -0.028525397181510925 0.011553493328392506 100.0 8 -0.07834336906671524
1.1895650625228882 -0.051521509885787964 -0.2748901844024658 85.0 1 -0.07834106683731079
0.6564778685569763 -0.02854764834046364 0.034437064081430435 6.0 9 -0.07833876460790634
1.1121141910552979 -0.048361487686634064 -0.2163774073123932 60.0 2 -0.07833646237850189
0.6668152213096619 -0.029113780707120895 0.05839434638619423 97.0 10 -0.07833415269851685
0.6413815021514893 -0.02811547741293907 -0.10168241709470749 10.0 3 -0.0783318504691124
0.658413290977478 -0.02897721715271473 0.0809212476015091 26.0 11 -0.07832954823970795
0.6425429582595825 -0.028391113504767418 -0.07897134125232697 61.0 4 -0.0783272460103035
3.6626973152160645 -0.16247881948947906 0.5806847810745239 48.0 12 -0.07832493633031845
0.6807277798652649 -0.030197372660040855 -0.059614524245262146 100.0 5 -0.078322634100914
3.677456855773926 -0.16377665102481842 0.7155337929725647 81.0 13 -0.07832033187150955
0.6544471979141235 -0.029260454699397087 -0.03433239087462425 50.0 6 -0.0783180296421051
3.6852548122406006 -0.16541291773319244 0.8516647815704346 94.0 14 -0.07831571996212006
0.6652235984802246 -0.02997494488954544 -0.011623302474617958 22.0 7 -0.0783134177327156
3.6841375827789307 -0.16665136814117432 0.9881711006164551 113.0 15 -0.07831111550331116
1.1733003854751587 -0.05451052635908127 -0.3147239685058594 89.0 0 -0.07829038053750992
0.6631781458854675 -0.03092668391764164 0.01158839836716652 100.0 8 -0.07828807830810547
1.193271279335022 -0.05585578829050064 -0.2757900059223175 79.0 1 -0.07828576862812042
0.662359356880188 -0.031120216473937035 0.034751079976558685 7.0 9 -0.07828346639871597
1.1001721620559692 -0.05169036239385605 -0.21408770978450775 51.0 2 -0.07828116416931152
0.6686997413635254 -0.0315350778400898 0.05856866016983986 100.0 10 -0.07827886193990707
0.6452258229255676 -0.030540943145751953 -0.10230815410614014 6.0 3 -0.07827655225992203
0.6840853095054626 -0.032499972730875015 0.08408986032009125 100.0 11 -0.07827425003051758
0.6523541808128357 -0.031106581911444664 -0.08019004017114639 63.0 4 -0.07827194780111313
3.66802716255188 -0.1755463182926178 0.5816234350204468 51.0 12 -0.07826964557170868
0.6507664918899536 -0.03114471770823002 -0.05699985474348068 100.0 5 -0.07826733589172363
3.6866679191589355 -0.177083358168602 0.7174418568611145 92.0 13 -0.07826503366231918
0.6643157601356506 -0.03202559053897858 -0.03485574945807457 12.0 6 -0.07826273143291473
3.684654951095581 -0.17827585339546204 0.8516647815704346 94.0 14 -0.07826042920351028
0.675101637840271 -0.03278176486492157 -0.011797827668488026 66.0 7 -0.07825812697410583
3.6796743869781494 -0.17932234704494476 0.9871358871459961 111.0 15 -0.07825581729412079
1.1731029748916626 -0.058605775237083435 -0.3147239685058594 89.0 0 -0.07826089859008789
0.6450914740562439 -0.03234029561281204 0.011274254880845547 100.0 8 -0.07825859636068344
1.2028003931045532 -0.060510311275720596 -0.27803951501846313 75.0 1 -0.07825629413127899
0.6642472743988037 -0.033416856080293655 0.03485574945807457 9.0 9 -0.07825398445129395
1.025476098060608 -0.051768939942121506 -0.19958621263504028 92.0 2 -0.0782516822218895
0.6725652813911438 -0.0340706892311573 0.05891728401184082 100.0 10 -0.07824937999248505
0.6431424021720886 -0.03269272297620773 -0.10199528187513351 6.0 3 -0.0782470777630806
0.6641424894332886 -0.033876433968544006 0.08165246248245239 100.0 11 -0.07824476808309555
0.6641365885734558 -0.03399235010147095 -0.08165246248245239 63.0 4 -0.0782424658536911
3.665452003479004 -0.18760797381401062 0.581310510635376 63.0 12 -0.07824016362428665
0.6486640572547913 -0.03331393375992775 -0.05682554095983505 100.0 5 -0.0782378613948822
3.6821060180664062 -0.189749076962471 0.7166786193847656 92.0 13 -0.07823555171489716
0.6622053384780884 -0.03424115106463432 -0.034751079976558685 15.0 6 -0.0782332494854927
3.6956868171691895 -0.1917424201965332 0.8543641567230225 94.0 14 -0.07823094725608826
0.6909652948379517 -0.035849183797836304 -0.01207706518471241 100.0 7 -0.07822864502668381
3.6790595054626465 -0.19152359664440155 0.9871358871459961 113.0 15 -0.07822633534669876
1.184465765953064 -0.06331906467676163 -0.31782978773117065 85.0 0 -0.07820560038089752
0.6509712338447571 -0.03479956090450287 0.011378969065845013 68.0 8 -0.07820329815149307
1.19870126247406 -0.0642898827791214 -0.27713972330093384 75.0 1 -0.07820099592208862
0.6880590915679932 -0.037023067474365234 0.03611181303858757 23.0 9 -0.07819869369268417
1.0782198905944824 -0.05820557102560997 -0.20988990366458893 60.0 2 -0.07819638401269913
0.6724422574043274 -0.03641816973686218 0.05891728401184082 100.0 10 -0.07819408178329468
0.631195604801178 -0.034184329211711884 -0.10011807084083557 7.0 3 -0.07819177955389023
0.666008710861206 -0.03618632256984711 0.08189620822668076 100.0 11 -0.07818947732448578
0.6600558757781982 -0.03597843274474144 -0.08116498589515686 67.0 4 -0.07818716764450073
3.680554151535034 -0.20126453042030334 0.583813488483429 71.0 12 -0.07818486541509628
0.6505332589149475 -0.035687126219272614 -0.05699985474348068 100.0 5 -0.07818256318569183
3.669694662094116 -0.2013130933046341 0.714388906955719 90.0 13 -0.07818026095628738
0.6441400051116943 -0.03544916957616806 -0.033809032291173935 10.0 6 -0.07817795127630234
3.7008681297302246 -0.20431897044181824 0.8557138442993164 97.0 14 -0.07817564904689789
0.6788561344146729 -0.037597399204969406 -0.011867635883390903 100.0 7 -0.07817334681749344
3.6822261810302734 -0.20457905530929565 0.9881711006164551 113.0 15 -0.07817104458808899
1.1900355815887451 -0.0675751119852066 -0.3193827271461487 78.0 0 -0.07815030962228775
0.6588316559791565 -0.03752652928233147 0.011518588289618492 18.0 8 -0.0781479999423027
1.2062517404556274 -0.06891836225986481 -0.27893930673599243 84.0 1 -0.07814569771289825
0.6779556274414062 -0.038853246718645096 0.035588450729846954 70.0 9 -0.0781433954834938
1.030980110168457 -0.059084873646497726 -0.2007310688495636 60.0 2 -0.07814109325408936
0.6802741885185242 -0.039105236530303955 0.059614524245262146 100.0 10 -0.07813878357410431
0.6527655720710754 -0.03763822466135025 -0.10355963557958603 6.0 3 -0.07813648134469986
0.6539876461029053 -0.03782321512699127 0.08043377101421356 100.0 11 -0.07813417911529541
0.6559628248214722 -0.03805232048034668 -0.08067751675844193 69.0 4 -0.07813187688589096
3.6758852005004883 -0.21388134360313416 0.5831877589225769 85.0 12 -0.07812956720590591
0.6722838282585144 -0.03923455998301506 -0.05891728401184082 90.0 5 -0.07812726497650146
3.6807291507720947 -0.21480777859687805 0.7166786193847656 92.0 13 -0.07812496274709702
0.6480000615119934 -0.037930842489004135 -0.034018374979496 7.0 6 -0.07812266051769257
3.69429612159729 -0.2168935239315033 0.8543641567230225 94.0 14 -0.07812035828828812
0.6727320551872253 -0.039614174515008926 -0.011762921698391438 100.0 7 -0.07811804860830307
3.685346841812134 -0.21765898168087006 0.9892064332962036 113.0 15 -0.07811574637889862
1.193636417388916 -0.07216953486204147 -0.32041797041893005 67.0 0 -0.07809501141309738
0.6686768531799316 -0.040429480373859406 0.011693112552165985 12.0 8 -0.07809270918369293
1.2176748514175415 -0.07383625209331512 -0.2816387414932251 91.0 1 -0.07809039950370789
0.6678480505943298 -0.04061334580183029 0.03506509214639664 73.0 9 -0.07808809727430344
1.0033221244812012 -0.06119004637002945 -0.19538842141628265 60.0 2 -0.07808579504489899
0.6741602420806885 -0.04123340919613838 0.05909159407019615 63.0 10 -0.07808349281549454
0.6388214230537415 -0.039183907210826874 -0.10136953741312027 7.0 3 -0.07808118313550949
0.6657398343086243 -0.040835022926330566 0.08189620822668076 100.0 11 -0.07807888090610504
0.643937885761261 -0.03961054980754852 -0.07921507954597473 67.0 4 -0.07807657867670059
3.6652581691741943 -0.22610314190387726 0.5816234350204468 87.0 12 -0.07807427644729614
0.672142744064331 -0.04158103093504906 -0.05891728401184082 100.0 5 -0.0780719742178917
3.6877548694610596 -0.22878313064575195 0.7182050943374634 93.0 13 -0.07806966453790665
0.6458632349967957 -0.04018160700798035 -0.03391370177268982 7.0 6 -0.0780673623085022
3.685696601867676 -0.22994697093963623 0.8525645732879639 94.0 14 -0.07806506007909775
0.6745855212211609 -0.04208672419190407 -0.011797827668488026 100.0 7 -0.0780627578496933
3.6961328983306885 -0.23124568164348602 0.9923122525215149 111.0 15 -0.07806044816970825
1.1933772563934326 -0.07633566111326218 -0.32041797041893005 67.0 0 -0.07803971320390701
0.6765065789222717 -0.04339202865958214 0.011832731775939465 8.0 8 -0.07803741097450256
1.2193408012390137 -0.07842382043600082 -0.28208863735198975 92.0 1 -0.07803510874509811
0.6617153882980347 -0.04267524182796478 0.034751079976558685 70.0 9 -0.07803279906511307
0.9697962403297424 -0.06254394352436066 -0.1889009177684784 51.0 2 -0.07803049683570862
0.6581063866615295 -0.04255782812833786 0.057697102427482605 26.0 10 -0.07802819460630417
0.6485370397567749 -0.042052675038576126 -0.10293389111757278 20.0 3 -0.07802589237689972
0.6774711608886719 -0.04404757171869278 0.08335863798856735 100.0 11 -0.07802359014749527
0.6536928415298462 -0.04261613264679909 -0.08043377101421356 80.0 4 -0.07802128046751022
3.66440486907959 -0.23953548073768616 0.5816234350204468 98.0 12 -0.07801897823810577
0.6580765247344971 -0.04301726445555687 -0.057697102427482605 93.0 5 -0.07801667600870132
3.690851926803589 -0.24191123247146606 0.7189683318138123 92.0 13 -0.07801437377929688
0.6556838750839233 -0.04309071972966194 -0.034437064081430435 10.0 6 -0.07801206409931183
3.68876051902771 -0.24306733906269073 0.8534643650054932 94.0 14 -0.07800976186990738
0.6684406399726868 -0.04416342452168465 -0.011693112552165985 100.0 7 -0.07800745964050293
3.6875503063201904 -0.2442803680896759 0.9902417063713074 111.0 15 -0.07800515741109848
1.1931034326553345 -0.08050086349248886 -0.32041797041893005 69.0 0 -0.07798441499471664
0.6524093747138977 -0.04413362964987755 0.011413874104619026 12.0 8 -0.0779821127653122
1.2229480743408203 -0.0829433724284172 -0.28298842906951904 92.0 1 -0.07797981053590775
0.6695330142974854 -0.04552678391337395 0.03516976535320282 73.0 9 -0.0779775083065033
0.9382323622703552 -0.06379774957895279 -0.18279503285884857 66.0 2 -0.07797520607709885
0.6539782285690308 -0.0445837639272213 0.057348478585481644 19.0 10 -0.0779728963971138
0.6542985439300537 -0.044720325618982315 -0.10387250036001205 40.0 3 -0.07797059416770935
0.6773132085800171 -0.046412114053964615 0.08335863798856735 100.0 11 -0.0779682919383049
0.6594812870025635 -0.04530584439635277 -0.08116498589515686 86.0 4 -0.07796598970890045
3.6733999252319336 -0.2530038356781006 0.5831877589225769 93.0 12 -0.0779636800289154
0.6479838490486145 -0.04462960734963417 -0.05682554095983505 81.0 5 -0.07796137779951096
3.686067581176758 -0.25452274084091187 0.7182050943374634 93.0 13 -0.0779590755701065
0.6754543781280518 -0.04675852879881859 -0.03548378124833107 9.0 6 -0.07795677334070206
3.705386161804199 -0.25715628266334534 0.8575134873390198 100.0 14 -0.07795446366071701
0.6642926335334778 -0.046218857169151306 -0.011623302474617958 100.0 7 -0.07795216143131256
3.6866750717163086 -0.2571508586406708 0.9902417063713074 111.0 15 -0.07794985920190811
1.2101582288742065 -0.0858960673213005 -0.32507672905921936 74.0 0 -0.07792912423610687
0.656240701675415 -0.0466945543885231 0.011483684182167053 12.0 8 -0.07792682200670242
1.2207072973251343 -0.08707310259342194 -0.2825385332107544 94.0 1 -0.07792451232671738
0.6733627915382385 -0.04803099483251572 0.035379111766815186 73.0 9 -0.07792221009731293
0.8518407344818115 -0.060911260545253754 -0.16600383818149567 99.0 2 -0.07791990786790848
0.6438820958137512 -0.04615404084324837 0.05647691711783409 13.0 10 -0.07791760563850403
0.6738414168357849 -0.0484197698533535 -0.10700118541717529 100.0 3 -0.07791529595851898
0.6652674078941345 -0.04792037978768349 0.08189620822668076 100.0 11 -0.07791299372911453
0.6593274474143982 -0.04749251529574394 -0.08116498589515686 63.0 4 -0.07791069149971008
3.674510955810547 -0.2653261721134186 0.5835006237030029 28.0 12 -0.07790838927030563
0.6716704964637756 -0.04861728474497795 -0.05891728401184082 100.0 5 -0.07790607959032059
3.68515682220459 -0.2673879563808441 0.7182050943374634 92.0 13 -0.07790377736091614
0.6593510508537292 -0.04795693978667259 -0.0346464067697525 12.0 6 -0.07790147513151169
3.7006256580352783 -0.26915961503982544 0.8566136360168457 91.0 14 -0.07789917290210724
0.6741077899932861 -0.04914852976799011 -0.011797827668488026 100.0 7 -0.07789686322212219
3.6935086250305176 -0.2699381113052368 0.9923122525215149 111.0 15 -0.07789456099271774
1.2137199640274048 -0.09019497036933899 -0.3261120319366455 81.0 0 -0.0778738260269165
0.6600705981254578 -0.04916755482554436 0.011553493328392506 9.0 8 -0.07787152379751205
1.2106952667236328 -0.09039515256881714 -0.28028902411460876 92.0 1 -0.0778692215681076
0.6652329564094543 -0.04966884106397629 0.03496042266488075 73.0 9 -0.07786691188812256
0.8281406760215759 -0.06197750195860863 -0.1614244133234024 100.0 2 -0.07786460965871811
0.6596200466156006 -0.04948130622506142 0.057871412485837936 13.0 10 -0.07786230742931366
0.6815564632415771 -0.051246486604213715 -0.10825265944004059 100.0 3 -0.07786000519990921
0.6532279849052429 -0.049231112003326416 0.08043377101421356 26.0 11 -0.07785769551992416
0.6631253361701965 -0.04997703805565834 -0.08165246248245239 40.0 4 -0.07785539329051971
0.6615719795227051 -0.050092220306396484 -0.05804572254419327 86.0 5 -0.07785078883171082
3.6881651878356934 -0.2799040377140045 0.7189683318138123 93.0 13 -0.07784847915172577
0.6591883897781372 -0.05014316365122795 -0.0346464067697525 17.0 6 -0.07784617692232132
3.6977698802948 -0.28128206729888916 0.8561637997627258 94.0 14 -0.07784387469291687
0.6799228191375732 -0.05183975026011467 -0.011902541853487492 100.0 7 -0.07784157246351242
3.700298309326172 -0.28277355432510376 0.9943828582763672 108.0 15 -0.07783927023410797
1.2268965244293213 -0.0952661857008934 -0.32973548769950867 89.0 0 -0.07781852781772614
0.6678785085678101 -0.051976773887872696 0.011693112552165985 12.0 8 -0.07781622558832169
1.2181601524353027 -0.09501563012599945 -0.28208863735198975 92.0 1 -0.07781392335891724
0.6630642414093018 -0.05183497071266174 0.03485574945807457 68.0 9 -0.07781162112951279
0.8083577752113342 -0.06319327652454376 -0.1576082408428192 99.0 2 -0.07780931144952774
0.6753426790237427 -0.05291343107819557 0.059265900403261185 12.0 10 -0.07780700922012329
0.6675975918769836 -0.052423831075429916 -0.10606258362531662 100.0 3 -0.07780470699071884
0.6708718538284302 -0.052798762917518616 0.08262742310762405 100.0 11 -0.07780240476131439
0.6629468202590942 -0.052291467785835266 -0.08165246248245239 12.0 4 -0.07780009508132935
0.6693377494812012 -0.05303066968917847 -0.05874297022819519 72.0 5 -0.07779549062252045
3.6872167587280273 -0.2921328842639923 0.7189683318138123 92.0 13 -0.077793188393116
0.6968473196029663 -0.05533260107040405 -0.036635175347328186 31.0 6 -0.07779088616371155
3.700650453567505 -0.29449716210365295 0.8570635914802551 100.0 14 -0.0777885764837265
0.663790762424469 -0.05294094979763031 -0.011623302474617958 100.0 7 -0.07778627425432205
3.7031400203704834 -0.2959960997104645 0.9954180717468262 108.0 15 -0.0777839720249176
1.2169116735458374 -0.09897929430007935 -0.3271472752094269 87.0 0 -0.07776323705911636
0.6756654977798462 -0.05495624244213104 0.011832731775939465 11.0 8 -0.07776092737913132
1.2275326251983643 -0.10005882382392883 -0.2843381464481354 94.0 1 -0.07775862514972687
0.6688511967658997 -0.05463701859116554 0.03516976535320282 76.0 9 -0.07775632292032242
0.8237744569778442 -0.06743709743022919 -0.16066119074821472 100.0 2 -0.07775402069091797
0.6830871105194092 -0.056039959192276 0.05996314808726311 12.0 10 -0.07775171101093292
0.6772446036338806 -0.055679645389318466 -0.10762692242860794 100.0 3 -0.07774940878152847
0.6865108013153076 -0.05644146353006363 0.08457732945680618 100.0 11 -0.07774710655212402
0.6627602577209473 -0.05460526794195175 -0.08165246248245239 12.0 4 -0.07774480432271957
1.2835779190063477 -0.10598039627075195 0.20399056375026703 0.0 12 -0.07774250209331512
0.6651774048805237 -0.05503819137811661 -0.05839434638619423 65.0 5 -0.07774019241333008
3.7017736434936523 -0.3069431185722351 0.7220212817192078 93.0 13 -0.07773789018392563
0.6886782646179199 -0.05722474679350853 -0.03621648624539375 60.0 6 -0.07773558795452118
3.7073142528533936 -0.308705598115921 0.8588631749153137 100.0 14 -0.07773328572511673
0.6596164107322693 -0.054925817996263504 -0.011553493328392506 97.0 7 -0.07773097604513168
3.7020843029022217 -0.3089207112789154 0.9954180717468262 111.0 15 -0.07772867381572723
1.212708830833435 -0.10289984196424484 -0.3261120319366455 89.0 0 -0.077707938849926
0.6814370155334473 -0.05794055759906769 0.01193744596093893 20.0 8 -0.07770563662052155
1.2271575927734375 -0.10455728322267532 -0.2843381464481354 94.0 1 -0.0777033269405365
0.6726365089416504 -0.057310525327920914 0.035379111766815186 70.0 9 -0.07770102471113205
0.776586651802063 -0.06630390137434006 -0.1515023559331894 70.0 2 -0.0776987224817276
0.6550953984260559 -0.05604631081223488 0.057522788643836975 13.0 10 -0.07769642025232315
0.6672053933143616 -0.05719967558979988 -0.10606258362531662 100.0 3 -0.0776941180229187
0.6704768538475037 -0.05759802088141441 0.08262742310762405 100.0 11 -0.07769180834293365
0.6645334959030151 -0.057204291224479675 -0.08189620822668076 12.0 4 -0.0776895061135292
1.27139151096344 -0.1094437688589096 0.2021133452653885 0.0 12 -0.07768720388412476
0.6530711650848389 -0.05633242055773735 -0.057348478585481644 90.0 5 -0.0776849016547203
3.7006795406341553 -0.31986287236213684 0.7220212817192078 92.0 13 -0.07768259197473526
0.692453920841217 -0.059973008930683136 -0.03642582893371582 100.0 6 -0.07768028974533081
3.712038516998291 -0.3221501111984253 0.8602128624916077 100.0 14 -0.07767798751592636
0.647467315196991 -0.056190602481365204 -0.011344064027071 60.0 7 -0.07767568528652191
3.697134256362915 -0.3215067684650421 0.9943828582763672 108.0 15 -0.07767337560653687
1.2200396060943604 -0.1078125461935997 -0.32818254828453064 92.0 0 -0.07765264064073563
0.6712814569473267 -0.05931985005736351 0.011762921698391438 34.0 8 -0.07765033841133118
1.2229218482971191 -0.10828236490488052 -0.2834383547306061 94.0 1 -0.07764803618192673
0.6724323630332947 -0.05965811759233475 0.035379111766815186 70.0 9 -0.07764573395252228
0.7685282826423645 -0.0683189257979393 -0.14997588098049164 100.0 2 -0.07764342427253723
0.6608493328094482 -0.058862973004579544 0.05804572254419327 13.0 10 -0.07764112204313278
0.6611092686653137 -0.058886125683784485 -0.10512397438287735 100.0 3 -0.07763881981372833
0.6623731851577759 -0.05911523103713989 0.08165246248245239 100.0 11 -0.07763651758432388
0.6880666017532349 -0.06152934953570366 -0.08482106775045395 12.0 4 -0.07763420790433884
1.2316519021987915 -0.11035536974668503 0.195855975151062 0.0 12 -0.07763190567493439
0.6707302331924438 -0.06021508574485779 -0.05891728401184082 100.0 5 -0.07762960344552994
3.695687770843506 -0.33178189396858215 0.7212580442428589 90.0 13 -0.07762730121612549
0.6723589897155762 -0.060479603707790375 -0.035379111766815186 100.0 6 -0.07762499153614044
3.712890863418579 -0.33463287353515625 0.8606628179550171 94.0 14 -0.07762268930673599
0.6592168807983398 -0.05952943116426468 -0.011553493328392506 17.0 7 -0.07762038707733154
3.6998374462127686 -0.3347584009170532 0.9954180717468262 108.0 15 -0.0776180848479271
1.2215993404388428 -0.11203420162200928 -0.3287002146244049 94.0 0 -0.07759734988212585
0.6750529408454895 -0.062028657644987106 0.011832731775939465 69.0 8 -0.07759504020214081
1.2089526653289795 -0.11129992455244064 -0.28028902411460876 90.0 1 -0.07759273797273636
0.6662642359733582 -0.06133834645152092 0.03506509214639664 66.0 9 -0.07759043574333191
0.7839371562004089 -0.07230966538190842 -0.15302883088588715 122.0 2 -0.07758813351392746
0.6606504917144775 -0.06105410307645798 0.05804572254419327 13.0 10 -0.07758582383394241
0.664833664894104 -0.061557721346616745 -0.1057497188448906 100.0 3 -0.07758352160453796
0.6759990453720093 -0.06271053105592728 0.08335863798856735 100.0 11 -0.07758121937513351
0.6641287207603455 -0.061726268380880356 -0.08189620822668076 12.0 4 -0.07757891714572906
1.22734534740448 -0.11407344043254852 0.19523023068904877 0.0 12 -0.07757660746574402
0.6685429215431213 -0.06225423514842987 -0.05874297022819519 100.0 5 -0.07757430523633957
3.6984167098999023 -0.3450450003147125 0.7220212817192078 82.0 13 -0.07757200300693512
0.6641893982887268 -0.06208270043134689 -0.03496042266488075 100.0 6 -0.07756970077753067
3.715580701828003 -0.3479546010494232 0.8615626096725464 100.0 14 -0.07756739109754562
0.6510518789291382 -0.06096934154629707 -0.011413874104619026 15.0 7 -0.07756508886814117
3.710247278213501 -0.3481083810329437 0.9985239505767822 106.0 15 -0.07756278663873672
1.2269701957702637 -0.11684712767601013 -0.33025309443473816 92.0 0 -0.07754205167293549
0.6668807864189148 -0.06350855529308319 0.011693112552165985 100.0 8 -0.07753974944353104
1.2202165126800537 -0.11641886085271835 -0.28298842906951904 90.0 1 -0.07753743976354599
0.6680343151092529 -0.06385371834039688 0.03516976535320282 33.0 9 -0.07753513753414154
0.7152790427207947 -0.06849556416273117 -0.139672189950943 100.0 2 -0.07753283530473709
0.6881993412971497 -0.06602361798286438 0.0604860819876194 36.0 10 -0.07753053307533264
0.6724911332130432 -0.06451661884784698 -0.10700118541717529 100.0 3 -0.0775282233953476
0.6659074425697327 -0.06400229781866074 0.08213994652032852 100.0 11 -0.07752592116594315
0.6777520179748535 -0.06526009738445282 -0.08360237628221512 12.0 4 -0.0775236189365387
1.1836823225021362 -0.11418414860963821 0.18834713101387024 0.0 12 -0.07752131670713425
0.6881531476974487 -0.06650405377149582 -0.0604860819876194 100.0 5 -0.0775190070271492
3.708976984024048 -0.3584406077861786 0.7243109941482544 53.0 13 -0.07751670479774475
0.6679558157920837 -0.06466983258724213 -0.03516976535320282 99.0 6 -0.0775144025683403
3.700828790664673 -0.35895711183547974 0.8584132790565491 97.0 14 -0.07751210033893585
0.6468544006347656 -0.06285475939512253 -0.011344064027071 12.0 7 -0.0775097981095314
3.716700792312622 -0.36180615425109863 1.0005944967269897 108.0 15 -0.07750748842954636
1.2188857793807983 -0.1201571524143219 -0.32818254828453064 92.0 0 -0.07748675346374512
0.6626749634742737 -0.06544296443462372 0.011623302474617958 100.0 8 -0.07748445123434067
1.219802737236023 -0.12067750096321106 -0.28298842906951904 90.0 1 -0.07748214900493622
0.6678073406219482 -0.06618520617485046 0.03516976535320282 8.0 9 -0.07747983932495117
0.7228626608848572 -0.07164163887500763 -0.14119866490364075 79.0 2 -0.07747753709554672
0.6701328754425049 -0.06653380393981934 0.05891728401184082 57.0 10 -0.07747523486614227
0.6742275953292847 -0.06705917418003082 -0.10731405764818192 90.0 3 -0.07747293263673782
0.6735812425613403 -0.06711361557245255 0.08311489969491959 27.0 11 -0.07747062295675278
0.6755447387695312 -0.06742832809686661 -0.08335863798856735 10.0 4 -0.07746832072734833
1.1832764148712158 -0.11831527948379517 0.18834713101387024 0.0 12 -0.07746601849794388
0.6799987554550171 -0.06799276918172836 -0.059788838028907776 100.0 5 -0.07746371626853943
3.7252845764160156 -0.3731461763381958 0.727745532989502 9.0 13 -0.07746141403913498
0.6756750345230103 -0.0677986666560173 -0.035588450729846954 87.0 6 -0.07745910435914993
3.7170040607452393 -0.37362727522850037 0.8624624013900757 100.0 14 -0.07745680212974548
0.6466310620307922 -0.06511232256889343 -0.011344064027071 10.0 7 -0.07745449990034103
3.711570978164673 -0.3743899166584015 0.999559223651886 104.0 15 -0.07745219767093658
1.2146153450012207 -0.12401868402957916 -0.3271472752094269 92.0 0 -0.07743145525455475
0.654485285282135 -0.06694184988737106 0.011483684182167053 100.0 8 -0.0774291530251503
1.2193740606307983 -0.12493466585874557 -0.28298842906951904 90.0 1 -0.07742685079574585
0.6755195260047913 -0.06933154165744781 0.035588450729846954 8.0 9 -0.0774245485663414
0.662065327167511 -0.06795068085193634 -0.12936849892139435 100.0 2 -0.07742224633693695
0.6679145693778992 -0.06866881996393204 0.05874297022819519 100.0 10 -0.0774199366569519
0.6700593829154968 -0.0690075159072876 -0.10668832063674927 100.0 3 -0.07741763442754745
0.6812413930892944 -0.07027927786111832 0.08408986032009125 100.0 11 -0.077415332198143
0.6812290549278259 -0.07039818167686462 -0.08408986032009125 12.0 4 -0.07741302996873856
1.2083996534347534 -0.1250891089439392 0.19241440296173096 1.0 12 -0.07741072028875351
0.6599392890930176 -0.06831450015306473 -0.05804572254419327 100.0 5 -0.07740841805934906
3.688809394836426 -0.3825027644634247 0.7208763957023621 1.0 13 -0.07740611582994461
0.6794074773788452 -0.0705694779753685 -0.03579779714345932 95.0 6 -0.07740381360054016
3.7234303951263428 -0.38740649819374084 0.864262044429779 100.0 14 -0.07740150392055511
0.6483887434005737 -0.06757637858390808 -0.011378969065845013 10.0 7 -0.07739920169115067
3.7063987255096436 -0.3869422376155853 0.9985239505767822 106.0 15 -0.07739689946174622
1.2218595743179321 -0.1290694773197174 -0.3292178511619568 90.0 0 -0.07737616449594498
0.650270402431488 -0.06880520284175873 0.011413874104619026 100.0 8 -0.07737386226654053
1.2228063344955444 -0.1296011060476303 -0.2838882505893707 90.0 1 -0.07737155258655548
0.6752733588218689 -0.07168912887573242 0.035588450729846954 7.0 9 -0.07736925035715103
0.6891560554504395 -0.07316295802593231 -0.1347111612558365 100.0 2 -0.07736694812774658
0.6795581579208374 -0.07226394861936569 0.059788838028907776 100.0 10 -0.07736464589834213
0.6482075452804565 -0.0690445601940155 -0.10324675589799881 64.0 3 -0.07736233621835709
0.6553312540054321 -0.06991902738809586 0.0809212476015091 100.0 11 -0.07736003398895264
0.7007176876068115 -0.07488512247800827 -0.08652724325656891 14.0 4 -0.07735773175954819
1.2158122062683105 -0.13014745712280273 0.19366589188575745 2.0 12 -0.07735542953014374
0.659684419631958 -0.07073283940553665 -0.05804572254419327 100.0 5 -0.07735311985015869
1.2942194938659668 -0.13876909017562866 0.2530127465724945 0.0 13 -0.07735081762075424
0.673199474811554 -0.07230079919099808 -0.03548378124833107 100.0 6 -0.07734851539134979
3.72786808013916 -0.4010266065597534 0.865611732006073 100.0 14 -0.07734621316194534
0.6620661616325378 -0.07133888453245163 -0.011623302474617958 10.0 7 -0.0773439034819603
3.708866834640503 -0.4002922475337982 0.999559223651886 106.0 15 -0.07734160125255585
1.2213783264160156 -0.13354696333408356 -0.3292178511619568 90.0 0 -0.07732086628675461
0.650026261806488 -0.07107464969158173 0.011413874104619026 100.0 8 -0.07731856405735016
1.206849217414856 -0.13217148184776306 -0.28028902411460876 87.0 1 -0.07731626182794571
0.6631069779396057 -0.0727391466498375 0.03496042266488075 7.0 9 -0.07731395214796066
0.6888833045959473 -0.07568834722042084 -0.1347111612558365 100.0 2 -0.07731164991855621
0.6832495927810669 -0.07519005984067917 0.06013746187090874 100.0 10 -0.07730934768915176
0.6518771052360535 -0.07185273617506027 -0.10387250036001205 23.0 3 -0.07730704545974731
0.6570563316345215 -0.07242362201213837 0.08116498589515686 100.0 11 -0.07730473577976227
0.6748016476631165 -0.07449878752231598 -0.08335863798856735 38.0 4 -0.07730243355035782
1.2094603776931763 -0.13373932242393494 0.19272729754447937 4.0 12 -0.07730013132095337
0.6752758622169495 -0.07478974014520645 -0.05944021791219711 100.0 5 -0.07729782909154892
1.2468712329864502 -0.13831672072410583 0.24385392665863037 0.0 13 -0.07729551941156387
0.6630047559738159 -0.07366494089365005 -0.03496042266488075 90.0 6 -0.07729321718215942
3.7205629348754883 -0.4140406548976898 0.864262044429779 100.0 14 -0.07729091495275497
0.6578384041786194 -0.07320716232061386 -0.011553493328392506 12.0 7 -0.07728861272335052
3.7151267528533936 -0.41409212350845337 1.0016297101974487 106.0 15 -0.07728630304336548
1.2324225902557373 -0.13910964131355286 -0.33232367038726807 92.0 0 -0.07726556807756424
0.6537355184555054 -0.07390591502189636 0.011483684182167053 100.0 8 -0.07726326584815979
1.2141021490097046 -0.13747093081474304 -0.28208863735198975 87.0 1 -0.07726096361875534
0.6668050289154053 -0.0756191834807396 0.03516976535320282 7.0 9 -0.07725866138935089
0.6652058959007263 -0.07543784379959106 -0.13013173639774323 100.0 2 -0.07725635170936584
0.6849626302719116 -0.07779943943023682 0.06031177192926407 100.0 10 -0.0772540494799614
0.6437714099884033 -0.0732346698641777 -0.10262101888656616 10.0 3 -0.07725174725055695
0.6804545521736145 -0.07752799987792969 0.08408986032009125 100.0 11 -0.0772494450211525
0.6725518107414246 -0.07674650102853775 -0.08311489969491959 84.0 4 -0.07724713534116745
1.20699942111969 -0.13794702291488647 0.19241440296173096 4.0 12 -0.077244833111763
0.6670926213264465 -0.07624149322509766 -0.05874297022819519 100.0 5 -0.07724253088235855
1.22687566280365 -0.1404355764389038 0.2400377243757248 2.0 13 -0.0772402286529541
0.6706806421279907 -0.07688874751329422 -0.035379111766815186 90.0 6 -0.07723791897296906
3.713286876678467 -0.4263584315776825 0.8629122972488403 97.0 14 -0.0772356167435646
0.6535924673080444 -0.07516086101531982 -0.011483684182167053 12.0 7 -0.07723331451416016
3.7250990867614746 -0.42903217673301697 1.0047355890274048 106.0 15 -0.0772310122847557
1.2204161882400513 -0.1420704573392868 -0.3292178511619568 90.0 0 -0.07721027731895447
0.6634047031402588 -0.07734528928995132 0.011658207513391972 100.0 8 -0.07720796763896942
1.217486023902893 -0.142160102725029 -0.28298842906951904 85.0 1 -0.07720566540956497
0.6705044507980347 -0.07841027528047562 0.035379111766815186 7.0 9 -0.07720336318016052
0.6571386456489563 -0.07684724777936935 -0.12860526144504547 100.0 2 -0.07720106095075607
0.6767714023590088 -0.079262875020504 0.059614524245262146 100.0 10 -0.07719875127077103
0.6592073440551758 -0.07732242345809937 -0.10512397438287735 6.0 3 -0.07719644904136658
