# .PCD v0.7 - Point Cloud Data file format
VERSION 0.7
FIELDS x y z intensity ring time
SIZE 4 4 4 4 4 4
TYPE F F F F F F
COUNT 1 1 1 1 1 1
WIDTH 542
HEIGHT 1
VIEWPOINT 0 0 0 1 0 0 0
POINTS 542
DATA ascii
0.40720507502555847 -1.500834345817566 -0.3590219020843506 7.0 1 -0.07275485247373581
0.597912073135376 -2.20524525642395 0.1197446808218956 28.0 9 -0.07275254279375076
0.5019356608390808 -1.851260781288147 -0.3728407919406891 6.0 2 -0.07275024056434631
0.6002389192581177 -2.2153570652008057 0.20080682635307312 19.0 10 -0.07274793833494186
0.6143478155136108 -2.2689998149871826 -0.37231406569480896 100.0 3 -0.07274563610553741
0.5957144498825073 -2.2017033100128174 0.2800557613372803 11.0 11 -0.07274333387613297
0.6139830946922302 -2.2707934379577637 -0.28883036971092224 100.0 4 -0.07274102419614792
0.5956408381462097 -2.2044832706451416 0.36167651414871216 10.0 12 -0.07273872196674347
0.5877783298492432 -2.1753835678100586 -0.19714628159999847 91.0 5 -0.07273641973733902
0.5962091684341431 -2.2081167697906494 0.44458499550819397 8.0 13 -0.07273411750793457
0.5920954942703247 -2.194404125213623 -0.1191166415810585 54.0 6 -0.07273180782794952
0.5950949788093567 -2.2070510387420654 0.5277352333068848 8.0 14 -0.07272950559854507
0.5889296531677246 -2.1857030391693115 -0.03951225057244301 100.0 7 -0.07272720336914062
0.5926896929740906 -2.2011876106262207 0.6108129620552063 8.0 15 -0.07272490113973618
0.34250006079673767 -1.27822744846344 -0.35458213090896606 12.0 0 -0.07270415872335434
0.5865296721458435 -2.190488576889038 0.039582058787345886 52.0 8 -0.07270185649394989
0.39591923356056213 -1.4796563386917114 -0.35362306237220764 9.0 1 -0.07269955426454544
0.5902108550071716 -2.2073187828063965 0.1197446808218956 26.0 9 -0.07269725203514099
0.4974991977214813 -1.8605880737304688 -0.37436726689338684 6.0 2 -0.07269494980573654
0.5914732813835144 -2.2135891914367676 0.20045821368694305 20.0 10 -0.0726926401257515
0.6074431538581848 -2.274947166442871 -0.372939795255661 100.0 3 -0.07269033789634705
0.5880256295204163 -2.2037692070007324 0.2800557613372803 12.0 11 -0.0726880356669426
0.6060524582862854 -2.2729227542877197 -0.28883036971092224 100.0 4 -0.07268573343753815
0.5879421234130859 -2.2065489292144775 0.36167651414871216 11.0 12 -0.0726834237575531
0.5750514268875122 -2.158170223236084 -0.19540317356586456 91.0 5 -0.07268112152814865
0.5925391316413879 -2.2253615856170654 0.4476379454135895 8.0 13 -0.0726788192987442
0.5870000123977661 -2.206108331680298 -0.11964000016450882 59.0 6 -0.07267651706933975
0.5873872637748718 -2.2091150283813477 0.5277352333068848 8.0 14 -0.0726742073893547
0.5807828903198242 -2.1858127117156982 -0.03947734460234642 100.0 7 -0.07267190515995026
0.5850026607513428 -2.2032432556152344 0.6108129620552063 9.0 15 -0.0726696029305458
0.3355686366558075 -1.2700762748718262 -0.3519938886165619 11.0 0 -0.07264886796474457
0.5758172273635864 -2.180922031402588 0.039372626692056656 52.0 8 -0.07264656573534012
0.382300466299057 -1.4489970207214355 -0.34597474336624146 12.0 1 -0.07264425605535507
0.5835205912590027 -2.2132279872894287 0.11995401978492737 28.0 9 -0.07264195382595062
0.4889994263648987 -1.854719877243042 -0.3728407919406891 6.0 2 -0.07263965159654617
0.5827277898788452 -2.211786985397339 0.2001095712184906 21.0 10 -0.07263734936714172
0.5964807868003845 -2.265592336654663 -0.37106260657310486 100.0 3 -0.07263503968715668
0.5838648676872253 -2.2192466259002686 0.28176194429397583 13.0 11 -0.07263273745775223
0.6001339554786682 -2.2827036380767822 -0.2898053228855133 100.0 4 -0.07263043522834778
0.5832480788230896 -2.2200512886047363 0.3635537326335907 11.0 12 -0.07262813299894333
0.5666314363479614 -2.1583359241485596 -0.19522884488105774 88.0 5 -0.07262582331895828
0.5787849426269531 -2.20462965965271 0.44305849075317383 8.0 13 -0.07262352108955383
0.5792959332466125 -2.208143711090088 -0.11964000016450882 59.0 6 -0.07262121886014938
0.5816490650177002 -2.2186920642852783 0.5295348167419434 8.0 14 -0.07261891663074493
0.5756832361221313 -2.1974987983703613 -0.039651867002248764 100.0 7 -0.07261660695075989
0.5773082971572876 -2.2052717208862305 0.6108129620552063 8.0 15 -0.07261430472135544
0.32993820309638977 -1.2675586938858032 -0.3509586453437805 9.0 0 -0.0725935697555542
0.5682011246681213 -2.1829185485839844 0.039372626692056656 54.0 8 -0.07259126752614975
0.37527793645858765 -1.4427787065505981 -0.3441751301288605 20.0 1 -0.0725889652967453
0.5747864842414856 -2.211385488510132 0.1197446808218956 26.0 9 -0.07258665561676025
0.4802241921424866 -1.8488988876342773 -0.37131431698799133 6.0 2 -0.0725843533873558
0.5741167068481445 -2.211979389190674 0.19993527233600616 20.0 10 -0.07258205115795135
0.5866851210594177 -2.2620270252227783 -0.3701240122318268 100.0 3 -0.0725797489285469
0.572127640247345 -2.2058990001678467 0.2798120379447937 13.0 11 -0.07257743924856186
0.5921618342399597 -2.2847847938537598 -0.2898053228855133 100.0 4 -0.07257513701915741
0.574504554271698 -2.2182490825653076 0.36292800307273865 11.0 12 -0.07257283478975296
0.5580958724021912 -2.1564431190490723 -0.19488023221492767 88.0 5 -0.07257053256034851
0.5707006454467773 -2.2067360877990723 0.44305849075317383 8.0 13 -0.07256822288036346
0.5682002902030945 -2.1986498832702637 -0.11901197582483292 59.0 6 -0.07256592065095901
0.5754625797271729 -2.22835636138916 0.5313344597816467 8.0 14 -0.07256361842155457
0.5620091557502747 -2.1762607097625732 -0.0392330102622509 100.0 7 -0.07256131619215012
0.5705722570419312 -2.21101450920105 0.6118482351303101 8.0 15 -0.07255901396274567
0.32647159695625305 -1.2724450826644897 -0.3519938886165619 9.0 0 -0.07253827154636383
0.5596998929977417 -2.183049440383911 0.039337724447250366 59.0 8 -0.07253596931695938
0.37675851583480835 -1.4705731868743896 -0.3504737615585327 20.0 1 -0.07253366708755493
0.5640898942947388 -2.2017695903778076 0.1191166415810585 27.0 9 -0.07253136485815048
0.4757148325443268 -1.8581715822219849 -0.3728407919406891 6.0 2 -0.07252905517816544
0.5678732991218567 -2.2197606563568115 0.20045821368694305 19.0 10 -0.07252675294876099
0.5802536010742188 -2.2698025703430176 -0.37106260657310486 100.0 3 -0.07252445071935654
0.561090886592865 -2.196441650390625 0.2783496081829071 12.0 11 -0.07252214848995209
0.581820011138916 -2.2792463302612305 -0.28883036971092224 100.0 4 -0.07251983880996704
0.5696892738342285 -2.231724739074707 0.3648051917552948 11.0 12 -0.07251753658056259
0.5535197257995605 -2.16996169090271 -0.19592611491680145 94.0 5 -0.07251523435115814
0.563964307308197 -2.212519884109497 0.4438217580318451 8.0 13 -0.07251293212175369
0.5600290894508362 -2.1986842155456543 -0.11890730261802673 62.0 6 -0.07251062989234924
0.5628734827041626 -2.211466073989868 0.5268353819847107 8.0 14 -0.0725083202123642
0.5553953647613525 -2.1820852756500244 -0.03930281847715378 100.0 7 -0.07250601798295975
0.5609464049339294 -2.2055037021636963 0.6097776889801025 8.0 15 -0.0725037157535553
0.3220280706882477 -1.2735768556594849 -0.3519938886165619 9.0 0 -0.07248298078775406
0.5524574518203735 -2.1848936080932617 0.039337724447250366 56.0 8 -0.07248067110776901
0.38095003366470337 -1.5077123641967773 -0.3590219020843506 13.0 1 -0.07247836887836456
0.5554227232933044 -2.199852466583252 0.11890730261802673 27.0 9 -0.07247606664896011
0.4658639132976532 -1.8464953899383545 -0.370169460773468 6.0 2 -0.07247376441955566
0.5601216554641724 -2.221729278564453 0.20045821368694305 21.0 10 -0.07247145473957062
0.5746549963951111 -2.2793760299682617 -0.37231406569480896 100.0 3 -0.07246915251016617
0.5557437539100647 -2.2059895992279053 0.27932456135749817 13.0 11 -0.07246685028076172
0.5713510513305664 -2.2696127891540527 -0.28736793994903564 100.0 4 -0.07246454805135727
0.5561128258705139 -2.210711717605591 0.3610507845878601 11.0 12 -0.07246224582195282
0.5449703335762024 -2.168016195297241 -0.1955774873495102 91.0 5 -0.07245993614196777
0.5604529976844788 -2.229609727859497 0.4468746781349182 8.0 13 -0.07245763391256332
0.5537078976631165 -2.2044034004211426 -0.1191166415810585 69.0 6 -0.07245533168315887
0.5564859509468079 -2.2171008586883545 0.5277352333068848 8.0 14 -0.07245302945375443
0.5492346882820129 -2.1898295879364014 -0.03940753638744354 100.0 7 -0.07245071977376938
0.5574710369110107 -2.224313497543335 0.6144364476203918 9.0 15 -0.07244841754436493
0.315933495759964 -1.2671400308609009 -0.34992337226867676 9.0 0 -0.07242768257856369
0.5457944273948669 -2.1906895637512207 0.03940753638744354 61.0 8 -0.07242538034915924
0.3780387043952942 -1.5184880495071411 -0.3612714111804962 11.0 1 -0.0724230706691742
0.5491870641708374 -2.207592248916626 0.11922132223844528 30.0 9 -0.07242076843976974
0.4592641592025757 -1.8461251258850098 -0.3697878420352936 6.0 2 -0.0724184662103653
0.5508280992507935 -2.2158405780792236 0.19976095855236053 21.0 10 -0.07241616398096085
0.5652662515640259 -2.2756168842315674 -0.3713754713535309 100.0 3 -0.0724138617515564
0.5485184788703918 -2.2098429203033447 0.27956831455230713 14.0 11 -0.07241155207157135
0.5653364062309265 -2.2793004512786865 -0.2883428931236267 100.0 4 -0.0724092498421669
0.5479172468185425 -2.210721731185913 0.3607378900051117 11.0 12 -0.07240694761276245
0.5368191599845886 -2.1659433841705322 -0.19522884488105774 91.0 5 -0.072404645383358
0.5488913655281067 -2.2163071632385254 0.4438217580318451 9.0 13 -0.07240233570337296
0.5464894771575928 -2.208261489868164 -0.11922132223844528 66.0 6 -0.0724000334739685
0.5478076934814453 -2.2152462005615234 0.5268353819847107 8.0 14 -0.07239773124456406
0.5387093424797058 -2.1800851821899414 -0.03919810429215431 100.0 7 -0.0723954290151596
0.5473877787590027 -2.2168681621551514 0.6118482351303101 8.0 15 -0.07239311933517456
0.309665322303772 -1.2607307434082031 -0.34785282611846924 9.0 0 -0.07237238436937332
0.5343306064605713 -2.1770448684692383 0.039128296077251434 61.0 8 -0.07237008213996887
0.3713432848453522 -1.5141204595565796 -0.3599216938018799 10.0 1 -0.07236777991056442
0.5433796048164368 -2.2172553539276123 0.11964000016450882 35.0 9 -0.07236547768115997
0.4518827497959137 -1.8439031839370728 -0.3690246343612671 6.0 2 -0.07236316800117493
0.5430901646614075 -2.21774959564209 0.19976095855236053 21.0 10 -0.07236086577177048
0.5568498969078064 -2.2756574153900146 -0.37106260657310486 100.0 3 -0.07235856354236603
0.5426872372627258 -2.2194571495056152 0.2805432379245758 13.0 11 -0.07235626131296158
0.5583192110061646 -2.28511643409729 -0.28883036971092224 100.0 4 -0.07235395163297653
0.5411343574523926 -2.216459035873413 0.3613636791706085 11.0 12 -0.07235164940357208
0.5273653864860535 -2.160061836242676 -0.1945316195487976 94.0 5 -0.07234934717416763
0.5392900705337524 -2.210580348968506 0.44229528307914734 9.0 13 -0.07234704494476318
0.5397241115570068 -2.214036464691162 -0.11943066120147705 68.0 6 -0.07234473526477814
0.5437615513801575 -2.2322919368743896 0.5304346084594727 8.0 14 -0.07234243303537369
0.534406304359436 -2.1955533027648926 -0.03944243863224983 100.0 7 -0.07234013080596924
0.5332543849945068 -2.192485809326172 0.6046013236045837 8.0 15 -0.07233782857656479
0.3070794939994812 -1.2693147659301758 -0.34992337226867676 8.0 0 -0.07231709361076355
0.5248487591743469 -2.1711220741271973 0.03898867964744568 61.0 8 -0.0723147839307785
0.3642256259918213 -1.5078303813934326 -0.3581221103668213 8.0 1 -0.07231248170137405
0.5361049175262451 -2.2210800647735596 0.1197446808218956 33.0 9 -0.0723101794719696
0.4459039568901062 -1.847377896308899 -0.36940622329711914 6.0 2 -0.07230787724256516
0.5348785519599915 -2.2176947593688965 0.1995866596698761 22.0 10 -0.07230556756258011
0.5465887784957886 -2.2679851055145264 -0.36949828267097473 100.0 3 -0.07230326533317566
0.5326127409934998 -2.211688280105591 0.27932456135749817 15.0 11 -0.07230096310377121
0.5512680411338806 -2.2909114360809326 -0.2893178462982178 100.0 4 -0.07229866087436676
0.5333940982818604 -2.218334436416626 0.3613636791706085 12.0 12 -0.07229635119438171
0.5202878713607788 -2.1638269424438477 -0.19470593333244324 95.0 5 -0.07229404896497726
0.5306532979011536 -2.2086312770843506 0.44153204560279846 9.0 13 -0.07229174673557281
0.5296611189842224 -2.2061967849731445 -0.11890730261802673 71.0 6 -0.07228944450616837
0.5350568890571594 -2.23038649559021 0.5295348167419434 8.0 14 -0.07228713482618332
0.5253409147262573 -2.1915717124938965 -0.039337724447250366 100.0 7 -0.07228483259677887
0.5291978120803833 -2.2093632221221924 0.6087424159049988 9.0 15 -0.07228253036737442
0.3026469945907593 -1.2703789472579956 -0.34992337226867676 8.0 0 -0.07226179540157318
0.5191192030906677 -2.1807219982147217 0.039128296077251434 61.0 8 -0.07225949317216873
0.35715624690055847 -1.5015093088150024 -0.3563224971294403 8.0 1 -0.07225718349218369
0.525115966796875 -2.2093358039855957 0.11901197582483292 36.0 9 -0.07225488126277924
0.43672895431518555 -1.8374627828598022 -0.3671165406703949 5.0 2 -0.07225257903337479
0.5289753079414368 -2.2273025512695312 0.20028388500213623 24.0 10 -0.07225027680397034
0.5395808815956116 -2.2737233638763428 -0.3701240122318268 100.0 3 -0.07224796712398529
0.5225993990898132 -2.203876256942749 0.27810585498809814 14.0 11 -0.07224566489458084
0.5405218005180359 -2.2812321186065674 -0.2878554165363312 100.0 4 -0.07224336266517639
0.5261024236679077 -2.222105026245117 0.36167651414871216 12.0 12 -0.07224106043577194
0.5145676136016846 -2.1733851432800293 -0.19540317356586456 95.0 5 -0.0722387507557869
0.5247486233711243 -2.2181122303009033 0.44305849075317383 9.0 13 -0.07223644852638245
0.5201188921928406 -2.2002575397491455 -0.1184886172413826 71.0 6 -0.072234146296978
0.5236842036247253 -2.2170681953430176 0.5259355902671814 8.0 14 -0.07223184406757355
0.5167686939239502 -2.189499616622925 -0.03926791250705719 100.0 7 -0.0722295418381691
0.5219260454177856 -2.2130773067474365 0.6092600226402283 9.0 15 -0.07222723215818405
0.29997536540031433 -1.2789506912231445 -0.3519938886165619 9.0 0 -0.07220649719238281
0.5115038156509399 -2.182520866394043 0.039128296077251434 74.0 8 -0.07220419496297836
0.3528014123439789 -1.5065416097640991 -0.3572222888469696 7.0 1 -0.07220189273357391
0.516035258769989 -2.2053215503692627 0.11869796365499496 38.0 9 -0.07219958305358887
0.4262862801551819 -1.8217716217041016 -0.36368197202682495 6.0 2 -0.07219728082418442
0.5207439064979553 -2.2271952629089355 0.2001095712184906 23.0 10 -0.07219497859477997
0.5334386229515076 -2.283287286758423 -0.3713754713535309 100.0 3 -0.07219267636537552
0.5158054828643799 -2.2095534801483154 0.2785933315753937 14.0 11 -0.07219036668539047
0.5316538214683533 -2.27923846244812 -0.28736793994903564 100.0 4 -0.07218806445598602
0.5192397236824036 -2.227775812149048 0.3623022735118866 12.0 12 -0.07218576222658157
0.5065982937812805 -2.1752564907073975 -0.19540317356586456 100.0 5 -0.07218345999717712
0.5178931355476379 -2.2237548828125 0.4438217580318451 9.0 13 -0.07218115776777267
0.5146987438201904 -2.2117860317230225 -0.11901197582483292 73.0 6 -0.07217884808778763
0.5141768455505371 -2.2112903594970703 0.5241360068321228 8.0 14 -0.07217654585838318
0.5082178115844727 -2.187394380569458 -0.03919810429215431 100.0 7 -0.07217424362897873
0.515945315361023 -2.2224133014678955 0.6113306283950806 9.0 15 -0.07217194139957428
0.29181182384490967 -1.2649824619293213 -0.34785282611846924 9.0 0 -0.07215119898319244
0.5079278945922852 -2.201829433441162 0.03944243863224983 66.0 8 -0.072148896753788
0.3475404381752014 -1.5077638626098633 -0.3572222888469696 7.0 1 -0.07214659452438354
0.5092307925224304 -2.2110018730163574 0.11890730261802673 40.0 9 -0.0721442922949791
0.4156438112258911 -1.8061026334762573 -0.360247403383255 7.0 2 -0.07214199006557465
0.5112378001213074 -2.223263740539551 0.1995866596698761 25.0 10 -0.0721396803855896
0.5250663161277771 -2.285227060317993 -0.3713754713535309 100.0 3 -0.07213737815618515
0.5094232559204102 -2.21714448928833 0.27932456135749817 15.0 11 -0.0721350759267807
0.5236944556236267 -2.281080484390259 -0.28736793994903564 100.0 4 -0.07213277369737625
0.5074847340583801 -2.2122461795806885 0.3594864308834076 11.0 12 -0.0721304640173912
0.4972217381000519 -2.169243335723877 -0.19470593333244324 100.0 5 -0.07212816178798676
0.5123688578605652 -2.2371201515197754 0.44611144065856934 9.0 13 -0.0721258595585823
0.507479727268219 -2.2175514698028564 -0.11922132223844528 75.0 6 -0.07212355732917786
0.5086749196052551 -2.224558115005493 0.5268353819847107 8.0 14 -0.07212124764919281
0.4987965226173401 -2.1813576221466064 -0.039058487862348557 100.0 7 -0.07211894541978836
0.5051722526550293 -2.211017370223999 0.607707142829895 8.0 15 -0.07211664319038391
0.2856835424900055 -1.2584576606750488 -0.34578225016593933 9.0 0 -0.07209590822458267
0.4963153600692749 -2.188075542449951 0.03916320204734802 71.0 8 -0.07209360599517822
0.3428735136985779 -1.5128287076950073 -0.3581221103668213 7.0 1 -0.07209129631519318
0.5028344392776489 -2.21860933303833 0.11922132223844528 41.0 9 -0.07208899408578873
0.4032660722732544 -1.7807356119155884 -0.35490477085113525 9.0 2 -0.07208669185638428
0.5017151236534119 -2.217261791229248 0.19888940453529358 24.0 10 -0.07208438962697983
0.5149082541465759 -2.277412176132202 -0.36981111764907837 100.0 3 -0.07208207994699478
0.5012935400009155 -2.218996524810791 0.27932456135749817 16.0 11 -0.07207977771759033
0.5153303146362305 -2.282984495162964 -0.28736793994903564 100.0 4 -0.07207747548818588
0.5019344091415405 -2.2236387729644775 0.3610507845878601 12.0 12 -0.07207517325878143
0.48876953125 -2.167078733444214 -0.19435729086399078 100.0 5 -0.07207286357879639
0.498514324426651 -2.2120819091796875 0.4407688081264496 9.0 13 -0.07207056134939194
0.5010523796081543 -2.2251548767089844 -0.11953534185886383 80.0 6 -0.07206825911998749
0.5017618536949158 -2.2301228046417236 0.5277352333068848 8.0 14 -0.07206595689058304
0.49161770939826965 -2.1850361824035645 -0.039093390107154846 100.0 7 -0.07206364721059799
0.496603786945343 -2.2089974880218506 0.6066718697547913 9.0 15 -0.07206134498119354
0.28213125467300415 -1.2632179260253906 -0.3468175232410431 9.0 0 -0.0720406100153923
0.4881850779056549 -2.1858057975769043 0.039093390107154846 69.0 8 -0.07203830778598785
0.3353081941604614 -1.502545714378357 -0.3554226756095886 8.0 1 -0.0720360055565834
0.4959560036659241 -2.224249839782715 0.11943066120147705 44.0 9 -0.07203369587659836
0.40430569648742676 -1.814708948135376 -0.3613922595977783 10.0 2 -0.07203139364719391
0.49613726139068604 -2.2287235260009766 0.19976095855236053 28.0 10 -0.07202909141778946
0.5056362748146057 -2.2713944911956787 -0.36855965852737427 100.0 3 -0.07202678918838501
0.4917772710323334 -2.210958242416382 0.27810585498809814 16.0 11 -0.07202447950839996
0.5094794631004333 -2.2924323081970215 -0.2883428931236267 100.0 4 -0.07202217727899551
0.49545425176620483 -2.2311623096466064 0.36198940873146057 12.0 12 -0.07201987504959106
0.48120227456092834 -2.168771505355835 -0.19435729086399078 95.0 5 -0.07201757282018661
0.4928770363330841 -2.2213895320892334 0.44229528307914734 9.0 13 -0.07201526314020157
0.4867541193962097 -2.195605516433716 -0.1178605854511261 78.0 6 -0.07201296091079712
0.4947853684425354 -2.2336769104003906 0.5281850695610046 9.0 14 -0.07201065868139267
0.4857162833213806 -2.1945488452911377 -0.0392330102622509 100.0 7 -0.07200835645198822
0.49264445900917053 -2.227694272994995 0.6113306283950806 9.0 15 -0.07200604677200317
0.2804297208786011 -1.2754673957824707 -0.34992337226867676 9.0 0 -0.07198531180620193
0.48141035437583923 -2.1914031505584717 0.03916320204734802 72.0 8 -0.07198300957679749
0.32922565937042236 -1.4999001026153564 -0.3545228838920593 7.0 1 -0.07198070734739304
0.48562195897102356 -2.2142622470855713 0.11880263686180115 44.0 9 -0.07197840511798859
0.40080907940864563 -1.8275458812713623 -0.36368197202682495 10.0 2 -0.07197609543800354
0.48789072036743164 -2.226464033126831 0.19941233098506927 28.0 10 -0.07197379320859909
0.498549222946167 -2.277005195617676 -0.3691853880882263 100.0 3 -0.07197149097919464
0.4819355905056 -2.202965259552002 0.2768871784210205 17.0 11 -0.07196918874979019
0.4997785687446594 -2.2864394187927246 -0.28736793994903564 100.0 4 -0.07196687906980515
0.48681971430778503 -2.229018449783325 0.3613636791706085 13.0 12 -0.0719645768404007
0.47447869181632996 -2.1743311882019043 -0.19470593333244324 100.0 5 -0.07196227461099625
0.4842829704284668 -2.2192602157592773 0.44153204560279846 9.0 13 -0.0719599723815918
0.4786614775657654 -2.1953396797180176 -0.11775590479373932 82.0 6 -0.07195766270160675
0.4849112629890442 -2.225870132446289 0.5259355902671814 8.0 14 -0.0719553604722023
0.4763515591621399 -2.188415050506592 -0.039093390107154846 100.0 7 -0.07195305824279785
0.48281246423721313 -2.219961404800415 0.6087424159049988 9.0 15 -0.0719507560133934
0.27493712306022644 -1.2727099657058716 -0.3488880693912506 9.0 0 -0.07193002104759216
0.47375795245170593 -2.19307017326355 0.03916320204734802 76.0 8 -0.07192771136760712
0.3231656849384308 -1.4972304105758667 -0.35362306237220764 7.0 1 -0.07192540913820267
0.4770475924015045 -2.212038993835449 0.11859328299760818 45.0 9 -0.07192310690879822
0.3945215940475464 -1.8309218883514404 -0.3640635907649994 8.0 2 -0.07192080467939377
0.48056575655937195 -2.232132911682129 0.19976095855236053 28.0 10 -0.07191849499940872
0.48687678575515747 -2.2633674144744873 -0.3666824400424957 49.0 3 -0.07191619277000427
0.47674739360809326 -2.216278553009033 0.2783496081829071 15.0 11 -0.07191389054059982
0.49179455637931824 -2.288170099258423 -0.28736793994903564 100.0 4 -0.07191158831119537
0.4786215126514435 -2.2287728786468506 0.3610507845878601 14.0 12 -0.07190927863121033
0.46688565611839294 -2.1759743690490723 -0.19470593333244324 100.0 5 -0.07190697640180588
0.478203147649765 -2.230618715286255 0.44344013929367065 10.0 13 -0.07190467417240143
0.47019389271736145 -2.195126533508301 -0.11765124648809433 80.0 6 -0.07190237194299698
0.47634196281433105 -2.225726842880249 0.5254856944084167 9.0 14 -0.07190006971359253
0.467872679233551 -2.1861538887023926 -0.03902358189225197 100.0 7 -0.07189776003360748
0.4754643142223358 -2.223522424697876 0.6092600226402283 9.0 15 -0.07189545780420303
0.2688876688480377 -1.2661031484603882 -0.3468175232410431 10.0 0 -0.0718747228384018
0.4665471017360687 -2.1987040042877197 0.0392330102622509 79.0 8 -0.07187242060899734
0.31848418712615967 -1.5022176504135132 -0.3545228838920593 7.0 1 -0.0718701109290123
0.4680804908275604 -2.207829475402832 0.11827926337718964 48.0 9 -0.07186780869960785
0.38609379529953003 -1.822684645652771 -0.3621554970741272 7.0 2 -0.0718655064702034
0.46988362073898315 -2.2201521396636963 0.19854077696800232 31.0 10 -0.07186320424079895
0.4777473509311676 -2.2592551708221436 -0.36574381589889526 46.0 3 -0.0718608945608139
0.4690316617488861 -2.2199528217315674 0.2785933315753937 17.0 11 -0.07185859233140945
0.48340439796447754 -2.289957046508789 -0.28736793994903564 100.0 4 -0.071856290102005
0.4712463617324829 -2.232362747192383 0.3613636791706085 15.0 12 -0.07185398787260056
0.458465039730072 -2.173691511154175 -0.19435729086399078 100.0 5 -0.0718516856431961
0.47122374176979065 -2.2361161708831787 0.44420334696769714 10.0 13 -0.07184937596321106
0.4654087424278259 -2.210435152053833 -0.11838394403457642 84.0 6 -0.07184707373380661
0.4685700237751007 -2.2273762226104736 0.5254856944084167 9.0 14 -0.07184477150440216
0.4610622227191925 -2.1916873455047607 -0.039093390107154846 100.0 7 -0.07184246927499771
0.4669053554534912 -2.2213873863220215 0.6082248091697693 9.0 15 -0.07184015959501266
0.26367706060409546 -1.263251781463623 -0.34578225016593933 9.0 0 -0.07181942462921143
0.45680177211761475 -2.1884939670562744 0.03902358189225197 81.0 8 -0.07181712239980698
0.31429654359817505 -1.5070807933807373 -0.3554226756095886 7.0 1 -0.07181482017040253
0.4628155529499054 -2.2211813926696777 0.11890730261802673 48.0 9 -0.07181251794099808
0.37812870740890503 -1.8163329362869263 -0.36062902212142944 5.0 2 -0.07181020826101303
0.4613192081451416 -2.2178776264190674 0.19819216430187225 31.0 10 -0.07180790603160858
0.4706549346446991 -2.262760877609253 -0.3660567104816437 65.0 3 -0.07180560380220413
0.46368715167045593 -2.2312138080596924 0.2798120379447937 17.0 11 -0.07180330157279968
0.47580817341804504 -2.2915475368499756 -0.28736793994903564 100.0 4 -0.07180099189281464
0.4622475206851959 -2.228191614151001 0.36042505502700806 14.0 12 -0.07179868966341019
0.44925713539123535 -2.1674752235412598 -0.19366006553173065 100.0 5 -0.07179638743400574
0.4614151120185852 -2.2261321544647217 0.4419136643409729 10.0 13 -0.07179408520460129
0.4596964120864868 -2.219789505004883 -0.11880263686180115 94.0 6 -0.07179177552461624
0.4635501503944397 -2.2403674125671387 0.5281850695610046 9.0 14 -0.07178947329521179
0.4530041217803955 -2.1913251876831055 -0.039058487862348557 100.0 7 -0.07178717106580734
0.45836660265922546 -2.2192201614379883 0.6071895360946655 9.0 15 -0.0717848688364029
0.25948646664619446 -1.2641191482543945 -0.34578225016593933 9.0 0 -0.07176413387060165
0.4475526511669159 -2.182239532470703 0.038883961737155914 86.0 8 -0.07176182419061661
0.30668696761131287 -1.4967143535614014 -0.35272327065467834 7.0 1 -0.07175952196121216
0.45624902844429016 -2.2266170978546143 0.1191166415810585 52.0 9 -0.07175721973180771
0.36974063515663147 -1.8060369491577148 -0.3583393096923828 5.0 2 -0.07175491750240326
0.45356282591819763 -2.2174432277679443 0.19801783561706543 28.0 10 -0.07175260782241821
0.4619627594947815 -2.260519504547119 -0.3654309809207916 64.0 3 -0.07175030559301376
0.4523215591907501 -2.2153141498565674 0.2776183784008026 17.0 11 -0.07174800336360931
0.4693933427333832 -2.3009748458862305 -0.2883428931236267 100.0 4 -0.07174570113420486
0.45801469683647156 -2.2451963424682617 0.36292800307273865 15.0 12 -0.07174339145421982
0.44286301732063293 -2.1728575229644775 -0.19400867819786072 100.0 5 -0.07174108922481537
0.45129111409187317 -2.216186761856079 0.43962395191192627 10.0 13 -0.07173878699541092
0.4487594962120056 -2.205723285675049 -0.11796525865793228 94.0 6 -0.07173648476600647
0.4565035402774811 -2.24579119682312 0.5290848612785339 9.0 14 -0.07173417508602142
0.4477267861366272 -2.202613353729248 -0.0392330102622509 100.0 7 -0.07173187285661697
0.45100507140159607 -2.2207279205322266 0.6071895360946655 9.0 15 -0.07172957062721252
0.2550722360610962 -1.2650172710418701 -0.34578225016593933 9.0 0 -0.07170883566141129
0.441103994846344 -2.1876320838928223 0.03895376995205879 86.0 8 -0.07170653343200684
0.2994128465652466 -1.486261010169983 -0.35002386569976807 8.0 1 -0.07170422375202179
0.4461096227169037 -2.2164483070373535 0.1184886172413826 53.0 9 -0.07170192152261734
0.3673047423362732 -1.8265635967254639 -0.3621554970741272 5.0 2 -0.07169961929321289
0.44895920157432556 -2.2346396446228027 0.19941233098506927 33.0 10 -0.07169731706380844
0.4517402648925781 -2.2484819889068604 -0.3632408678531647 54.0 3 -0.0716950073838234
0.44380074739456177 -2.210963249206543 0.2768871784210205 19.0 11 -0.07169270515441895
0.4586380124092102 -2.2869479656219482 -0.2863929867744446 100.0 4 -0.0716904029250145
0.44862255454063416 -2.2390336990356445 0.36167651414871216 15.0 12 -0.07168810069561005
0.436057448387146 -2.178297519683838 -0.19435729086399078 100.0 5 -0.071685791015625
0.4447101354598999 -2.2215213775634766 0.44038718938827515 10.0 13 -0.07168348878622055
0.4414427876472473 -2.2071993350982666 -0.11796525865793228 97.0 6 -0.0716811865568161
0.44447147846221924 -2.2243611812591553 0.5236860513687134 9.0 14 -0.07167888432741165
0.43846917152404785 -2.1963188648223877 -0.039093390107154846 100.0 7 -0.0716765820980072
0.44400620460510254 -2.2260775566101074 0.6082248091697693 9.0 15 -0.07167427241802216
0.25065505504608154 -1.265899896621704 -0.34578225016593933 8.0 0 -0.0716712474822998
0.43230706453323364 -2.1853108406066895 0.038883961737155914 94.0 8 -0.07166894525289536
0.29471907019615173 -1.4911718368530273 -0.35092365741729736 7.0 1 -0.0716666430234909
0.4356611371040344 -2.2063119411468506 0.1178605854511261 55.0 9 -0.07166433334350586
0.3582642674446106 -1.81435227394104 -0.35948416590690613 6.0 2 -0.07166203111410141
0.4411560893058777 -2.2361931800842285 0.19941233098506927 34.0 10 -0.07165972888469696
0.44999003410339355 -2.2830703258514404 -0.36855965852737427 100.0 3 -0.07165742665529251
0.4364614486694336 -2.21647047996521 0.27737462520599365 20.0 11 -0.07165511697530746
0.4502527713775635 -2.2886135578155518 -0.2863929867744446 100.0 4 -0.07165281474590302
0.44117504358291626 -2.244539737701416 0.3623022735118866 15.0 12 -0.07165051251649857
0.4299904704093933 -2.1896560192108154 -0.19522884488105774 100.0 5 -0.07164821028709412
0.43732166290283203 -2.2269890308380127 0.44115039706230164 10.0 13 -0.07164590060710907
0.43411874771118164 -2.2127223014831543 -0.11817460507154465 100.0 6 -0.07164359837770462
0.4370654225349426 -2.22979998588562 0.5245858430862427 9.0 14 -0.07164129614830017
0.43003198504447937 -2.195948839187622 -0.039058487862348557 100.0 7 -0.07163899391889572
0.43658602237701416 -2.2314817905426025 0.6092600226402283 9.0 15 -0.07163668423891068
0.2452770322561264 -1.2630174160003662 -0.34474697709083557 9.0 0 -0.07161594927310944
0.42543864250183105 -2.190732479095459 0.03895376995205879 100.0 8 -0.07161364704370499
0.2895122766494751 -1.4921914339065552 -0.35092365741729736 7.0 1 -0.07161134481430054
0.428337037563324 -2.209779977798462 0.11796525865793228 62.0 9 -0.07160904258489609
0.34974560141563416 -1.8060158491134644 -0.35757607221603394 5.0 2 -0.07160673290491104
0.4299296438694 -2.2221462726593018 0.19801783561706543 34.0 10 -0.07160443067550659
0.4449930787086487 -2.302159547805786 -0.3713754713535309 100.0 3 -0.07160212844610214
0.43098220229148865 -2.229674816131592 0.27883708477020264 20.0 11 -0.07159982621669769
0.4430140256881714 -2.294069290161133 -0.2868804633617401 100.0 4 -0.07159751653671265
0.4303436875343323 -2.2305493354797363 0.359799325466156 15.0 12 -0.0715952143073082
0.4189506769180298 -2.173536539077759 -0.19366006553173065 100.0 5 -0.07159291207790375
0.43064141273498535 -2.23628830909729 0.4426769018173218 11.0 13 -0.0715906098484993
0.4260057508945465 -2.2142984867095947 -0.11817460507154465 100.0 6 -0.07158830016851425
0.4296255111694336 -2.2352147102355957 0.5254856944084167 9.0 14 -0.0715859979391098
0.4212319254875183 -2.191545248031616 -0.03895376995205879 100.0 7 -0.07158369570970535
0.4258797764778137 -2.2178146839141846 0.6051189303398132 9.0 15 -0.0715813934803009
0.23869679868221283 -1.2524796724319458 -0.3416411578655243 9.0 0 -0.07156065851449966
0.4174060523509979 -2.192277193069458 0.03895376995205879 100.0 8 -0.07155834883451462
0.2854977548122406 -1.5009002685546875 -0.35272327065467834 8.0 1 -0.07155604660511017
0.42211392521858215 -2.2191100120544434 0.11838394403457642 58.0 9 -0.07155374437570572
0.3449055850505829 -1.8149406909942627 -0.3591025471687317 5.0 2 -0.07155144214630127
0.42179834842681885 -2.2216763496398926 0.197843536734581 39.0 10 -0.07154913246631622
0.4343777596950531 -2.2901134490966797 -0.3691853880882263 100.0 3 -0.07154683023691177
0.4235464930534363 -2.235139846801758 0.27932456135749817 21.0 11 -0.07154452800750732
0.43500372767448425 -2.2956018447875977 -0.2868804633617401 100.0 4 -0.07154222577810287
0.42365720868110657 -2.2378604412078857 0.3607378900051117 16.0 12 -0.07153991609811783
0.4106205105781555 -2.1710703372955322 -0.1933114379644394 100.0 5 -0.07153761386871338
0.4228328764438629 -2.2377779483795166 0.4426769018173218 10.0 13 -0.07153531163930893
0.42012643814086914 -2.2255849838256836 -0.11869796365499496 100.0 6 -0.07153300940990448
0.42293378710746765 -2.2404565811157227 0.526385486125946 9.0 14 -0.07153070718050003
0.41469115018844604 -2.198897361755371 -0.039058487862348557 100.0 7 -0.07152839750051498
0.41813522577285767 -2.219287872314453 0.6051189303398132 9.0 15 -0.07152609527111053
0.23525279760360718 -1.2570620775222778 -0.34267643094062805 9.0 0 -0.0715053603053093
0.4093990921974182 -2.189718008041382 0.038883961737155914 100.0 8 -0.07150305807590485
0.27908775210380554 -1.4941763877868652 -0.35092365741729736 7.0 1 -0.0715007483959198
0.41548609733581543 -2.224424123764038 0.11859328299760818 63.0 9 -0.07149844616651535
0.34032559394836426 -1.8237941265106201 -0.36062902212142944 5.0 2 -0.0714961439371109
0.4147939682006836 -2.2250213623046875 0.19801783561706543 37.0 10 -0.07149384170770645
0.4249725639820099 -2.2818312644958496 -0.3676210343837738 100.0 3 -0.0714915320277214
0.4110485315322876 -2.20920991897583 0.27591222524642944 22.0 11 -0.07148922979831696
0.4288412630558014 -2.304838180541992 -0.2878554165363312 100.0 4 -0.0714869275689125
0.41587281227111816 -2.2373108863830566 0.36042505502700806 17.0 12 -0.07148462533950806
0.40487390756607056 -2.18025541305542 -0.19400867819786072 100.0 5 -0.07148232311010361
0.4125445485115051 -2.2237253189086914 0.43962395191192627 11.0 13 -0.07148001343011856
0.4083760976791382 -2.2034003734588623 -0.11744190007448196 100.0 6 -0.07147771120071411
0.4162120223045349 -2.2456791400909424 0.5272852778434753 9.0 14 -0.07147540897130966
0.41140201687812805 -2.2218892574310303 -0.03944243863224983 100.0 7 -0.07147310674190521
0.4114764332771301 -2.224461317062378 0.606154203414917 9.0 15 -0.07147079706192017
0.2324793040752411 -1.2654354572296143 -0.34474697709083557 9.0 0 -0.07145006209611893
0.402496337890625 -2.19303035736084 0.038918863981962204 100.0 8 -0.07144775986671448
0.27413129806518555 -1.495093584060669 -0.35092365741729736 7.0 1 -0.07144545763731003
0.4055599570274353 -2.214073419570923 0.11796525865793228 68.0 9 -0.07144314795732498
0.3335684835910797 -1.8210504055023193 -0.35986578464508057 5.0 2 -0.07144084572792053
0.40848907828330994 -2.232264280319214 0.19854077696800232 38.0 10 -0.07143854349851608
0.4177585542201996 -2.2851710319519043 -0.36793389916419983 100.0 3 -0.07143624126911163
0.4022935628890991 -2.202749490737915 0.274937242269516 24.0 11 -0.07143393903970718
0.41794276237487793 -2.290698289871216 -0.28590551018714905 100.0 4 -0.07143162935972214
0.41018614172935486 -2.2504093647003174 0.3623022735118866 18.0 12 -0.07142932713031769
0.3972843885421753 -2.179626226425171 -0.19383437931537628 100.0 5 -0.07142702490091324
0.4055197536945343 -2.2270126342773438 0.4400055408477783 12.0 13 -0.07142472267150879
0.3999948799610138 -2.1988472938537598 -0.11712788045406342 100.0 6 -0.07142241299152374
0.4069770574569702 -2.2394490242004395 0.5254856944084167 9.0 14 -0.0714201107621193
0.40042853355407715 -2.205604314804077 -0.039128296077251434 100.0 7 -0.07141780853271484
0.40577760338783264 -2.2372891902923584 0.6092600226402283 10.0 15 -0.0714155063033104
0.22874535620212555 -1.270041823387146 -0.34578225016593933 8.0 0 -0.07139476388692856
0.39483898878097534 -2.1944220066070557 0.038918863981962204 100.0 8 -0.07139246165752411
0.268221378326416 -1.4922053813934326 -0.35002386569976807 7.0 1 -0.07139015942811966
0.39747560024261475 -2.2135097980499268 0.1178605854511261 70.0 9 -0.07138785719871521
0.32235169410705566 -1.7951507568359375 -0.3545231223106384 5.0 2 -0.07138555496931076
0.40069445967674255 -2.2336764335632324 0.19854077696800232 40.0 10 -0.07138324528932571
0.4115217626094818 -2.296337604522705 -0.36949828267097473 100.0 3 -0.07138094305992126
0.3974006175994873 -2.2197728157043457 0.2768871784210205 24.0 11 -0.07137864083051682
0.4099441170692444 -2.2921431064605713 -0.28590551018714905 100.0 4 -0.07137633860111237
0.4002438187599182 -2.240159511566162 0.36042505502700806 18.0 12 -0.07137402892112732
0.3914259672164917 -2.1908061504364014 -0.19470593333244324 100.0 5 -0.07137172669172287
0.3984336853027344 -2.2322797775268555 0.4407688081264496 12.0 13 -0.07136942446231842
0.39336881041526794 -2.2061290740966797 -0.11744190007448196 100.0 6 -0.07136712223291397
0.3971066474914551 -2.2293448448181152 0.5227862596511841 9.0 14 -0.07136481255292892
0.3920266330242157 -2.2030510902404785 -0.039058487862348557 100.0 7 -0.07136251032352448
0.39728954434394836 -2.2348878383636475 0.6082248091697693 9.0 15 -0.07136020809412003
0.22296763956546783 -1.2632228136062622 -0.3437117040157318 9.0 0 -0.07133947312831879
0.3875238299369812 -2.197756052017212 0.03895376995205879 100.0 8 -0.07133717089891434
0.26233479380607605 -1.4892940521240234 -0.3491240441799164 7.0 1 -0.07133486121892929
0.3897468149662018 -2.214883804321289 0.1178605854511261 79.0 9 -0.07133255898952484
0.31676414608955383 -1.8001322746276855 -0.3552863597869873 5.0 2 -0.07133025676012039
0.39151549339294434 -2.227212429046631 0.197843536734581 42.0 10 -0.07132795453071594
0.4038448631763458 -2.2997055053710938 -0.36981111764907837 100.0 3 -0.0713256448507309
0.38999295234680176 -2.2231013774871826 0.27713093161582947 24.0 11 -0.07132334262132645
0.40262579917907715 -2.297470808029175 -0.2863929867744446 100.0 4 -0.071321040391922
0.3913995027542114 -2.235705852508545 0.3594864308834076 19.0 12 -0.07131873816251755
0.38167718052864075 -2.182413339614868 -0.19383437931537628 100.0 5 -0.0713164284825325
0.39165374636650085 -2.2394590377807617 0.4419136643409729 12.0 13 -0.07131412625312805
0.38807159662246704 -2.2212607860565186 -0.11817460507154465 100.0 6 -0.0713118240237236
0.3909977674484253 -2.2403159141540527 0.5250357985496521 10.0 14 -0.07130952179431915
0.3853645324707031 -2.2103161811828613 -0.03916320204734802 100.0 7 -0.0713072121143341
0.38782843947410583 -2.226745128631592 0.6056365966796875 10.0 15 -0.07130490988492966
0.21636326611042023 -1.2526096105575562 -0.34060588479042053 9.0 0 -0.07128417491912842
0.37882867455482483 -2.1931838989257812 0.038849055767059326 100.0 8 -0.07128187268972397
0.25912272930145264 -1.501723051071167 -0.35182347893714905 7.0 1 -0.07127957046031952
0.38235223293304443 -2.2181990146636963 0.11796525865793228 79.0 9 -0.07127726078033447
0.3114967942237854 -1.8090204000473022 -0.35681283473968506 5.0 2 -0.07127495855093002
0.38199862837791443 -2.220777988433838 0.19714628159999847 45.0 10 -0.07127265632152557
0.39340606331825256 -2.289489269256592 -0.36793389916419983 100.0 3 -0.07127035409212112
0.38256633281707764 -2.2264058589935303 0.27737462520599365 25.0 11 -0.07126804441213608
0.3952755331993103 -2.3027751445770264 -0.2868804633617401 100.0 4 -0.07126574218273163
0.3832593858242035 -2.2351112365722656 0.35917356610298157 19.0 12 -0.07126343995332718
0.3723747730255127 -2.17391300201416 -0.19296279549598694 100.0 5 -0.07126113772392273
0.38145628571510315 -2.2292685508728027 0.43962395191192627 12.0 13 -0.07125882804393768
0.3816105127334595 -2.2325117588043213 -0.11869796365499496 100.0 6 -0.07125652581453323
0.38475197553634644 -2.2532596588134766 0.5277352333068848 11.0 14 -0.07125422358512878
0.3779831826686859 -2.213618755340576 -0.03919810429215431 100.0 7 -0.07125192135572433
0.37940359115600586 -2.2242767810821533 0.6046013236045837 10.0 15 -0.07124961912631989
0.21263381838798523 -1.257166862487793 -0.3416411578655243 9.0 0 -0.07122887670993805
0.3697884976863861 -2.1886425018310547 0.03874434158205986 100.0 8 -0.0712265744805336
0.2516709566116333 -1.491133213043213 -0.3491240441799164 7.0 1 -0.07122427225112915
0.37521567940711975 -2.225493907928467 0.11827926337718964 84.0 9 -0.0712219700217247
0.3035482168197632 -1.8004169464111328 -0.35490477085113525 6.0 2 -0.07121966034173965
0.3749063313007355 -2.226027250289917 0.19749490916728973 46.0 10 -0.0712173581123352
0.3854120671749115 -2.29084849357605 -0.36793389916419983 100.0 3 -0.07121505588293076
0.37341684103012085 -2.2219200134277344 0.27664345502853394 25.0 11 -0.0712127536535263
0.38748979568481445 -2.308123826980591 -0.28736793994903564 100.0 4 -0.07121044397354126
0.3757181167602539 -2.2403976917266846 0.359799325466156 20.0 12 -0.07120814174413681
0.36511388421058655 -2.1771650314331055 -0.19313712418079376 100.0 5 -0.07120583951473236
0.3723750710487366 -2.222841262817383 0.43809744715690613 12.0 13 -0.07120353728532791
0.36919987201690674 -2.206252098083496 -0.117232546210289 100.0 6 -0.07120123505592346
0.37624189257621765 -2.250744581222534 0.5268353819847107 11.0 14 -0.07119892537593842
0.3685501515865326 -2.2070999145507812 -0.039058487862348557 100.0 7 -0.07119662314653397
0.3718843162059784 -2.2294633388519287 0.6056365966796875 11.0 15 -0.07119432091712952
0.2076132744550705 -1.2540894746780396 -0.34060588479042053 9.0 0 -0.07117358595132828
0.363451212644577 -2.1978116035461426 0.038883961737155914 100.0 8 -0.07117127627134323
0.2445588856935501 -1.4804664850234985 -0.3464246392250061 7.0 1 -0.07116897404193878
0.3648435175418854 -2.2110254764556885 0.11744190007448196 90.0 9 -0.07116667181253433
0.29726165533065796 -1.801465630531311 -0.35490477085113525 6.0 2 -0.07116436958312988
0.36745747923851013 -2.229288339614868 0.19766922295093536 49.0 10 -0.07116205990314484
0.3777340352535248 -2.294128894805908 -0.36824676394462585 100.0 3 -0.07115975767374039
0.3650141954421997 -2.219292402267456 0.276155948638916 25.0 11 -0.07115745544433594
0.37749987840652466 -2.2977094650268555 -0.28590551018714905 100.0 4 -0.07115515321493149
0.36725544929504395 -2.2377965450286865 0.35917356610298157 19.0 12 -0.07115285098552704
0.3597705066204071 -2.1921885013580322 -0.19435729086399078 100.0 5 -0.07115054130554199
0.36588403582572937 -2.231877326965332 0.43962395191192627 12.0 13 -0.07114823907613754
0.36149659752845764 -2.2075271606445312 -0.117232546210289 100.0 6 -0.0711459368467331
0.3664954602718353 -2.2405052185058594 0.5241360068321228 11.0 14 -0.07114363461732864
0.3618108034133911 -2.2142937183380127 -0.03916320204734802 100.0 7 -0.0711413249373436
0.36534473299980164 -2.2383744716644287 0.607707142829895 11.0 15 -0.07113902270793915
0.20446984469890594 -1.2624346017837524 -0.34267643094062805 10.0 0 -0.07111828774213791
0.3551386594772339 -2.1951189041137695 0.038814153522253036 100.0 8 -0.07111598551273346
0.24001117050647736 -1.4851588010787964 -0.3473244309425354 7.0 1 -0.07111367583274841
0.35775992274284363 -2.21622896194458 0.11765124648809433 93.0 9 -0.07111137360334396
0.2897200286388397 -1.7947397232055664 -0.3533782958984375 6.0 2 -0.07110907137393951
0.36030814051628113 -2.2344913482666016 0.19801783561706543 51.0 10 -0.07110676914453506
0.3700377941131592 -2.297384023666382 -0.36855965852737427 100.0 3 -0.07110446691513062
0.35852643847465515 -2.2283926010131836 0.27713093161582947 26.0 11 -0.07110215723514557
0.3694772720336914 -2.299013137817383 -0.28590551018714905 100.0 4 -0.07109985500574112
0.3591287434101105 -2.237114667892456 0.35886070132255554 22.0 12 -0.07109755277633667
0.3523642420768738 -2.1974270343780518 -0.19470593333244324 100.0 5 -0.07109525054693222
0.35933437943458557 -2.2408945560455322 0.44115039706230164 13.0 13 -0.07109294086694717
0.35568368434906006 -2.2206084728240967 -0.1178605854511261 100.0 6 -0.07109063863754272
0.3565172553062439 -2.2283010482788086 0.5209866762161255 12.0 14 -0.07108833640813828
0.3531326949596405 -2.2096190452575684 -0.039058487862348557 100.0 7 -0.07108603417873383
0.35691967606544495 -2.2358205318450928 0.6066718697547913 11.0 15 -0.07108372449874878
0.1980302929878235 -1.251726746559143 -0.3395705819129944 9.0 0 -0.07106298953294754
0.34934917092323303 -2.208195924758911 0.03902358189225197 100.0 8 -0.07106068730354309
0.23543402552604675 -1.4898372888565063 -0.3482242524623871 7.0 1 -0.07105838507413864
0.35064467787742615 -2.221409797668457 0.1178605854511261 100.0 9 -0.07105608284473419
0.2813054025173187 -1.784153699874878 -0.3510885536670685 5.0 2 -0.07105377316474915
0.3514959514141083 -2.231860876083374 0.19766922295093536 49.0 10 -0.0710514709353447
0.36253613233566284 -2.3045787811279297 -0.36949828267097473 100.0 3 -0.07104916870594025
0.3504374623298645 -2.2276694774627686 0.2768871784210205 28.0 11 -0.0710468664765358
0.36144962906837463 -2.3002889156341553 -0.28590551018714905 100.0 4 -0.07104455679655075
0.3507049083709717 -2.2344517707824707 0.3582349717617035 21.0 12 -0.0710422545671463
0.3428402841091156 -2.186833620071411 -0.19366006553173065 100.0 5 -0.07103995233774185
0.3526373505592346 -2.25189471244812 0.44305849075317383 14.0 13 -0.0710376501083374
0.34846851229667664 -2.2278170585632324 -0.11817460507154465 100.0 6 -0.07103534042835236
0.35015255212783813 -2.241144895553589 0.5236860513687134 12.0 14 -0.0710330381989479
0.34202197194099426 -2.189105272293091 -0.03867453336715698 100.0 7 -0.07103073596954346
0.34792178869247437 -2.2294180393218994 0.6046013236045837 12.0 15 -0.07102843374013901
0.1942499876022339 -1.2562288045883179 -0.34060588479042053 9.0 0 -0.07100769877433777
0.3400321304798126 -2.201556444168091 0.038883961737155914 100.0 8 -0.07100538909435272
0.2305661290884018 -1.494542121887207 -0.3491240441799164 7.0 1 -0.07100308686494827
0.34258371591567993 -2.2206461429595947 0.11775590479373932 97.0 9 -0.07100078463554382
0.2750759720802307 -1.7851247787475586 -0.3510885536670685 6.0 2 -0.07099848240613937
0.34249070286750793 -2.2251970767974854 0.19697196781635284 55.0 10 -0.07099617272615433
0.3541892468929291 -2.30387806892395 -0.3691853880882263 100.0 3 -0.07099387049674988
0.3437767028808594 -2.2387492656707764 0.27810585498809814 30.0 11 -0.07099156826734543
0.35371944308280945 -2.3034985065460205 -0.2861492335796356 100.0 4 -0.07098926603794098
0.3429032862186432 -2.2356622219085693 0.3582349717617035 22.0 12 -0.07098695635795593
0.333997517824173 -2.1801390647888184 -0.19296279549598694 100.0 5 -0.07098465412855148
0.34328997135162354 -2.243408441543579 0.44115039706230164 16.0 13 -0.07098235189914703
0.33887919783592224 -2.2171735763549805 -0.11754656583070755 100.0 6 -0.07098004966974258
0.34301307797431946 -2.24422025680542 0.5241360068321228 13.0 14 -0.07097773998975754
0.3352837860584259 -2.196216344833374 -0.03877924755215645 100.0 7 -0.07097543776035309
0.3395549952983856 -2.2267990112304688 0.6035659909248352 12.0 15 -0.07097313553094864
0.19066083431243896 -1.2606862783432007 -0.3416411578655243 10.0 0 -0.0709524005651474
0.33153507113456726 -2.194762706756592 0.03874434158205986 100.0 8 -0.07095009833574295
0.22444579005241394 -1.4875906705856323 -0.3473244309425354 7.0 1 -0.0709477886557579
0.3364097476005554 -2.2296698093414307 0.11817460507154465 100.0 9 -0.07094548642635345
0.2694472670555115 -1.787968397140503 -0.3514702022075653 6.0 2 -0.070943184196949
0.33599966764450073 -2.232231378555298 0.19749490916728973 54.0 10 -0.07094088196754456
0.3447851240634918 -2.2933189868927 -0.3673081696033478 97.0 3 -0.07093857228755951
0.3334028720855713 -2.2202460765838623 0.2756684720516205 32.0 11 -0.07093627005815506
0.34607869386672974 -2.304658889770508 -0.2861492335796356 100.0 4 -0.07093396782875061
0.3372456133365631 -2.2485082149505615 0.36011216044425964 23.0 12 -0.07093166559934616
0.32853737473487854 -2.1930572986602783 -0.19400867819786072 100.0 5 -0.07092935591936111
0.33439597487449646 -2.2348265647888184 0.43924233317375183 17.0 13 -0.07092705368995667
0.33063921332359314 -2.2123594284057617 -0.117232546210289 100.0 6 -0.07092475146055222
0.3361450731754303 -2.2492001056671143 0.5250357985496521 13.0 14 -0.07092244923114777
0.330361008644104 -2.2131381034851074 -0.039058487862348557 100.0 7 -0.07092014700174332
0.33188414573669434 -2.2260022163391113 0.6030483841896057 12.0 15 -0.07091783732175827
