# .PCD v0.7 - Point Cloud Data file format
VERSION 0.7
FIELDS x y z intensity ring time
SIZE 4 4 4 4 4 4
TYPE F F F F F F
COUNT 1 1 1 1 1 1
WIDTH 534
HEIGHT 1
VIEWPOINT 0 0 0 1 0 0 0
POINTS 534
DATA ascii
-2.6357758045196533 -0.5867512226104736 0.14151644706726074 8.0 9 -0.05396700277924538
-2.125310182571411 -0.4727270007133484 -0.4232143759727478 1.0 2 -0.05396469682455063
-1.6044312715530396 -0.3562816381454468 -0.2603069841861725 0.0 3 -0.05396008864045143
-2.897254228591919 -0.6428366303443909 0.3643893897533417 7.0 11 -0.05395778641104698
-2.465183973312378 -0.5465184450149536 -0.3100356459617615 24.0 4 -0.053955480456352234
-2.9179000854492188 -0.6468831896781921 0.473370760679245 31.0 12 -0.053953178226947784
-2.8653342723846436 -0.6347050070762634 -0.2567608058452606 23.0 5 -0.053950875997543335
-2.8810489177703857 -0.6376585364341736 0.5735718607902527 3.0 13 -0.05394857004284859
-2.636592388153076 -0.5830706357955933 -0.14151644706726074 1.0 6 -0.05394626781344414
-2.91705584526062 -0.644559919834137 0.6897000074386597 53.0 14 -0.05394396185874939
-2.618431806564331 -0.5785751938819885 -0.04680735617876053 1.0 7 -0.05394165962934494
-2.8503854274749756 -0.6293058395385742 0.7821511626243591 32.0 15 -0.05393935367465019
-1.728494644165039 -0.3790859580039978 -0.47415652871131897 3.0 0 -0.05391861870884895
-2.6056644916534424 -0.5714630484580994 0.04656302183866501 10.0 8 -0.053916312754154205
-1.848368763923645 -0.40503767132759094 -0.4368549883365631 23.0 1 -0.053914010524749756
-2.637807607650757 -0.577547013759613 0.14151644706726074 8.0 9 -0.05391170457005501
-2.6802382469177246 -0.5858567953109741 0.24002692103385925 1.0 10 -0.05390710011124611
-1.628761887550354 -0.35602104663848877 -0.26406142115592957 0.0 3 -0.05390479415655136
-2.8916125297546387 -0.6315310597419739 0.3634144067764282 10.0 11 -0.05390249192714691
-2.532924175262451 -0.5527300834655762 -0.3183227777481079 7.0 4 -0.053900185972452164
-2.9278602600097656 -0.6383770108222961 0.4746222198009491 47.0 12 -0.053897883743047714
-2.867532253265381 -0.6246991753578186 -0.2567608058452606 25.0 5 -0.053895577788352966
-2.885066032409668 -0.6285189390182495 0.5739535093307495 7.0 13 -0.05389327555894852
-2.5858192443847656 -0.5628539323806763 -0.1386902928352356 2.0 6 -0.05389096960425377
-2.8963263034820557 -0.6299131512641907 0.6843011379241943 63.0 14 -0.05388866737484932
-2.6165270805358887 -0.56858229637146 -0.04673754796385765 1.0 7 -0.05388636142015457
-2.8544528484344482 -0.619762122631073 0.7826688289642334 40.0 15 -0.05388405919075012
-1.7240771055221558 -0.3721291422843933 -0.47260358929634094 4.0 0 -0.053863320499658585
-2.6076436042785645 -0.5623633861541748 0.04656302183866501 13.0 8 -0.053861018270254135
-1.8592963218688965 -0.40063557028770447 -0.43910449743270874 27.0 1 -0.053858716040849686
-2.6319973468780518 -0.5666548609733582 0.141097754240036 9.0 9 -0.05385641008615494
-2.6782705783843994 -0.5761275291442871 0.239678293466568 1.0 10 -0.05385180190205574
-1.637719750404358 -0.35199373960494995 -0.26531288027763367 0.0 3 -0.05384949967265129
-2.90350341796875 -0.623518168926239 0.36463311314582825 16.0 11 -0.05384719371795654
-2.6823477745056152 -0.5755353569984436 -0.33684688806533813 7.0 4 -0.053844891488552094
-2.912687301635742 -0.6244262456893921 0.4718063771724701 57.0 12 -0.053842585533857346
-2.8735921382904053 -0.615519642829895 -0.2571094334125519 27.0 5 -0.053840283304452896
-2.8834033012390137 -0.6176211833953857 0.5731902718544006 8.0 13 -0.05383797734975815
-2.5916740894317627 -0.5546607971191406 -0.13889963924884796 2.0 6 -0.0538356751203537
-2.8813564777374268 -0.6161317825317383 0.6802520155906677 57.0 14 -0.05383336916565895
-2.5813405513763428 -0.5515064001083374 -0.04607435315847397 2.0 7 -0.0538310669362545
-2.8641557693481445 -0.6114082932472229 0.7847393751144409 47.0 15 -0.05382876098155975
-1.7178702354431152 -0.3642044961452484 -0.4705330431461334 5.0 0 -0.053808026015758514
-2.611546754837036 -0.5536722540855408 0.0465979240834713 14.0 8 -0.053805723786354065
-1.8644962310791016 -0.3949510157108307 -0.44000428915023804 30.0 1 -0.05380341783165932
-2.630051612854004 -0.5566362142562866 0.14088840782642365 9.0 9 -0.05380111560225487
-2.6628196239471436 -0.5626010894775391 0.23810948431491852 2.0 10 -0.05379650741815567
-1.6389988660812378 -0.34598881006240845 -0.26531288027763367 0.0 3 -0.05379420146346092
-2.907604694366455 -0.6137885451316833 0.3648768663406372 23.0 11 -0.05379189923405647
-2.853325843811035 -0.6018102169036865 -0.35805216431617737 33.0 4 -0.053789593279361725
-2.899385929107666 -0.6109972596168518 0.4693034589290619 55.0 12 -0.053787291049957275
-2.864025115966797 -0.6030228734016418 -0.2560635805130005 27.0 5 -0.05378498509526253
-2.8952531814575195 -0.6090702414512634 0.5750983357429504 15.0 13 -0.05378268286585808
-2.5839169025421143 -0.5431045889854431 -0.13837628066539764 2.0 6 -0.05378037691116333
-2.9122025966644287 -0.6115744709968567 0.687000572681427 92.0 14 -0.05377807468175888
-2.5812926292419434 -0.5420820116996765 -0.04603944718837738 4.0 7 -0.05377576872706413
-2.8624913692474365 -0.6006132960319519 0.7837041020393372 56.0 15 -0.05377346649765968
-1.7172397375106812 -0.3578120768070221 -0.47001540660858154 8.0 0 -0.053752731531858444
-2.6037697792053223 -0.5420594811439514 0.046423401683568954 17.0 8 -0.053750425577163696
-1.862115740776062 -0.38732048869132996 -0.43910449743270874 28.0 1 -0.05374812334775925
-2.631978750228882 -0.5474522113800049 0.14088840782642365 10.0 9 -0.0537458173930645
-2.649160861968994 -0.5500621795654297 0.23671498894691467 3.0 10 -0.0537412092089653
-1.6266571283340454 -0.33745667338371277 -0.2631227970123291 2.0 3 -0.05373890697956085
-2.909834623336792 -0.6031281352043152 0.3648768663406372 32.0 11 -0.053736601024866104
-2.8827261924743652 -0.5969839096069336 -0.3614645004272461 59.0 4 -0.053734298795461655
-2.91310715675354 -0.6032754778862 0.47118064761161804 78.0 12 -0.05373199284076691
-2.860259532928467 -0.5918107032775879 -0.2555406391620636 28.0 5 -0.05372969061136246
-2.8973615169525146 -0.598960816860199 0.5750983357429504 27.0 13 -0.05372738465666771
-2.613180637359619 -0.5397369861602783 -0.139841690659523 6.0 6 -0.05372508242726326
-2.8971431255340576 -0.59786057472229 0.6829514503479004 86.0 14 -0.05372277647256851
-2.598836660385132 -0.5363014340400696 -0.04631868749856949 2.0 7 -0.05372047424316406
-2.864570379257202 -0.5906175971031189 0.7837041020393372 56.0 15 -0.05371817201375961
-1.7109078168869019 -0.3502656817436218 -0.467944860458374 10.0 0 -0.053697433322668076
-2.593798875808716 -0.5310156345367432 0.04621397331357002 15.0 8 -0.053695131093263626
-1.855752944946289 -0.3795812129974365 -0.43730488419532776 30.0 1 -0.05369282513856888
-2.6397438049316406 -0.5394617319107056 0.1412024199962616 10.0 9 -0.05369052290916443
-2.653017282485962 -0.5412090420722961 0.2368893027305603 6.0 10 -0.05368591472506523
-1.6393804550170898 -0.33442962169647217 -0.26500001549720764 9.0 3 -0.05368360877037048
-2.880697250366211 -0.5871322751045227 0.36097702383995056 34.0 11 -0.053681306540966034
-2.8924708366394043 -0.5890061855316162 -0.36243945360183716 56.0 4 -0.053679000586271286
-2.917130947113037 -0.5934969186782837 0.47149354219436646 77.0 12 -0.05367669835686684
-2.870117664337158 -0.5834103226661682 -0.25623786449432373 43.0 5 -0.05367439240217209
-2.882016658782959 -0.5858290195465088 0.5716637372970581 32.0 13 -0.05367209017276764
-2.5953829288482666 -0.5270938873291016 -0.13879497349262238 6.0 6 -0.05366978794336319
-2.912478446960449 -0.5909625291824341 0.6861007809638977 100.0 14 -0.05366748198866844
-2.6026527881622314 -0.5276237726211548 -0.04635359346866608 2.0 7 -0.05366517975926399
-2.866614580154419 -0.5806146860122681 0.7837041020393372 55.0 15 -0.053662873804569244
-1.71774160861969 -0.3457337021827698 -0.46949777007102966 12.0 0 -0.053642138838768005
-2.605438709259033 -0.5239294171333313 0.046388499438762665 18.0 8 -0.05363983288407326
-1.851334810256958 -0.3719499707221985 -0.4359551668167114 34.0 1 -0.05363753065466881
-2.641610622406006 -0.530243992805481 0.1412024199962616 11.0 9 -0.05363522469997406
-2.6684720516204834 -0.5351506471633911 0.23810948431491852 6.0 10 -0.05363061651587486
-1.6676541566848755 -0.33413857221603394 -0.2693801820278168 9.0 3 -0.05362831428647041
-2.900247573852539 -0.5805799961090088 0.36317068338394165 58.0 11 -0.053626012057065964
-2.886723041534424 -0.5773479342460632 -0.3614645004272461 66.0 4 -0.053623706102371216
-2.919184923171997 -0.5833104848861694 0.47149354219436646 91.0 12 -0.053621403872966766
-2.873990297317505 -0.5742797255516052 -0.25641217827796936 59.0 5 -0.05361909791827202
-2.885969400405884 -0.5761503577232361 0.5720453858375549 47.0 13 -0.05361679568886757
-2.567826986312866 -0.5121703147888184 -0.13722489774227142 5.0 6 -0.05361448973417282
-2.8839447498321533 -0.574698805809021 0.6789023280143738 90.0 14 -0.05361218750476837
-2.6064398288726807 -0.5189266204833984 -0.046388499438762665 2.0 7 -0.053609881550073624
-2.872413396835327 -0.5713584423065186 0.7847393751144409 56.0 15 -0.053607579320669174
-1.7208333015441895 -0.34011009335517883 -0.47001540660858154 13.0 0 -0.05358684062957764
-2.6092135906219482 -0.5152187943458557 0.046423401683568954 22.0 8 -0.05358453840017319
-1.846886157989502 -0.364353746175766 -0.4346054494380951 31.0 1 -0.05358223617076874
-2.6375670433044434 -0.5198610424995422 0.14088840782642365 10.0 9 -0.05357993021607399
-2.672278642654419 -0.5262181758880615 0.23828379809856415 7.0 10 -0.05357532203197479
-1.6707485914230347 -0.328696608543396 -0.2696930468082428 15.0 3 -0.05357301980257034
-2.9061520099639893 -0.5712183117866516 0.3636581599712372 60.0 11 -0.053570713847875595
-2.878981113433838 -0.5653551816940308 -0.36024579405784607 69.0 4 -0.053568411618471146
-2.911510944366455 -0.5712161660194397 0.46992918848991394 93.0 12 -0.0535661056637764
-2.8759772777557373 -0.5642447471618652 -0.25641217827796936 61.0 5 -0.05356380343437195
-2.9033758640289307 -0.5690932273864746 0.5750983357429504 61.0 13 -0.0535614974796772
-2.4559173583984375 -0.48094144463539124 -0.1311539113521576 14.0 6 -0.05355919525027275
-2.893583297729492 -0.5661258101463318 0.6807019710540771 90.0 14 -0.053556889295578
-2.6101980209350586 -0.5102081894874573 -0.046423401683568954 3.0 7 -0.05355458706617355
-2.8857665061950684 -0.5635499358177185 0.7878451943397522 53.0 15 -0.053552281111478806
-1.7068380117416382 -0.3311578929424286 -0.4658742845058441 14.0 0 -0.053531546145677567
-2.614922285079956 -0.5068687796592712 0.04649320989847183 22.0 8 -0.05352924391627312
-1.6970043182373047 -0.32863500714302063 -0.39906319975852966 26.0 1 -0.05352693796157837
-2.6393656730651855 -0.5106503367424011 0.14088840782642365 10.0 9 -0.05352463573217392
-2.6506247520446777 -0.5123494863510132 0.23619204759597778 7.0 10 -0.05352002754807472
-1.6718858480453491 -0.32286256551742554 -0.2696930468082428 15.0 3 -0.053517721593379974
-2.9100770950317383 -0.5614456534385681 0.36390188336372375 75.0 11 -0.053515419363975525
-2.8887338638305664 -0.5568057298660278 -0.3612207770347595 67.0 4 -0.05351311340928078
-2.899909019470215 -0.558434784412384 0.46773913502693176 82.0 12 -0.05351081117987633
-2.877929449081421 -0.5542021989822388 -0.25641217827796936 63.0 5 -0.05350850522518158
-2.9053444862365723 -0.5589550137519836 0.5750983357429504 66.0 13 -0.05350620299577713
-2.4556198120117188 -0.4719892740249634 -0.131049245595932 34.0 6 -0.05350389704108238
-2.9031968116760254 -0.5574917793273926 0.6825015544891357 100.0 14 -0.05350159481167793
-2.5923242568969727 -0.497326135635376 -0.04607435315847397 4.0 7 -0.053499288856983185
-2.882024049758911 -0.5523830056190491 0.7862922549247742 52.0 15 -0.053496986627578735
-1.7003926038742065 -0.32375216484069824 -0.4638037383556366 15.0 0 -0.053476251661777496
-2.604888916015625 -0.4954957962036133 0.0462837815284729 23.0 8 -0.05347394570708275
-1.673252820968628 -0.317980021238327 -0.39321446418762207 45.0 1 -0.0534716434776783
-2.6450562477111816 -0.502179741859436 0.141097754240036 11.0 9 -0.05346933752298355
-2.648482084274292 -0.5023512840270996 0.23584343492984772 7.0 10 -0.053464729338884354
-1.6652390956878662 -0.31555384397506714 -0.2684415876865387 19.0 3 -0.053462427109479904
-2.9120192527770996 -0.5512848496437073 0.36390188336372375 75.0 11 -0.053460121154785156
-2.890660047531128 -0.5467186570167542 -0.3612207770347595 63.0 4 -0.05345781892538071
-2.9154279232025146 -0.5508753657341003 0.46992918848991394 96.0 12 -0.05345551297068596
-2.868100166320801 -0.5419327020645142 -0.25536632537841797 63.0 5 -0.05345321074128151
-2.8995611667633057 -0.547353982925415 0.5735718607902527 68.0 13 -0.05345090478658676
-2.4690282344818115 -0.46563541889190674 -0.1316772699356079 46.0 6 -0.05344860255718231
-2.8878896236419678 -0.5441061854362488 0.6784523725509644 82.0 14 -0.053446296602487564
-2.6078004837036133 -0.4908640384674072 -0.04631868749856949 4.0 7 -0.053443994373083115
-2.8706445693969727 -0.5398201942443848 0.7826688289642334 53.0 15 -0.05344168841838837
-1.665431022644043 -0.31107527017593384 -0.4539686143398285 21.0 0 -0.053307294845581055
-2.5948081016540527 -0.4841996729373932 0.04607435315847397 24.0 8 -0.053304992616176605
-1.6437009572982788 -0.30642274022102356 -0.38601604104042053 31.0 1 -0.05330268666148186
-2.648756742477417 -0.49330934882164 0.1412024199962616 11.0 9 -0.05330038443207741
-2.654136896133423 -0.4938327670097351 0.23619204759597778 8.0 10 -0.05329577624797821
-1.6546778678894043 -0.30757269263267517 -0.26656436920166016 24.0 3 -0.05329347029328346
-2.9061193466186523 -0.5396668910980225 0.3629269301891327 76.0 11 -0.05329116806387901
-2.9173331260681152 -0.5406959056854248 0.46992918848991394 93.0 12 -0.053286559879779816
-2.8758513927459717 -0.5330077409744263 -0.25588926672935486 19.0 5 -0.05328425392508507
-2.8975932598114014 -0.5365142822265625 0.5728086233139038 77.0 13 -0.05328195169568062
-2.452963352203369 -0.453744500875473 -0.13073523342609406 44.0 6 -0.05327964574098587
-2.912766933441162 -0.5382723808288574 0.6838512420654297 86.0 14 -0.05327734351158142
-2.6193301677703857 -0.4835732579231262 -0.04649320989847183 3.0 7 -0.05327503755688667
-2.8763110637664795 -0.5304965972900391 0.7837041020393372 48.0 15 -0.053272735327482224
-1.6418037414550781 -0.30073532462120056 -0.44723930954933167 31.0 0 -0.053252000361680984
-2.6102516651153564 -0.477658748626709 0.04631868749856949 29.0 8 -0.05324969440698624
-1.6140891313552856 -0.2950761020183563 -0.378817617893219 17.0 1 -0.05324739217758179
-2.6445682048797607 -0.4829845428466797 0.14088840782642365 11.0 9 -0.05324508622288704
-2.665644884109497 -0.48635241389274597 0.23706360161304474 8.0 10 -0.05324047803878784
-1.6343644857406616 -0.29789847135543823 -0.2631227970123291 28.0 3 -0.05323817580938339
-2.9040794372558594 -0.5288079977035522 0.36243945360183716 82.0 11 -0.053235869854688644
-1.6327420473098755 -0.29701393842697144 -0.20376555621623993 1.0 4 -0.053233567625284195
-2.9269766807556152 -0.531921923160553 0.47118064761161804 93.0 12 -0.05323126167058945
-1.6995646953582764 -0.3088633120059967 -0.15112805366516113 0.0 5 -0.053228959441185
-2.909106969833374 -0.5281500220298767 0.5747166872024536 85.0 13 -0.05322665348649025
-2.450601816177368 -0.44446638226509094 -0.1305258870124817 32.0 6 -0.0532243512570858
-2.8973703384399414 -0.5249746441841125 0.6798021197319031 73.0 14 -0.05322204530239105
-2.6249380111694336 -0.47513946890830994 -0.04656302183866501 3.0 7 -0.0532197430729866
-2.883848190307617 -0.5214849710464478 0.7852570414543152 44.0 15 -0.053217437118291855
-1.6105190515518188 -0.28919804096221924 -0.4384394884109497 18.0 0 -0.053196702152490616
-2.6099350452423096 -0.46819058060646057 0.0462837815284729 31.0 8 -0.053194399923086166
-1.5997638702392578 -0.28668999671936035 -0.37521839141845703 25.0 1 -0.05319209396839142
-2.6403398513793945 -0.4726943075656891 0.1405743956565857 10.0 9 -0.05318979173898697
-2.6751716136932373 -0.47844767570495605 0.23776087164878845 8.0 10 -0.05318518355488777
-1.5926135778427124 -0.2845480740070343 -0.2562396824359894 15.0 3 -0.053182877600193024
-2.9176323413848877 -0.5207610130310059 0.36390188336372375 85.0 11 -0.053180575370788574
-1.608363389968872 -0.28678277134895325 -0.20059694349765778 21.0 4 -0.053178269416093826
-2.9210364818573 -0.520315945148468 0.46992918848991394 93.0 12 -0.05317596718668938
-1.639825463294983 -0.29209744930267334 -0.14572440087795258 14.0 5 -0.05317366123199463
-2.9186644554138184 -0.5193678140640259 0.5762432217597961 82.0 13 -0.05317135900259018
-2.891510486602783 -0.5134946703910828 0.6780025362968445 63.0 14 -0.05316675081849098
-2.6265807151794434 -0.46597379446029663 -0.04656302183866501 4.0 7 -0.05316444858908653
-2.897064447402954 -0.5134379863739014 0.7883628606796265 37.0 15 -0.053162142634391785
-1.5924924612045288 -0.280226469039917 -0.4332630932331085 22.0 0 -0.053141407668590546
-2.6253397464752197 -0.46150076389312744 0.04652811586856842 35.0 8 -0.0531391017138958
-1.6007548570632935 -0.2811043858528137 -0.37521839141845703 31.0 1 -0.05313679948449135
-2.6400067806243896 -0.4631291329860687 0.1404697149991989 9.0 9 -0.0531344935297966
-1.5682510137557983 -0.27511394023895264 -0.30949220061302185 0.0 2 -0.05313219130039215
-2.657200574874878 -0.46566739678382874 0.23601774871349335 8.0 10 -0.0531298853456974
-1.6091632843017578 -0.2817125618457794 -0.25874263048171997 21.0 3 -0.053127583116292953
-2.9213881492614746 -0.5109146237373352 0.3641456365585327 91.0 11 -0.053125277161598206
-1.5956662893295288 -0.27877530455589294 -0.1988907903432846 32.0 4 -0.053122974932193756
-2.9111592769622803 -0.5080792903900146 0.4680519700050354 74.0 12 -0.05312067270278931
-1.6113942861557007 -0.28123369812965393 -0.14310972392559052 22.0 5 -0.05311836674809456
-2.920459508895874 -0.5091765522956848 0.5762432217597961 85.0 13 -0.05311606451869011
-1.6331398487091064 -0.28444114327430725 -0.08687769621610641 15.0 6 -0.05311375856399536
-2.8932852745056152 -0.5033989548683167 0.6780025362968445 56.0 14 -0.05311145633459091
-2.6538033485412598 -0.46125397086143494 -0.04701678454875946 1.0 7 -0.053109150379896164
-2.879805564880371 -0.5000173449516296 0.7831864953041077 30.0 15 -0.053106848150491714
-1.589653491973877 -0.27400922775268555 -0.43222782015800476 28.0 0 -0.05308610945940018
-2.609198570251465 -0.44928038120269775 0.04621397331357002 31.0 8 -0.05308380722999573
-1.6017262935638428 -0.27551496028900146 -0.37521839141845703 34.0 1 -0.05308150127530098
-2.6416072845458984 -0.4539108872413635 0.1404697149991989 9.0 9 -0.05307919904589653
-1.5808111429214478 -0.2716328501701355 -0.3117819130420685 0.0 2 -0.05307689309120178
-2.648991584777832 -0.4547044336795807 0.2351461946964264 7.0 10 -0.05307459086179733
-1.5965081453323364 -0.27375686168670654 -0.2565525472164154 27.0 3 -0.05307228863239288
-2.925110340118408 -0.5010490417480469 0.3643893897533417 99.0 11 -0.053069982677698135
-1.5907596349716187 -0.2721995711326599 -0.19815956056118011 20.0 4 -0.053067680448293686
-2.9187564849853516 -0.4989120662212372 0.46899059414863586 69.0 12 -0.05306537449359894
-1.5907633304595947 -0.2719140946865082 -0.14119230210781097 26.0 5 -0.05306307226419449
-2.914478063583374 -0.49765723943710327 0.5747166872024536 87.0 13 -0.05306076630949974
-1.632153868675232 -0.2784031927585602 -0.08677302300930023 30.0 6 -0.05305846408009529
-2.9065513610839844 -0.49525970220565796 0.6807019710540771 47.0 14 -0.05305615812540054
-1.5829871892929077 -0.2694476544857025 -0.028028564527630806 0.0 7 -0.053053855895996094
-2.8720104694366455 -0.48834332823753357 0.7805982232093811 25.0 15 -0.053051549941301346
-1.605839490890503 -0.2710310220718384 -0.4363689422607422 40.0 0 -0.05303081497550011
-2.606806993484497 -0.43950480222702026 0.046144161373376846 29.0 8 -0.05302850902080536
-1.5796180963516235 -0.2660380005836487 -0.3698195517063141 36.0 1 -0.05302620679140091
-2.6549932956695557 -0.4466759264469147 0.141097754240036 8.0 9 -0.05302390456199646
-1.6049822568893433 -0.2700221538543701 -0.31636133790016174 0.0 2 -0.05302159860730171
-2.6505625247955322 -0.445454865694046 0.2351461946964264 7.0 10 -0.05301929637789726
-1.5799211263656616 -0.2652384340763092 -0.2537367343902588 27.0 3 -0.053016990423202515
-2.9190104007720947 -0.4895227551460266 0.3634144067764282 96.0 11 -0.053014688193798065
-1.5721220970153809 -0.26336535811424255 -0.19572217762470245 22.0 4 -0.05301238223910332
-2.9282734394073486 -0.49002471566200256 0.47024205327033997 73.0 12 -0.05301008000969887
-1.5759823322296143 -0.26372888684272766 -0.13979780673980713 35.0 5 -0.05300777405500412
-2.9123246669769287 -0.48683401942253113 0.5739535093307495 85.0 13 -0.05300547182559967
-1.6153860092163086 -0.26974359154701233 -0.08583097904920578 42.0 6 -0.05300316587090492
-2.902495861053467 -0.48414894938468933 0.6793522238731384 31.0 14 -0.05300086364150047
-1.6036430597305298 -0.26720738410949707 -0.028377613052725792 29.0 7 -0.052998557686805725
-2.8736977577209473 -0.4783143401145935 0.7805982232093811 19.0 15 -0.052996255457401276
-1.5972458124160767 -0.2638496160507202 -0.4337807595729828 43.0 0 -0.05297552049160004
-2.6181905269622803 -0.43203043937683105 0.04631868749856949 25.0 8 -0.05297321453690529
-1.5766916275024414 -0.2598889470100403 -0.3689197599887848 45.0 1 -0.05297091230750084
-2.6466064453125 -0.436244934797287 0.1405743956565857 2.0 9 -0.05296860635280609
-1.5981663465499878 -0.2631421685218811 -0.314834862947464 0.0 2 -0.05296630412340164
-2.6638970375061035 -0.4381393492221832 0.23619204759597778 4.0 10 -0.052963998168706894
-1.5749895572662354 -0.258761465549469 -0.2527981102466583 31.0 3 -0.052961695939302444
-2.9167838096618652 -0.47868749499320984 0.3629269301891327 91.0 11 -0.0529593899846077
-1.5632370710372925 -0.2562698721885681 -0.19450348615646362 24.0 4 -0.05295708775520325
-2.9318318367004395 -0.4806309640407562 0.470554918050766 66.0 12 -0.0529547818005085
-1.5768932104110718 -0.2582263946533203 -0.13979780673980713 24.0 5 -0.05295247957110405
-2.9178812503814697 -0.47729894518852234 0.5747166872024536 85.0 13 -0.0529501736164093
-1.5768953561782837 -0.25766119360923767 -0.08373753726482391 42.0 6 -0.05294787138700485
-2.8926281929016113 -0.4721314609050751 0.6766527891159058 30.0 14 -0.052945565432310104
-1.570969581604004 -0.2564118504524231 -0.027784232050180435 57.0 7 -0.052943263202905655
-2.882894515991211 -0.4700262248516083 0.7826688289642334 14.0 15 -0.05294095724821091
-1.603878378868103 -0.2591971457004547 -0.43533363938331604 57.0 0 -0.05292022228240967
-1.5833160877227783 -0.25559061765670776 -0.37026944756507874 56.0 1 -0.05291561409831047
-1.5700011253356934 -0.25287893414497375 -0.3091106116771698 27.0 2 -0.05291100591421127
-1.5836400985717773 -0.2547922432422638 -0.2540495991706848 38.0 3 -0.052906397730112076
-1.544478416442871 -0.24793848395347595 -0.19206610321998596 26.0 4 -0.05290178954601288
-2.921788454055786 -0.46851804852485657 0.46867769956588745 49.0 12 -0.05289948731660843
-1.5502426624298096 -0.24830882251262665 -0.1373574435710907 27.0 5 -0.05289718136191368
-2.9233248233795166 -0.4682411253452301 0.5754799246788025 83.0 13 -0.05289487913250923
-1.5777411460876465 -0.2524305582046509 -0.08373753726482391 34.0 6 -0.052892573177814484
-2.8941781520843506 -0.462536484003067 0.6766527891159058 18.0 14 -0.052890270948410034
-1.5560574531555176 -0.24840466678142548 -0.027504993602633476 47.0 7 -0.052887968719005585
-2.894056558609009 -0.4614804685115814 0.7852570414543152 12.0 15 -0.05288566276431084
-1.5913721323013306 -0.25176388025283813 -0.4317101836204529 60.0 0 -0.0528649277985096
-1.548545002937317 -0.2447117269039154 0.027365373447537422 5.0 8 -0.05286262184381485
-1.5803489685058594 -0.2494545429944992 -0.36936965584754944 60.0 1 -0.0528603196144104
-1.5546351671218872 -0.24511760473251343 0.08248147368431091 15.0 9 -0.05285801365971565
-1.5747095346450806 -0.24828271567821503 -0.3098738193511963 63.0 2 -0.0528557114303112
-1.5469510555267334 -0.24362938106060028 0.13700881600379944 19.0 10 -0.052853405475616455
-1.5825685262680054 -0.24895574152469635 -0.2537367343902588 49.0 3 -0.052851103246212006
-1.5531787872314453 -0.24377687275409698 -0.19304105639457703 28.0 4 -0.05284649506211281
-2.9234063625335693 -0.4583161771297455 0.46867769956588745 47.0 12 -0.05284418910741806
-1.5333843231201172 -0.24012170732021332 -0.13578864932060242 30.0 5 -0.05284188687801361
-2.930760622024536 -0.4589451253414154 0.5766248106956482 81.0 13 -0.05283958464860916
-1.5529602766036987 -0.24290955066680908 -0.08237680792808533 30.0 6 -0.05283727869391441
-2.899625539779663 -0.45303264260292053 0.6775525808334351 15.0 14 -0.052834976464509964
-1.543084740638733 -0.24081307649612427 -0.027260659262537956 41.0 7 -0.052832670509815216
-2.87274432182312 -0.44780558347702026 0.7790454030036926 10.0 15 -0.05283036828041077
-1.5846474170684814 -0.24474994838237762 -0.42963963747024536 48.0 0 -0.05280962958931923
-1.5513660907745361 -0.23960961401462555 0.02740027755498886 44.0 8 -0.05280732735991478
-1.5927658081054688 -0.24571923911571503 -0.3720690608024597 46.0 1 -0.05280502140522003
-1.5515332221984863 -0.23908139765262604 0.08227212727069855 16.0 9 -0.05280271917581558
-1.583370566368103 -0.24370405077934265 -0.31140029430389404 62.0 2 -0.052800413221120834
-1.5379873514175415 -0.2364441305398941 0.13613726198673248 24.0 10 -0.052798110991716385
-1.5717554092407227 -0.24135510623455048 -0.25185951590538025 69.0 3 -0.05279580503702164
-1.5441681146621704 -0.23711887001991272 0.1918223649263382 23.0 11 -0.05279350280761719
-1.5520579814910889 -0.23805277049541473 -0.19279730319976807 32.0 4 -0.05279120057821274
-2.9308459758758545 -0.4490060806274414 0.4696163237094879 38.0 12 -0.05278889462351799
-1.5342130661010742 -0.23476767539978027 -0.13578864932060242 32.0 5 -0.05278659239411354
-2.9246602058410645 -0.4470137059688568 0.5750983357429504 78.0 13 -0.05278428643941879
-1.551865577697754 -0.23691456019878387 -0.08227212727069855 27.0 6 -0.05278198421001434
-2.897413730621338 -0.4418143630027771 0.6766527891159058 10.0 14 -0.052779678255319595
-1.5300779342651367 -0.233315110206604 -0.027016324922442436 33.0 7 -0.052777376025915146
-2.8742897510528564 -0.43777504563331604 0.7790454030036926 9.0 15 -0.0527750700712204
-1.5874022245407104 -0.23950518667697906 -0.43015727400779724 42.0 0 -0.05275433510541916
-1.526528000831604 -0.23004844784736633 0.02694651484489441 30.0 8 -0.05275202915072441
-1.5782395601272583 -0.23755931854248047 -0.36846986413002014 48.0 1 -0.05274972692131996
-1.5464739799499512 -0.23250190913677216 0.0819581151008606 14.0 9 -0.052747420966625214
-1.5900359153747559 -0.23905116319656372 -0.31254515051841736 53.0 2 -0.052745118737220764
-1.5368329286575317 -0.2307785600423813 0.13596294820308685 25.0 10 -0.052742816507816315
-1.5667277574539185 -0.2349877506494522 -0.2509209215641022 53.0 3 -0.05274051055312157
-1.5234317779541016 -0.2282221019268036 0.18914122879505157 18.0 11 -0.05273820832371712
-1.554883360862732 -0.23265670239925385 -0.19304105639457703 42.0 4 -0.05273590236902237
-2.9285647869110107 -0.4376769959926605 0.46899059414863586 28.0 12 -0.05273360013961792
-1.531082272529602 -0.22882179915905 -0.13544002175331116 43.0 5 -0.05273129418492317
-2.9242610931396484 -0.4365120828151703 0.5747166872024536 67.0 13 -0.05272899195551872
-1.5408304929733276 -0.2297292798757553 -0.08164409548044205 30.0 6 -0.052726686000823975
-2.910503387451172 -0.43341994285583496 0.6793522238731384 8.0 14 -0.052724383771419525
-1.5368566513061523 -0.22858808934688568 -0.027121039107441902 39.0 7 -0.05272207781672478
-2.883518695831299 -0.4283720552921295 0.7811158895492554 8.0 15 -0.05271977558732033
-1.5958735942840576 -0.23508918285369873 -0.43222782015800476 42.0 0 -0.05269904062151909
-1.5174297094345093 -0.2232629805803299 0.026771990582346916 30.0 8 -0.05269673466682434
-1.582915186882019 -0.2326153963804245 -0.36936965584754944 40.0 1 -0.05269443243741989
-1.541347861289978 -0.22623248398303986 0.08164409548044205 14.0 9 -0.05269212648272514
-1.5889182090759277 -0.23321467638015747 -0.3121635317802429 55.0 2 -0.052689824253320694
-1.5317152738571167 -0.22454522550106049 0.13544002175331116 30.0 10 -0.052687518298625946
-1.5675384998321533 -0.2295173704624176 -0.2509209215641022 44.0 3 -0.0526852160692215
-1.5183265209197998 -0.222041517496109 0.18841002881526947 25.0 11 -0.05268291011452675
-1.5497933626174927 -0.22636663913726807 -0.19230984151363373 41.0 4 -0.0526806078851223
-2.941802978515625 -0.4291626513004303 0.4708678126335144 25.0 12 -0.05267830193042755
-1.5318716764450073 -0.22347591817378998 -0.13544002175331116 49.0 5 -0.0526759997010231
-2.925766944885254 -0.4263024628162384 0.5747166872024536 61.0 13 -0.052673693746328354
-1.5297644138336182 -0.22262319922447205 -0.08101607114076614 34.0 6 -0.052671391516923904
-2.8907852172851562 -0.42017433047294617 0.6744033098220825 6.0 14 -0.052669085562229156
-1.5416030883789062 -0.22379697859287262 -0.02719084918498993 36.0 7 -0.05266678333282471
-2.8869082927703857 -0.41858190298080444 0.7816335558891296 6.0 15 -0.05266447737812996
-1.6081576347351074 -0.231166273355484 -0.43533363938331604 43.0 0 -0.05264374241232872
-1.5221587419509888 -0.21853278577327728 0.026841802522540092 35.0 8 -0.05264144018292427
-1.5875754356384277 -0.22764210402965546 -0.37026944756507874 48.0 1 -0.05263913422822952
-1.5263113975524902 -0.21858564019203186 0.08080672472715378 14.0 9 -0.05263683199882507
-1.5780620574951172 -0.2259969264268875 -0.3098738193511963 47.0 2 -0.052634526044130325
-1.526572823524475 -0.21835081279277802 0.13491709530353546 30.0 10 -0.052632223814725876
-1.5781075954437256 -0.2254413664340973 -0.2524852454662323 45.0 3 -0.05262991786003113
-1.5131968259811401 -0.2158990204334259 0.18767879903316498 27.0 11 -0.05262761563062668
-1.5525392293930054 -0.2212354689836502 -0.1925535798072815 35.0 4 -0.05262530967593193
-2.9276375770568848 -0.4166651666164398 0.4683648645877838 16.0 12 -0.05262300744652748
-1.5464500188827515 -0.2200927436351776 -0.13666020333766937 50.0 5 -0.05262070149183273
-2.93306827545166 -0.41691508889198303 0.5758615732192993 53.0 13 -0.052618399262428284
-1.5364644527435303 -0.21812410652637482 -0.0813300833106041 44.0 6 -0.052616093307733536
-2.8883752822875977 -0.4095345437526703 0.6735035181045532 3.0 14 -0.052613791078329086
-1.5225754976272583 -0.21561022102832794 -0.026841802522540092 43.0 7 -0.05261148512363434
-2.903654098510742 -0.4106663167476654 0.7857747077941895 6.0 15 -0.05260918289422989
-1.5936496257781982 -0.22340576350688934 -0.431192547082901 39.0 0 -0.05258844792842865
-1.5209318399429321 -0.21294115483760834 0.026806894689798355 36.0 8 -0.0525861419737339
-1.5980103015899658 -0.22344833612442017 -0.37251898646354675 47.0 1 -0.05258383974432945
-1.5310213565826416 -0.2138085514307022 0.08101607114076614 15.0 9 -0.052581533789634705
-1.5788413286209106 -0.22048665583133698 -0.3098738193511963 47.0 2 -0.052579231560230255
-1.519432544708252 -0.21192021667957306 0.13421984016895294 31.0 10 -0.05257692560553551
-1.5945369005203247 -0.2221115678548813 -0.2549882233142853 49.0 3 -0.05257462337613106
-1.5178735256195068 -0.21116231381893158 0.1881662756204605 27.0 11 -0.05257231742143631
-1.5552680492401123 -0.21608823537826538 -0.19279730319976807 34.0 4 -0.05257001519203186
-2.925161123275757 -0.40590015053749084 0.46773913502693176 12.0 12 -0.05256770923733711
-1.539314866065979 -0.2135978639125824 -0.13596294820308685 43.0 5 -0.05256540700793266
-2.9442293643951416 -0.4080216884613037 0.5777696371078491 45.0 13 -0.052563101053237915
-1.5451301336288452 -0.21385511755943298 -0.08174876868724823 45.0 6 -0.052560798823833466
-2.8878567218780518 -0.3991827964782715 0.6730535626411438 2.0 14 -0.052558496594429016
-1.5134142637252808 -0.20892676711082458 -0.0266672782599926 50.0 7 -0.05255619063973427
-2.885932445526123 -0.3978895843029022 0.7805982232093811 6.0 15 -0.05255388841032982
-1.6097322702407837 -0.21993358433246613 -0.43533363938331604 39.0 0 -0.05253314971923828
-1.5097777843475342 -0.2060086727142334 0.026597466319799423 39.0 8 -0.05253084748983383
-1.604573130607605 -0.2186582088470459 -0.3738686740398407 41.0 1 -0.052528541535139084
-1.5317219495773315 -0.20873062312602997 0.08101607114076614 15.0 9 -0.052526239305734634
-1.5893279314041138 -0.2162981927394867 -0.3117819130420685 49.0 2 -0.052523933351039886
-1.5162144899368286 -0.20607836544513702 0.13387121260166168 31.0 10 -0.05252163112163544
-1.5835579633712769 -0.21494999527931213 -0.25311097502708435 58.0 3 -0.05251932516694069
-1.5186012983322144 -0.20586296916007996 0.1881662756204605 31.0 11 -0.05251702293753624
-1.563881516456604 -0.21172325313091278 -0.19377227127552032 31.0 4 -0.05251471698284149
-2.928448438644409 -0.39646264910697937 0.4680519700050354 9.0 12 -0.05251241475343704
-1.5440001487731934 -0.20875687897205353 -0.1363115906715393 41.0 5 -0.05251011252403259
-2.9281251430511475 -0.39537742733955383 0.5743350982666016 32.0 13 -0.052507806569337845
-1.5577434301376343 -0.21006178855895996 -0.08237680792808533 41.0 6 -0.052505504339933395
-2.9046831130981445 -0.3911798596382141 0.6766527891159058 2.0 14 -0.05250319838523865
-1.5180623531341553 -0.20444068312644958 -0.026737086474895477 47.0 7 -0.0525008961558342
-2.8834068775177 -0.3878021538257599 0.7795630097389221 4.0 15 -0.05249859020113945
-1.6124053001403809 -0.21456803381443024 -0.4358513057231903 32.0 0 -0.05247785523533821
-1.50648832321167 -0.20047332346439362 0.026527658104896545 44.0 8 -0.05247554928064346
-1.607221245765686 -0.21359272301197052 -0.37431856989860535 32.0 1 -0.052473247051239014
-1.538380742073059 -0.20417091250419617 0.0813300833106041 19.0 9 -0.052470941096544266
-1.593965768814087 -0.2112649530172348 -0.31254515051841736 40.0 2 -0.052468638867139816
-1.5188997983932495 -0.2010459452867508 0.1340455263853073 38.0 10 -0.05246633663773537
-1.562720775604248 -0.206846222281456 -0.24966943264007568 45.0 3 -0.05246403068304062
-1.5035319328308105 -0.19874481856822968 0.18621638417243958 33.0 11 -0.05246172845363617
-1.5724471807479858 -0.20757520198822021 -0.1947472244501114 31.0 4 -0.05245942249894142
-2.937648296356201 -0.3872706890106201 0.4693034589290619 8.0 12 -0.05245712026953697
-1.5447194576263428 -0.2033659964799881 -0.1363115906715393 40.0 5 -0.052454814314842224
-2.927473783493042 -0.385408878326416 0.5739535093307495 27.0 13 -0.052452512085437775
-1.542589545249939 -0.2028120905160904 -0.08153942972421646 28.0 6 -0.05245020613074303
-2.9330146312713623 -0.3850976526737213 0.6829514503479004 1.0 14 -0.05244790390133858
-1.5346285104751587 -0.20122013986110687 -0.027016324922442436 47.0 7 -0.05244559794664383
-2.900067090988159 -0.37974199652671814 0.7837041020393372 4.0 15 -0.05244329571723938
-1.6150236129760742 -0.20946833491325378 -0.4363689422607422 23.0 0 -0.05242255702614784
-1.509162187576294 -0.19547028839588165 0.026562562212347984 45.0 8 -0.05242025479674339
-1.594428539276123 -0.20623166859149933 -0.3711692690849304 27.0 1 -0.052417952567338943
-1.527199387550354 -0.19726455211639404 0.0807020515203476 18.0 9 -0.052415646612644196
-1.5946576595306396 -0.20597796142101288 -0.31254515051841736 30.0 2 -0.052413344383239746
-1.5175820589065552 -0.1957530379295349 0.13387121260166168 47.0 10 -0.052411038428545
-1.5889028310775757 -0.20467078685760498 -0.2537367343902588 39.0 3 -0.05240873619914055
-1.4963409900665283 -0.19248220324516296 0.18524141609668732 39.0 11 -0.0524064302444458
-1.5633175373077393 -0.2008204162120819 -0.19352853298187256 27.0 4 -0.05240412801504135
-2.9370229244232178 -0.37676188349723816 0.46899059414863586 6.0 12 -0.0524018220603466
-1.5473614931106567 -0.19849583506584167 -0.13648588955402374 38.0 5 -0.052399519830942154
-2.934643030166626 -0.37593671679496765 0.5750983357429504 21.0 13 -0.052397213876247406
-1.5393258333206177 -0.1969192922115326 -0.0813300833106041 29.0 6 -0.05239491164684296
-2.915010690689087 -0.3723869025707245 0.6784523725509644 1.0 14 -0.05239260569214821
-1.531354308128357 -0.1953563094139099 -0.02694651484489441 36.0 7 -0.05239030346274376
-2.905207395553589 -0.37010475993156433 0.7847393751144409 4.0 15 -0.05238799750804901
-1.6310782432556152 -0.20576384663581848 -0.44051000475883484 20.0 0 -0.05236726254224777
-1.5157872438430786 -0.19095127284526825 0.0266672782599926 39.0 8 -0.05236496031284332
-1.6028727293014526 -0.20163731276988983 -0.3729688823223114 24.0 1 -0.052362654358148575
-1.5219335556030273 -0.19118554890155792 0.08038803189992905 15.0 9 -0.052360352128744125
-1.5934189558029175 -0.20016556978225708 -0.3121635317802429 29.0 2 -0.05235804617404938
-1.5301175117492676 -0.1919427514076233 0.13491709530353546 45.0 10 -0.05235574394464493
-1.5896074771881104 -0.19912320375442505 -0.2537367343902588 37.0 3 -0.05235343798995018
-1.5068525075912476 -0.18848973512649536 0.18646010756492615 45.0 11 -0.05235113576054573
-1.5738580226898193 -0.1965927630662918 -0.1947472244501114 21.0 4 -0.05234882980585098
-2.9304795265197754 -0.3655301034450531 0.46773913502693176 4.0 12 -0.05234652757644653
-1.5579302310943604 -0.19432669878005981 -0.1373574435710907 34.0 5 -0.052344221621751785
-2.926196575164795 -0.3644772469997406 0.5731902718544006 13.0 13 -0.052341919392347336
-1.5499138832092285 -0.19277702271938324 -0.08185344934463501 27.0 6 -0.05233961343765259
-2.916292667388916 -0.3622100055217743 0.6784523725509644 1.0 14 -0.05233731120824814
-1.5280580520629883 -0.18951739370822906 -0.02687670662999153 37.0 7 -0.05233500525355339
-2.9141507148742676 -0.36091044545173645 0.7868099212646484 4.0 15 -0.05233270302414894
-1.616446614265442 -0.19818861782550812 -0.4363689422607422 17.0 0 -0.0523119680583477
-1.5223989486694336 -0.18638800084590912 0.026771990582346916 30.0 8 -0.052309662103652954
-1.6113042831420898 -0.19698688387870789 -0.3747684955596924 22.0 1 -0.052307359874248505
-1.5364367961883545 -0.18783409893512726 0.08112073689699173 11.0 9 -0.05230505391955376
-1.5921590328216553 -0.19436471164226532 -0.3117819130420685 23.0 2 -0.05230275169014931
-1.5208895206451416 -0.18539464473724365 0.1340455263853073 49.0 10 -0.05230044573545456
-1.5981365442276 -0.19452792406082153 -0.2549882233142853 27.0 3 -0.05229814350605011
-1.5153836011886597 -0.18418708443641663 0.1874350756406784 46.0 11 -0.05229583755135536
-1.5804466009140015 -0.1918148696422577 -0.1954784393310547 16.0 4 -0.05229353532195091
-2.933636426925659 -0.3560481369495392 0.4680519700050354 2.0 12 -0.052291229367256165
-1.5566210746765137 -0.1886475682258606 -0.13718314468860626 30.0 5 -0.052288927137851715
-2.9371960163116455 -0.3554399013519287 0.5750983357429504 11.0 13 -0.05228662118315697
-1.5565258264541626 -0.18808475136756897 -0.08216746151447296 25.0 6 -0.05228431895375252
-2.9368865489959717 -0.3543623685836792 0.6829514503479004 1.0 14 -0.05228201299905777
-1.5266927480697632 -0.18420951068401337 -0.026841802522540092 30.0 7 -0.05227971076965332
-2.890397787094116 -0.34824129939079285 0.7800806164741516 4.0 15 -0.05227740854024887
-1.6190468072891235 -0.19277331233024597 -0.43688657879829407 16.0 0 -0.05225666984915733
-1.5170519351959229 -0.1806291937828064 0.0266672782599926 28.0 8 -0.052254367619752884
-1.619688868522644 -0.19256269931793213 -0.376568078994751 19.0 1 -0.052252061665058136
-1.541049599647522 -0.1829410046339035 0.0813300833106041 9.0 9 -0.052249759435653687
-1.6045253276824951 -0.19019237160682678 -0.3140716254711151 24.0 2 -0.05224745348095894
-1.5175701379776 -0.17961621284484863 0.13369689881801605 36.0 10 -0.05224515125155449
-1.5889643430709839 -0.1880662590265274 -0.25342386960983276 24.0 3 -0.05224284529685974
-1.5219001770019531 -0.17985974252223969 0.1881662756204605 42.0 11 -0.05224054306745529
-1.5810739994049072 -0.18657319247722626 -0.1954784393310547 15.0 4 -0.052238237112760544
-2.948593854904175 -0.34742364287376404 0.47024205327033997 2.0 12 -0.052235934883356094
-1.559248924255371 -0.18344555795192719 -0.1373574435710907 23.0 5 -0.052233628928661346
-2.932509422302246 -0.34500956535339355 0.5739535093307495 10.0 13 -0.0522313266992569
-1.57499361038208 -0.18501925468444824 -0.08310950547456741 20.0 6 -0.05222902446985245
-2.9419164657592773 -0.3450752794742584 0.6838512420654297 1.0 14 -0.0522267185151577
-1.5372570753097534 -0.18004226684570312 -0.027016324922442436 32.0 7 -0.05222441628575325
-2.9011895656585693 -0.3392716348171234 0.7826688289642334 5.0 15 -0.0522221103310585
-1.633110523223877 -0.18895752727985382 -0.44051000475883484 13.0 0 -0.05220137536525726
-1.5156866312026978 -0.17510268092155457 0.02663237228989601 25.0 8 -0.052199069410562515
-1.6222871541976929 -0.18713141977787018 -0.377018004655838 15.0 1 -0.052196767181158066
-1.5515996217727661 -0.1787032037973404 0.08185344934463501 7.0 9 -0.05219446122646332
-1.6090481281280518 -0.18531975150108337 -0.314834862947464 18.0 2 -0.05219215899705887
-1.5221161842346191 -0.1750379502773285 0.1340455263853073 37.0 10 -0.05218985304236412
-1.5954985618591309 -0.18319492042064667 -0.25436246395111084 20.0 3 -0.05218755081295967
-1.5146299600601196 -0.17364178597927094 0.18719132244586945 25.0 11 -0.05218524858355522
-1.595521092414856 -0.18263289332389832 -0.19718460738658905 11.0 4 -0.052182942628860474
-2.9321253299713135 -0.3351101875305176 0.46742624044418335 1.0 12 -0.052180640399456024
-1.553941011428833 -0.1773242950439453 -0.136834517121315 16.0 5 -0.052178334444761276
-2.914189577102661 -0.33254584670066833 0.5701373219490051 6.0 13 -0.05217603221535683
-1.5696766376495361 -0.17884202301502228 -0.08279548585414886 16.0 6 -0.05217372626066208
-2.950847864151001 -0.33568495512008667 0.6856508255004883 1.0 14 -0.05217142403125763
-1.5478107929229736 -0.17580385506153107 -0.02719084918498993 24.0 7 -0.05216911807656288
-2.9253907203674316 -0.3317546844482422 0.788880467414856 3.0 15 -0.05216681584715843
-1.6453113555908203 -0.18426063656806946 -0.4436158537864685 11.0 0 -0.052146077156066895
-1.5202630758285522 -0.17025631666183472 0.02670218236744404 24.0 8 -0.052143774926662445
-1.6268038749694824 -0.1819004863500595 -0.3779177963733673 13.0 1 -0.052141472697257996
-1.5403043031692505 -0.171956405043602 0.08122541010379791 7.0 9 -0.05213916674256325
-1.6233747005462646 -0.18094296753406525 -0.31750616431236267 17.0 2 -0.0521368645131588
-1.5366086959838867 -0.17100082337856293 0.13526570796966553 32.0 10 -0.05213455855846405
-1.600085973739624 -0.17778177559375763 -0.2549882233142853 19.0 3 -0.0521322563290596
-1.5211458206176758 -0.1690109223127365 0.18792253732681274 28.0 11 -0.05212995037436485
-1.590230107307434 -0.17640575766563416 -0.19645340740680695 9.0 4 -0.0521276481449604
-2.948984146118164 -0.3266133666038513 0.46992918848991394 1.0 12 -0.052125342190265656
-1.5783144235610962 -0.17452628910541534 -0.13892625272274017 15.0 5 -0.052123039960861206
-2.9270975589752197 -0.32315441966056824 0.5724270343780518 6.0 13 -0.05212073400616646
-1.5643658638000488 -0.1724315583705902 -0.08248147368431091 9.0 6 -0.05211843177676201
-2.940436363220215 -0.3235882520675659 0.6829514503479004 1.0 14 -0.05211612582206726
-1.5464272499084473 -0.1701807677745819 -0.02715594507753849 16.0 7 -0.05211382359266281
-2.9322917461395264 -0.3221740424633026 0.790433406829834 4.0 15 -0.05211151763796806
-1.6517060995101929 -0.17914116382598877 -0.44516876339912415 10.0 0 -0.052090782672166824
-1.5427457094192505 -0.16705109179019928 0.027086134999990463 21.0 8 -0.052088480442762375
-1.6410218477249146 -0.17740245163440704 -0.3810671269893646 11.0 1 -0.05208617448806763
-1.5409241914749146 -0.16630971431732178 0.08122541010379791 7.0 9 -0.05208387225866318
-1.6083811521530151 -0.17359024286270142 -0.31445324420928955 12.0 2 -0.05208156630396843
-1.5411580801010132 -0.1660628765821457 0.1356143355369568 32.0 10 -0.05207926407456398
-1.6144450902938843 -0.17367428541183472 -0.25717827677726746 17.0 3 -0.05207695811986923
-1.5178076028823853 -0.16301089525222778 0.1874350756406784 24.0 11 -0.05207465589046478
-1.5908658504486084 -0.17057643830776215 -0.19645340740680695 9.0 4 -0.052072349935770035
-2.9187350273132324 -0.3124378025531769 0.46492329239845276 1.0 12 -0.052070047706365585
-1.598754644393921 -0.17085786163806915 -0.14066936075687408 10.0 5 -0.05206774175167084
-2.9321117401123047 -0.3133528530597687 0.5731902718544006 5.0 13 -0.05206543952226639
-1.5689301490783691 -0.16739322245121002 -0.08269082009792328 8.0 6 -0.05206313356757164
-2.9492990970611572 -0.3141477704048157 0.684751033782959 1.0 14 -0.05206083133816719
-1.5490291118621826 -0.1647234857082367 -0.02719084918498993 13.0 7 -0.05205852538347244
-2.9469003677368164 -0.31285205483436584 0.7940568327903748 3.0 15 -0.05205622315406799
-1.648508906364441 -0.172683984041214 -0.4441334903240204 8.0 0 -0.052035488188266754
-1.5373530387878418 -0.16104023158550262 0.026981420814990997 14.0 8 -0.052033182233572006
-1.6358164548873901 -0.17106543481349945 -0.3797174096107483 9.0 1 -0.05203088000416756
-1.557387113571167 -0.1625889092683792 0.08206278830766678 5.0 9 -0.05202857404947281
-1.6129119396209717 -0.16810068488121033 -0.3152164816856384 11.0 2 -0.05202627182006836
-1.55166494846344 -0.1614440381526947 0.13648588955402374 28.0 10 -0.05202396586537361
-1.6268596649169922 -0.16898073256015778 -0.2590555250644684 15.0 3 -0.05202166363596916
-1.526265263557434 -0.158532053232193 0.18841002881526947 17.0 11 -0.052019357681274414
-1.6092220544815063 -0.16686448454856873 -0.19864705204963684 7.0 4 -0.052017055451869965
-2.9512460231781006 -0.3055025637149811 0.46992918848991394 1.0 12 -0.05201474949717522
-1.5894321203231812 -0.16425204277038574 -0.13979780673980713 12.0 5 -0.05201244726777077
-2.9351935386657715 -0.30280470848083496 0.5735718607902527 3.0 13 -0.05201014131307602
-1.585427165031433 -0.16327890753746033 -0.08352819085121155 7.0 6 -0.05200783908367157
-2.9814467430114746 -0.30652540922164917 0.6919494867324829 1.0 14 -0.05200553312897682
-1.5376594066619873 -0.15808825194835663 -0.026981420814990997 9.0 7 -0.05200323089957237
-2.9402873516082764 -0.3017745018005371 0.791986346244812 3.0 15 -0.052000924944877625
-1.6451995372772217 -0.1671132892370224 -0.443098247051239 7.0 0 -0.05284476280212402
-1.5239522457122803 -0.15452909469604492 0.026737086474895477 10.0 8 -0.052842460572719574
-1.655763030052185 -0.16760241985321045 -0.38421642780303955 8.0 1 -0.052840154618024826
-1.5658663511276245 -0.15822665393352509 0.08248147368431091 3.0 9 -0.05283785238862038
-1.6212453842163086 -0.16382256150245667 -0.3167429566383362 9.0 2 -0.05283554643392563
-1.5382881164550781 -0.15516911447048187 0.13526570796966553 20.0 10 -0.05283324420452118
-1.6155898571014404 -0.162681445479393 -0.25717827677726746 12.0 3 -0.05283093824982643
-1.5386333465576172 -0.15466108918190002 0.18987245857715607 15.0 11 -0.05282863602042198
-1.6216175556182861 -0.16271667182445526 -0.20010948181152344 7.0 4 -0.052826330065727234
-2.952242612838745 -0.2957141101360321 0.46992918848991394 1.0 12 -0.052824027836322784
-1.5879855155944824 -0.15878210961818695 -0.1396235078573227 8.0 5 -0.052821721881628036
-2.930269718170166 -0.2929966449737549 0.5724270343780518 2.0 13 -0.05281941965222359
-1.5859322547912598 -0.1582968831062317 -0.08352819085121155 5.0 6 -0.05281711369752884
