# .PCD v0.7 - Point Cloud Data file format
VERSION 0.7
FIELDS x y z intensity ring time
SIZE 4 4 4 4 4 4
TYPE F F F F F F
COUNT 1 1 1 1 1 1
WIDTH 547
HEIGHT 1
VIEWPOINT 0 0 0 1 0 0 0
POINTS 547
DATA ascii
4.176130294799805 -1.1864503622055054 0.5330565571784973 24.0 11 -0.09614915400743484
1.288865089416504 -0.3664133548736572 -0.16452361643314362 90.0 4 -0.0961468517780304
3.9616761207580566 -1.1262707710266113 0.6523317694664001 7.0 12 -0.09614454954862595
1.3069533109664917 -0.37180227041244507 -0.11888043582439423 95.0 5 -0.0961422398686409
3.801020383834839 -1.0820318460464478 0.7681970000267029 85.0 13 -0.09613993763923645
1.3426718711853027 -0.38247010111808777 -0.07316567748785019 59.0 6 -0.096137635409832
3.8062784671783447 -1.0849652290344238 0.9137512445449829 94.0 14 -0.09613533318042755
4.121190547943115 -1.1747297048568726 -0.0748010128736496 4.0 7 -0.0961330235004425
3.799112319946289 -1.0836395025253296 1.0585699081420898 115.0 15 -0.09613072127103806
4.128951549530029 -1.183957815170288 0.07497553527355194 8.0 8 -0.09610768407583237
1.314955234527588 -0.3773057460784912 -0.3158313035964966 60.0 1 -0.09610538184642792
4.15806245803833 -1.1938761472702026 0.22671939432621002 11.0 9 -0.09610307216644287
1.2736694812774658 -0.3659406304359436 -0.2575921416282654 96.0 2 -0.09610076993703842
4.166656970977783 -1.197918176651001 0.3793017864227295 11.0 10 -0.09609846770763397
1.2662819623947144 -0.36405736207962036 -0.20868360996246338 93.0 3 -0.09609616547822952
4.174080848693848 -1.2008413076400757 0.5333003401756287 21.0 11 -0.09609385579824448
1.291458249092102 -0.3717837631702423 -0.16501110792160034 90.0 4 -0.09609155356884003
3.961517095565796 -1.1411864757537842 0.652957558631897 7.0 12 -0.09608925133943558
1.2999039888381958 -0.37470653653144836 -0.11835749447345734 91.0 5 -0.09608694911003113
3.8068437576293945 -1.0973496437072754 0.7701051831245422 79.0 13 -0.09608463943004608
1.3509912490844727 -0.3896881639957428 -0.0736890360713005 56.0 6 -0.09608233720064163
3.8138935565948486 -1.1008238792419434 0.9164506793022156 94.0 14 -0.09608003497123718
4.1151442527771 -1.1885533332824707 -0.0747661143541336 20.0 7 -0.09607773274183273
3.799018621444702 -1.0979671478271484 1.0596052408218384 115.0 15 -0.09607543051242828
4.12095308303833 -1.1972473859786987 0.07490573078393936 35.0 8 -0.096052385866642
1.2949174642562866 -0.37645336985588074 -0.3113322854042053 84.0 1 -0.09605008363723755
4.159623146057129 -1.2100567817687988 0.22703340649604797 40.0 9 -0.0960477814078331
1.2988404035568237 -0.3778396546840668 -0.2629348039627075 100.0 2 -0.09604547172784805
4.151183605194092 -1.2083876132965088 0.3782559037208557 31.0 10 -0.0960431694984436
1.2593135833740234 -0.36681798100471497 -0.2077450007200241 84.0 3 -0.09604086726903915
4.152711391448975 -1.2104049921035767 0.5311066508293152 24.0 11 -0.0960385650396347
1.2920583486557007 -0.3768453299999237 -0.1652548462152481 92.0 4 -0.09603625535964966
3.972679615020752 -1.1594352722167969 0.6554604768753052 7.0 12 -0.09603395313024521
1.310130000114441 -0.38236430287361145 -0.11940336972475052 87.0 5 -0.09603165090084076
3.7916829586029053 -1.10732901096344 0.7678154110908508 78.0 13 -0.09602934867143631
1.3381202220916748 -0.39104023575782776 -0.07306099683046341 56.0 6 -0.09602704644203186
3.8193795680999756 -1.116864562034607 0.9187001585960388 97.0 14 -0.09602473676204681
4.130162239074707 -1.2085264921188354 -0.0751151591539383 50.0 7 -0.09602243453264236
3.8062870502471924 -1.114478588104248 1.0627111196517944 115.0 15 -0.09602013230323792
4.11483097076416 -1.2110605239868164 0.07487082481384277 33.0 8 -0.09599708765745163
1.2898569107055664 -0.37987014651298523 -0.310432493686676 91.0 1 -0.09599478542804718
4.136216163635254 -1.2189236879348755 0.22598668932914734 31.0 9 -0.09599248319864273
1.3106958866119385 -0.38625597953796387 -0.2656061351299286 100.0 2 -0.09599018096923828
4.150762557983398 -1.223997712135315 0.37860456109046936 28.0 10 -0.09598787128925323
1.276971697807312 -0.37680214643478394 -0.21087367832660675 77.0 3 -0.09598556905984879
4.146557331085205 -1.2243311405181885 0.5308629274368286 28.0 11 -0.09598326683044434
1.283120036125183 -0.37910324335098267 -0.16427989304065704 92.0 4 -0.09598096460103989
3.9780802726745605 -1.1760956048965454 0.6570248603820801 8.0 12 -0.09597866237163544
1.316429853439331 -0.3891946077346802 -0.12010060995817184 81.0 5 -0.09597635269165039
3.7953248023986816 -1.1227855682373047 0.7693418860435486 78.0 13 -0.09597405046224594
1.3405773639678955 -0.3968425989151001 -0.07327035069465637 54.0 6 -0.09597174823284149
3.813589334487915 -1.1296366453170776 0.9182502627372742 94.0 14 -0.09596944600343704
4.116332530975342 -1.2200947999954224 -0.07494062930345535 35.0 7 -0.095967136323452
3.813485860824585 -1.131054162979126 1.065816879272461 117.0 15 -0.09596483409404755
4.10674524307251 -1.224273920059204 0.0748010128736496 35.0 8 -0.09594179689884186
1.2941251993179321 -0.38604140281677246 -0.31178218126296997 89.0 1 -0.09593948721885681
4.122366428375244 -1.2304977178573608 0.22546331584453583 35.0 9 -0.09593718498945236
1.2980523109436035 -0.38745957612991333 -0.26331642270088196 99.0 2 -0.09593488276004791
4.146464824676514 -1.2384791374206543 0.37860456109046936 28.0 10 -0.09593258053064346
1.2945750951766968 -0.38691386580467224 -0.21400237083435059 97.0 3 -0.09593027830123901
4.136552333831787 -1.2370915412902832 0.5301316976547241 29.0 11 -0.09592796862125397
1.2798871994018555 -0.38301077485084534 -0.16403615474700928 90.0 4 -0.09592566639184952
3.972058057785034 -1.1894079446792603 0.656711995601654 8.0 12 -0.09592336416244507
1.3149945735931396 -0.3940170109272003 -0.12010060995817184 75.0 5 -0.09592106193304062
3.812069892883301 -1.1422255039215088 0.7735397219657898 81.0 13 -0.09591875225305557
1.3372708559036255 -0.40094611048698425 -0.07316567748785019 51.0 6 -0.09591645002365112
3.8096230030059814 -1.1429414749145508 0.9182502627372742 94.0 14 -0.09591414779424667
4.102472305297852 -1.2315810918807983 -0.0747661143541336 39.0 7 -0.09591184556484222
3.816915512084961 -1.146582007408142 1.0678874254226685 117.0 15 -0.09590953588485718
4.10627555847168 -1.2397576570510864 0.07487082481384277 35.0 8 -0.09588649868965149
1.3039627075195312 -0.3939378559589386 -0.31448161602020264 68.0 1 -0.09588419646024704
4.114223003387451 -1.2437243461608887 0.22525398433208466 30.0 9 -0.09588189423084259
1.289106845855713 -0.38994088768959045 -0.2617899477481842 89.0 2 -0.09587958455085754
4.128549098968506 -1.2496280670166016 0.37738436460494995 30.0 10 -0.0958772823214531
1.3120540380477905 -0.39738214015960693 -0.21713104844093323 100.0 3 -0.09587498009204865
4.139808177947998 -1.2538248300552368 0.5311066508293152 29.0 11 -0.0958726778626442
1.2861415147781372 -0.38977906107902527 -0.16501110792160034 88.0 4 -0.09587036818265915
3.9565398693084717 -1.1998261213302612 0.6548347473144531 8.0 12 -0.0958680659532547
1.2888261079788208 -0.3910839259624481 -0.11783456802368164 72.0 5 -0.09586576372385025
3.8191287517547607 -1.1596119403839111 0.7758293747901917 83.0 13 -0.0958634614944458
1.3472583293914795 -0.4093283712863922 -0.07379370927810669 51.0 6 -0.09586115181446075
3.820323944091797 -1.1614314317703247 0.9218494296073914 100.0 14 -0.0958588495850563
4.092408657073975 -1.2441489696502686 -0.07466139644384384 41.0 7 -0.09585654735565186
3.80549693107605 -1.1576496362686157 1.065816879272461 115.0 15 -0.0958542451262474
4.082581520080566 -1.248949646949768 0.07452177256345749 33.0 8 -0.09583120048046112
1.2894662618637085 -0.394721657037735 -0.3113322854042053 59.0 1 -0.09582889825105667
4.117495536804199 -1.2604165077209473 0.2256726622581482 36.0 9 -0.09582659602165222
1.278351902961731 -0.39156341552734375 -0.2598818838596344 94.0 2 -0.09582429379224777
4.116541385650635 -1.2616961002349854 0.37668710947036743 30.0 10 -0.09582198411226273
1.3031047582626343 -0.3996428847312927 -0.21587958931922913 100.0 3 -0.09581968188285828
4.129491806030273 -1.267242431640625 0.5303754210472107 29.0 11 -0.09581737965345383
1.303680658340454 -0.4003174602985382 -0.167448490858078 93.0 4 -0.09581507742404938
3.950439214706421 -1.2130500078201294 0.6545218229293823 8.0 12 -0.09581276774406433
1.291262149810791 -0.39675071835517883 -0.1181831881403923 70.0 5 -0.09581046551465988
3.807551383972168 -1.1706284284591675 0.7743028998374939 85.0 13 -0.09580816328525543
1.3534572124481201 -0.4163777828216553 -0.07421239465475082 43.0 6 -0.09580586105585098
3.8236968517303467 -1.1770532131195068 0.9236491322517395 94.0 14 -0.09580355137586594
4.089951515197754 -1.2590148448944092 -0.07469630241394043 44.0 7 -0.09580124914646149
3.8051254749298096 -1.1720634698867798 1.0668522119522095 117.0 15 -0.09579894691705704
4.072686672210693 -1.260707139968872 0.07441706210374832 32.0 8 -0.09577590972185135
1.2713968753814697 -0.39380621910095215 -0.3072831630706787 67.0 1 -0.0957736000418663
4.113070964813232 -1.274781584739685 0.2256726622581482 36.0 9 -0.09577129781246185
1.284477949142456 -0.39834943413734436 -0.26140835881233215 97.0 2 -0.0957689955830574
4.117820739746094 -1.2778294086456299 0.37721002101898193 28.0 10 -0.09576669335365295
1.2923392057418823 -0.40103471279144287 -0.2143152505159378 100.0 3 -0.09576438367366791
4.115787506103516 -1.27798593044281 0.5291566848754883 31.0 11 -0.09576208144426346
1.3099287748336792 -0.40699437260627747 -0.16842344403266907 98.0 4 -0.09575977921485901
3.9593849182128906 -1.2309372425079346 0.656711995601654 8.0 12 -0.09575747698545456
1.293674111366272 -0.40243926644325256 -0.11853180080652237 74.0 5 -0.09575516730546951
3.809272527694702 -1.1849976778030396 0.7754477858543396 78.0 13 -0.09575286507606506
1.348254919052124 -0.4196764826774597 -0.07400304824113846 26.0 6 -0.09575056284666061
3.8309357166290283 -1.1932035684585571 0.9263484477996826 94.0 14 -0.09574826061725616
4.08935022354126 -1.274473786354065 -0.0747661143541336 44.0 7 -0.09574595838785172
3.8120765686035156 -1.1887896060943604 1.069957971572876 120.0 15 -0.09574364870786667
4.070169925689697 -1.275513768196106 0.07445196807384491 35.0 8 -0.09572061151266098
1.2607171535491943 -0.3953264653682709 -0.3050336539745331 75.0 1 -0.09571830928325653
4.093350410461426 -1.2843475341796875 0.22483527660369873 35.0 9 -0.09571599960327148
1.2794034481048584 -0.40143126249313354 -0.2606450915336609 97.0 2 -0.09571369737386703
4.109759330749512 -1.2902840375900269 0.37686142325401306 31.0 10 -0.09571139514446259
1.2890467643737793 -0.404951274394989 -0.21400237083435059 100.0 3 -0.09570909291505814
4.098045349121094 -1.2881780862808228 0.5274505615234375 35.0 11 -0.09570678323507309
1.300925612449646 -0.4091819226741791 -0.167448490858078 95.0 4 -0.09570448100566864
3.949411392211914 -1.2429715394973755 0.655773401260376 8.0 12 -0.09570217877626419
1.3037354946136475 -0.4103158414363861 -0.11957767605781555 70.0 5 -0.09569987654685974
3.8088583946228027 -1.1994668245315552 0.7762110829353333 78.0 13 -0.09569757431745529
4.055584907531738 -1.2779427766799927 -0.22284653782844543 33.0 6 -0.09569526463747025
3.821171760559082 -1.2048108577728271 0.9249987602233887 97.0 14 -0.0956929624080658
4.084876537322998 -1.288740634918213 -0.0747661143541336 42.0 7 -0.09569066017866135
3.822641134262085 -1.206741452217102 1.074099063873291 120.0 15 -0.0956883579492569
4.067598342895508 -1.290318250656128 0.0744868665933609 32.0 8 -0.09566531330347061
1.261186957359314 -0.4003143012523651 -0.30548354983329773 69.0 1 -0.09566301107406616
4.077421188354492 -1.2950007915496826 0.22420726716518402 35.0 9 -0.09566070884466171
1.2667675018310547 -0.40232908725738525 -0.25835540890693665 97.0 2 -0.09565840661525726
4.105230331420898 -1.304621934890747 0.37686142325401306 31.0 10 -0.09565609693527222
1.2913904190063477 -0.41064566373825073 -0.21462811529636383 100.0 3 -0.09565379470586777
4.099198818206787 -1.3042807579040527 0.528181791305542 33.0 11 -0.09565149247646332
1.29192316532135 -0.41131168603897095 -0.16647353768348694 90.0 4 -0.09564919024705887
3.9450485706329346 -1.2567499876022339 0.655773401260376 8.0 12 -0.09564688056707382
1.313685655593872 -0.41849279403686523 -0.12062354385852814 63.0 5 -0.09564457833766937
3.8196122646331787 -1.2175248861312866 0.779263973236084 79.0 13 -0.09564227610826492
4.0625152587890625 -1.2957329750061035 -0.22347454726696014 53.0 6 -0.09563997387886047
3.824368953704834 -1.2205116748809814 0.9267984628677368 91.0 14 -0.09563766419887543
4.070828437805176 -1.2999498844146729 -0.07459158450365067 46.0 7 -0.09563536196947098
3.8257665634155273 -1.2224295139312744 1.0761696100234985 117.0 15 -0.09563305974006653
4.063069820404053 -1.304508924484253 0.0744868665933609 30.0 8 -0.09561002254486084
1.2616372108459473 -0.4053103029727936 -0.3059334456920624 51.0 1 -0.0956077128648758
4.075005531311035 -1.3091256618499756 0.2243119329214096 38.0 9 -0.09560541063547134
1.2597482204437256 -0.4049459993839264 -0.25721052289009094 89.0 2 -0.0956031084060669
4.09685754776001 -1.3177237510681152 0.3765127956867218 31.0 10 -0.09560080617666245
1.2937098741531372 -0.4163613021373749 -0.21525384485721588 92.0 3 -0.0955984964966774
4.0908427238464355 -1.3173649311065674 0.5276943445205688 31.0 11 -0.09559619426727295
1.2904794216156006 -0.4158187806606293 -0.16647353768348694 84.0 4 -0.0955938920378685
3.9333384037017822 -1.2674018144607544 0.6545218229293823 8.0 12 -0.09559158980846405
1.312216877937317 -0.4230758249759674 -0.12062354385852814 63.0 5 -0.095589280128479
3.826549768447876 -1.2344670295715332 0.7815536856651306 78.0 13 -0.09558697789907455
4.048464775085449 -1.3068381547927856 -0.22295120358467102 55.0 6 -0.0955846756696701
3.831211805343628 -1.237447738647461 0.9294977784156799 97.0 14 -0.09558237344026566
4.056981086730957 -1.3103691339492798 -0.07441706210374832 42.0 7 -0.09558006376028061
3.8216919898986816 -1.2351094484329224 1.0761696100234985 117.0 15 -0.09557776153087616
4.047309875488281 -1.314269781112671 0.07427743822336197 31.0 8 -0.09555472433567047
1.2528729438781738 -0.40708306431770325 -0.3041338622570038 49.0 1 -0.09555242210626602
4.072310447692871 -1.3239597082138062 0.2244165986776352 36.0 9 -0.09555011242628098
1.2657948732376099 -0.4117702543735504 -0.2587369978427887 83.0 2 -0.09554781019687653
4.080865859985352 -1.328316330909729 0.375466912984848 31.0 10 -0.09554550796747208
1.290443778038025 -0.42003771662712097 -0.21494098007678986 93.0 3 -0.09554320573806763
4.092113971710205 -1.3327674865722656 0.5284255743026733 28.0 11 -0.09554089605808258
1.3004179000854492 -0.42378634214401245 -0.16793596744537354 69.0 4 -0.09553859382867813
3.9326465129852295 -1.2823489904403687 0.6551476120948792 8.0 12 -0.09553629159927368
1.316414475440979 -0.4295077919960022 -0.12114648520946503 49.0 5 -0.09553398936986923
3.8112363815307617 -1.2434957027435303 0.779263973236084 82.0 13 -0.09553167968988419
4.044108867645264 -1.320256233215332 -0.22295120358467102 50.0 6 -0.09552937746047974
3.8400540351867676 -1.2543814182281494 0.932647168636322 94.0 14 -0.09552707523107529
4.054283142089844 -1.3251439332962036 -0.07445196807384491 46.0 7 -0.09552477300167084
3.817357301712036 -1.2484420537948608 1.0761696100234985 117.0 15 -0.09552246332168579
4.036998271942139 -1.32651686668396 0.0741727277636528 28.0 8 -0.0954994261264801
1.2440391778945923 -0.40901926159858704 -0.3023342490196228 60.0 1 -0.09549712389707565
4.06576681137085 -1.3375424146652222 0.2243119329214096 33.0 9 -0.0954948216676712
1.25509774684906 -0.41289788484573364 -0.2568289339542389 80.0 2 -0.09549251198768616
4.074545860290527 -1.3412187099456787 0.3752926290035248 34.0 10 -0.09549020975828171
1.2758359909057617 -0.4202139377593994 -0.2127508968114853 90.0 3 -0.09548790752887726
4.0742387771606445 -1.3426941633224487 0.526719331741333 31.0 11 -0.09548560529947281
1.3102421760559082 -0.4320530891418457 -0.16939841210842133 63.0 4 -0.09548329561948776
3.9394021034240723 -1.2997822761535645 0.6570248603820801 8.0 12 -0.09548099339008331
1.330119252204895 -0.43886497616767883 -0.12254096567630768 21.0 5 -0.09547869116067886
3.8199222087860107 -1.2611000537872314 0.7819352746009827 90.0 13 -0.09547638893127441
4.024303913116455 -1.3293530941009521 -0.22211383283138275 55.0 6 -0.09547407925128937
3.839352607727051 -1.2690008878707886 0.9335469007492065 94.0 14 -0.09547177702188492
4.043936729431152 -1.3374041318893433 -0.07434725016355515 42.0 7 -0.09546947479248047
3.8239803314208984 -1.2654008865356445 1.0792754888534546 117.0 15 -0.09546717256307602
4.030445575714111 -1.339969515800476 0.07413782179355621 29.0 8 -0.09544412791728973
1.2315092086791992 -0.40966856479644775 -0.29963481426239014 57.0 1 -0.09544182568788528
4.0478081703186035 -1.34731125831604 0.22357922792434692 35.0 9 -0.09543952345848083
1.261099934577942 -0.41975659132003784 -0.25835540890693665 96.0 2 -0.09543722122907639
4.067949295043945 -1.3548040390014648 0.37511831521987915 31.0 10 -0.09543491154909134
1.2818576097488403 -0.42716288566589355 -0.21400237083435059 97.0 3 -0.09543260931968689
4.056345462799072 -1.3525124788284302 0.5250131487846375 26.0 11 -0.09543030709028244
1.3049598932266235 -0.43536752462387085 -0.1689109206199646 66.0 4 -0.09542800486087799
3.923598289489746 -1.309772253036499 0.6551476120948792 8.0 12 -0.09542569518089294
4.0121965408325195 -1.3393480777740479 -0.37006327509880066 33.0 5 -0.0954233929514885
3.8154969215393066 -1.2744263410568237 0.7819352746009827 86.0 13 -0.09542109072208405
4.012062072753906 -1.3408600091934204 -0.22169512510299683 45.0 6 -0.0954187884926796
3.836747646331787 -1.2830132246017456 0.9339969158172607 91.0 14 -0.09541648626327515
4.0354509353637695 -1.3502429723739624 -0.07427743822336197 39.0 7 -0.0954141765832901
3.830531120300293 -1.2824212312698364 1.082381248474121 117.0 15 -0.09541187435388565
4.027638912200928 -1.3546677827835083 0.0741727277636528 28.0 8 -0.09538883715867996
1.2430003881454468 -0.4183158576488495 -0.30278414487838745 45.0 1 -0.09538652747869492
4.037402153015137 -1.3595203161239624 0.22326521575450897 25.0 9 -0.09538422524929047
1.2521846294403076 -0.4216499626636505 -0.2568289339542389 77.0 2 -0.09538192301988602
4.066971302032471 -1.370267629623413 0.375466912984848 28.0 10 -0.09537962079048157
1.285974383354187 -0.4335279166698456 -0.21494098007678986 93.0 3 -0.09537731111049652
4.057242393493652 -1.3685667514801025 0.5257443785667419 21.0 11 -0.09537500888109207
1.3034322261810303 -0.439920037984848 -0.1689109206199646 68.0 4 -0.09537270665168762
3.909644842147827 -1.3203002214431763 0.6535832285881042 10.0 12 -0.09537040442228317
3.9997105598449707 -1.35149347782135 -0.3693660497665405 34.0 5 -0.09536810219287872
3.8259050846099854 -1.2927650213241577 0.784988284111023 83.0 13 -0.09536579251289368
4.009249210357666 -1.3554964065551758 -0.2217998206615448 34.0 6 -0.09536349028348923
3.8322458267211914 -1.2963981628417969 0.9339969158172607 91.0 14 -0.09536118805408478
4.0117716789245605 -1.3579096794128418 -0.07392839342355728 30.0 7 -0.09535888582468033
3.837010145187378 -1.2995027303695679 1.0854871273040771 117.0 15 -0.09535657614469528
4.049389839172363 -1.3777360916137695 0.07466139644384384 11.0 8 -0.0953335389494896
1.2507565021514893 -0.42579221725463867 -0.3050336539745331 43.0 1 -0.09533123672008514
1.2506307363510132 -0.426236629486084 -0.2568289339542389 57.0 2 -0.09532662481069565
4.090208530426025 -1.3948109149932861 0.37808161973953247 8.0 10 -0.0953243225812912
1.282507300376892 -0.43760043382644653 -0.21462811529636383 77.0 3 -0.09532202035188675
4.140741348266602 -1.4128497838974 0.5372000932693481 1.0 11 -0.0953197181224823
1.3037673234939575 -0.4451085925102234 -0.16915465891361237 57.0 4 -0.09531740844249725
3.882580518722534 -1.3262766599655151 0.6498288512229919 10.0 12 -0.0953151062130928
4.025132656097412 -1.3757567405700684 -0.37215498089790344 9.0 5 -0.09531280398368835
3.839717388153076 -1.3131316900253296 0.7888044714927673 81.0 13 -0.0953105017542839
3.8385305404663086 -1.314222812652588 0.9366962313652039 85.0 14 -0.09530588984489441
4.056196212768555 -1.3887465000152588 -0.07483591884374619 5.0 7 -0.09530358761548996
3.8287956714630127 -1.3116364479064941 1.0844517946243286 117.0 15 -0.09530128538608551
4.076455593109131 -1.4036362171173096 0.07525477558374405 6.0 8 -0.09527824074029922
1.2565573453903198 -0.4329127073287964 -0.30683326721191406 42.0 1 -0.09527593851089478
4.112540245056152 -1.417667031288147 0.22797545790672302 12.0 9 -0.09527363628149033
1.2676960229873657 -0.43699780106544495 -0.2606450915336609 57.0 2 -0.09527133405208588
4.104149341583252 -1.4155761003494263 0.3798247277736664 1.0 10 -0.09526902437210083
1.284706473350525 -0.44336339831352234 -0.21525384485721588 54.0 3 -0.09526672214269638
4.13928747177124 -1.4293125867843628 0.5376875996589661 8.0 11 -0.09526441991329193
1.3321473598480225 -0.46025609970092773 -0.17305448651313782 12.0 4 -0.09526211768388748
3.8795602321624756 -1.3411437273025513 0.650141716003418 10.0 12 -0.09525980800390244
4.053956508636475 -1.4022237062454224 -0.3752926290035248 15.0 5 -0.09525750577449799
3.8276889324188232 -1.3239599466323853 0.7872779965400696 83.0 13 -0.09525520354509354
4.090043544769287 -1.415505051612854 -0.22682404518127441 23.0 6 -0.09525290131568909
3.844968557357788 -1.331439733505249 0.9393956661224365 85.0 14 -0.09525059163570404
4.090758800506592 -1.4173517227172852 -0.07556892186403275 28.0 7 -0.09524828940629959
3.831263780593872 -1.328191876411438 1.0865224599838257 117.0 15 -0.09524598717689514
4.084750175476074 -1.4224604368209839 0.07549910992383957 3.0 8 -0.09522294998168945
1.249517798423767 -0.4353726804256439 -0.30548354983329773 35.0 1 -0.0952206403017044
4.101909160614014 -1.4300413131713867 0.22766144573688507 1.0 9 -0.09521833807229996
1.273500680923462 -0.4442276656627655 -0.26217156648635864 73.0 2 -0.09521603584289551
4.1064581871032715 -1.4332351684570312 0.3805219531059265 1.0 10 -0.09521373361349106
1.3017221689224243 -0.4545817971229553 -0.21838253736495972 45.0 3 -0.09521142393350601
1.3380286693572998 -0.4675225615501404 -0.17402943968772888 0.0 4 -0.09520681947469711
3.8879079818725586 -1.3592411279678345 0.6523317694664001 10.0 12 -0.09520451724529266
3.8228108882904053 -1.3379802703857422 0.7872779965400696 85.0 13 -0.09519990533590317
3.8492581844329834 -1.348745346069336 0.9416452050209045 88.0 14 -0.09519530087709427
3.8302500247955322 -1.342835545539856 1.0875576734542847 115.0 15 -0.09519068896770477
4.067056655883789 -1.4306410551071167 0.07525477558374405 1.0 8 -0.09295853227376938
1.2481439113616943 -0.4392959475517273 -0.30548354983329773 28.0 1 -0.09295623004436493
4.059718608856201 -1.4296526908874512 0.2255680114030838 2.0 9 -0.09295392036437988
1.2832876443862915 -0.4519169330596924 -0.2644612789154053 73.0 2 -0.09295161813497543
4.083395957946777 -1.4387917518615723 0.3787788450717926 1.0 10 -0.09294931590557098
1.3078196048736572 -0.4610691964626312 -0.219634011387825 19.0 3 -0.09294701367616653
4.088531970977783 -1.4422061443328857 0.5323253273963928 1.0 11 -0.09294470399618149
4.050841808319092 -1.4297059774398804 -0.5274505615234375 1.0 4 -0.09294240176677704
3.894794464111328 -1.3753950595855713 0.6542090177536011 10.0 12 -0.09294009953737259
4.048574447631836 -1.4297003746032715 -0.37564125657081604 1.0 5 -0.09293779730796814
3.826228141784668 -1.3519330024719238 0.7888044714927673 83.0 13 -0.0929354876279831
4.003360271453857 -1.4153056144714355 -0.2225325107574463 2.0 6 -0.09293318539857864
3.847076892852783 -1.3608102798461914 0.9420951008796692 85.0 14 -0.0929308831691742
4.034140586853027 -1.427771806716919 -0.07469630241394043 2.0 7 -0.09292858093976974
3.840581178665161 -1.3600211143493652 1.0916988849639893 115.0 15 -0.0929262712597847
4.013051986694336 -1.4274053573608398 0.07434725016355515 12.0 8 -0.09290323406457901
1.2539465427398682 -0.44626370072364807 -0.3072831630706787 19.0 1 -0.09290093183517456
4.030243396759033 -1.4351050853729248 0.22420726716518402 9.0 9 -0.09289862960577011
1.278003454208374 -0.45507657527923584 -0.2636980414390564 55.0 2 -0.09289631992578506
4.050196170806885 -1.4430063962936401 0.37616416811943054 12.0 10 -0.09289401769638062
3.9707062244415283 -1.4154666662216187 -0.6676623821258545 9.0 3 -0.09289171546697617
4.04981803894043 -1.444465160369873 0.5279380679130554 8.0 11 -0.09288941323757172
3.9878690242767334 -1.4231539964675903 -0.5198946595191956 13.0 4 -0.09288710355758667
3.88624906539917 -1.3876537084579468 0.6535832285881042 11.0 12 -0.09288480132818222
3.998526096343994 -1.4277441501617432 -0.3714577555656433 22.0 5 -0.09288249909877777
3.832578659057617 -1.3692439794540405 0.791094183921814 81.0 13 -0.09288019686937332
4.005918502807617 -1.4319605827331543 -0.22295120358467102 19.0 6 -0.09287788718938828
3.8386332988739014 -1.3729181289672852 0.9411952495574951 85.0 14 -0.09287558495998383
3.9971253871917725 -1.4303909540176392 -0.07410292327404022 15.0 7 -0.09287328273057938
3.857635498046875 -1.3812333345413208 1.0979104042053223 111.0 15 -0.09287098050117493
3.972292900085449 -1.4285472631454468 0.07368405908346176 18.0 8 -0.09284793585538864
1.2578822374343872 -0.4526174068450928 -0.30863288044929504 12.0 1 -0.09284563362598419
4.006417751312256 -1.4423991441726685 0.2231605499982834 27.0 9 -0.09284333139657974
1.2782542705535889 -0.46019983291625977 -0.26407966017723083 42.0 2 -0.09284102916717529
4.005770206451416 -1.4429558515548706 0.3725036382675171 27.0 10 -0.09283871948719025
3.9248569011688232 -1.4145832061767578 -0.6607792377471924 12.0 3 -0.0928364172577858
4.018608093261719 -1.4491652250289917 0.5245257019996643 17.0 11 -0.09283411502838135
3.9343278408050537 -1.419548749923706 -0.5135574340820312 45.0 4 -0.0928318127989769
3.8813815116882324 -1.4012107849121094 0.6535832285881042 11.0 12 -0.09282950311899185
3.9485416412353516 -1.425456166267395 -0.36727428436279297 48.0 5 -0.0928272008895874
3.849933385848999 -1.3906172513961792 0.7956735491752625 83.0 13 -0.09282489866018295
3.983990430831909 -1.4398252964019775 -0.22200913727283478 50.0 6 -0.0928225964307785
3.8411481380462646 -1.3889598846435547 0.9429949522018433 85.0 14 -0.09282029420137405
3.975184202194214 -1.4382117986679077 -0.07378877699375153 44.0 7 -0.09281798452138901
3.845524787902832 -1.39206063747406 1.0958398580551147 111.0 15 -0.09281568229198456
3.956005573272705 -1.4383045434951782 0.07347463071346283 24.0 8 -0.09279264509677887
1.265451192855835 -0.46033647656440735 -0.3108823895454407 9.0 1 -0.09279033541679382
3.9750826358795166 -1.4468116760253906 0.22169512510299683 30.0 9 -0.09278803318738937
1.2858643531799316 -0.4680163264274597 -0.265987753868103 17.0 2 -0.09278573095798492
3.9876043796539307 -1.4521576166152954 0.37128347158432007 31.0 10 -0.09278342872858047
3.9254631996154785 -1.430303692817688 -0.6617178320884705 33.0 3 -0.09278111904859543
4.00046968460083 -1.45842444896698 0.5228195786476135 35.0 11 -0.09277881681919098
3.9330790042877197 -1.4346339702606201 -0.5140449404716492 30.0 4 -0.09277651458978653
3.8820338249206543 -1.4167824983596802 0.6545218229293823 13.0 12 -0.09277421236038208
3.9416706562042236 -1.4385473728179932 -0.3671000003814697 33.0 5 -0.09277191013097763
3.8358356952667236 -1.400680661201477 0.7937654852867126 78.0 13 -0.09276960045099258
3.9564287662506104 -1.4454987049102783 -0.22075310349464417 38.0 6 -0.09276729822158813
3.8509185314178467 -1.4077121019363403 0.9465941190719604 85.0 14 -0.09276499599218369
3.9476027488708496 -1.4438363313674927 -0.07336991280317307 37.0 7 -0.09276269376277924
3.844270706176758 -1.4068032503128052 1.0968751907348633 113.0 15 -0.09276038408279419
3.9246838092803955 -1.442447304725647 0.07298596203327179 26.0 8 -0.0927373468875885
1.267494559288025 -0.46609604358673096 -0.31178218126296997 7.0 1 -0.09273504465818405
3.9568870067596436 -1.4558509588241577 0.22096242010593414 26.0 9 -0.092732734978199
3.883991241455078 -1.4290305376052856 -0.8044507503509521 28.0 2 -0.09273043274879456
3.9563355445861816 -1.4564318656921387 0.36884310841560364 31.0 10 -0.0927281305193901
3.9111785888671875 -1.4405837059020996 -0.6601535081863403 39.0 3 -0.09272582828998566
3.94878888130188 -1.4552192687988281 0.5167260766029358 35.0 11 -0.09272352606058121
3.9168717861175537 -1.444233775138855 -0.512582540512085 30.0 4 -0.09272121638059616
3.897451162338257 -1.4378455877304077 0.6579634547233582 16.0 12 -0.09271891415119171
3.9104557037353516 -1.442643165588379 -0.3646596074104309 30.0 5 -0.09271661192178726
3.8401312828063965 -1.4174607992172241 0.7956735491752625 85.0 13 -0.09271430969238281
3.9176342487335205 -1.446845293045044 -0.21886898577213287 34.0 6 -0.09271200001239777
3.8606045246124268 -1.4265491962432861 0.9501932859420776 91.0 14 -0.09270969778299332
3.921907424926758 -1.449979305267334 -0.07298596203327179 33.0 7 -0.09270739555358887
3.8502070903778076 -1.4242347478866577 1.0999809503555298 108.0 15 -0.09270509332418442
3.9046289920806885 -1.4505671262741089 0.07270672917366028 29.0 8 -0.09268204867839813
1.2676864862442017 -0.47119656205177307 -0.3122320771217346 2.0 1 -0.09267974644899368
3.9124693870544434 -1.4550343751907349 0.2187643200159073 28.0 9 -0.09267744421958923
3.8624181747436523 -1.4364204406738281 -0.8010162711143494 31.0 2 -0.09267514199018478
3.928819179534912 -1.46189546585083 0.3667513430118561 28.0 10 -0.09267283231019974
3.8709523677825928 -1.4411325454711914 -0.6542090177536011 31.0 3 -0.09267053008079529
3.9213621616363525 -1.4606791734695435 0.5138011574745178 35.0 11 -0.09266822785139084
3.8746049404144287 -1.4440325498580933 -0.5077077746391296 31.0 4 -0.09266592562198639
3.9035136699676514 -1.455582618713379 0.6598407030105591 26.0 12 -0.09266361594200134
3.881126880645752 -1.4472347497940063 -0.3623935580253601 31.0 5 -0.0926613137125969
3.842517614364624 -1.4336014986038208 0.7971999645233154 83.0 13 -0.09265901148319244
3.886364221572876 -1.4507331848144531 -0.2174035906791687 37.0 6 -0.092656709253788
3.8519506454467773 -1.4386529922485352 0.9492935538291931 91.0 14 -0.09265439957380295
3.894343852996826 -1.4552608728408813 -0.07256710529327393 34.0 7 -0.0926520973443985
3.8524510860443115 -1.440372347831726 1.1020516157150269 111.0 15 -0.09264979511499405
3.8733322620391846 -1.454347014427185 0.07221805304288864 27.0 8 -0.09262675791978836
1.3390042781829834 -0.5030319094657898 -0.33022817969322205 0.0 1 -0.09262444823980331
3.883317232131958 -1.458869457244873 0.2174035906791687 31.0 9 -0.09262214601039886
3.818788528442383 -1.4353883266448975 -0.793002188205719 34.0 2 -0.09261984378099442
3.8975846767425537 -1.4657820463180542 0.36431100964546204 31.0 10 -0.09261754155158997
3.843712568283081 -1.446287989616394 -0.650454580783844 33.0 3 -0.09261523187160492
3.890230655670166 -1.4645665884017944 0.5103888511657715 39.0 11 -0.09261292964220047
3.836101770401001 -1.444953203201294 -0.5033203959465027 31.0 4 -0.09261062741279602
3.8727846145629883 -1.458770513534546 0.6554604768753052 35.0 12 -0.09260832518339157
3.857408046722412 -1.453747272491455 -0.3606504499912262 34.0 5 -0.09260601550340652
3.8374900817871094 -1.4470058679580688 0.7971999645233154 75.0 13 -0.09260371327400208
3.8551149368286133 -1.4544202089309692 -0.21593818068504333 38.0 6 -0.09260141104459763
3.843258857727051 -1.4507136344909668 0.948393702507019 85.0 14 -0.09259910881519318
3.8558218479156494 -1.4554557800292969 -0.07193882018327713 35.0 7 -0.09259679913520813
3.8584961891174316 -1.457234501838684 1.1051572561264038 115.0 15 -0.09259449690580368
3.8497910499572754 -1.460092306137085 0.07186900824308395 27.0 8 -0.09257145971059799
3.846458911895752 -1.4603644609451294 0.21562416851520538 28.0 9 -0.0925668478012085
3.7825546264648438 -1.4368577003479004 -0.7865146994590759 33.0 2 -0.09256454557180405
3.8645076751708984 -1.46876060962677 0.3616963028907776 33.0 10 -0.0925622433423996
3.8222768306732178 -1.4527102708816528 -0.6476387977600098 33.0 3 -0.09255994111299515
3.866797685623169 -1.4704033136367798 0.5079514980316162 39.0 11 -0.0925576314330101
3.816446542739868 -1.452019214630127 -0.5013705492019653 31.0 4 -0.09255532920360565
3.845515251159668 -1.4638471603393555 0.6517060995101929 45.0 12 -0.0925530269742012
3.8169336318969727 -1.4537299871444702 -0.357338547706604 35.0 5 -0.09255072474479675
3.84734845161438 -1.4653139114379883 0.8002529740333557 74.0 13 -0.0925484150648117
3.8316073417663574 -1.4600841999053955 -0.2148914635181427 38.0 6 -0.09254611283540726
3.851172924041748 -1.468309760093689 0.9515429735183716 88.0 14 -0.09254381060600281
3.8264288902282715 -1.4596408605575562 -0.07148505747318268 39.0 7 -0.09254150837659836
3.853386163711548 -1.4706944227218628 1.1051572561264038 108.0 15 -0.09253920614719391
3.7998569011688232 -1.456346035003662 0.07103129476308823 26.0 8 -0.09251616150140762
3.822946071624756 -1.4659607410430908 0.21457745134830475 30.0 9 -0.09251155704259872
3.768604040145874 -1.4458768367767334 -0.7846065759658813 34.0 2 -0.09250924736261368
3.829854726791382 -1.470143437385559 0.3589073419570923 34.0 10 -0.09250694513320923
3.780302047729492 -1.4518790245056152 -0.6413814425468445 35.0 3 -0.09250464290380478
3.8356997966766357 -1.473923683166504 0.5045391321182251 42.0 11 -0.09250234067440033
3.785414457321167 -1.4553589820861816 -0.49795815348625183 31.0 4 -0.09250003099441528
3.831421136856079 -1.473046898841858 0.650141716003418 57.0 12 -0.09249772876501083
3.786057472229004 -1.4563647508621216 -0.3548981547355652 35.0 5 -0.09249542653560638
3.838545560836792 -1.47732412815094 0.7994896769523621 74.0 13 -0.09249312430620193
3.8097126483917236 -1.4669908285140991 -0.21394941210746765 39.0 6 -0.09249082207679749
3.8569347858428955 -1.485947608947754 0.9542424082756042 88.0 14 -0.09248851239681244
3.795443534851074 -1.4622571468353271 -0.07099638879299164 37.0 7 -0.09248621016740799
3.8484878540039062 -1.4834645986557007 1.1051572561264038 111.0 15 -0.09248390793800354
3.7707631587982178 -1.45955491065979 0.07057753205299377 37.0 8 -0.09246086329221725
3.8159432411193848 -1.4785746335983276 0.21447275578975677 55.0 9 -0.09245625883340836
3.743398666381836 -1.4512170553207397 -0.7804087996482849 38.0 2 -0.0924539566040039
3.8209848403930664 -1.4820622205734253 0.3585587441921234 60.0 10 -0.09245164692401886
3.7478408813476562 -1.4536914825439453 -0.6366883516311646 39.0 3 -0.09244934469461441
3.804882049560547 -1.4765805006027222 0.501126766204834 78.0 11 -0.09244704246520996
3.75836181640625 -1.4592819213867188 -0.495033323764801 39.0 4 -0.09244474023580551
3.828096866607666 -1.487127423286438 0.650454580783844 67.0 12 -0.09244243800640106
3.760523557662964 -1.4616321325302124 -0.35298076272010803 41.0 5 -0.09244012832641602
3.833625316619873 -1.4900450706481934 0.7994896769523621 74.0 13 -0.09243782609701157
3.7899348735809326 -1.4738250970840454 -0.2131120264530182 72.0 6 -0.09243552386760712
3.8683314323425293 -1.5050891637802124 0.9582915902137756 91.0 14 -0.09243322163820267
3.790316343307495 -1.4754966497421265 -0.07099638879299164 67.0 7 -0.09243091195821762
3.8540871143341064 -1.5010961294174194 1.1082631349563599 111.0 15 -0.09242860972881317
3.7656452655792236 -1.4727084636688232 0.07057753205299377 53.0 8 -0.09240557253360748
3.7847211360931396 -1.4816921949386597 0.2130073606967926 55.0 9 -0.09240096062421799
3.7275962829589844 -1.4593281745910645 -0.7781190872192383 66.0 2 -0.09239865839481354
3.8197591304779053 -1.496178150177002 0.3589073419570923 67.0 10 -0.09239635616540909
3.7445828914642334 -1.467486023902893 -0.6370012164115906 74.0 3 -0.09239405393600464
3.7923121452331543 -1.4869545698165894 0.5001518130302429 74.0 11 -0.09239174425601959
3.7366135120391846 -1.4658676385879517 -0.49283966422080994 66.0 4 -0.09238944202661514
3.8192050457000732 -1.499037504196167 0.6498288512229919 67.0 12 -0.0923871397972107
3.7649292945861816 -1.4777343273162842 -0.3538523316383362 70.0 5 -0.09238483756780624
3.839365005493164 -1.5077234506607056 0.8017794489860535 74.0 13 -0.0923825278878212
3.760601043701172 -1.4775503873825073 -0.2117512971162796 79.0 6 -0.09238022565841675
3.855799674987793 -1.5157310962677002 0.9564919471740723 91.0 14 -0.0923779234290123
3.7870032787323 -1.489450216293335 -0.07103129476308823 81.0 7 -0.09237562119960785
3.859609842300415 -1.518784523010254 1.111369013786316 113.0 15 -0.0923733115196228
3.7567622661590576 -1.4843742847442627 0.0705077201128006 54.0 8 -0.09235027432441711
3.7795262336730957 -1.4948943853378296 0.2130073606967926 52.0 9 -0.09234566986560822
3.715177297592163 -1.4694428443908691 -0.7765926718711853 75.0 2 -0.09234336018562317
3.8015453815460205 -1.5043708086013794 0.3576871454715729 66.0 10 -0.09234105795621872
3.732090950012207 -1.4776393175125122 -0.6357497572898865 81.0 3 -0.09233875572681427
3.790789842605591 -1.5016450881958008 0.5006393194198608 73.0 11 -0.09233645349740982
3.714864492416382 -1.4723190069198608 -0.49064600467681885 57.0 4 -0.09233414381742477
3.8139491081237793 -1.5123597383499146 0.6498288512229919 67.0 12 -0.09233184158802032
3.748635768890381 -1.4864606857299805 -0.3528064489364624 68.0 5 -0.09232953935861588
3.8450279235839844 -1.5254602432250977 0.8040691614151001 75.0 13 -0.09232723712921143
3.755420446395874 -1.4906684160232544 -0.2117512971162796 70.0 6 -0.09232492744922638
3.850485324859619 -1.5291812419891357 0.9564919471740723 85.0 14 -0.09232262521982193
3.7557640075683594 -1.4923224449157715 -0.07054262608289719 63.0 7 -0.09232032299041748
3.8686466217041016 -1.5379574298858643 1.1155102252960205 115.0 15 -0.09231802076101303
3.7627010345458984 -1.5019268989562988 0.07071714848279953 52.0 8 -0.09229497611522675
3.785677194595337 -1.511864185333252 0.2136353999376297 53.0 9 -0.09229037165641785
3.7009098529815674 -1.478760004043579 -0.7746846079826355 70.0 2 -0.0922880694270134
3.799971103668213 -1.5191106796264648 0.3580358028411865 67.0 10 -0.09228575974702835
3.7232420444488525 -1.4891904592514038 -0.6351240277290344 68.0 3 -0.0922834575176239
3.8002688884735107 -1.5207685232162476 0.502589225769043 73.0 11 -0.09228115528821945
3.7281312942504883 -1.4926557540893555 -0.4930833876132965 59.0 4 -0.092278853058815
3.8107471466064453 -1.525733232498169 0.650141716003418 65.0 12 -0.09227654337882996
3.739725112915039 -1.498055100440979 -0.35245782136917114 64.0 5 -0.0922742411494255
3.850614309310913 -1.5432549715042114 0.8063588738441467 75.0 13 -0.09227193892002106
3.766878604888916 -1.5104584693908691 -0.21269334852695465 75.0 6 -0.09226963669061661
3.8541665077209473 -1.546240210533142 0.9587414264678955 82.0 14 -0.09226732701063156
3.7674977779388428 -1.511469841003418 -0.07085677236318588 70.0 7 -0.09226502478122711
3.863525629043579 -1.5507779121398926 1.1155102252960205 113.0 15 -0.09226272255182266
3.7614095211029053 -1.515891194343567 0.0707869604229927 52.0 8 -0.09223968535661697
3.798898696899414 -1.5325413942337036 0.21468211710453033 55.0 9 -0.09223507344722748
3.7084693908691406 -1.4968132972717285 -0.7773559093475342 72.0 2 -0.09223277121782303
3.790950298309326 -1.5308736562728882 0.3576871454715729 66.0 10 -0.09223046898841858
3.714620351791382 -1.5000498294830322 -0.6344982981681824 68.0 3 -0.09222815930843353
3.81177020072937 -1.5400551557540894 0.5047828555107117 78.0 11 -0.09222585707902908
3.730522871017456 -1.5079864263534546 -0.49405837059020996 57.0 4 -0.09222355484962463
3.8438549041748047 -1.554579257965088 0.656711995601654 90.0 12 -0.09222125262022018
3.7344729900360107 -1.5111000537872314 -0.35245782136917114 64.0 5 -0.09221894294023514
3.8491146564483643 -1.5574880838394165 0.8071220517158508 74.0 13 -0.09221664071083069
3.769254207611084 -1.5259393453598022 -0.2131120264530182 77.0 6 -0.09221433848142624
3.867079734802246 -1.566328525543213 0.9632404446601868 82.0 14 -0.09221203625202179
3.767758369445801 -1.526864767074585 -0.07096148282289505 68.0 7 -0.09220973402261734
3.8652496337890625 -1.5671579837799072 1.117580771446228 108.0 15 -0.0922074243426323
3.778320789337158 -1.5380592346191406 0.07120582461357117 67.0 8 -0.0921843871474266
3.824969530105591 -1.558605432510376 0.21646153926849365 73.0 9 -0.09217977523803711
3.719583511352539 -1.5164196491241455 -0.780790388584137 75.0 2 -0.09217747300863266
3.830132007598877 -1.5614885091781616 0.3618706464767456 82.0 10 -0.09217517077922821
3.727651834487915 -1.5204675197601318 -0.6376269459724426 78.0 3 -0.09217286854982376
3.837615728378296 -1.5661017894744873 0.5089263916015625 97.0 11 -0.09217055886983871
3.773019552230835 -1.5405089855194092 -0.5003955960273743 77.0 4 -0.09216825664043427
3.853034257888794 -1.5739632844924927 0.6592149138450623 87.0 12 -0.09216595441102982
3.766061782836914 -1.539202094078064 -0.35594403743743896 79.0 5 -0.09216365218162537
3.8397464752197266 -1.5700993537902832 0.8063588738441467 72.0 13 -0.09216134995222092
3.7876670360565186 -1.5495754480361938 -0.21447275578975677 93.0 6 -0.09215904027223587
3.872410774230957 -1.584244966506958 0.9659398794174194 82.0 14 -0.09215673804283142
3.799419641494751 -1.5551577806472778 -0.07165958732366562 90.0 7 -0.09215443581342697
3.8669066429138184 -1.5835691690444946 1.119651198387146 113.0 15 -0.09215213358402252
3.798548698425293 -1.562547206878662 0.07169448584318161 72.0 8 -0.09212908893823624
3.8173842430114746 -1.571853518486023 0.21635687351226807 73.0 9 -0.09212448447942734
3.743044853210449 -1.5420074462890625 -0.786896288394928 86.0 2 -0.09212218225002289
3.839120388031006 -1.581587314605713 0.36326512694358826 82.0 10 -0.09211987257003784
3.7531015872955322 -1.5469167232513428 -0.6429457068443298 90.0 3 -0.09211757034063339
3.8336851596832275 -1.580913782119751 0.5091701149940491 92.0 11 -0.09211526811122894
3.765512704849243 -1.5535701513290405 -0.5001518130302429 82.0 4 -0.0921129658818245
3.8563690185546875 -1.5918433666229248 0.6607792377471924 85.0 12 -0.09211065620183945
3.776968479156494 -1.5598396062850952 -0.35751286149024963 81.0 5 -0.092108353972435
3.8484814167022705 -1.5901598930358887 0.8094117641448975 75.0 13 -0.09210605174303055
3.7893455028533936 -1.5664998292922974 -0.2148914635181427 93.0 6 -0.0921037495136261
3.870180130004883 -1.5999165773391724 0.9668397307395935 82.0 14 -0.09210143983364105
3.806629180908203 -1.5744227170944214 -0.07190392166376114 88.0 7 -0.0920991376042366
3.8717870712280273 -1.602163553237915 1.122757077217102 115.0 15 -0.09209683537483215
3.8001821041107178 -1.579529047012329 0.07183410227298737 74.0 8 -0.09207379817962646
3.8155624866485596 -1.5867029428482056 0.21656620502471924 76.0 9 -0.09206918627023697
3.7376391887664795 -1.5550638437271118 -0.786896288394928 86.0 2 -0.09206688404083252
3.8369765281677246 -1.5971791744232178 0.3636137843132019 79.0 10 -0.09206458181142807
3.760171413421631 -1.5659782886505127 -0.6451358199119568 85.0 3 -0.09206227213144302
3.8406920433044434 -1.6002988815307617 0.5108763575553894 99.0 11 -0.09205996990203857
3.7600667476654053 -1.5667047500610352 -0.5001518130302429 82.0 4 -0.09205766767263412
3.852612257003784 -1.6060550212860107 0.6610921621322632 87.0 12 -0.09205536544322968
3.7862110137939453 -1.5791497230529785 -0.3589073419570923 81.0 5 -0.09205305576324463
3.85377836227417 -1.608120322227478 0.8117015361785889 75.0 13 -0.09205075353384018
3.791226625442505 -1.5827953815460205 -0.21531015634536743 93.0 6 -0.09204845130443573
3.8645718097686768 -1.613416314125061 0.9668397307395935 82.0 14 -0.09204614907503128
3.797419548034668 -1.586159348487854 -0.07183410227298737 88.0 7 -0.09204383939504623
3.8804306983947754 -1.621627926826477 1.126898169517517 115.0 15 -0.09204153716564178
3.805987596511841 -1.5967642068862915 0.0720435380935669 72.0 8 -0.0920184999704361
3.821329116821289 -1.6039848327636719 0.21719422936439514 73.0 9 -0.0920138880610466
3.7360825538635254 -1.5689700841903687 -0.7876595854759216 90.0 2 -0.09201158583164215
3.8390069007873535 -1.6129814386367798 0.36431100964546204 79.0 10 -0.0920092836022377
3.7622416019439697 -1.5815006494522095 -0.6463872790336609 88.0 3 -0.09200698137283325
3.8463430404663086 -1.6176435947418213 0.5123387575149536 99.0 11 -0.0920046716928482
3.7694895267486572 -1.5853216648101807 -0.5021017789840698 82.0 4 -0.09200236946344376
3.849086284637451 -1.6195881366729736 0.6614049673080444 85.0 12 -0.0920000672340393
3.7772815227508545 -1.5901507139205933 -0.3585587441921234 81.0 5 -0.09199776500463486
3.8665175437927246 -1.628511667251587 0.8155176639556885 75.0 13 -0.09199545532464981
3.7988407611846924 -1.600787878036499 -0.21604284644126892 88.0 6 -0.09199315309524536
3.8663835525512695 -1.6292496919631958 0.9686393141746521 81.0 14 -0.09199085086584091
3.7995095252990723 -1.6018505096435547 -0.07197372615337372 88.0 7 -0.09198854863643646
3.878591775894165 -1.635988473892212 1.1279335021972656 120.0 15 -0.09198623895645142
3.8006718158721924 -1.6093765497207642 0.0720435380935669 74.0 8 -0.09196320176124573
3.830418348312378 -1.6235496997833252 0.2180316299200058 70.0 9 -0.09195859730243683
3.738089084625244 -1.5844151973724365 -0.7891860604286194 90.0 2 -0.09195628762245178
3.8354709148406982 -1.6264809370040894 0.3644852936267853 77.0 10 -0.09195398539304733
3.7606139183044434 -1.5955113172531128 -0.6470130085945129 85.0 3 -0.09195168316364288
3.848267078399658 -1.6334924697875977 0.5133137106895447 97.0 11 -0.09194938093423843
3.7712414264678955 -1.6015739440917969 -0.5030766725540161 82.0 4 -0.09194707125425339
3.856135845184326 -1.6384211778640747 0.6635950803756714 91.0 12 -0.09194476902484894
3.7774887084960938 -1.605005145072937 -0.3590816557407379 79.0 5 -0.09194246679544449
3.866516351699829 -1.6436285972595215 0.8166625499725342 78.0 13 -0.09194016456604004
3.8100528717041016 -1.6204115152359009 -0.21698491275310516 93.0 6 -0.09193785488605499
3.8857767581939697 -1.6534178256988525 0.974937915802002 82.0 14 -0.09193555265665054
3.8012542724609375 -1.6182365417480469 -0.07211334258317947 82.0 7 -0.0919332504272461
3.8728573322296143 -1.64951753616333 1.1279335021972656 120.0 15 -0.09193094819784164
3.802385091781616 -1.625778079032898 0.07218315452337265 76.0 8 -0.09190790355205536
3.839416980743408 -1.6431971788406372 0.21886898577213287 70.0 9 -0.09190329909324646
3.7469754219055176 -1.6036338806152344 -0.7922390103340149 90.0 2 -0.09190099686384201
3.838927984237671 -1.6437807083129883 0.3653568923473358 82.0 10 -0.09189868718385696
3.7532060146331787 -1.6078506708145142 -0.6467001438140869 81.0 3 -0.09189638495445251
3.8443658351898193 -1.6476973295211792 0.5135574340820312 95.0 11 -0.09189408272504807
3.7875208854675293 -1.624116063117981 -0.5060015916824341 79.0 4 -0.09189178049564362
3.8612852096557617 -1.6565446853637695 0.6654722690582275 91.0 12 -0.09188947081565857
3.782849073410034 -1.622894525527954 -0.3601275086402893 79.0 5 -0.09188716858625412
3.8589513301849365 -1.6563409566879272 0.8162809610366821 75.0 13 -0.09188486635684967
3.8007025718688965 -1.632124900817871 -0.2167755514383316 90.0 6 -0.09188256412744522
3.8925154209136963 -1.6723566055297852 0.9780871868133545 79.0 14 -0.09188026189804077
3.8102798461914062 -1.6378133296966553 -0.07239258289337158 82.0 7 -0.09187795221805573
3.8777241706848145 -1.6676052808761597 1.1310392618179321 117.0 15 -0.09187564998865128
3.8113746643066406 -1.6453818082809448 0.07246239483356476 74.0 8 -0.09185261279344559
3.83027982711792 -1.6543360948562622 0.2186596393585205 73.0 9 -0.09184800088405609
