# .PCD v0.7 - Point Cloud Data file format
VERSION 0.7
FIELDS x y z intensity ring time
SIZE 4 4 4 4 4 4
TYPE F F F F F F
COUNT 1 1 1 1 1 1
WIDTH 541
HEIGHT 1
VIEWPOINT 0 0 0 1 0 0 0
POINTS 541
DATA ascii
0.6580689549446106 -2.1990342140197754 0.3635537326335907 9.0 12 -0.03962830826640129
0.6399437785148621 -2.1398258209228516 -0.19540317356586456 70.0 5 -0.03962600231170654
0.6615243554115295 -2.2119863033294678 0.4487827718257904 8.0 13 -0.039623700082302094
0.6582911610603333 -2.2025763988494873 -0.12047737836837769 44.0 6 -0.039621394127607346
0.6620022058486938 -2.216402053833008 0.5340338349342346 8.0 14 -0.039619091898202896
0.6491733193397522 -2.1748344898223877 -0.039616964757442474 74.0 7 -0.03961678966879845
0.6527366638183594 -2.188166618347168 0.6118482351303101 8.0 15 -0.0396144837141037
0.3737587630748749 -1.259366750717163 -0.3519938886165619 10.0 0 -0.03959374874830246
0.6434801816940308 -2.1681833267211914 0.03947734460234642 35.0 8 -0.03959144279360771
0.4477325677871704 -1.5095841884613037 -0.36352092027664185 7.0 1 -0.03958914056420326
0.654427170753479 -2.2078940868377686 0.12068671733140945 20.0 9 -0.039586834609508514
0.5525760054588318 -1.8654654026031494 -0.3781834542751312 6.0 2 -0.039584532380104065
0.6509316563606262 -2.1989176273345947 0.2006325125694275 14.0 10 -0.03958222642540932
0.6662872433662415 -2.252234697341919 -0.37200120091438293 100.0 3 -0.03957992419600487
0.6487283706665039 -2.192880868911743 0.28078699111938477 10.0 11 -0.03957761824131012
0.6714205741882324 -2.271043300628662 -0.29078027606010437 100.0 4 -0.03957531601190567
0.6537471413612366 -2.212684392929077 0.3654309809207916 9.0 12 -0.03957301378250122
0.6347272396087646 -2.1496899127960205 -0.1961004137992859 70.0 5 -0.03957070782780647
0.6489676237106323 -2.1993324756622314 0.4457298517227173 8.0 13 -0.03956840559840202
0.6468244194984436 -2.1934802532196045 -0.11984935402870178 43.0 6 -0.039566099643707275
0.6527722477912903 -2.2150750160217285 0.5331340432167053 8.0 14 -0.039563797414302826
0.6404469609260559 -2.173251152038574 -0.0395471528172493 84.0 7 -0.03956149145960808
0.6440032720565796 -2.186725378036499 0.6108129620552063 8.0 15 -0.03955918923020363
0.3677310347557068 -1.2551020383834839 -0.35044100880622864 12.0 0 -0.03953845053911209
0.6377767324447632 -2.178203821182251 0.039616964757442474 36.0 8 -0.03953614830970764
0.4400075376033783 -1.50373375415802 -0.36172130703926086 7.0 1 -0.039533842355012894
0.6429673433303833 -2.1987760066986084 0.12005870044231415 22.0 9 -0.039531540125608444
0.5460611581802368 -1.8673827648162842 -0.3781834542751312 7.0 2 -0.039529234170913696
0.6432519555091858 -2.201176404953003 0.2006325125694275 14.0 10 -0.03952693194150925
0.6600826382637024 -2.260235071182251 -0.372939795255661 100.0 3 -0.0395246297121048
0.6406869888305664 -2.1952435970306396 0.28078699111938477 10.0 11 -0.03952232375741005
0.6597572565078735 -2.262054681777954 -0.2893178462982178 100.0 4 -0.0395200215280056
0.645632803440094 -2.2150657176971436 0.3654309809207916 9.0 12 -0.03951771557331085
0.6288920044898987 -2.157630681991577 -0.19662334024906158 88.0 5 -0.0395154133439064
0.6434823274612427 -2.2091238498687744 0.44725629687309265 8.0 13 -0.039513107389211655
0.6374893188476562 -2.189971446990967 -0.11953534185886383 46.0 6 -0.039510805159807205
0.6428591012954712 -2.209855556488037 0.5313344597816467 8.0 14 -0.03950849920511246
0.6369430422782898 -2.1909453868865967 -0.03982638940215111 98.0 7 -0.03950619697570801
0.6402958631515503 -2.2039122581481934 0.6149541139602661 8.0 15 -0.03950389102101326
0.36012741923332214 -1.2452430725097656 -0.34733515977859497 24.0 0 -0.03948315605521202
0.6307249069213867 -2.182337760925293 0.039651867002248764 41.0 8 -0.03948085010051727
0.4347558319568634 -1.5052605867385864 -0.36172130703926086 7.0 1 -0.039478547871112823
0.6352879405021667 -2.201007127761841 0.12005870044231415 22.0 9 -0.039476245641708374
0.5362725853919983 -1.8579602241516113 -0.3758937418460846 6.0 2 -0.039473939687013626
0.6377735137939453 -2.2110657691955566 0.20132976770401 14.0 10 -0.03947163745760918
0.6543776988983154 -2.270117998123169 -0.3741912841796875 100.0 3 -0.03946933150291443
0.6324703693389893 -2.19555926322937 0.2805432379245758 11.0 11 -0.03946702927350998
0.6518573760986328 -2.2643439769744873 -0.2893178462982178 100.0 4 -0.03946472331881523
0.6335278749465942 -2.2021186351776123 0.36292800307273865 9.0 12 -0.03946242108941078
0.6235602498054504 -2.1674716472625732 -0.1973206102848053 88.0 5 -0.039460115134716034
0.63576740026474 -2.2113566398620605 0.44725629687309265 8.0 13 -0.039457812905311584
0.6320469975471497 -2.199861764907837 -0.11995401978492737 49.0 6 -0.03945550695061684
0.6319144368171692 -2.200847625732422 0.5286350250244141 7.0 14 -0.03945320472121239
0.625982403755188 -2.1816227436065674 -0.039616964757442474 91.0 7 -0.03945089876651764
0.6315338611602783 -2.2024199962615967 0.6139188408851624 8.0 15 -0.03944859653711319
0.3552483022212982 -1.244634985923767 -0.3468175232410431 30.0 0 -0.03942786157131195
0.623103141784668 -2.184526205062866 0.039651867002248764 44.0 8 -0.0394255556166172
0.4305672347545624 -1.5105172395706177 -0.36262112855911255 7.0 1 -0.03942325338721275
0.6279857754707336 -2.203101634979248 0.12005870044231415 23.0 9 -0.039420947432518005
0.5249432921409607 -1.842827558517456 -0.37245920300483704 5.0 2 -0.039418645203113556
0.6262329816818237 -2.199864625930786 0.2001095712184906 16.0 10 -0.03941633924841881
0.6475304961204529 -2.276188373565674 -0.37481701374053955 100.0 3 -0.03941403701901436
0.6264313459396362 -2.203481912612915 0.2812744677066803 10.0 11 -0.03941173106431961
0.643949031829834 -2.2666056156158447 -0.2893178462982178 100.0 4 -0.03940942883491516
0.6251419186592102 -2.2004072666168213 0.3623022735118866 10.0 12 -0.03940712288022041
0.6116370558738708 -2.1543023586273193 -0.19592611491680145 80.0 5 -0.039404820650815964
0.628044605255127 -2.213562250137329 0.44725629687309265 8.0 13 -0.039402514696121216
0.625453770160675 -2.205897569656372 -0.12016335874795914 49.0 6 -0.039400212466716766
0.6274157762527466 -2.214289665222168 0.5313344597816467 7.0 14 -0.03939790651202202
0.6214701533317566 -2.1933064460754395 -0.03979148715734482 100.0 7 -0.03939560428261757
0.6231743693351746 -2.200784206390381 0.6128835082054138 8.0 15 -0.03939329832792282
0.3529965877532959 -1.253305435180664 -0.3488880693912506 25.0 0 -0.03937256336212158
0.6131451725959778 -2.1769564151763916 0.03947734460234642 45.0 8 -0.03937026113271713
0.4244997501373291 -1.5081850290298462 -0.36172130703926086 7.0 1 -0.039367955178022385
0.6208323836326599 -2.207202672958374 0.12016335874795914 22.0 9 -0.039365652948617935
0.5190388560295105 -1.8465386629104614 -0.3728407919406891 6.0 2 -0.03936334699392319
0.6174725890159607 -2.1982011795043945 0.19976095855236053 16.0 10 -0.03936104476451874
0.6367735266685486 -2.2669122219085693 -0.372939795255661 100.0 3 -0.03935873880982399
0.6191207766532898 -2.2055470943450928 0.2812744677066803 10.0 11 -0.03935643658041954
0.6385738253593445 -2.276374101638794 -0.29029279947280884 100.0 4 -0.03935413062572479
0.6174574494361877 -2.202576160430908 0.3623022735118866 10.0 12 -0.03935182839632034
0.6019636392593384 -2.148749828338623 -0.19522884488105774 85.0 5 -0.039349522441625595
0.6196414828300476 -2.2118520736694336 0.44649308919906616 8.0 13 -0.039347220212221146
0.6202889680862427 -2.2156529426574707 -0.12058205902576447 51.0 6 -0.0393449142575264
0.6179693937301636 -2.2088513374328613 0.5295348167419434 8.0 14 -0.03934261202812195
0.6062723994255066 -2.1685004234313965 -0.03930281847715378 100.0 7 -0.0393403097987175
0.6123691201210022 -2.1917827129364014 0.6097776889801025 8.0 15 -0.03933800384402275
0.35297900438308716 -1.2693589925765991 -0.35302919149398804 19.0 0 -0.03931726887822151
0.602329671382904 -2.1675233840942383 0.03926791250705719 48.0 8 -0.039314962923526764
0.4181898832321167 -1.5059021711349487 -0.36082151532173157 7.0 1 -0.039312660694122314
0.6147264838218689 -2.215130090713501 0.12047737836837769 26.0 9 -0.039310354739427567
0.5150125622749329 -1.8558167219161987 -0.37436726689338684 6.0 2 -0.03930805251002312
0.6128417253494263 -2.20983624458313 0.2006325125694275 18.0 10 -0.03930574655532837
0.6256912350654602 -2.257699966430664 -0.37106260657310486 100.0 3 -0.03930344432592392
0.6108885407447815 -2.2057816982269287 0.28103071451187134 11.0 11 -0.03930113837122917
0.6306241154670715 -2.2785892486572266 -0.29029279947280884 100.0 4 -0.03929883614182472
0.6113448739051819 -2.2104294300079346 0.3632408678531647 10.0 12 -0.039296530187129974
0.5958970189094543 -2.1545751094818115 -0.1955774873495102 88.0 5 -0.039294227957725525
0.6098247766494751 -2.2064321041107178 0.444966584444046 8.0 13 -0.039291925728321075
0.6082975268363953 -2.2024030685424805 -0.1197446808218956 51.0 6 -0.03928961977362633
0.6133661270141602 -2.2222659587860107 0.532234251499176 8.0 14 -0.03928731754422188
0.6013574004173279 -2.1802420616149902 -0.03947734460234642 100.0 7 -0.03928501158952713
0.6067681312561035 -2.2013564109802246 0.6118482351303101 8.0 15 -0.03928270936012268
0.35110124945640564 -1.2798985242843628 -0.35561737418174744 18.0 0 -0.03926197066903114
0.595817506313324 -2.1734697818756104 0.039337724447250366 50.0 8 -0.039259668439626694
0.4088117182254791 -1.4923168420791626 -0.3572222888469696 7.0 1 -0.039257362484931946
0.6027715802192688 -2.2018513679504395 0.11964000016450882 25.0 9 -0.039255060255527496
0.5074945688247681 -1.8538159132003784 -0.37360402941703796 7.0 2 -0.03925275430083275
0.6067016124725342 -2.2177271842956543 0.20115545392036438 18.0 10 -0.0392504520714283
0.6204113364219666 -2.269397258758545 -0.3726269602775574 100.0 3 -0.03924814611673355
0.5989997982978821 -2.1925816535949707 0.2790808379650116 11.0 11 -0.0392458438873291
0.6195297837257385 -2.2692863941192627 -0.28883036971092224 100.0 4 -0.03924354165792465
0.6046651005744934 -2.2163615226745605 0.3638666272163391 10.0 12 -0.039241235703229904
0.590470016002655 -2.16433048248291 -0.19627472758293152 91.0 5 -0.039238933473825455
0.6031519770622253 -2.2123358249664307 0.4457298517227173 8.0 13 -0.03923662751913071
0.601655900478363 -2.208367109298706 -0.11995401978492737 60.0 6 -0.03923432528972626
0.6015098094940186 -2.209351062774658 0.5286350250244141 8.0 14 -0.03923201933503151
0.5979432463645935 -2.1977643966674805 -0.03975658118724823 100.0 7 -0.03922971710562706
0.6021212935447693 -2.214646339416504 0.6149541139602661 8.0 15 -0.03922741115093231
0.34612682461738586 -1.2792515754699707 -0.35509976744651794 15.0 0 -0.03920667618513107
0.5908369421958923 -2.1851882934570312 0.03951225057244301 52.0 8 -0.039204370230436325
0.40055015683174133 -1.4824471473693848 -0.3545228838920593 8.0 1 -0.039202068001031876
0.5929993987083435 -2.1962289810180664 0.11922132223844528 26.0 9 -0.03919976204633713
0.4989733099937439 -1.8479945659637451 -0.3720775544643402 6.0 2 -0.03919745981693268
0.5973992347717285 -2.2140607833862305 0.2006325125694275 18.0 10 -0.03919515758752823
0.6124857664108276 -2.2715489864349365 -0.3726269602775574 100.0 3 -0.03919285163283348
0.5923757553100586 -2.1984925270080566 0.27956831455230713 12.0 11 -0.03919054940342903
0.6105722188949585 -2.267601490020752 -0.2883428931236267 100.0 4 -0.03918824344873428
0.5953852534294128 -2.212736129760742 0.36292800307273865 11.0 12 -0.039185941219329834
0.5839470624923706 -2.1702260971069336 -0.19662334024906158 85.0 5 -0.039183635264635086
0.5959357619285583 -2.2163233757019043 0.44611144065856934 9.0 13 -0.03918133303523064
0.5892791152000427 -2.193094253540039 -0.11901197582483292 57.0 6 -0.03917902708053589
0.5927833318710327 -2.2076730728149414 0.5277352333068848 8.0 14 -0.03917672485113144
0.5861223340034485 -2.184386968612671 -0.03947734460234642 100.0 7 -0.03917441889643669
0.5923855900764465 -2.209270715713501 0.6128835082054138 9.0 15 -0.03917211666703224
0.34016525745391846 -1.2748522758483887 -0.3535468280315399 11.0 0 -0.039151381701231
0.5832052826881409 -2.18723726272583 0.03951225057244301 54.0 8 -0.039149075746536255
0.38684335350990295 -1.4518245458602905 -0.34687453508377075 11.0 1 -0.039146773517131805
0.5863574743270874 -2.202145576477051 0.11943066120147705 26.0 9 -0.03914446756243706
0.4910042881965637 -1.8440337181091309 -0.3709326982498169 6.0 2 -0.03914216533303261
0.5901796221733093 -2.2180581092834473 0.20080682635307312 20.0 10 -0.03913985937833786
0.6060755848884583 -2.27940034866333 -0.37356552481651306 100.0 3 -0.03913755714893341
0.5867368578910828 -2.208220958709717 0.2805432379245758 12.0 11 -0.03913525119423866
0.6036720871925354 -2.2735562324523926 -0.28883036971092224 100.0 4 -0.03913294896483421
0.584618091583252 -2.2033450603485107 0.3610507845878601 11.0 12 -0.039130643010139465
0.5722801685333252 -2.1568450927734375 -0.19522884488105774 91.0 5 -0.039128340780735016
0.5871890783309937 -2.214594841003418 0.44534823298454285 8.0 13 -0.03912603482604027
0.5836665034294128 -2.2028603553771973 -0.11943066120147705 57.0 6 -0.03912373259663582
0.5880663394927979 -2.221031665802002 0.5304346084594727 8.0 14 -0.03912142664194107
0.5795164704322815 -2.190286159515381 -0.0395471528172493 100.0 7 -0.03911912441253662
0.5817075967788696 -2.2001190185546875 0.6097776889801025 8.0 15 -0.03911681845784187
0.3322724401950836 -1.2629541158676147 -0.34992337226867676 9.0 0 -0.039096083492040634
0.5735332369804382 -2.1815237998962402 0.039372626692056656 52.0 8 -0.039093781262636185
0.37979263067245483 -1.4456268548965454 -0.34507492184638977 17.0 1 -0.03909147530794144
0.5810816287994385 -2.2118051052093506 0.11984935402870178 28.0 9 -0.03908917307853699
0.4815729558467865 -1.8343428373336792 -0.36864298582077026 6.0 2 -0.03908686712384224
0.578389048576355 -2.2046871185302734 0.19941233098506927 21.0 10 -0.03908456489443779
0.596111536026001 -2.2738590240478516 -0.37231406569480896 100.0 3 -0.03908225893974304
0.5795282125473022 -2.2121758460998535 0.28078699111938477 12.0 11 -0.03907995671033859
0.5972403287887573 -2.2814106941223145 -0.28956159949302673 100.0 4 -0.039077650755643845
0.5783087015151978 -2.2090933322906494 0.36167651414871216 11.0 12 -0.039075348526239395
0.5647478103637695 -2.158829689025879 -0.19522884488105774 91.0 5 -0.03907304257154465
0.5794552564620972 -2.2166309356689453 0.44534823298454285 8.0 13 -0.0390707403421402
0.5769831538200378 -2.208749294281006 -0.11964000016450882 61.0 6 -0.03906843438744545
0.5783411264419556 -2.215528726577759 0.5286350250244141 8.0 14 -0.039066132158041
0.5677046179771423 -2.1747820377349854 -0.0392330102622509 100.0 7 -0.03906382620334625
0.5773340463638306 -2.2132515907287598 0.6128835082054138 8.0 15 -0.0390615239739418
0.32786184549331665 -1.2641061544418335 -0.34992337226867676 9.0 0 -0.039040789008140564
0.562781572341919 -2.1698641777038574 0.039128296077251434 58.0 8 -0.039038483053445816
0.3745075464248657 -1.4449920654296875 -0.3446250259876251 22.0 1 -0.03903618082404137
0.5733574628829956 -2.213819980621338 0.11984935402870178 27.0 9 -0.03903387486934662
0.4805780351161957 -1.856919765472412 -0.3728407919406891 6.0 2 -0.03903157263994217
0.5711882710456848 -2.2086217403411865 0.1995866596698761 20.0 10 -0.03902926668524742
0.5860947966575623 -2.266260862350464 -0.37074974179267883 100.0 3 -0.03902696445584297
0.5706993341445923 -2.208319664001465 0.2800557613372803 12.0 11 -0.039024658501148224
0.5906645059585571 -2.2872226238250732 -0.29004907608032227 100.0 4 -0.039022356271743774
0.5725683569908142 -2.218749523162842 0.36292800307273865 11.0 12 -0.039020050317049026
0.5582036972045898 -2.164646863937378 -0.1955774873495102 91.0 5 -0.03901774808764458
0.570630669593811 -2.212836980819702 0.44420334696769714 8.0 13 -0.03901544213294983
0.5646716952323914 -2.1913094520568848 -0.11859328299760818 61.0 6 -0.03901313990354538
0.5719627737998962 -2.2212088108062744 0.5295348167419434 8.0 14 -0.03901083767414093
0.5630995035171509 -2.1883699893951416 -0.03944243863224983 100.0 7 -0.03900853171944618
0.5667181015014648 -2.2040276527404785 0.6097776889801025 8.0 15 -0.03900622949004173
0.32558321952819824 -1.2726726531982422 -0.3519938886165619 9.0 0 -0.038985490798950195
0.5581757426261902 -2.1834397315979004 0.039337724447250366 59.0 8 -0.038983188569545746
0.3757316470146179 -1.4708359241485596 -0.3504737615585327 19.0 1 -0.038980882614851
0.5616741180419922 -2.2003259658813477 0.11901197582483292 27.0 9 -0.03897858038544655
0.4690760374069214 -1.837578296661377 -0.36864298582077026 5.0 2 -0.0389762744307518
0.565338671207428 -2.2162954807281494 0.2001095712184906 21.0 10 -0.03897397220134735
0.5791565775871277 -2.2721211910247803 -0.3713754713535309 100.0 3 -0.0389716662466526
0.5595574378967285 -2.1968326568603516 0.2783496081829071 12.0 11 -0.038969364017248154
0.5777802467346191 -2.270033121109009 -0.2876116633415222 100.0 4 -0.038967058062553406
0.5662809610366821 -2.226477861404419 0.3638666272163391 11.0 12 -0.038964755833148956
0.5521167516708374 -2.172374725341797 -0.1961004137992859 91.0 5 -0.03896245360374451
0.5604852437973022 -2.2053017616271973 0.44229528307914734 8.0 13 -0.03896014764904976
0.556527316570282 -2.191331624984741 -0.1184886172413826 64.0 6 -0.03895784541964531
0.5613297820091248 -2.2118582725524902 0.5268353819847107 8.0 14 -0.03895553946495056
0.5569318532943726 -2.1961374282836914 -0.0395471528172493 100.0 7 -0.03895323723554611
0.5590213537216187 -2.2059924602508545 0.6097776889801025 8.0 15 -0.038950931280851364
0.31808483600616455 -1.262617588043213 -0.3488880693912506 8.0 0 -0.038930196315050125
0.5515274405479431 -2.189253091812134 0.03940753638744354 56.0 8 -0.03892789036035538
0.3782070279121399 -1.5023748874664307 -0.35767218470573425 13.0 1 -0.03892558813095093
0.5525283813476562 -2.196462631225586 0.11869796365499496 30.0 9 -0.03892328217625618
0.46233782172203064 -1.8392852544784546 -0.36864298582077026 6.0 2 -0.03892097994685173
0.556240975856781 -2.2144877910614014 0.19976095855236053 21.0 10 -0.03891867771744728
0.5708248615264893 -2.274228572845459 -0.3713754713535309 100.0 3 -0.03891637176275253
0.5518856048583984 -2.198772430419922 0.2783496081829071 13.0 11 -0.038914069533348083
0.5688872337341309 -2.2681851387023926 -0.2871242165565491 100.0 4 -0.038911763578653336
0.5551438927650452 -2.2150280475616455 0.36167651414871216 11.0 12 -0.038909461349248886
0.5445302724838257 -2.174288749694824 -0.1961004137992859 85.0 5 -0.03890715539455414
0.556211531162262 -2.2225773334503174 0.44534823298454285 9.0 13 -0.03890485316514969
0.5509145259857178 -2.2030446529388428 -0.11901197582483292 66.0 6 -0.03890254721045494
0.5532189011573792 -2.2139010429382324 0.5268353819847107 9.0 14 -0.03890024498105049
0.5439298748970032 -2.176727771759033 -0.03916320204734802 100.0 7 -0.03889793902635574
0.5513178110122681 -2.207930326461792 0.6097776889801025 8.0 15 -0.038895636796951294
0.3136756420135498 -1.263720154762268 -0.3488880693912506 8.0 0 -0.038874898105859756
0.5430182218551636 -2.189318895339966 0.039372626692056656 64.0 8 -0.03887259587645531
0.37551063299179077 -1.515100121498108 -0.3603716194629669 11.0 1 -0.03887029364705086
0.5454347133636475 -2.20235013961792 0.11890730261802673 28.0 9 -0.03886798769235611
0.4554429352283478 -1.8389822244644165 -0.3682613670825958 6.0 2 -0.03886568546295166
0.5475502014160156 -2.212547779083252 0.19941233098506927 23.0 10 -0.03886337950825691
0.5643054246902466 -2.2819602489471436 -0.37231406569480896 100.0 3 -0.03886107727885246
0.5466803312301636 -2.2123429775238037 0.2798120379447937 13.0 11 -0.038858771324157715
0.5624734163284302 -2.277963638305664 -0.28809913992881775 100.0 4 -0.038856469094753265
0.5456020832061768 -2.211294412612915 0.3607378900051117 11.0 12 -0.03885416314005852
0.5331190228462219 -2.1607015132904053 -0.19470593333244324 91.0 5 -0.03885186091065407
0.5493894815444946 -2.2283177375793457 0.44611144065856934 9.0 13 -0.03884955495595932
0.5451323390007019 -2.2127110958099365 -0.11943066120147705 68.0 6 -0.03884725272655487
0.5454877614974976 -2.2158186435699463 0.5268353819847107 8.0 14 -0.03884494677186012
0.537858784198761 -2.186474084854126 -0.03930281847715378 100.0 7 -0.03884264454245567
0.5432215929031372 -2.2099361419677734 0.6097776889801025 9.0 15 -0.038840338587760925
0.3092624843120575 -1.2648073434829712 -0.3488880693912506 8.0 0 -0.038819603621959686
0.5334745049476624 -2.1834309101104736 0.0392330102622509 67.0 8 -0.03881730139255524
0.36975759267807007 -1.5145084857940674 -0.3599216938018799 8.0 1 -0.03881499543786049
0.5391635298728943 -2.21006178855896 0.11922132223844528 33.0 9 -0.03881269320845604
0.44669410586357117 -1.8310242891311646 -0.36635327339172363 6.0 2 -0.03881038725376129
0.5398238301277161 -2.2144455909729004 0.19941233098506927 23.0 10 -0.03880808502435684
0.5539990663528442 -2.274319648742676 -0.37074974179267883 100.0 3 -0.038805779069662094
0.5394237041473389 -2.2161669731140137 0.2800557613372803 13.0 11 -0.038803476840257645
0.5545183420181274 -2.2799131870269775 -0.28809913992881775 100.0 4 -0.0388011708855629
0.5388131141662598 -2.217024326324463 0.3613636791706085 11.0 12 -0.03879886865615845
0.52557373046875 -2.1625490188598633 -0.19470593333244324 98.0 5 -0.0387965627014637
0.5388282537460327 -2.2187752723693848 0.4438217580318451 9.0 13 -0.03879426047205925
0.5378761887550354 -2.2165415287017822 -0.11953534185886383 69.0 6 -0.0387919545173645
0.5386682152748108 -2.221497058868408 0.5277352333068848 8.0 14 -0.03878965228796005
0.5269271731376648 -2.1747336387634277 -0.039058487862348557 100.0 7 -0.038787346333265305
0.5345948934555054 -2.2080636024475098 0.6087424159049988 8.0 15 -0.038785044103860855
0.3021318018436432 -1.254610300064087 -0.34578225016593933 8.0 0 -0.038764309138059616
0.5258496403694153 -2.1852798461914062 0.0392330102622509 68.0 8 -0.03876200318336487
0.36082398891448975 -1.5006321668624878 -0.3563224971294403 8.0 1 -0.03875970095396042
0.5314459204673767 -2.211930274963379 0.11922132223844528 33.0 9 -0.03875739499926567
0.4384654760360718 -1.8249366283416748 -0.3648267984390259 6.0 2 -0.03875509276986122
0.531625509262085 -2.214379072189331 0.19923801720142365 22.0 10 -0.03875278681516647
0.5451352000236511 -2.272397994995117 -0.3701240122318268 100.0 3 -0.038750484585762024
0.5270573496818542 -2.1987321376800537 0.2776183784008026 14.0 11 -0.038748178631067276
0.5474813580513 -2.285695791244507 -0.2885866165161133 100.0 4 -0.03874587640166283
0.5329098105430603 -2.226576328277588 0.3626151382923126 12.0 12 -0.03874357044696808
0.5194127559661865 -2.1701834201812744 -0.19522884488105774 86.0 5 -0.03874126821756363
0.5283402800559998 -2.209185838699341 0.44153204560279846 9.0 13 -0.03873896226286888
0.5278145670890808 -2.208692789077759 -0.11901197582483292 75.0 6 -0.03873666003346443
0.5331734418869019 -2.2328412532806396 0.529984712600708 9.0 14 -0.038734354078769684
0.5207250118255615 -2.1823952198028564 -0.03916320204734802 100.0 7 -0.038732051849365234
0.5282281041145325 -2.2155539989471436 0.610295295715332 9.0 15 -0.038729749619960785
0.2995336651802063 -1.2631762027740479 -0.34785282611846924 9.0 0 -0.03870901092886925
0.5200625061988831 -2.19488525390625 0.039372626692056656 63.0 8 -0.0387067086994648
0.35378769040107727 -1.4942972660064697 -0.3545228838920593 7.0 1 -0.03870440274477005
0.5218825936317444 -2.2059974670410156 0.11880263686180115 38.0 9 -0.0387021005153656
0.43525663018226624 -1.839829683303833 -0.36749815940856934 6.0 2 -0.03869979456067085
0.5252676606178284 -2.2220382690429688 0.19976095855236053 23.0 10 -0.0386974923312664
0.5381078720092773 -2.2781319618225098 -0.37074974179267883 100.0 3 -0.038695186376571655
0.5207468867301941 -2.206354856491089 0.2783496081829071 15.0 11 -0.038692884147167206
0.5376770496368408 -2.279865026473999 -0.2876116633415222 100.0 4 -0.03869057819247246
0.5224160552024841 -2.216886520385742 0.3607378900051117 12.0 12 -0.03868827596306801
0.5132054686546326 -2.1778011322021484 -0.19575178623199463 98.0 5 -0.03868597000837326
0.5215252041816711 -2.214838743209839 0.44229528307914734 9.0 13 -0.03868366777896881
0.5178146362304688 -2.200801134109497 -0.1184886172413826 71.0 6 -0.03868136554956436
0.5240383744239807 -2.2289974689483643 0.5286350250244141 8.0 14 -0.038679059594869614
0.5163049697875977 -2.197826385498047 -0.03940753638744354 100.0 7 -0.038676757365465164
0.5196081399917603 -2.213622808456421 0.6092600226402283 9.0 15 -0.038674451410770416
0.29863566160202026 -1.279264211654663 -0.3519938886165619 9.0 0 -0.03865371644496918
0.5087639093399048 -2.181107759475708 0.039093390107154846 67.0 8 -0.03865141049027443
0.3485696017742157 -1.4955229759216309 -0.3545228838920593 8.0 1 -0.03864910826086998
0.5123665928840637 -2.2000248432159424 0.11838394403457642 40.0 9 -0.03864680230617523
0.4221518933773041 -1.8126565217971802 -0.36177387833595276 6.0 2 -0.03864450007677078
0.5175080299377441 -2.22385835647583 0.19976095855236053 23.0 10 -0.038642194122076035
0.5292578935623169 -2.2761483192443848 -0.3701240122318268 100.0 3 -0.038639891892671585
0.5130422711372375 -2.2081589698791504 0.2783496081829071 15.0 11 -0.038637589663267136
0.5279198288917542 -2.2739930152893066 -0.28663671016693115 100.0 4 -0.03863528370857239
0.5146744251251221 -2.2186965942382812 0.3607378900051117 12.0 12 -0.03863298147916794
0.5051501393318176 -2.1776387691497803 -0.1955774873495102 100.0 5 -0.03863067552447319
0.5155642628669739 -2.2242960929870605 0.4438217580318451 9.0 13 -0.03862837329506874
0.5119317770004272 -2.2103779315948486 -0.11890730261802673 71.0 6 -0.03862606734037399
0.5144966840744019 -2.2232189178466797 0.5268353819847107 9.0 14 -0.03862376511096954
0.5050260424613953 -2.1840288639068604 -0.039128296077251434 100.0 7 -0.038621459156274796
0.514487624168396 -2.2267167568206787 0.6123659014701843 9.0 15 -0.038619156926870346
0.2889772951602936 -1.2577053308486938 -0.34578225016593933 9.0 0 -0.03859841823577881
0.5056217312812805 -2.2023603916168213 0.03944243863224983 71.0 8 -0.03859611600637436
0.34596124291419983 -1.5081270933151245 -0.3572222888469696 7.0 1 -0.03859381377696991
0.5069153308868408 -2.211533784866333 0.11890730261802673 41.0 9 -0.03859150782227516
0.4118744730949402 -1.7968964576721191 -0.3583393096923828 6.0 2 -0.03858920559287071
0.5092973113059998 -2.2237091064453125 0.1995866596698761 24.0 10 -0.038586899638175964
0.5226311087608337 -2.2837588787078857 -0.37106260657310486 100.0 3 -0.038584597408771515
0.5057739019393921 -2.2118711471557617 0.2785933315753937 16.0 11 -0.03858229145407677
0.5199788212776184 -2.2758219242095947 -0.28663671016693115 100.0 4 -0.03857998922467232
0.5056076049804688 -2.2147023677825928 0.359799325466156 12.0 12 -0.03857768326997757
0.4948849081993103 -2.167734146118164 -0.1945316195487976 98.0 5 -0.03857538104057312
0.5095432996749878 -2.2337381839752197 0.44534823298454285 9.0 13 -0.03857307508587837
0.5051006078720093 -2.216046094894409 -0.1191166415810585 71.0 6 -0.03857077285647392
0.5063005685806274 -2.2231013774871826 0.526385486125946 9.0 14 -0.038568466901779175
0.4978429973125458 -2.1877286434173584 -0.03916320204734802 100.0 7 -0.038566164672374725
0.5028567910194397 -2.211544990539551 0.607707142829895 8.0 15 -0.03856385871767998
0.2854374945163727 -1.2624748945236206 -0.3468175232410431 10.0 0 -0.03854312375187874
0.4944058358669281 -2.1885077953338623 0.03916320204734802 69.0 8 -0.03854082152247429
0.3398367464542389 -1.505523681640625 -0.3563224971294403 7.0 1 -0.03853851556777954
0.4996316134929657 -2.215238332748413 0.11901197582483292 43.0 9 -0.03853621333837509
0.40343955159187317 -1.7887474298477173 -0.3564312160015106 10.0 2 -0.038533907383680344
0.4989040791988373 -2.2138113975524902 0.19854077696800232 25.0 10 -0.038531605154275894
0.5120526552200317 -2.2740066051483154 -0.3691853880882263 100.0 3 -0.038529299199581146
0.49848535656929016 -2.2155601978302 0.27883708477020264 16.0 11 -0.0385269969701767
0.5146439075469971 -2.289243698120117 -0.28809913992881775 100.0 4 -0.03852469101548195
0.4987398087978363 -2.220308303833008 0.36042505502700806 12.0 12 -0.0385223887860775
0.48731529712677 -2.169448137283325 -0.1945316195487976 98.0 5 -0.03852008283138275
0.49744346737861633 -2.2163472175598145 0.44153204560279846 9.0 13 -0.0385177806019783
0.4977990686893463 -2.2197446823120117 -0.11922132223844528 75.0 6 -0.038515474647283554
0.5006681084632874 -2.234362840652466 0.5286350250244141 9.0 14 -0.038513172417879105
0.48976635932922363 -2.1875014305114746 -0.039128296077251434 100.0 7 -0.03851086646318436
0.49429041147232056 -2.2095162868499756 0.6066718697547913 8.0 15 -0.03850856423377991
0.28270649909973145 -1.27100670337677 -0.3488880693912506 10.0 0 -0.03848782926797867
0.48502808809280396 -2.1824119091033936 0.03902358189225197 74.0 8 -0.03848552331328392
0.33288973569869995 -1.4990911483764648 -0.3545228838920593 7.0 1 -0.03848322108387947
0.4923287630081177 -2.218918561935425 0.1191166415810585 45.0 9 -0.03848091512918472
0.4048480987548828 -1.8246443271636963 -0.3633003234863281 9.0 2 -0.03847861289978027
0.49289825558662415 -2.2233200073242188 0.19923801720142365 26.0 10 -0.038476306945085526
0.5041117072105408 -2.275779962539673 -0.3691853880882263 100.0 3 -0.038474004715681076
0.4886038899421692 -2.2075955867767334 0.2776183784008026 16.0 11 -0.03847169876098633
0.5057927966117859 -2.2871499061584473 -0.2876116633415222 100.0 4 -0.03846939653158188
0.4922647178173065 -2.2278223037719727 0.3613636791706085 13.0 12 -0.03846709057688713
0.4797392189502716 -2.1711361408233643 -0.1945316195487976 100.0 5 -0.03846478834748268
0.488857626914978 -2.21423602104187 0.4407688081264496 9.0 13 -0.03846248239278793
0.4887571930885315 -2.2156176567077637 -0.11890730261802673 80.0 6 -0.038460180163383484
0.49286532402038574 -2.2360970973968506 0.5286350250244141 8.0 14 -0.038457874208688736
0.48212751746177673 -2.1891977787017822 -0.039128296077251434 100.0 7 -0.038455571979284286
0.48698991537094116 -2.2131152153015137 0.6071895360946655 9.0 15 -0.03845326602458954
0.27661678194999695 -1.264436960220337 -0.3468175232410431 9.0 0 -0.03845930099487305
0.4782610237598419 -2.1879985332489014 0.039093390107154846 74.0 8 -0.0384569987654686
0.32682308554649353 -1.4964362382888794 -0.35362306237220764 7.0 1 -0.03845469281077385
0.482877254486084 -2.212818145751953 0.11869796365499496 46.0 9 -0.0384523905813694
0.40098798274993896 -1.8375550508499146 -0.36559006571769714 10.0 2 -0.03845008462667465
0.4851343631744385 -2.225027084350586 0.19923801720142365 29.0 10 -0.0384477823972702
0.4944826662540436 -2.2698051929473877 -0.36793389916419983 88.0 3 -0.038445476442575455
0.4817393124103546 -2.2131669521331787 0.27810585498809814 15.0 11 -0.038443174213171005
0.4969622790813446 -2.285022020339966 -0.2871242165565491 100.0 4 -0.03844086825847626
0.48448535799980164 -2.229526996612549 0.3613636791706085 13.0 12 -0.03843856602907181
0.47300392389297485 -2.1766912937164307 -0.19488023221492767 95.0 5 -0.03843626007437706
0.4794592261314392 -2.208254814147949 0.43924233317375183 9.0 13 -0.03843395784497261
0.4767858684062958 -2.197791576385498 -0.1178605854511261 78.0 6 -0.03843165189027786
0.4817546010017395 -2.2225677967071533 0.5250357985496521 8.0 14 -0.03842934966087341
0.47532930970191956 -2.1947760581970215 -0.03919810429215431 100.0 7 -0.038427043706178665
0.4796702265739441 -2.2166895866394043 0.607707142829895 8.0 15 -0.038424741476774216
0.27301377058029175 -1.2691723108291626 -0.34785282611846924 9.0 0 -0.03840400651097298
0.47230157256126404 -2.1974751949310303 0.0392330102622509 84.0 8 -0.03840170055627823
0.32077938318252563 -1.4937574863433838 -0.35272327065467834 8.0 1 -0.03839939832687378
0.47305479645729065 -2.204726219177246 0.11817460507154465 47.0 9 -0.03839709237217903
0.3912760615348816 -1.82358717918396 -0.36253711581230164 7.0 2 -0.03839479014277458
0.4790351390838623 -2.23449969291687 0.19993527233600616 29.0 10 -0.038392484188079834
0.4757995903491974 -2.221297025680542 -0.359799325466156 32.0 3 -0.038390181958675385
0.47276464104652405 -2.2090117931365967 0.27737462520599365 15.0 11 -0.03838787600398064
0.4873225688934326 -2.278977870941162 -0.2861492335796356 100.0 4 -0.03838557377457619
0.4754619300365448 -2.2254092693328857 0.36042505502700806 12.0 12 -0.03838326781988144
0.4654031991958618 -2.1783289909362793 -0.19488023221492767 100.0 5 -0.03838096559047699
0.474617063999176 -2.2233550548553467 0.4419136643409729 10.0 13 -0.03837865963578224
0.47036102414131165 -2.2053024768829346 -0.11817460507154465 84.0 6 -0.03837635740637779
0.47521162033081055 -2.2299537658691406 0.526385486125946 9.0 14 -0.038374051451683044
0.4647503197193146 -2.1827309131622314 -0.03895376995205879 100.0 7 -0.038371749222278595
0.4719298183917999 -2.218350410461426 0.607707142829895 9.0 15 -0.03836944326758385
0.26538458466529846 -1.2549968957901 -0.3437117040157318 9.0 0 -0.03834870830178261
0.46462804079055786 -2.199110269546509 0.0392330102622509 76.0 8 -0.03834640607237816
0.31556302309036255 -1.4948680400848389 -0.35272327065467834 7.0 1 -0.03834410011768341
0.4669785499572754 -2.2121455669403076 0.1184886172413826 49.0 9 -0.03834179788827896
0.38369283080101013 -1.819178819656372 -0.3613922595977783 6.0 2 -0.03833949193358421
0.4687674939632416 -2.2244603633880615 0.19888940453529358 31.0 10 -0.038337189704179764
0.4761824309825897 -2.261604070663452 -0.3660567104816437 66.0 3 -0.038334883749485016
0.46750304102897644 -2.222304105758667 0.27883708477020264 16.0 11 -0.038332581520080566
0.4813973605632782 -2.2883517742156982 -0.2871242165565491 100.0 4 -0.03833027556538582
0.46726688742637634 -2.2231075763702393 0.359799325466156 14.0 12 -0.03832797333598137
0.4561583995819092 -2.1721413135528564 -0.19418299198150635 100.0 5 -0.03832566738128662
0.46927204728126526 -2.2365264892578125 0.44420334696769714 10.0 13 -0.03832336515188217
0.46266013383865356 -2.2069308757781982 -0.11817460507154465 84.0 6 -0.038321059197187424
0.4678143858909607 -2.2315170764923096 0.526385486125946 9.0 14 -0.038318756967782974
0.45545974373817444 -2.174474000930786 -0.03877924755215645 100.0 7 -0.038316454738378525
0.46338361501693726 -2.214230537414551 0.606154203414917 9.0 15 -0.03831414878368378
0.2620081603527069 -1.259652853012085 -0.34474697709083557 9.0 0 -0.03829341381788254
0.4548918604850769 -2.188891887664795 0.03902358189225197 89.0 8 -0.03829110786318779
0.312188982963562 -1.5035384893417358 -0.3545228838920593 7.0 1 -0.03828880563378334
0.46045252680778503 -2.21759295463562 0.11869796365499496 51.0 9 -0.03828649967908859
0.3780568540096283 -1.8223636150360107 -0.36177387833595276 6.0 2 -0.03828419744968414
0.458962082862854 -2.2142975330352783 0.197843536734581 29.0 10 -0.038281891494989395
0.46988198161125183 -2.2689738273620605 -0.36699530482292175 91.0 3 -0.038279589265584946
0.46053314208984375 -2.2257862091064453 0.2790808379650116 19.0 11 -0.0382772833108902
0.4738061726093292 -2.28993558883667 -0.2871242165565491 100.0 4 -0.03827498108148575
0.4606919586658478 -2.228513717651367 0.36042505502700806 15.0 12 -0.0382726788520813
0.4481467008590698 -2.1697397232055664 -0.19383437931537628 100.0 5 -0.03827037289738655
0.46026596426963806 -2.230379581451416 0.4426769018173218 10.0 13 -0.0382680706679821
0.4569522738456726 -2.2162773609161377 -0.11859328299760818 84.0 6 -0.038265764713287354
0.4608052372932434 -2.234964609146118 0.5268353819847107 8.0 14 -0.038263462483882904
0.4518774151802063 -2.1935994625091553 -0.039093390107154846 100.0 7 -0.038261156529188156
0.45759642124176025 -2.2233238220214844 0.6082248091697693 9.0 15 -0.03825885429978371
0.25860390067100525 -1.264299988746643 -0.34578225016593933 9.0 0 -0.03823811560869217
0.44522836804389954 -2.178632974624634 0.038814153522253036 89.0 8 -0.03823581337928772
0.30564188957214355 -1.496928095817566 -0.35272327065467834 8.0 1 -0.03823350742459297
0.4535072147846222 -2.2231006622314453 0.11890730261802673 50.0 9 -0.03823120519518852
0.3701251447200775 -1.8159773349761963 -0.360247403383255 5.0 2 -0.038228899240493774
0.45320841670036316 -2.223616123199463 0.19854077696800232 31.0 10 -0.038226597011089325
0.4615667760372162 -2.266648054122925 -0.3663695454597473 81.0 3 -0.038224294781684875
0.4499834179878235 -2.2117390632629395 0.27713093161582947 18.0 11 -0.03822198882699013
0.4666009545326233 -2.2954659461975098 -0.2876116633415222 100.0 4 -0.03821968659758568
0.4548758864402771 -2.2397875785827637 0.36198940873146057 15.0 12 -0.03821738064289093
0.442155122756958 -2.17910099029541 -0.1945316195487976 100.0 5 -0.03821507841348648
0.4501369595527649 -2.220427989959717 0.44038718938827515 10.0 13 -0.03821277245879173
0.4460415840148926 -2.2021987438201904 -0.11775590479373932 94.0 6 -0.03821047022938728
0.45416170358657837 -2.2422895431518555 0.5281850695610046 9.0 14 -0.038208164274692535
0.44302797317504883 -2.189283609390259 -0.03898867964744568 100.0 7 -0.038205862045288086
0.4483010470867157 -2.2173333168029785 0.606154203414917 9.0 15 -0.03820355609059334
0.25548890233039856 -1.2728158235549927 -0.34785282611846924 9.0 0 -0.0381828211247921
0.43802666664123535 -2.184171676635742 0.038883961737155914 91.0 8 -0.03818051517009735
0.2978563606739044 -1.4865736961364746 -0.35002386569976807 8.0 1 -0.0381782129406929
0.4426117539405823 -2.2110390663146973 0.11817460507154465 53.0 9 -0.03817591071128845
0.3646218180656433 -1.8230969905853271 -0.3613922595977783 6.0 2 -0.038173604756593704
0.44505539536476135 -2.225262403488159 0.19854077696800232 32.0 10 -0.038171302527189255
0.4474502205848694 -2.2392683029174805 -0.36167651414871216 60.0 3 -0.03816899657249451
0.441096693277359 -2.209480047225952 0.27664345502853394 19.0 11 -0.03816669434309006
0.4558544158935547 -2.285480260848999 -0.2861492335796356 100.0 4 -0.03816438838839531
0.4474356174468994 -2.245314121246338 0.3626151382923126 15.0 12 -0.03816208615899086
0.43338724970817566 -2.1767988204956055 -0.19418299198150635 100.0 5 -0.03815978020429611
0.4427618384361267 -2.2259137630462646 0.44115039706230164 10.0 13 -0.03815747797489166
0.43913504481315613 -2.209695816040039 -0.11806992441415787 100.0 6 -0.038155172020196915
0.4429014325141907 -2.2286481857299805 0.5245858430862427 9.0 14 -0.038152869790792465
0.4373374283313751 -2.2026610374450684 -0.03919810429215431 100.0 7 -0.03815056383609772
0.44167497754096985 -2.226541519165039 0.6082248091697693 9.0 15 -0.03814826160669327
0.25007569789886475 -1.269952654838562 -0.3468175232410431 9.0 0 -0.03812752664089203
0.4311763048171997 -2.1916487216949463 0.03898867964744568 97.0 8 -0.03812522068619728
0.2939091622829437 -1.495303988456726 -0.35182347893714905 7.0 1 -0.03812291845679283
0.4337354600429535 -2.2087268829345703 0.11796525865793228 55.0 9 -0.038120612502098083
0.35522931814193726 -1.8089470863342285 -0.3583393096923828 6.0 2 -0.038118310272693634
0.43727970123291016 -2.2288336753845215 0.19871510565280914 33.0 10 -0.038116004317998886
0.44835904240608215 -2.28741717338562 -0.3691853880882263 100.0 3 -0.03811370208859444
0.43413999676704407 -2.216926336288452 0.27737462520599365 20.0 11 -0.03811139613389969
0.44671234488487244 -2.2832393646240234 -0.2856617569923401 100.0 4 -0.03810909390449524
0.43655073642730713 -2.233368396759033 0.36042505502700806 15.0 12 -0.03810678794980049
0.42807960510253906 -2.190030574798584 -0.19522884488105774 100.0 5 -0.03810448572039604
0.4364944100379944 -2.2351531982421875 0.4426769018173218 11.0 13 -0.038102179765701294
0.4318014681339264 -2.2131755352020264 -0.11817460507154465 100.0 6 -0.038099877536296844
0.4362214207649231 -2.237907648086548 0.526385486125946 9.0 14 -0.0380975715816021
0.4292612671852112 -2.204249143600464 -0.03919810429215431 100.0 7 -0.03809526935219765
0.43351128697395325 -2.228145122528076 0.6082248091697693 9.0 15 -0.0380929633975029
0.2434414029121399 -1.2594374418258667 -0.3437117040157318 10.0 0 -0.03807222843170166
0.42428162693977356 -2.1970670223236084 0.039058487862348557 100.0 8 -0.03806992620229721
0.2872110605239868 -1.4886670112609863 -0.35002386569976807 7.0 1 -0.03806762024760246
0.4264008700847626 -2.212188482284546 0.11806992441415787 62.0 9 -0.03806531801819801
0.3500274121761322 -1.8159592151641846 -0.35948416590690613 5.0 2 -0.038063012063503265
0.4294971823692322 -2.230346441268921 0.19871510565280914 37.0 10 -0.038060709834098816
0.4407445788383484 -2.290908098220825 -0.36949828267097473 100.0 3 -0.03805840387940407
0.4271484613418579 -2.22232723236084 0.2778621315956116 20.0 11 -0.03805610164999962
0.4394885301589966 -2.2886836528778076 -0.2861492335796356 100.0 4 -0.03805379569530487
0.4276352822780609 -2.2290585041046143 0.3594864308834076 16.0 12 -0.03805149346590042
0.41817978024482727 -2.1797714233398438 -0.19418299198150635 100.0 5 -0.03804918751120567
0.42868953943252563 -2.236663341522217 0.4426769018173218 11.0 13 -0.038046885281801224
0.42632734775543213 -2.2264389991760254 -0.11880263686180115 100.0 6 -0.038044579327106476
0.4276745915412903 -2.235588550567627 0.5254856944084167 9.0 14 -0.038042277097702026
0.4193120300769806 -2.1939494609832764 -0.03898867964744568 100.0 7 -0.03803997486829758
0.4242818355560303 -2.2220544815063477 0.606154203414917 9.0 15 -0.03803766891360283
0.23832377791404724 -1.2564834356307983 -0.34267643094062805 10.0 0 -0.03801693394780159
0.41474854946136475 -2.188711166381836 0.038883961737155914 100.0 8 -0.03801462799310684
0.2856377065181732 -1.5088077783584595 -0.3545228838920593 7.0 1 -0.03801232576370239
0.4198055565357208 -2.217514991760254 0.11827926337718964 63.0 9 -0.038010019809007645
0.3407675623893738 -1.8017375469207764 -0.3564312160015106 5.0 2 -0.038007717579603195
0.4202297031879425 -2.224001169204712 0.19801783561706543 36.0 10 -0.03800541162490845
0.4320124685764313 -2.28855037689209 -0.3688724935054779 100.0 3 -0.038003109395504
0.41938841342926025 -2.2238047122955322 0.2778621315956116 22.0 11 -0.03800080344080925
0.4322315752506256 -2.294105291366577 -0.28663671016693115 100.0 4 -0.0379985012114048
0.4213382601737976 -2.236288070678711 0.36042505502700806 18.0 12 -0.03799619525671005
0.40909436345100403 -2.1733858585357666 -0.19348573684692383 100.0 5 -0.0379938930273056
0.41870275139808655 -2.226569414138794 0.44038718938827515 11.0 13 -0.037991590797901154
0.4200277626514435 -2.235765218734741 -0.11922132223844528 100.0 6 -0.037989284843206406
0.4184306263923645 -2.2294065952301025 0.5236860513687134 9.0 14 -0.037986982613801956
0.4135099947452545 -2.2031893730163574 -0.039128296077251434 100.0 7 -0.03798467665910721
0.4161987602710724 -2.219651699066162 0.6051189303398132 9.0 15 -0.03798237442970276
0.2346431016921997 -1.261106252670288 -0.3437117040157318 10.0 0 -0.03796163573861122
0.4060249924659729 -2.1822104454040527 0.03874434158205986 100.0 8 -0.03795933350920677
0.2777836322784424 -1.4944193363189697 -0.35092365741729736 7.0 1 -0.037957027554512024
0.41352128982543945 -2.2268216609954834 0.11869796365499496 66.0 9 -0.037954725325107574
0.33375999331474304 -1.799055576324463 -0.35566797852516174 6.0 2 -0.03795241937041283
0.413552850484848 -2.2313315868377686 0.19854077696800232 39.0 10 -0.03795011714100838
0.42334097623825073 -2.2841434478759766 -0.36793389916419983 100.0 3 -0.03794781118631363
0.409843385219574 -2.2134716510772705 0.276399701833725 22.0 11 -0.03794550895690918
0.4253440499305725 -2.2994301319122314 -0.2871242165565491 100.0 4 -0.03794320672750473
0.4142477214336395 -2.2416300773620605 0.3610507845878601 17.0 12 -0.03794090077280998
0.4036755859851837 -2.186556100845337 -0.1945316195487976 100.0 5 -0.03793859854340553
0.4091781973838806 -2.2163617610931396 0.43809744715690613 11.0 13 -0.037936292588710785
0.4064532220363617 -2.2037558555603027 -0.11744190007448196 100.0 6 -0.037933990359306335
0.4138602614402771 -2.2461135387420654 0.5272852778434753 9.0 14 -0.03793168440461159
0.4087129533290863 -2.2203526496887207 -0.03940753638744354 100.0 7 -0.03792938217520714
0.40844789147377014 -2.2210910320281982 0.6051189303398132 9.0 15 -0.03792707622051239
0.2304597795009613 -1.261877417564392 -0.3437117040157318 10.0 0 -0.03790634125471115
0.399481862783432 -2.189516067504883 0.038849055767059326 100.0 8 -0.0379040353000164
0.27046892046928406 -1.4838769435882568 -0.3482242524623871 7.0 1 -0.037901733070611954
0.4039563536643982 -2.2184269428253174 0.11817460507154465 70.0 9 -0.037899427115917206
0.3313092887401581 -1.819467306137085 -0.35948416590690613 5.0 2 -0.037897124886512756
0.4047250747680664 -2.2248499393463135 0.197843536734581 40.0 10 -0.03789482265710831
0.4160718619823456 -2.289494514465332 -0.36855965852737427 100.0 3 -0.03789251670241356
0.4014049470424652 -2.210982322692871 0.27591222524642944 22.0 11 -0.03789021447300911
0.41589784622192383 -2.293087959289551 -0.2861492335796356 100.0 4 -0.03788790851831436
0.4078294634819031 -2.250837564468384 0.3623022735118866 17.0 12 -0.03788560628890991
0.3957122564315796 -2.183961868286133 -0.19418299198150635 100.0 5 -0.037883300334215164
0.4031875431537628 -2.227436065673828 0.4400055408477783 12.0 13 -0.037880998104810715
0.3991134762763977 -2.2071263790130615 -0.11754656583070755 100.0 6 -0.03787869215011597
0.40428537130355835 -2.2379562854766846 0.5250357985496521 10.0 14 -0.03787638992071152
0.39882901310920715 -2.209958076477051 -0.03919810429215431 100.0 7 -0.03787408396601677
0.4013780355453491 -2.2263054847717285 0.606154203414917 10.0 15 -0.03787178173661232
0.22605355083942413 -1.2626742124557495 -0.3437117040157318 9.0 0 -0.03785104677081108
0.391836553812027 -2.190897226333618 0.038849055767059326 100.0 8 -0.03784874081611633
0.26597318053245544 -1.4886486530303955 -0.3491240441799164 7.0 1 -0.037846438586711884
0.3941047191619873 -2.208026170730591 0.11754656583070755 76.0 9 -0.037844132632017136
0.3194368779659271 -1.789689302444458 -0.3533782958984375 5.0 2 -0.037841830402612686
0.39870506525039673 -2.236056327819824 0.19871510565280914 44.0 10 -0.03783952444791794
0.4080771803855896 -2.2909328937530518 -0.36855965852737427 100.0 3 -0.03783722221851349
0.39368492364883423 -2.2123701572418213 0.27591222524642944 22.0 11 -0.03783491626381874
0.4071962833404541 -2.290616750717163 -0.2856617569923401 100.0 4 -0.03783261403441429
0.3989335000514984 -2.246412515640259 0.3613636791706085 19.0 12 -0.03783030807971954
0.3898278772830963 -2.195138454437256 -0.1950545459985733 100.0 5 -0.037828005850315094
0.3950671851634979 -2.2268967628479004 0.43962395191192627 11.0 13 -0.037825699895620346
0.39314964413642883 -2.218339204788208 -0.11806992441415787 100.0 6 -0.0378233976662159
0.3947719931602478 -2.2297592163085938 0.5227862596511841 10.0 14 -0.03782109171152115
0.39076411724090576 -2.2093679904937744 -0.03916320204734802 100.0 7 -0.0378187894821167
0.3946126699447632 -2.233400344848633 0.607707142829895 10.0 15 -0.03781648352742195
0.22164474427700043 -1.2634555101394653 -0.3437117040157318 9.0 0 -0.03779574856162071
0.38763824105262756 -2.2119483947753906 0.03919810429215431 100.0 8 -0.03779344633221626
0.26077499985694885 -1.4895679950714111 -0.3491240441799164 7.0 1 -0.037791140377521515
0.38570666313171387 -2.205453634262085 0.11733722686767578 79.0 9 -0.037788838148117065
0.31318771839141846 -1.790793538093567 -0.3533782958984375 5.0 2 -0.03778653219342232
0.38815411925315857 -2.2217330932617188 0.1973206102848053 43.0 10 -0.03778422996401787
