# .PCD v0.7 - Point Cloud Data file format
VERSION 0.7
FIELDS x y z intensity ring time
SIZE 4 4 4 4 4 4
TYPE F F F F F F
COUNT 1 1 1 1 1 1
WIDTH 534
HEIGHT 1
VIEWPOINT 0 0 0 1 0 0 0
POINTS 534
DATA ascii
-2.895613670349121 -0.534579873085022 0.6798021197319031 83.0 14 -0.0629638284444809
-2.6154818534851074 -0.4823901355266571 -0.046423401683568954 3.0 7 -0.06296152621507645
-2.8935024738311768 -0.5331458449363708 0.7883628606796265 49.0 15 -0.062959223985672
-1.6305065155029297 -0.29807740449905396 -0.4441334903240204 30.0 0 -0.06293848901987076
-2.6182868480682373 -0.4781847298145294 0.04645830765366554 29.0 8 -0.06293618679046631
-1.621860384941101 -0.2959117889404297 -0.3806172013282776 17.0 1 -0.06293387711048126
-2.6446526050567627 -0.4825223386287689 0.14088840782642365 10.0 9 -0.06293157488107681
-1.6320605278015137 -0.2974785268306732 -0.32246720790863037 0.0 2 -0.06292927265167236
-2.6481733322143555 -0.4822096824645996 0.23549480736255646 7.0 10 -0.06292697042226791
-1.6383553743362427 -0.2980350852012634 -0.26374855637550354 30.0 3 -0.06292466074228287
-2.915982246398926 -0.5299238562583923 0.36390188336372375 82.0 11 -0.06292235851287842
-1.6191734075546265 -0.29396185278892517 -0.20205938816070557 1.0 4 -0.06292005628347397
-2.913464307785034 -0.5289410948753357 0.46899059414863586 82.0 12 -0.06291775405406952
-1.6996724605560303 -0.30827009677886963 -0.15112805366516113 0.0 5 -0.06291544437408447
-2.920881986618042 -0.5292347073554993 0.577006459236145 82.0 13 -0.06291314214468002
-2.4586181640625 -0.4450339078903198 -0.13094457983970642 33.0 6 -0.06291083991527557
-2.8994712829589844 -0.5243100523948669 0.6802520155906677 76.0 14 -0.06290853768587112
-2.625020980834961 -0.4746813476085663 -0.04656302183866501 3.0 7 -0.06290622800588608
-2.88584041595459 -0.5213251113891602 0.7857747077941895 45.0 15 -0.06290392577648163
-1.5973089933395386 -0.2862500846385956 -0.43481600284576416 19.0 0 -0.06288319081068039
-2.600174903869629 -0.46597135066986084 0.04610925912857056 27.0 8 -0.06288088858127594
-1.6094050407409668 -0.2881282866001129 -0.37746790051460266 25.0 1 -0.06287858635187149
-2.648287057876587 -0.47363942861557007 0.14099308848381042 10.0 9 -0.06287627667188644
-2.663569688796997 -0.4754140079021454 0.23671498894691467 8.0 10 -0.06287167221307755
-1.5965523719787598 -0.2849647104740143 -0.25686541199684143 15.0 3 -0.0628693699836731
-2.9216320514678955 -0.520948052406311 0.3643893897533417 85.0 11 -0.06286706030368805
-1.6162307262420654 -0.2878945767879486 -0.20157191157341003 21.0 4 -0.0628647580742836
-2.915292978286743 -0.5187678933143616 0.46899059414863586 78.0 12 -0.06286245584487915
-1.6281574964523315 -0.2894327640533447 -0.14467853307724 12.0 5 -0.0628601536154747
-2.914888858795166 -0.5181711912155151 0.5754799246788025 83.0 13 -0.06285784393548965
-2.8935186862945557 -0.5133304595947266 0.6784523725509644 63.0 14 -0.06285323947668076
-2.608940601348877 -0.4623746871948242 -0.04624887555837631 3.0 7 -0.0628509372472763
-2.872424364089966 -0.5085541009902954 0.7816335558891296 35.0 15 -0.06284862756729126
-1.6001522541046143 -0.2812860310077667 -0.43533363938331604 24.0 0 -0.06282789260149002
-2.607694387435913 -0.45793044567108154 0.04621397331357002 31.0 8 -0.06282559037208557
-1.595045566558838 -0.2798144519329071 -0.3738686740398407 28.0 1 -0.06282328814268112
-2.6479568481445312 -0.4640474319458008 0.14088840782642365 9.0 9 -0.06282098591327667
-1.5760340690612793 -0.27619582414627075 -0.3110186755657196 0.0 2 -0.06281867623329163
-2.6572816371917725 -0.46520426869392395 0.23601774871349335 8.0 10 -0.06281637400388718
-1.5936458110809326 -0.27870893478393555 -0.2562396824359894 22.0 3 -0.06281407177448273
-2.9136555194854736 -0.5090382695198059 0.36317068338394165 87.0 11 -0.06281176954507828
-1.597670316696167 -0.27883848547935486 -0.19913452863693237 30.0 4 -0.06280945986509323
-2.919032096862793 -0.5089277029037476 0.4693034589290619 85.0 12 -0.06280715763568878
-1.6173317432403564 -0.2819787263870239 -0.1436326652765274 24.0 5 -0.06280485540628433
-2.9108777046203613 -0.5069825649261475 0.5743350982666016 92.0 13 -0.06280255317687988
-1.6312216520309448 -0.2838141620159149 -0.08677302300930023 15.0 6 -0.06280024349689484
-2.904893159866333 -0.5048955082893372 0.6807019710540771 52.0 14 -0.06279794126749039
-2.653883695602417 -0.46079081296920776 -0.04701678454875946 1.0 7 -0.06279563903808594
-2.879892587661743 -0.49951478838920593 0.7831864953041077 28.0 15 -0.06279333680868149
-1.6011242866516113 -0.27569910883903503 -0.43533363938331604 28.0 0 -0.06277260184288025
-2.613218307495117 -0.44950297474861145 0.0462837815284729 32.0 8 -0.0627702921628952
-1.590250849723816 -0.2732549011707306 -0.37251898646354675 31.0 1 -0.06276798993349075
-2.64168643951416 -0.4534505009651184 0.1404697149991989 9.0 9 -0.0627656877040863
-1.5769884586334229 -0.2706930637359619 -0.3110186755657196 0.0 2 -0.06276338547468185
-2.6628167629241943 -0.4565991759300232 0.2363663762807846 8.0 10 -0.06276107579469681
-1.5965559482574463 -0.27347782254219055 -0.2565525472164154 23.0 3 -0.06275877356529236
-2.9095447063446045 -0.49786078929901123 0.36243945360183716 96.0 11 -0.06275647133588791
-1.5868937969207764 -0.27125266194343567 -0.19767209887504578 21.0 4 -0.06275416910648346
-2.9266321659088135 -0.4997326135635376 0.47024205327033997 77.0 12 -0.06275185942649841
-1.5986665487289429 -0.2729778587818146 -0.1418895423412323 27.0 5 -0.06274955719709396
-2.9068236351013184 -0.4958288371562958 0.5731902718544006 87.0 13 -0.06274725496768951
-1.6184203624725342 -0.27576956152915955 -0.08604031801223755 30.0 6 -0.06274495273828506
-2.9027953147888184 -0.49409839510917664 0.6798021197319031 46.0 14 -0.06274265050888062
-1.5712058544158936 -0.267160564661026 -0.027819136157631874 0.0 7 -0.06274034082889557
-2.891141414642334 -0.49107638001441956 0.7857747077941895 27.0 15 -0.06273803859949112
-1.6077916622161865 -0.2710719406604767 -0.43688657879829407 37.0 0 -0.06271730363368988
-2.618715286254883 -0.44104188680648804 0.04635359346866608 29.0 8 -0.06271500140428543
-1.58927321434021 -0.2673792541027069 -0.3720690608024597 37.0 1 -0.06271269172430038
-2.6432530879974365 -0.4442264437675476 0.1404697149991989 8.0 9 -0.06271038949489594
-1.6360068321228027 -0.2749481499195099 -0.32246720790863037 0.0 2 -0.06270808726549149
-2.6683242321014404 -0.44796040654182434 0.23671498894691467 8.0 10 -0.06270578503608704
-1.5897082090377808 -0.26659661531448364 -0.2553010880947113 30.0 3 -0.06270347535610199
-2.9151804447174072 -0.48835742473602295 0.3629269301891327 96.0 11 -0.06270117312669754
-1.5584629774093628 -0.2607971727848053 -0.19401602447032928 24.0 4 -0.06269887089729309
-2.924461841583252 -0.48886293172836304 0.4696163237094879 77.0 12 -0.06269656866788864
-1.5858538150787354 -0.2650966942310333 -0.14066936075687408 32.0 5 -0.06269426643848419
-2.9240283966064453 -0.48826587200164795 0.5762432217597961 85.0 13 -0.06269195675849915
-1.619373083114624 -0.27011847496032715 -0.08604031801223755 38.0 6 -0.0626896545290947
-2.8910465240478516 -0.48172128200531006 0.6766527891159058 31.0 14 -0.06268735229969025
-1.5957995653152466 -0.2656138241291046 -0.028237992897629738 29.0 7 -0.0626850500702858
-2.8871209621429443 -0.4800308048725128 0.7842217683792114 19.0 15 -0.06268274039030075
-1.5934796333312988 -0.26294180750846863 -0.43274545669555664 48.0 0 -0.06266200542449951
-2.6301043033599854 -0.43352484703063965 0.04652811586856842 26.0 8 -0.06265970319509506
-1.5863511562347412 -0.2611967921257019 -0.3711692690849304 43.0 1 -0.06265740096569061
-2.6428170204162598 -0.4346722364425659 0.14036504924297333 2.0 9 -0.06265509873628616
-1.5904632806777954 -0.2615883946418762 -0.31330838799476624 0.0 2 -0.06265278905630112
-2.65610933303833 -0.43638306856155396 0.23549480736255646 4.0 10 -0.06265048682689667
-1.5886799097061157 -0.2607259452342987 -0.2549882233142853 30.0 3 -0.06264818459749222
-2.9286208152770996 -0.48010459542274475 0.3643893897533417 84.0 11 -0.06264588236808777
-1.561322808265686 -0.25567662715911865 -0.19425974786281586 23.0 4 -0.06264357268810272
-2.920302152633667 -0.47769492864608765 0.46867769956588745 61.0 12 -0.06264127045869827
-1.5553092956542969 -0.2544131875038147 -0.1378803700208664 22.0 5 -0.06263896822929382
-2.921839475631714 -0.4774221181869507 0.5754799246788025 83.0 13 -0.06263666599988937
-1.5848249197006226 -0.2586733102798462 -0.08415622264146805 42.0 6 -0.06263435631990433
-2.8946340084075928 -0.4719402492046356 0.6771027445793152 27.0 14 -0.06263205409049988
-1.5532957315444946 -0.25297021865844727 -0.027470089495182037 60.0 7 -0.06262975186109543
-2.8735246658325195 -0.4674690067768097 0.7800806164741516 12.0 15 -0.06262744963169098
-1.5810376405715942 -0.2552228271961212 -0.4291220009326935 51.0 0 -0.06260671466588974
-1.5987968444824219 -0.2575170695781708 -0.3738686740398407 60.0 1 -0.06260210275650024
-1.5758600234985352 -0.2535404860973358 -0.3102554380893707 32.0 2 -0.06259749829769135
-1.579828143119812 -0.25361326336860657 -0.25342386960983276 38.0 3 -0.06259288638830185
-1.5563253164291382 -0.24928312003612518 -0.19352853298187256 25.0 4 -0.06258828192949295
-2.9278037548065186 -0.4684337377548218 0.4696163237094879 61.0 12 -0.0625859722495079
-1.5306123495101929 -0.24489019811153412 -0.1356143355369568 27.0 5 -0.06258367002010345
-2.923488140106201 -0.4672207236289978 0.5754799246788025 85.0 13 -0.062581367790699
-1.5817736387252808 -0.2525099217891693 -0.08394688367843628 31.0 6 -0.06257906556129456
-2.8943393230438232 -0.461525559425354 0.6766527891159058 17.0 14 -0.06257675588130951
-1.5581189393997192 -0.24817606806755066 -0.027539897710084915 45.0 7 -0.06257445365190506
-2.8808624744415283 -0.4583461880683899 0.7816335558891296 12.0 15 -0.06257215142250061
-1.5895518064498901 -0.25090718269348145 -0.431192547082901 56.0 0 -0.06255141645669937
-1.5407291650772095 -0.24292506277561188 0.027225753292441368 6.0 8 -0.06254911422729492
-1.5842859745025635 -0.24950926005840302 -0.37026944756507874 60.0 1 -0.06254680454730988
-1.560639500617981 -0.24550606310367584 0.08279548585414886 18.0 9 -0.06254450231790543
-1.582553744316101 -0.24895340204238892 -0.31140029430389404 59.0 2 -0.06254220008850098
-1.550972580909729 -0.24370796978473663 0.1373574435710907 19.0 10 -0.06253989785909653
-1.5768009424209595 -0.2474844604730606 -0.2527981102466583 52.0 3 -0.06253758817911148
-1.5394933223724365 -0.24135363101959229 0.19133488833904266 1.0 11 -0.06253528594970703
-1.5493413209915161 -0.24262051284313202 -0.1925535798072815 26.0 4 -0.06253298372030258
-2.9352762699127197 -0.45912742614746094 0.470554918050766 52.0 12 -0.06253068149089813
-1.537363052368164 -0.24046988785266876 -0.13613726198673248 30.0 5 -0.06252837181091309
-2.9134631156921387 -0.4551945924758911 0.5731902718544006 82.0 13 -0.06252606958150864
-1.5589649677276611 -0.24329134821891785 -0.08269082009792328 31.0 6 -0.06252376735210419
-2.895932674407959 -0.45142021775245667 0.6766527891159058 13.0 14 -0.06252146512269974
-1.5609517097473145 -0.24304331839084625 -0.027574801817536354 37.0 7 -0.06251916289329529
-2.8824448585510254 -0.4482865333557129 0.7816335558891296 10.0 15 -0.06251685321331024
-1.5980548858642578 -0.24653519690036774 -0.4332630932331085 47.0 0 -0.06247973442077637
-1.5554022789001465 -0.23967759311199188 0.027470089495182037 44.0 8 -0.06247743219137192
-1.5889993906021118 -0.24457040429115295 -0.3711692690849304 48.0 1 -0.06247512623667717
-1.555523157119751 -0.2394179254770279 0.08248147368431091 19.0 9 -0.06247282400727272
-1.5931154489517212 -0.2449193000793457 -0.31330838799476624 60.0 2 -0.06247051805257797
-1.5577216148376465 -0.23920011520385742 0.1378803700208664 28.0 10 -0.06246821582317352
-1.5737501382827759 -0.24137988686561584 -0.2521723806858063 64.0 3 -0.062465909868478775
-1.5344398021697998 -0.235076442360878 0.19060367345809937 24.0 11 -0.062463607639074326
-1.5521409511566162 -0.2375110238790512 -0.19279730319976807 32.0 4 -0.06246130168437958
-2.9426403045654297 -0.450287401676178 0.47149354219436646 35.0 12 -0.06245899945497513
-1.5421322584152222 -0.23570404946804047 -0.13648588955402374 32.0 5 -0.06245669350028038
-2.9266786575317383 -0.44679951667785645 0.5754799246788025 72.0 13 -0.06245439127087593
-1.5420347452163696 -0.23513834178447723 -0.08174876868724823 28.0 6 -0.06245208531618118
-2.901343822479248 -0.4418955445289612 0.6775525808334351 10.0 14 -0.06244978308677673
-1.5498876571655273 -0.2360590398311615 -0.027365373447537422 33.0 7 -0.062447477132081985
-2.897284507751465 -0.44075992703437805 0.7852570414543152 9.0 15 -0.062445174902677536
-1.6008161306381226 -0.24124369025230408 -0.4337807595729828 45.0 0 -0.0624244399368763
-1.5364148616790771 -0.23153840005397797 0.027121039107441902 30.0 8 -0.06242213398218155
-1.5801665782928467 -0.2378493845462799 -0.3689197599887848 47.0 1 -0.0624198317527771
-1.5405486822128296 -0.23161108791828156 0.08164409548044205 14.0 9 -0.06241752579808235
-1.5784286260604858 -0.23702476918697357 -0.3102554380893707 53.0 2 -0.0624152235686779
-1.5447547435760498 -0.2316920906305313 0.13666020333766937 26.0 10 -0.062412917613983154
-1.5745419263839722 -0.23615975677967072 -0.2521723806858063 53.0 3 -0.062410615384578705
-1.5175422430038452 -0.22733980417251587 0.18841002881526947 19.0 11 -0.06240830942988396
-1.5450671911239624 -0.23118792474269867 -0.1918223649263382 43.0 4 -0.06240600720047951
-2.9246575832366943 -0.4370930790901184 0.4683648645877838 28.0 12 -0.06240370124578476
-1.5429455041885376 -0.23031951487064362 -0.13648588955402374 43.0 5 -0.06240139901638031
-2.9281442165374756 -0.43709176778793335 0.5754799246788025 61.0 13 -0.06239909306168556
-1.5368797779083252 -0.2291402369737625 -0.08143475651741028 30.0 6 -0.06239679083228111
-2.8970108032226562 -0.43141070008277893 0.6762028932571411 8.0 14 -0.062394484877586365
-1.530922770500183 -0.22770550847053528 -0.027016324922442436 37.0 7 -0.062392182648181915
-2.889251232147217 -0.4292236864566803 0.7826688289642334 8.0 15 -0.06238987669348717
-1.5920511484146118 -0.23452609777450562 -0.431192547082901 42.0 0 -0.06236914172768593
-1.5293002128601074 -0.2250095158815384 0.026981420814990997 32.0 8 -0.06236683949828148
-1.5983394384384155 -0.23488205671310425 -0.3729688823223114 39.0 1 -0.06236453354358673
-1.5255391597747803 -0.22391214966773987 0.08080672472715378 16.0 9 -0.06236223131418228
-1.5675513744354248 -0.2300785332918167 -0.3079657256603241 53.0 2 -0.062359925359487534
-1.5238300561904907 -0.22338926792144775 0.13474278151988983 30.0 10 -0.062357623130083084
-1.5753567218780518 -0.23066210746765137 -0.2521723806858063 43.0 3 -0.062355317175388336
-1.524219036102295 -0.22290323674678802 0.18914122879505157 25.0 11 -0.06235301494598389
-1.5537216663360596 -0.22694042325019836 -0.19279730319976807 41.0 4 -0.06235070899128914
-2.9261655807495117 -0.4268814027309418 0.4683648645877838 24.0 12 -0.06234840676188469
-1.5319106578826904 -0.22320891916751862 -0.13544002175331116 49.0 5 -0.06234610080718994
-2.9315950870513916 -0.4271516799926758 0.5758615732192993 60.0 13 -0.06234379857778549
-1.5376702547073364 -0.22377370297908783 -0.08143475651741028 34.0 6 -0.062341492623090744
-2.8965706825256348 -0.4210152328014374 0.6757529973983765 7.0 14 -0.062339190393686295
-1.5178555250167847 -0.2203495055437088 -0.026771990582346916 36.0 7 -0.062336888164281845
-2.883084297180176 -0.41802749037742615 0.7805982232093811 7.0 15 -0.0623345822095871
-1.5967246294021606 -0.22923803329467773 -0.43222782015800476 43.0 0 -0.06231384724378586
-1.5102823972702026 -0.21682772040367126 0.02663237228989601 35.0 8 -0.06231154128909111
-1.5991495847702026 -0.22930172085762024 -0.3729688823223114 49.0 1 -0.06230923905968666
-1.5302655696868896 -0.21915192902088165 0.08101607114076614 16.0 9 -0.06230693310499191
-1.5819884538650513 -0.22627709805965424 -0.31063705682754517 47.0 2 -0.06230463087558746
-1.5187214612960815 -0.2169577181339264 0.13421984016895294 31.0 10 -0.062302324920892715
-1.580102562904358 -0.225444957613945 -0.2527981102466583 42.0 3 -0.062300022691488266
-1.5171271562576294 -0.21645978093147278 0.1881662756204605 27.0 11 -0.06229771673679352
-1.560400128364563 -0.22235563397407532 -0.19352853298187256 34.0 4 -0.06229541450738907
-2.929593086242676 -0.41694343090057373 0.46867769956588745 15.0 12 -0.06229311227798462
-1.5385980606079102 -0.21870093047618866 -0.13596294820308685 52.0 5 -0.06229080632328987
-2.937028646469116 -0.4169551134109497 0.5766248106956482 55.0 13 -0.06228850409388542
-1.54441237449646 -0.21897785365581512 -0.08174876868724823 45.0 6 -0.062286198139190674
-2.9000236988067627 -0.41066911816596985 0.6762028932571411 5.0 14 -0.062283895909786224
-1.5225754976272583 -0.21561022102832794 -0.026841802522540092 43.0 7 -0.062281589955091476
-2.8653976917266846 -0.40525567531585693 0.7754218578338623 6.0 15 -0.06227928772568703
-1.6089941263198853 -0.22527049481868744 -0.43533363938331604 40.0 0 -0.06225854903459549
-1.5110669136047363 -0.2112911194562912 0.02663237228989601 33.0 8 -0.06225624680519104
-1.5883991718292236 -0.22182141244411469 -0.37026944756507874 45.0 1 -0.06225394085049629
-1.5350147485733032 -0.21409350633621216 0.08122541010379791 16.0 9 -0.06225163862109184
-1.584713101387024 -0.22102509438991547 -0.3110186755657196 45.0 2 -0.062249332666397095
-1.5234160423278809 -0.21220476925373077 0.1345684677362442 33.0 10 -0.062247030436992645
-1.5730537176132202 -0.21883882582187653 -0.2515466511249542 47.0 3 -0.062244728207588196
-1.5120117664337158 -0.21007822453975677 0.1874350756406784 29.0 11 -0.06224242225289345
-1.5592384338378906 -0.21636249125003815 -0.1932847946882248 32.0 4 -0.062240120023489
-2.9389286041259766 -0.4072871208190918 0.46992918848991394 12.0 12 -0.06223781406879425
-1.5393521785736084 -0.21332886815071106 -0.13596294820308685 44.0 5 -0.0622355118393898
-2.9248530864715576 -0.4048169255256653 0.5739535093307495 48.0 13 -0.06223320588469505
-1.5392321348190308 -0.21276505291461945 -0.08143475651741028 45.0 6 -0.062230903655290604
-2.909161329269409 -0.4016095697879791 0.6780025362968445 2.0 14 -0.062228597700595856
-1.5193934440612793 -0.20948198437690735 -0.026771990582346916 47.0 7 -0.062226295471191406
-2.9013123512268066 -0.3994940519332886 0.7847393751144409 5.0 15 -0.06222398951649666
-1.617427110671997 -0.22069737315177917 -0.43740418553352356 38.0 0 -0.06220325455069542
-1.5098137855529785 -0.2057451754808426 0.026597466319799423 41.0 8 -0.06220094859600067
-1.5930256843566895 -0.21680143475532532 -0.3711692690849304 40.0 1 -0.06219864636659622
-1.5238784551620483 -0.20712003111839294 0.08059737831354141 16.0 9 -0.06219634413719177
-1.601037859916687 -0.21760724484920502 -0.3140716254711151 44.0 2 -0.062194038182497025
-1.520199179649353 -0.20634976029396057 0.13421984016895294 33.0 10 -0.062191735953092575
-1.5914252996444702 -0.2157350480556488 -0.25436246395111084 58.0 3 -0.06218942999839783
-1.495031476020813 -0.20240211486816406 0.18524141609668732 31.0 11 -0.06218712776899338
-1.5599842071533203 -0.21091799437999725 -0.1932847946882248 32.0 4 -0.06218482181429863
-2.9403321743011475 -0.3970257341861725 0.46992918848991394 11.0 12 -0.06218251958489418
-1.5598320960998535 -0.2106202393770218 -0.13770607113838196 43.0 5 -0.06218021363019943
-2.9301395416259766 -0.3951295018196106 0.5747166872024536 35.0 13 -0.06217791140079498
-1.5300685167312622 -0.2060575783252716 -0.08091139793395996 41.0 6 -0.062175605446100235
-2.889300584793091 -0.3885948359966278 0.6730535626411438 2.0 14 -0.062173303216695786
-1.5260612964630127 -0.20497596263885498 -0.02687670662999153 44.0 7 -0.06217099726200104
-2.902688980102539 -0.389364093542099 0.7847393751144409 5.0 15 -0.06216869503259659
-1.6277626752853394 -0.21632258594036102 -0.43999239802360535 31.0 0 -0.06214796006679535
-1.510522723197937 -0.20047365128993988 0.026597466319799423 44.0 8 -0.0621456541121006
-1.6072956323623657 -0.21303169429302216 -0.37431856989860535 32.0 1 -0.06214335188269615
-1.5166370868682861 -0.20101577043533325 0.08017869293689728 20.0 9 -0.062141045928001404
-1.5862175226211548 -0.2099563181400299 -0.3110186755657196 40.0 2 -0.062138743698596954
-1.5288108587265015 -0.20208632946014404 0.13491709530353546 34.0 10 -0.062136437743902206
-1.5784599781036377 -0.2083689421415329 -0.2521723806858063 42.0 3 -0.06213413551449776
-1.4996650218963623 -0.197701096534729 0.18572889268398285 30.0 11 -0.06213182955980301
-1.556774616241455 -0.20495308935642242 -0.19279730319976807 32.0 4 -0.06212952733039856
-2.931840658187866 -0.38598379492759705 0.4683648645877838 6.0 12 -0.06212722137570381
-1.5645086765289307 -0.20569390058517456 -0.13805469870567322 42.0 5 -0.06212491914629936
-2.9392874240875244 -0.3859212100505829 0.5762432217597961 28.0 13 -0.062122613191604614
-1.55256187915802 -0.20357155799865723 -0.08206278830766678 26.0 6 -0.062120310962200165
-2.9022328853607178 -0.38002562522888184 0.6757529973983765 1.0 14 -0.06211800500750542
-1.5227669477462769 -0.19939491152763367 -0.026806894689798355 45.0 7 -0.06211570277810097
-2.9192886352539062 -0.3817400634288788 0.788880467414856 4.0 15 -0.06211339682340622
-1.6131807565689087 -0.2086571902036667 -0.4358513057231903 23.0 0 -0.06209266185760498
-1.5290278196334839 -0.19777239859104156 0.02691161073744297 43.0 8 -0.06209035962820053
-1.607993245124817 -0.20770049095153809 -0.37431856989860535 29.0 1 -0.06208805367350578
-1.5212911367416382 -0.19623146951198578 0.08038803189992905 19.0 9 -0.062085751444101334
-1.57915198802948 -0.20341476798057556 -0.30949220061302185 33.0 2 -0.062083445489406586
-1.519626498222351 -0.19547753036022186 0.1340455263853073 49.0 10 -0.062081143260002136
-1.5987346172332764 -0.2056536227464676 -0.2553010880947113 38.0 3 -0.06207883730530739
-1.5180326700210571 -0.1950032114982605 0.18792253732681274 40.0 11 -0.06207653507590294
-1.5672906637191772 -0.20105235278606415 -0.19401602447032928 26.0 4 -0.06207422912120819
-2.931210517883301 -0.3754970133304596 0.4680519700050354 6.0 12 -0.06207192689180374
-1.5612645149230957 -0.19972582161426544 -0.13770607113838196 42.0 5 -0.062069620937108994
-2.9405508041381836 -0.37617194652557373 0.5762432217597961 22.0 13 -0.062067318707704544
-1.5552095174789429 -0.1986749768257141 -0.08216746151447296 28.0 6 -0.062065012753009796
-2.9112093448638916 -0.37138569355010986 0.6775525808334351 1.0 14 -0.06206271052360535
-1.525437355041504 -0.19433093070983887 -0.026841802522540092 39.0 7 -0.0620604082942009
-2.8995232582092285 -0.3688656985759735 0.7831864953041077 4.0 15 -0.06205810233950615
-1.6157804727554321 -0.20354792475700378 -0.4363689422607422 20.0 0 -0.06203736737370491
-1.51383638381958 -0.19043678045272827 0.02663237228989601 40.0 8 -0.06203506141901016
-1.6145092248916626 -0.20281492173671722 -0.3756682872772217 25.0 1 -0.06203275918960571
-1.5417841672897339 -0.19340625405311584 0.08143475651741028 16.0 9 -0.062030453234910965
-1.591505765914917 -0.19964349269866943 -0.3117819130420685 27.0 2 -0.062028151005506516
-1.5084047317504883 -0.1889512836933136 0.13299965858459473 49.0 10 -0.06202584505081177
-1.5876821279525757 -0.19860057532787323 -0.25342386960983276 34.0 3 -0.06202354282140732
-1.5147645473480225 -0.18921130895614624 0.1874350756406784 45.0 11 -0.06202123686671257
-1.57389235496521 -0.19631770253181458 -0.1947472244501114 21.0 4 -0.06201893463730812
-2.9305431842803955 -0.36501866579055786 0.46773913502693176 3.0 12 -0.06201662868261337
-1.5540097951889038 -0.19356226921081543 -0.13700881600379944 40.0 5 -0.06201432645320892
-2.926260232925415 -0.36396586894989014 0.5731902718544006 13.0 13 -0.062012024223804474
-1.559857726097107 -0.19373777508735657 -0.08237680792808533 23.0 6 -0.062009718269109726
-2.927959442138672 -0.36314016580581665 0.681151807308197 1.0 14 -0.062007416039705276
-1.5300755500793457 -0.18949611485004425 -0.02691161073744297 39.0 7 -0.06200511008501053
-2.8950412273406982 -0.3580314815044403 0.7816335558891296 4.0 15 -0.06200280785560608
-1.6260688304901123 -0.19908033311367035 -0.4389571249485016 18.0 0 -0.06198206916451454
-1.5125070810317993 -0.18490862846374512 0.026597466319799423 28.0 8 -0.06197976693511009
-1.6055352687835693 -0.19599762558937073 -0.37341877818107605 21.0 1 -0.061977460980415344
-1.5563279390335083 -0.18971455097198486 0.08216746151447296 11.0 9 -0.061975158751010895
-1.6038858890533447 -0.1955118030309677 -0.3140716254711151 23.0 2 -0.06197285279631615
-1.5209218263626099 -0.18512921035289764 0.1340455263853073 48.0 10 -0.0619705505669117
-1.5844438076019287 -0.19258098304271698 -0.2527981102466583 30.0 3 -0.06196824461221695
-1.5114744901657104 -0.18344388902187347 0.18694758415222168 45.0 11 -0.0619659423828125
-1.5844213962554932 -0.19201669096946716 -0.19596591591835022 17.0 4 -0.06196364015340805
-2.9376823902130127 -0.3554987609386444 0.46867769956588745 2.0 12 -0.0619613341987133
-1.552698016166687 -0.18789717555046082 -0.136834517121315 31.0 5 -0.06195903196930885
-2.9216654300689697 -0.3530431091785431 0.5720453858375549 10.0 13 -0.061956726014614105
-1.550610065460205 -0.18709535896778107 -0.08185344934463501 27.0 6 -0.061954423785209656
-2.9408178329467773 -0.35431602597236633 0.6838512420654297 1.0 14 -0.06195211783051491
-1.534698486328125 -0.18463203310966492 -0.026981420814990997 30.0 7 -0.06194981560111046
-2.9077816009521484 -0.3493061065673828 0.7847393751144409 4.0 15 -0.06194750964641571
-1.6305904388427734 -0.1938587725162506 -0.43999239802360535 16.0 0 -0.06192677468061447
-1.5250577926635742 -0.18104258179664612 0.026806894689798355 28.0 8 -0.061924468725919724
-1.6120153665542603 -0.19108018279075623 -0.3747684955596924 17.0 1 -0.061922166496515274
-1.5411133766174316 -0.18240272998809814 0.0813300833106041 9.0 9 -0.061919860541820526
-1.6084580421447754 -0.1903734803199768 -0.314834862947464 22.0 2 -0.06191755831241608
-1.5294733047485352 -0.18075473606586456 0.13474278151988983 36.0 10 -0.06191525608301163
-1.5949151515960693 -0.1882065087556839 -0.25436246395111084 27.0 3 -0.06191295012831688
-1.5101341009140015 -0.1779344081878662 0.1867038458585739 41.0 11 -0.06191064789891243
-1.5732530355453491 -0.18509313464164734 -0.19450348615646362 14.0 4 -0.06190834194421768
-2.950676918029785 -0.3466249406337738 0.470554918050766 2.0 12 -0.06190603971481323
-1.567196011543274 -0.18410323560237885 -0.13805469870567322 23.0 5 -0.061903733760118484
-2.9209299087524414 -0.34261366724967957 0.5716637372970581 9.0 13 -0.061901431530714035
-1.5552210807800293 -0.18214619159698486 -0.08206278830766678 20.0 6 -0.06189912557601929
-2.9381656646728516 -0.3435957133769989 0.6829514503479004 1.0 14 -0.06189682334661484
-1.5512232780456543 -0.1811291128396988 -0.027260659262537956 30.0 7 -0.06189451739192009
-2.908982992172241 -0.33915382623672485 0.7847393751144409 4.0 15 -0.06189221516251564
-1.637014627456665 -0.18883024156093597 -0.441545307636261 11.0 0 -0.0618714801967144
-1.5276670455932617 -0.17594680190086365 0.026841802522540092 26.0 8 -0.06186917424201965
-1.6223524808883667 -0.18656475841999054 -0.377018004655838 16.0 1 -0.061866872012615204
-1.5278512239456177 -0.1754276603460312 0.08059737831354141 7.0 9 -0.061864566057920456
-1.607162356376648 -0.18453414738178253 -0.31445324420928955 19.0 2 -0.061862263828516006
-1.539992094039917 -0.17654937505722046 0.1356143355369568 40.0 10 -0.06185995787382126
-1.6034127473831177 -0.18353621661663055 -0.25561395287513733 22.0 3 -0.06185765564441681
-1.5245518684387207 -0.17423978447914124 0.18841002881526947 29.0 11 -0.06185534968972206
-1.587695598602295 -0.1811761111021042 -0.19620966911315918 12.0 4 -0.06185304746031761
-2.9204659461975098 -0.3327450156211853 0.4655490219593048 1.0 12 -0.061850741505622864
-1.5658494234085083 -0.1784059852361679 -0.1378803700208664 16.0 5 -0.061848439276218414
-2.931861639022827 -0.3335250914096832 0.5735718607902527 8.0 13 -0.061846133321523666
-1.563785433769226 -0.17761830985546112 -0.08248147368431091 16.0 6 -0.06184383109211922
-2.9393470287323 -0.3333374261856079 0.6829514503479004 1.0 14 -0.06184152513742447
-1.5339629650115967 -0.17368833720684052 -0.02694651484489441 23.0 7 -0.06183922290802002
-2.9293456077575684 -0.331167608499527 0.7899157404899597 3.0 15 -0.06183691695332527
-1.633824110031128 -0.18268544971942902 -0.44051000475883484 11.0 0 -0.06181618198752403
-1.5401960611343384 -0.17194430530071259 0.027051230892539024 24.0 8 -0.06181387975811958
-1.624930500984192 -0.18111638724803925 -0.37746790051460266 12.0 1 -0.061811573803424835
-1.540364146232605 -0.17141875624656677 0.08122541010379791 7.0 9 -0.061809271574020386
-1.6038941144943237 -0.17848865687847137 -0.3136900067329407 15.0 2 -0.06180696561932564
-1.5247572660446167 -0.16941219568252563 0.13421984016895294 30.0 10 -0.06180466338992119
-1.6001170873641968 -0.17750252783298492 -0.2549882233142853 16.0 3 -0.06180235743522644
-1.5251507759094238 -0.16891735792160034 0.18841002881526947 29.0 11 -0.06180005520582199
-1.5962105989456177 -0.1765052080154419 -0.19718460738658905 10.0 4 -0.06179774925112724
-2.925536870956421 -0.32298216223716736 0.46617478132247925 1.0 12 -0.061795447021722794
-1.5724037885665894 -0.17359492182731628 -0.13840331137180328 14.0 5 -0.061793141067028046
-2.944716453552246 -0.3245801329612732 0.5758615732192993 7.0 13 -0.061790838837623596
-1.5763075351715088 -0.17346902191638947 -0.08310950547456741 9.0 6 -0.06178853288292885
-2.979234218597412 -0.32733166217803955 0.6919494867324829 1.0 14 -0.0617862306535244
-1.5365476608276367 -0.16855111718177795 -0.026981420814990997 18.0 7 -0.06178392469882965
-2.922802209854126 -0.3200989365577698 0.7878451943397522 4.0 15 -0.0617816224694252
-1.6440550088882446 -0.17802102863788605 -0.443098247051239 8.0 0 -0.06176088750362396
-1.5348224639892578 -0.16592179238796234 0.02694651484489441 23.0 8 -0.061758581548929214
-1.6410527229309082 -0.17711645364761353 -0.3810671269893646 11.0 1 -0.061756279319524765
-1.548896312713623 -0.16689667105674744 0.08164409548044205 7.0 9 -0.06175397336483002
-1.61231529712677 -0.17373019456863403 -0.3152164816856384 12.0 2 -0.06175167113542557
-1.5312823057174683 -0.16472803056240082 0.13474278151988983 30.0 10 -0.06174936518073082
-1.6184035539627075 -0.1738147884607315 -0.2578040361404419 17.0 3 -0.06174706295132637
-1.525731086730957 -0.16359253227710724 0.18841002881526947 25.0 11 -0.06174475699663162
-1.6007646322250366 -0.17135484516620636 -0.19767209887504578 8.0 4 -0.06174245476722717
-2.9345028400421143 -0.31360840797424316 0.46742624044418335 1.0 12 -0.061740148812532425
-1.5848866701126099 -0.16937579214572906 -0.13944917917251587 14.0 5 -0.061737846583127975
-2.9282619953155518 -0.31242385506629944 0.5724270343780518 6.0 13 -0.06173554062843323
-1.5769034624099731 -0.1679655760526657 -0.08310950547456741 8.0 6 -0.06173323839902878
-2.9454779624938965 -0.31322163343429565 0.6838512420654297 1.0 14 -0.06173093616962433
-1.5430922508239746 -0.16381944715976715 -0.027086134999990463 14.0 7 -0.06172863021492958
-2.9354283809661865 -0.311116099357605 0.7909510731697083 3.0 15 -0.06172632798552513
-1.6561943292617798 -0.1734890341758728 -0.4462040662765503 8.0 0 -0.061705589294433594
-1.525447964668274 -0.15952365100383759 0.026771990582346916 14.0 8 -0.061703287065029144
-1.6435991525650024 -0.17158931493759155 -0.3815170228481293 9.0 1 -0.061700981110334396
-1.55741548538208 -0.16231673955917358 0.08206278830766678 5.0 9 -0.06169867888092995
-1.6207226514816284 -0.16891473531723022 -0.3167429566383362 11.0 2 -0.0616963729262352
-1.5417563915252686 -0.16041310131549835 0.1356143355369568 26.0 10 -0.06169407069683075
-1.6150708198547363 -0.16775622963905334 -0.25717827677726746 15.0 3 -0.061691764742136
-1.5361653566360474 -0.15928904712200165 0.1896287202835083 20.0 11 -0.06168946251273155
-1.6013530492782593 -0.1657664179801941 -0.19767209887504578 7.0 4 -0.061687156558036804
-2.9512991905212402 -0.30498749017715454 0.46992918848991394 1.0 12 -0.061684854328632355
-1.579522967338562 -0.16322803497314453 -0.13892625272274017 10.0 5 -0.061682552099227905
-2.9312877655029297 -0.3024017810821533 0.5728086233139038 3.0 13 -0.06168024614453316
-1.5774801969528198 -0.16246047616004944 -0.08310950547456741 7.0 6 -0.06167794391512871
-2.9543073177337646 -0.3037351965904236 0.6856508255004883 1.0 14 -0.06167563796043396
-1.5615578889846802 -0.16026948392391205 -0.02740027755498886 9.0 7 -0.06167333573102951
-2.944183588027954 -0.3016558885574341 0.793021559715271 3.0 15 -0.06167102977633476
-1.664478063583374 -0.16848458349704742 -0.4482746124267578 8.0 0 -0.061650294810533524
-1.5359433889389038 -0.15520302951335907 0.02694651484489441 9.0 8 -0.061647988855838776
-1.640310287475586 -0.1654602289199829 -0.3806172013282776 7.0 1 -0.061645686626434326
-1.56989586353302 -0.1580802947282791 0.08269082009792328 3.0 9 -0.06164338067173958
-1.6388827562332153 -0.16502690315246582 -0.32017752528190613 9.0 2 -0.06164107844233513
-1.548254132270813 -0.15562814474105835 0.13613726198673248 19.0 10 -0.06163877621293068
-1.6136809587478638 -0.16192029416561127 -0.25686541199684143 12.0 3 -0.06163647025823593
-1.5307862758636475 -0.15333262085914612 0.188897505402565 16.0 11 -0.06163416802883148
-1.6137733459472656 -0.16136062145233154 -0.19913452863693237 7.0 4 -0.061631862074136734
-2.975933074951172 -0.2970372438430786 0.473683625459671 1.0 12 -0.061629559844732285
-1.599908471107483 -0.15969188511371613 -0.14066936075687408 8.0 5 -0.06162725389003754
-2.926464557647705 -0.2915845215320587 0.5716637372970581 2.0 13 -0.06162495166063309
-1.5780376195907593 -0.15695300698280334 -0.08310950547456741 5.0 6 -0.06162264570593834
-2.98249888420105 -0.29611557722091675 0.6919494867324829 1.0 14 -0.06162034347653389
-1.556138038635254 -0.15422633290290833 -0.027295565232634544 7.0 7 -0.06161803752183914
-2.9529082775115967 -0.2921375632286072 0.7950921058654785 4.0 15 -0.06161573529243469
-1.6708241701126099 -0.16323691606521606 -0.44982749223709106 5.0 0 -0.061594996601343155
-1.5404562950134277 -0.15022878348827362 0.027016324922442436 7.0 8 -0.061592694371938705
-1.638938307762146 -0.1595442146062851 -0.38016730546951294 6.0 1 -0.061590392142534256
-1.5764018297195435 -0.15317882597446442 0.08300483226776123 1.0 9 -0.06158808618783951
-1.627724528312683 -0.158165842294693 -0.3178878128528595 7.0 2 -0.06158578395843506
-1.5527541637420654 -0.15060743689537048 0.13648588955402374 15.0 10 -0.06158347800374031
-1.6162025928497314 -0.15647682547569275 -0.25717827677726746 9.0 3 -0.06158117577433586
-1.5372400283813477 -0.14856106042861938 0.1896287202835083 13.0 11 -0.06157886981964111
-1.6143267154693604 -0.15572647750377655 -0.19913452863693237 6.0 4 -0.061576567590236664
-2.9533565044403076 -0.2843761146068573 0.46992918848991394 1.0 12 -0.061574261635541916
-1.6103721857070923 -0.15506133437156677 -0.14154092967510223 7.0 5 -0.061571959406137466
-2.9528698921203613 -0.2838091552257538 0.5766248106956482 2.0 13 -0.06156965345144272
-1.5885164737701416 -0.1523972898721695 -0.08363286405801773 4.0 6 -0.06156735122203827
-2.9835143089294434 -0.28570351004600525 0.6919494867324829 1.0 14 -0.06156504526734352
-1.5407418012619019 -0.14727123081684113 -0.027016324922442436 5.0 7 -0.06156274303793907
-2.957756757736206 -0.28219443559646606 0.796127438545227 5.0 15 -0.061560437083244324
-1.6790770292282104 -0.15812814235687256 -0.45189806818962097 4.0 0 -0.061539702117443085
-1.5608805418014526 -0.1467224508523941 0.027365373447537422 7.0 8 -0.061537399888038635
-1.6588873863220215 -0.15564261376857758 -0.3846663236618042 5.0 1 -0.06153509393334389
-1.582892656326294 -0.14823384582996368 0.08331885188817978 1.0 9 -0.06153279170393944
-1.63804030418396 -0.1533982753753662 -0.3197959065437317 6.0 2 -0.06153048574924469
-1.5493028163909912 -0.14481548964977264 0.13613726198673248 11.0 10 -0.06152818351984024
-1.626573085784912 -0.15175171196460724 -0.25874263048171997 7.0 3 -0.06152587756514549
-1.539725661277771 -0.14337819814682007 0.18987245857715607 8.0 11 -0.06152357533574104
-1.6168371438980103 -0.1502741426229477 -0.19937825202941895 4.0 4 -0.061521269381046295
-2.9779341220855713 -0.2762547731399536 0.473683625459671 1.0 12 -0.061518967151641846
-1.599000334739685 -0.14833487570285797 -0.14049506187438965 6.0 5 -0.0615166611969471
-2.965571880340576 -0.2745859622955322 0.5789145231246948 1.0 13 -0.06151435896754265
-1.593016505241394 -0.1472189575433731 -0.0838422104716301 2.0 6 -0.0615120530128479
-2.9844932556152344 -0.27528730034828186 0.6919494867324829 1.0 14 -0.06150975078344345
-1.5512030124664307 -0.1428087055683136 -0.02719084918498993 5.0 7 -0.0615074448287487
-2.958723545074463 -0.27186885476112366 0.796127438545227 4.0 15 -0.061505142599344254
-1.6969343423843384 -0.1538362205028534 -0.4565567970275879 3.0 0 -0.061484407633543015
-1.5494338274002075 -0.14019149541854858 0.02715594507753849 5.0 8 -0.06148210167884827
-1.673006534576416 -0.15107788145542145 -0.3878156542778015 2.0 1 -0.06147979944944382
-1.601303219795227 -0.1443214863538742 0.08426090329885483 1.0 9 -0.06147749349474907
-1.6444315910339355 -0.14820854365825653 -0.3209407329559326 6.0 2 -0.06147519126534462
-1.5517834424972534 -0.13958501815795898 0.1363115906715393 8.0 10 -0.06147288531064987
-1.6329952478408813 -0.1466028243303299 -0.25968125462532043 6.0 3 -0.06147058308124542
-1.546148419380188 -0.13853447139263153 0.19060367345809937 7.0 11 -0.061468277126550674
-1.6252607107162476 -0.1453365981578827 -0.2003532201051712 3.0 4 -0.061465974897146225
-2.9946210384368896 -0.26726287603378296 0.4761865735054016 1.0 12 -0.06146366894245148
-1.5975239276885986 -0.14257526397705078 -0.14032074809074402 5.0 5 -0.06146136671304703
-2.9391350746154785 -0.2617938816547394 0.5735718607902527 1.0 13 -0.06145906075835228
-1.5955101251602173 -0.14183419942855835 -0.08394688367843628 1.0 6 -0.06145675852894783
-2.985436201095581 -0.2648676931858063 0.6919494867324829 1.0 14 -0.06145445257425308
-1.561651587486267 -0.1382749378681183 -0.027365373447537422 3.0 7 -0.06145215034484863
-2.9596545696258545 -0.2615392208099365 0.796127438545227 5.0 15 -0.06144984811544418
-1.689762830734253 -0.1472410261631012 -0.45448625087738037 2.0 0 -0.061429109424352646
-1.5519059896469116 -0.13495531678199768 0.02719084918498993 2.0 8 -0.061426807194948196
-1.6696406602859497 -0.14490044116973877 -0.38691583275794983 2.0 1 -0.06142450124025345
-1.5978175401687622 -0.13838590681552887 0.08405155688524246 0.0 9 -0.061422199010849
-1.6508067846298218 -0.14297527074813843 -0.32208558917045593 4.0 2 -0.06141989305615425
-1.5641711950302124 -0.13519679009914398 0.1373574435710907 7.0 10 -0.0614175908267498
-1.629560947418213 -0.1405625343322754 -0.2590555250644684 5.0 3 -0.061415284872055054
-1.522889256477356 -0.13109314441680908 0.18767879903316498 5.0 11 -0.061412982642650604
-1.629713773727417 -0.1400022804737091 -0.20084069669246674 2.0 4 -0.061410676687955856
-2.97585391998291 -0.2551213800907135 0.47305789589881897 1.0 12 -0.06140837445855141
-1.6178630590438843 -0.13870017230510712 -0.14206385612487793 4.0 5 -0.06140606850385666
-2.940031051635742 -0.2515327036380768 0.5735718607902527 1.0 13 -0.06140376627445221
-1.592015266418457 -0.1359241008758545 -0.08373753726482391 0.0 6 -0.06140146404504776
-2.986342430114746 -0.2544456124305725 0.6919494867324829 1.0 14 -0.06139915809035301
-1.5601321458816528 -0.13265345990657806 -0.027330469340085983 2.0 7 -0.06139685586094856
-2.9528496265411377 -0.25055307149887085 0.7940568327903748 6.0 15 -0.061394549906253815
-1.7018173933029175 -0.14230719208717346 -0.45759209990501404 1.0 0 -0.061373814940452576
-1.5623314380645752 -0.13036908209323883 0.027365373447537422 1.0 8 -0.06137150898575783
-1.6798465251922607 -0.1398799568414688 -0.38916537165641785 2.0 1 -0.06136920675635338
-1.5982909202575684 -0.13280759751796722 0.08405155688524246 0.0 9 -0.06136690080165863
-1.6630349159240723 -0.13818740844726562 -0.32437530159950256 2.0 2 -0.06136459857225418
-1.5626479387283325 -0.12957167625427246 0.13718314468860626 6.0 10 -0.06136229261755943
-1.6300415992736816 -0.1348734050989151 -0.2590555250644684 5.0 3 -0.061359990388154984
-1.5352076292037964 -0.126756489276886 0.18914122879505157 5.0 11 -0.061357688158750534
-1.608430027961731 -0.13251997530460358 -0.19815956056118011 1.0 4 -0.061355382204055786
-2.9846012592315674 -0.24537880718708038 0.47430935502052307 1.0 12 -0.06135307997465134
-1.6004661321640015 -0.13158221542835236 -0.14049506187438965 2.0 5 -0.06135077401995659
-2.960458278656006 -0.24287372827529907 0.5773880481719971 1.0 13 -0.06134847179055214
-1.5825270414352417 -0.12955166399478912 -0.0832141786813736 0.0 6 -0.06134616583585739
-2.9872124195098877 -0.24401898682117462 0.6919494867324829 1.0 14 -0.06134386360645294
-1.556599497795105 -0.12688180804252625 -0.027260659262537956 1.0 7 -0.061341557651758194
-2.9594829082489014 -0.2407146543264389 0.7956097722053528 7.0 15 -0.061339255422353745
-1.7042293548583984 -0.13652049005031586 -0.4581097364425659 0.0 0 -0.06131851673126221
-1.592677116394043 -0.12730464339256287 0.027888944372534752 1.0 8 -0.06131621450185776
-1.707520604133606 -0.13618391752243042 -0.3954640030860901 1.0 1 -0.06131391227245331
-1.622636318206787 -0.1291293501853943 0.08530762046575546 0.0 9 -0.06131160631775856
-1.675249457359314 -0.133316308259964 -0.3266650140285492 1.0 2 -0.06130930408835411
-1.576993465423584 -0.1252201348543167 0.13840331137180328 5.0 10 -0.06130699813365936
-1.6521637439727783 -0.13089843094348907 -0.26249706745147705 2.0 3 -0.06130469590425491
-1.5514721870422363 -0.1226486936211586 0.1910911500453949 3.0 11 -0.061302389949560165
-1.6167986392974854 -0.12752903997898102 -0.19913452863693237 0.0 4 -0.061300087720155716
-2.9736242294311523 -0.2340291142463684 0.4724321663379669 1.0 12 -0.06129778176546097
-1.5989294052124023 -0.12583838403224945 -0.14032074809074402 1.0 5 -0.06129547953605652
-2.953458786010742 -0.2319241613149643 0.5758615732192993 1.0 13 -0.06129317358136177
-1.5909342765808105 -0.12465080618858337 -0.08363286405801773 0.0 6 -0.06129087135195732
-2.972503423690796 -0.23237504065036774 0.688350260257721 1.0 14 -0.06128856539726257
-1.5689947605133057 -0.122380830347538 -0.027470089495182037 0.0 7 -0.061286263167858124
-2.954526901245117 -0.22993218898773193 0.7940568327903748 8.0 15 -0.061283957213163376
-1.7201054096221924 -0.13175104558467865 -0.46225085854530334 0.0 0 -0.06126322224736214
-1.595105528831482 -0.12189670652151108 0.02792385034263134 0.0 8 -0.06126092001795769
-1.7235302925109863 -0.13140827417373657 -0.39906319975852966 0.0 1 -0.06125861406326294
-1.603162169456482 -0.12194956094026566 0.08426090329885483 0.0 9 -0.06125631183385849
-1.6659166812896729 -0.12672318518161774 -0.324756920337677 0.0 2 -0.06125400587916374
-1.5853677988052368 -0.12031731754541397 0.1391005665063858 2.0 10 -0.06125170364975929
-1.6663986444473267 -0.12617485225200653 -0.2646871507167816 1.0 3 -0.061249397695064545
-1.573664665222168 -0.11887709051370621 0.19377227127552032 2.0 11 -0.061247095465660095
-1.6251519918441772 -0.12248088419437408 -0.20010948181152344 0.0 4 -0.06124478951096535
-2.964573621749878 -0.2229078710079193 0.4708678126335144 2.0 12 -0.0612424872815609
-1.60333251953125 -0.12055542320013046 -0.14066936075687408 1.0 5 -0.06124018132686615
-2.930757522583008 -0.21985085308551788 0.571282148361206 1.0 13 -0.0612378790974617
-1.615260124206543 -0.12088490277528763 -0.08488892763853073 0.0 6 -0.06123557314276695
-2.973296642303467 -0.22199830412864685 0.688350260257721 1.0 14 -0.0612332709133625
-1.5773890018463135 -0.11749739199876785 -0.027609705924987793 0.0 7 -0.061230964958667755
-2.95145845413208 -0.21933116018772125 0.793021559715271 8.0 15 -0.061228662729263306
-1.7167011499404907 -0.1254642754793167 -0.4612155556678772 0.0 0 -0.06120792776346207
-1.5915324687957764 -0.11603714525699615 0.027854040265083313 0.0 8 -0.06120562180876732
-1.7434145212173462 -0.12680484354496002 -0.4035622179508209 0.0 1 -0.06120331957936287
-1.5956099033355713 -0.11577453464269638 0.0838422104716301 0.0 9 -0.06120101362466812
-1.6859298944473267 -0.12232799082994461 -0.3285731077194214 0.0 2 -0.06119871139526367
-1.5678935050964355 -0.11348840594291687 0.13753175735473633 1.0 10 -0.061196405440568924
-1.6628886461257935 -0.12007269263267517 -0.26406142115592957 0.0 3 -0.061194103211164474
-1.5701102018356323 -0.11309796571731567 0.1932847946882248 1.0 11 -0.06119179725646973
-1.6572493314743042 -0.11908403038978577 -0.2040092945098877 0.0 4 -0.06118949502706528
-2.985037088394165 -0.21397051215171814 0.47399649024009705 3.0 12 -0.06118718907237053
-1.6355400085449219 -0.11723718792200089 -0.14345835149288177 0.0 5 -0.06118488684296608
-2.9471733570098877 -0.2107386738061905 0.5743350982666016 1.0 13 -0.06118258088827133
-1.65153169631958 -0.11780407279729843 -0.08677302300930023 0.0 6 -0.06118027865886688
-2.958502769470215 -0.21051160991191864 0.684751033782959 1.0 14 -0.061177972704172134
-1.5897578001022339 -0.11283963918685913 -0.027819136157631874 0.0 7 -0.061175670474767685
-2.959913969039917 -0.20957298576831818 0.7950921058654785 10.0 15 -0.06117336452007294
-1.7132534980773926 -0.11950188875198364 -0.46018028259277344 0.0 0 -0.06115245819091797
-1.6078675985336304 -0.11186948418617249 0.02813328057527542 0.0 8 -0.06115015596151352
-1.7438254356384277 -0.12102270871400833 -0.4035622179508209 0.0 1 -0.06114785000681877
-1.6676944494247437 -0.11573916673660278 0.0876103937625885 0.0 9 -0.06114554777741432
-1.6941605806350708 -0.11727884411811829 -0.33009958267211914 0.0 2 -0.061143241822719574
-1.5781992673873901 -0.1089746281504631 0.13840331137180328 1.0 10 -0.061140939593315125
-1.6632777452468872 -0.11455763131380081 -0.26406142115592957 0.0 3 -0.06113863363862038
-1.5902808904647827 -0.10925114899873734 0.19572217762470245 1.0 11 -0.06113633140921593
-1.6734787225723267 -0.11467335373163223 -0.20595920085906982 0.0 4 -0.06113402545452118
-2.96992826461792 -0.20351117849349976 0.47149354219436646 3.0 12 -0.06113172322511673
-1.6398954391479492 -0.11208455264568329 -0.14380697906017303 0.0 5 -0.06112941727042198
-2.9223926067352295 -0.19922901690006256 0.5693740844726562 2.0 13 -0.06112711504101753
-1.691766381263733 -0.11503620445728302 -0.0888664647936821 0.0 6 -0.061124809086322784
-2.9630730152130127 -0.2009633183479309 0.6856508255004883 1.0 14 -0.061122506856918335
-1.6898599863052368 -0.1146107017993927 -0.029564376920461655 0.0 7 -0.06112020090222359
-2.956702947616577 -0.2000129222869873 0.7940568327903748 11.0 15 -0.06111789867281914
-1.7367916107177734 -0.11505348980426788 -0.466391921043396 0.0 0 -0.0610971637070179
-1.6321735382080078 -0.10812307149171829 0.028552137315273285 0.0 8 -0.06109485775232315
-1.7169941663742065 -0.1134406253695488 -0.3972635865211487 0.0 1 -0.0610925555229187
-1.6481590270996094 -0.10860384255647659 0.08656367659568787 0.0 9 -0.06109024956822395
-1.6945596933364868 -0.11136476695537567 -0.33009958267211914 0.0 2 -0.061087947338819504
-1.5924872159957886 -0.1043771505355835 0.1396235078573227 0.0 10 -0.061085641384124756
-1.6636484861373901 -0.10904131084680557 -0.26406142115592957 0.0 3 -0.061083339154720306
-1.6124238967895508 -0.10540126264095306 0.19840329885482788 0.0 11 -0.06108103320002556
-1.7728941440582275 -0.11558061838150024 -0.21814614534378052 0.0 4 -0.06107873097062111
