# .PCD v0.7 - Point Cloud Data file format
VERSION 0.7
FIELDS x y z intensity ring time
SIZE 4 4 4 4 4 4
TYPE F F F F F F
COUNT 1 1 1 1 1 1
WIDTH 550
HEIGHT 1
VIEWPOINT 0 0 0 1 0 0 0
POINTS 550
DATA ascii
-3.4700427055358887 4.1678314208984375 0.4744758605957031 38.0 10 -0.02710026688873768
-3.452075242996216 4.149195194244385 0.662725567817688 56.0 11 -0.02709565870463848
-1.898941159248352 2.2832279205322266 -0.36463311314582825 1.0 4 -0.027093354612588882
-3.4425783157348633 4.140719413757324 0.8528807759284973 51.0 12 -0.027091050520539284
-3.4219889640808105 4.117415904998779 1.0406723022460938 45.0 13 -0.027086442336440086
-1.7906789779663086 2.155351161956787 -0.1468547135591507 2.0 6 -0.027084138244390488
-3.4052236080169678 4.100154399871826 1.2304823398590088 50.0 14 -0.02708183415234089
-3.391566514968872 4.086611270904541 1.4229871034622192 63.0 15 -0.02707722783088684
-2.067176103591919 2.4970102310180664 -0.8685967326164246 6.0 0 -0.027056491002440453
-2.3315608501434326 2.818371534347534 -0.8444663286209106 3.0 1 -0.027051882818341255
-3.3030004501342773 3.994058609008789 0.2716236412525177 1.0 9 -0.027049578726291656
-2.353435516357422 2.8458242416381836 -0.7178234457969666 1.0 2 -0.027047274634242058
-3.480861186981201 4.210631370544434 0.47796207666397095 50.0 10 -0.02704497054219246
-3.465383529663086 4.194890022277832 0.6680877804756165 58.0 11 -0.02704036235809326
-1.8176463842391968 2.2010657787323 -0.3504962623119354 1.0 4 -0.027038058266043663
-3.4444525241851807 4.172513484954834 0.8569480776786804 60.0 12 -0.027035754173994064
-2.241243600845337 2.714979887008667 -0.3080084025859833 1.0 5 -0.027033450081944466
-3.4313361644744873 4.158106803894043 1.0479230880737305 46.0 13 -0.027031147852540016
-1.7818728685379028 2.160048723220825 -0.14675003290176392 2.0 6 -0.027028843760490417
-3.4156880378723145 4.14208459854126 1.2394803762435913 50.0 14 -0.02702653966844082
-1.7540363073349 2.127816677093506 -0.048133738338947296 1.0 7 -0.02702423557639122
-3.3895652294158936 4.113334655761719 1.4281635284423828 63.0 15 -0.02702193148434162
-2.0547661781311035 2.4997339248657227 -0.8670438528060913 6.0 0 -0.027001194655895233
-2.3241817951202393 2.829505205154419 -0.8453661203384399 4.0 1 -0.026996586471796036
-3.20538592338562 3.903689384460449 0.2647152841091156 0.0 9 -0.026994282379746437
-3.4749915599823 4.2335357666015625 0.47918224334716797 50.0 10 -0.02698967419564724
-3.4683451652526855 4.228447437286377 0.6715001463890076 73.0 11 -0.02698506787419319
-1.8011419773101807 2.1966514587402344 -0.34879010915756226 4.0 4 -0.026982763782143593
-3.447397232055664 4.205901622772217 0.8613282442092896 53.0 12 -0.026980459690093994
-2.24690842628479 2.7412784099578857 -0.31010010838508606 1.0 5 -0.026978155598044395
-3.4317331314086914 4.188282012939453 1.0525025129318237 59.0 13 -0.026975851505994797
-3.4234297275543213 4.181123733520508 1.2475786209106445 52.0 14 -0.0269712433218956
-1.7769964933395386 2.171064853668213 -0.04897145554423332 5.0 7 -0.026968939229846
-3.3923141956329346 4.146073341369629 1.435410499572754 64.0 15 -0.026966635137796402
-2.052136182785034 2.514374256134033 -0.8696320056915283 6.0 0 -0.026945898309350014
-2.310596466064453 2.8330700397491455 -0.8440163731575012 4.0 1 -0.026941290125250816
-3.199313163757324 3.9241416454315186 0.2653433084487915 0.0 9 -0.026938986033201218
-3.4627110958099365 4.248728275299072 0.4795309007167816 10.0 10 -0.02693437971174717
-3.4472975730895996 4.232832431793213 0.6702814698219299 54.0 11 -0.026929771527647972
-2.198277711868286 2.7001609802246094 -0.42751768231391907 27.0 4 -0.026927467435598373
-3.435187339782715 4.220974445343018 0.8619539737701416 43.0 12 -0.026925163343548775
-2.2524166107177734 2.767648935317993 -0.3121918737888336 1.0 5 -0.026922859251499176
-3.4307217597961426 4.216986179351807 1.0567002296447754 53.0 13 -0.026920555159449577
-2.2040276527404785 2.710120439529419 -0.18307119607925415 1.0 6 -0.02691825106739998
-3.4309399127960205 4.220266819000244 1.2556768655776978 47.0 14 -0.02691594697535038
-1.7643629312515259 2.171046733856201 -0.04883183166384697 4.0 7 -0.02691364288330078
-3.398529529571533 4.183378219604492 1.444210410118103 68.0 15 -0.026911338791251183
-2.0409138202667236 2.5185208320617676 -0.8685967326164246 6.0 0 -0.026890603825449944
-2.292107582092285 2.830517530441284 -0.8408671021461487 3.0 1 -0.026885995641350746
-3.188108444213867 3.9383914470672607 0.26555266976356506 0.0 9 -0.026883691549301147
-2.2790355682373047 2.8153793811798096 -0.7040852308273315 1.0 2 -0.02688138745725155
-3.4262590408325195 4.237122535705566 0.6690627336502075 38.0 11 -0.026874475181102753
-2.1963257789611816 2.717081069946289 -0.42898014187812805 66.0 4 -0.026872171089053154
-3.427882671356201 4.242157936096191 0.8638312220573425 42.0 12 -0.026869866997003555
-2.230220317840576 2.7599973678588867 -0.3104487657546997 1.0 5 -0.026867562904953957
-3.404877185821533 4.2151923179626465 1.0532656908035278 39.0 13 -0.026865258812904358
-2.1945533752441406 2.7177979946136475 -0.18307119607925415 1.0 6 -0.02686295472085476
-3.4027247428894043 4.215536594390869 1.2507280111312866 42.0 14 -0.02686065062880516
-3.3875436782836914 4.199728012084961 1.445763349533081 60.0 15 -0.026856042444705963
-2.027266502380371 2.519608736038208 -0.866526186466217 6.0 0 -0.026835307478904724
-2.300530433654785 2.8612818717956543 -0.8476155996322632 3.0 1 -0.026830699294805527
-3.154322862625122 3.9245872497558594 0.2638779282569885 0.0 9 -0.026828395202755928
-2.2691948413848877 2.823317050933838 -0.7040852308273315 1.0 2 -0.02682609111070633
-3.427604913711548 4.269178867340088 0.6722313761711121 38.0 11 -0.026819178834557533
-2.1806159019470215 2.7169899940490723 -0.427761435508728 60.0 4 -0.026816874742507935
-3.4254162311553955 4.269505023956299 0.8669599294662476 40.0 12 -0.026814570650458336
-2.203117609024048 2.7460083961486816 -0.3080084025859833 1.0 5 -0.026812266558408737
-3.4134812355041504 4.256150245666504 1.0605164766311646 35.0 13 -0.02680996246635914
-2.185053586959839 2.7254414558410645 -0.18307119607925415 1.0 6 -0.02680765837430954
-3.39286470413208 4.233470916748047 1.2525275945663452 38.0 14 -0.02680535428225994
-2.1842660903930664 2.7264082431793213 -0.060978710651397705 1.0 7 -0.026803050190210342
-3.3825249671936035 4.2235894203186035 1.4499043226242065 57.0 15 -0.026800746098160744
-2.023282766342163 2.5327069759368896 -0.8685967326164246 6.0 0 -0.026780011132359505
-1.7482261657714844 2.1891820430755615 0.048901643604040146 2.0 8 -0.026777707040309906
-2.2844488620758057 2.861680269241333 -0.8453661203384399 3.0 1 -0.026775402948260307
-3.1605372428894043 3.9605510234832764 0.26555266976356506 0.0 9 -0.02677309885621071
-2.259326219558716 2.8312201499938965 -0.7040852308273315 1.0 2 -0.02677079476416111
-3.4428770542144775 4.3159074783325195 0.48301711678504944 2.0 10 -0.02676849067211151
-3.071582317352295 3.851839780807495 -0.7802952527999878 6.0 3 -0.026766186580061913
-3.434953451156616 4.309059143066406 0.6766186356544495 38.0 11 -0.026763882488012314
-2.1773035526275635 2.7323484420776367 -0.42898014187812805 61.0 4 -0.026761578395962715
-3.424029588699341 4.298432350158691 0.8704014420509338 38.0 12 -0.026759274303913116
-2.2183456420898438 2.7848501205444336 -0.3114946186542511 1.0 5 -0.026756970211863518
-3.4145009517669678 4.288005828857422 1.0654774904251099 33.0 13 -0.02675466611981392
-3.395052671432495 4.266637325286865 1.2588261365890503 35.0 14 -0.02675005979835987
-3.3785815238952637 4.24898099899292 1.4545631408691406 54.0 15 -0.026745451614260674
-2.009626865386963 2.5337002277374268 -0.866526186466217 6.0 0 -0.026724714785814285
-1.7418168783187866 2.1968376636505127 0.048936549574136734 1.0 8 -0.026722410693764687
-2.2792882919311523 2.8757455348968506 -0.8471657633781433 3.0 1 -0.026720106601715088
-3.131808042526245 3.9527747631073 0.26429659128189087 0.0 9 -0.02671780250966549
-2.239675521850586 2.826780080795288 -0.701032280921936 1.0 2 -0.02671549841761589
-3.4574801921844482 4.365382671356201 0.4872005879878998 6.0 10 -0.026713194325566292
-3.05934476852417 3.864086151123047 -0.780608057975769 8.0 3 -0.026710890233516693
-3.445763111114502 4.353709697723389 0.6817371845245361 40.0 11 -0.026708586141467094
-2.175143003463745 2.749271869659424 -0.43044254183769226 61.0 4 -0.026706282049417496
-3.4298365116119385 4.336696624755859 0.875720202922821 35.0 12 -0.026703979820013046
-2.2011964321136475 2.7832000255584717 -0.3104487657546997 1.0 5 -0.026701675727963448
-3.4165594577789307 4.321459770202637 1.0708202123641968 28.0 13 -0.02669937163591385
-3.4018826484680176 4.30598783493042 1.266924500465393 35.0 14 -0.02669476345181465
-2.1651787757873535 2.741590738296509 -0.060978710651397705 1.0 7 -0.026692459359765053
-3.378094434738159 4.278942584991455 1.4607746601104736 51.0 15 -0.026690155267715454
-2.0079407691955566 2.549806594848633 -0.8696320056915283 6.0 0 -0.026669418439269066
-2.9438297748565674 3.7395949363708496 0.0830734521150589 1.0 8 -0.026667114347219467
-2.2764673233032227 2.8928723335266113 -0.8498651385307312 3.0 1 -0.02666481025516987
-3.117990255355835 3.9636833667755127 0.26429659128189087 0.0 9 -0.02666250616312027
-2.222510814666748 2.8253228664398193 -0.6987425684928894 1.0 2 -0.02666020393371582
-3.46069598197937 4.400917053222656 0.48981526494026184 9.0 10 -0.026657897979021072
-3.042174816131592 3.8700835704803467 -0.779669463634491 9.0 3 -0.026655595749616623
-3.444035053253174 4.3828816413879395 0.684418261051178 35.0 11 -0.026653291657567024
-2.1728909015655518 2.7662136554718018 -0.43190500140190125 55.0 4 -0.026650987565517426
-3.4341959953308105 4.373502254486084 0.8807260990142822 35.0 12 -0.026648683473467827
-2.2111544609069824 2.8159396648406982 -0.313237726688385 1.0 5 -0.026646379381418228
-3.4111506938934326 4.345714569091797 1.0738730430603027 28.0 13 -0.02664407528936863
-3.4096829891204834 4.346968173980713 1.2754725217819214 33.0 14 -0.026639467105269432
-2.155594825744629 2.7491323947906494 -0.060978710651397705 1.0 7 -0.026637163013219833
-3.385781764984131 4.319596290588379 1.4706099033355713 47.0 15 -0.026634858921170235
-1.994714379310608 2.5503642559051514 -0.8675615191459656 6.0 0 -0.026651620864868164
-2.948655128479004 3.7713918685913086 0.08356212079524994 1.0 8 -0.026649316772818565
-2.2536606788635254 2.883516550064087 -0.8449162244796753 3.0 1 -0.026647012680768967
-3.0925333499908447 3.958261728286743 0.26324987411499023 0.0 9 -0.026644708588719368
-2.2300517559051514 2.8543357849121094 -0.7040852308273315 1.0 2 -0.02664240449666977
-3.4632508754730225 4.434353351593018 0.49225562810897827 15.0 10 -0.02664010040462017
-3.031756639480591 3.8832643032073975 -0.7802952527999878 9.0 3 -0.026637796312570572
-3.449023962020874 4.419316291809082 0.688318133354187 35.0 11 -0.026635492220520973
-2.1637051105499268 2.773404836654663 -0.43190500140190125 51.0 4 -0.026633188128471375
-3.4391121864318848 4.409788608551025 0.8857320547103882 35.0 12 -0.026630884036421776
-2.194453239440918 2.8138294219970703 -0.3121918737888336 1.0 5 -0.026628579944372177
-3.425691604614258 4.394161224365234 1.0830318927764893 28.0 13 -0.026626277714967728
-3.4108195304870605 4.378235816955566 1.2813212871551514 35.0 14 -0.02662166953086853
-3.392798900604248 4.358240604400635 1.47992742061615 45.0 15 -0.026617061346769333
-1.99290931224823 2.5664660930633545 -0.8706672787666321 6.0 0 -0.026596324518322945
-2.243582248687744 2.8913652896881104 -0.8449162244796753 3.0 1 -0.026591716334223747
-3.0811469554901123 3.972188711166382 0.2634592354297638 0.0 9 -0.02658941224217415
-2.398162603378296 3.091691255569458 -0.7605647444725037 1.0 2 -0.02658710815012455
-3.4697275161743164 4.474755764007568 0.4953932464122772 21.0 10 -0.02658480405807495
-3.023022413253784 3.900068998336792 -0.7815467119216919 9.0 3 -0.026582499966025352
-3.4493837356567383 4.451727390289307 0.6914867162704468 28.0 11 -0.026580197736620903
-2.1527962684631348 2.7793707847595215 -0.4316612482070923 41.0 4 -0.026577893644571304
-3.4430463314056396 4.446757793426514 0.8907379508018494 35.0 12 -0.026575589552521706
-2.2041335105895996 2.8466787338256836 -0.3149808347225189 1.0 5 -0.026573285460472107
-3.4319632053375244 4.434037685394287 1.089901089668274 30.0 13 -0.026570981368422508
-3.4110138416290283 4.410154342651367 1.2871699333190918 32.0 14 -0.02656637318432331
-2.136833667755127 2.7637405395507812 -0.060978710651397705 1.0 7 -0.026564069092273712
-3.3988304138183594 4.397569179534912 1.489244818687439 45.0 15 -0.026561765000224113
-1.9839377403259277 2.5734074115753174 -0.8706672787666321 6.0 0 -0.026541028171777725
-2.2465572357177734 2.916161060333252 -0.8498651385307312 3.0 1 -0.026536419987678528
-3.040451765060425 3.9481072425842285 0.26115643978118896 0.0 9 -0.02653411775827408
-2.447248697280884 3.1778173446655273 -0.779645562171936 1.0 2 -0.02653181366622448
-3.4686696529388428 4.505785942077637 0.49748495221138 21.0 10 -0.02652950957417488
-3.00698184967041 3.907466173171997 -0.7809209227561951 9.0 3 -0.026527205482125282
-3.458029270172119 4.495209217071533 0.6963614821434021 30.0 11 -0.026524901390075684
-2.1515512466430664 2.797884464263916 -0.43336743116378784 32.0 4 -0.026522597298026085
-3.443155288696289 4.4791083335876465 0.8948052525520325 35.0 12 -0.026520293205976486
-2.184469699859619 2.8417181968688965 -0.31358635425567627 1.0 5 -0.026517989113926888
-3.441584825515747 4.478682518005371 1.0979150533676147 28.0 13 -0.02651568502187729
-3.4169631004333496 4.449855327606201 1.2952682971954346 28.0 14 -0.02651107683777809
-2.1271724700927734 2.7711832523345947 -0.060978710651397705 1.0 7 -0.026508772745728493
-3.3975706100463867 4.427799224853516 1.495456576347351 43.0 15 -0.026506468653678894
-1.9772918224334717 2.5833849906921387 -0.8717026114463806 6.0 0 -0.026485733687877655
-2.9357335567474365 3.8370020389556885 0.08433002978563309 1.0 8 -0.026483429595828056
-2.2482035160064697 2.9394636154174805 -0.8543641567230225 3.0 1 -0.026481125503778458
-3.123699426651001 4.085627555847168 0.26953020691871643 0.0 9 -0.02647882141172886
-3.4783284664154053 4.5511088371276855 0.5011455416679382 20.0 10 -0.02647421322762966
-2.9753360748291016 3.894392728805542 -0.7762279510498047 8.0 3 -0.026471909135580063
-3.4652109146118164 4.537227153778076 0.7009925246238708 32.0 11 -0.026469605043530464
-2.1562273502349854 2.8243112564086914 -0.43629229068756104 26.0 4 -0.026467300951480865
-3.455063819885254 4.52721643447876 0.9020012617111206 35.0 12 -0.026464996859431267
-2.1455276012420654 2.8113133907318115 -0.3094028830528259 1.0 5 -0.026462692767381668
-3.4426019191741943 4.5125203132629395 1.103257656097412 27.0 13 -0.02646038867533207
-3.423858165740967 4.4912004470825195 1.3038164377212524 30.0 14 -0.026455780491232872
-2.1174869537353516 2.7785911560058594 -0.060978710651397705 1.0 7 -0.026453476399183273
-3.398482322692871 4.461147308349609 1.5027034282684326 43.0 15 -0.026451172307133675
-1.9659249782562256 2.5871944427490234 -0.8706672787666321 6.0 0 -0.026430437341332436
-2.912644624710083 3.8344881534576416 0.08405079692602158 1.0 8 -0.026428133249282837
-2.2261438369750977 2.9317739009857178 -0.8498651385307312 3.0 1 -0.026425829157233238
-3.032137155532837 3.99468994140625 0.2628312110900879 0.0 9 -0.02642352506518364
-3.484097480773926 4.591793060302734 0.5042831301689148 20.0 10 -0.026418916881084442
-2.9664978981018066 3.9110512733459473 -0.7774794101715088 8.0 3 -0.026416612789034843
-3.4685404300689697 4.5746049880981445 0.7048923373222351 37.0 11 -0.026414308696985245
-2.163141965866089 2.8539695739746094 -0.43970462679862976 11.0 4 -0.026412004604935646
-3.4654834270477295 4.573888778686523 0.9088843464851379 33.0 12 -0.026409700512886047
-2.1621711254119873 2.8537230491638184 -0.313237726688385 1.0 5 -0.02640739642083645
-3.4363110065460205 4.5370306968688965 1.1063106060028076 28.0 13 -0.02640509232878685
-3.4281511306762695 4.529541015625 1.311464786529541 31.0 14 -0.026400484144687653
-3.4108574390411377 4.5099616050720215 1.5151267051696777 47.0 15 -0.026395875960588455
-1.962698221206665 2.601752519607544 -0.8732554912567139 7.0 0 -0.026375140994787216
-2.102191686630249 2.7876765727996826 0.06094380095601082 1.0 8 -0.026372836902737617
-2.2018203735351562 2.9208528995513916 -0.8444663286209106 4.0 1 -0.02637053281068802
-3.035001754760742 4.027581691741943 0.26429659128189087 0.0 9 -0.02636822871863842
-3.4920241832733154 4.635754108428955 0.5077693462371826 24.0 10 -0.026363620534539223
-2.9516401290893555 3.9198033809661865 -0.7771665453910828 6.0 3 -0.026361316442489624
-3.465683937072754 4.604129791259766 0.7075734734535217 35.0 11 -0.026359012350440025
-2.153167247772217 2.8615024089813232 -0.43970462679862976 3.0 4 -0.026356708258390427
-3.4720585346221924 4.615950584411621 0.9148288369178772 34.0 12 -0.026354404166340828
-3.444051504135132 4.580380439758301 1.1139429807662964 27.0 13 -0.02634979598224163
-3.4310479164123535 4.566408634185791 1.318663239479065 32.0 14 -0.026345189660787582
-2.756150484085083 3.6695117950439453 -0.08010654151439667 1.0 7 -0.026342885568737984
-3.41249418258667 4.545013427734375 1.5228912830352783 41.0 15 -0.026340581476688385
-1.9559201002120972 2.6116812229156494 -0.8742908239364624 6.0 0 -0.026319844648241997
-2.895393133163452 3.8675336837768555 0.08433002978563309 1.0 8 -0.026317540556192398
-2.2009527683258057 2.9410018920898438 -0.8480655550956726 5.0 1 -0.0263152364641428
-2.9611029624938965 3.958188533782959 0.2590630054473877 0.0 9 -0.0263129323720932
-3.494913339614868 4.673443794250488 0.5105583071708679 25.0 10 -0.026308324187994003
-2.9391212463378906 3.9316656589508057 -0.7774794101715088 8.0 3 -0.026306020095944405
-3.472167730331421 4.6464128494262695 0.7122045159339905 32.0 11 -0.026303716003894806
-2.9331912994384766 3.926586627960205 -0.6017908453941345 20.0 4 -0.026301413774490356
-3.4641971588134766 4.639123439788818 0.9170189499855042 39.0 12 -0.026299109682440758
-2.9385154247283936 3.935150146484375 -0.429677814245224 1.0 5 -0.02629680559039116
-3.4503543376922607 4.622267723083496 1.121193766593933 28.0 13 -0.02629450149834156
-3.434896230697632 4.6049113273620605 1.326311469078064 35.0 14 -0.026289893314242363
-2.088273048400879 2.8006131649017334 -0.060978710651397705 1.0 7 -0.026287589222192764
-3.422006607055664 4.590973854064941 1.534279465675354 42.0 15 -0.026285285130143166
-1.9456393718719482 2.6169416904449463 -0.8737731575965881 6.0 0 -0.026264548301696777
-2.0826785564422607 2.8022847175598145 0.06094380095601082 1.0 8 -0.02626224420964718
-2.199970006942749 2.961181640625 -0.8516647815704346 4.0 1 -0.02625994011759758
-2.990138292312622 4.026223659515381 0.2628312110900879 0.0 9 -0.02625763602554798
-3.496392250061035 4.709611892700195 0.5131730437278748 23.0 10 -0.026253029704093933
-2.9289119243621826 3.946659564971924 -0.7784180045127869 8.0 3 -0.026250725612044334
-3.4819486141204834 4.693579196929932 0.7175667881965637 30.0 11 -0.026248421519994736
-2.9159188270568848 3.932018756866455 -0.60105961561203 1.0 4 -0.026246117427945137
-3.4656291007995605 4.674989700317383 0.9217119812965393 37.0 12 -0.02624381333589554
-2.9010322093963623 3.913372039794922 -0.4261915981769562 1.0 5 -0.02624150924384594
-3.4575772285461426 4.665830135345459 1.1288261413574219 31.0 13 -0.02623920515179634
-3.443155527114868 4.6497602462768555 1.3357594013214111 33.0 14 -0.026234596967697144
-3.4186012744903564 4.6199727058410645 1.5399733781814575 43.0 15 -0.026229988783597946
-1.931904673576355 2.617499828338623 -0.8717026114463806 6.0 0 -0.026209251955151558
-2.87544322013855 3.8973090648651123 0.08453945815563202 1.0 8 -0.02620694972574711
-2.1930906772613525 2.9735474586486816 -0.8530144691467285 3.0 1 -0.02620464563369751
-2.9713258743286133 4.030205726623535 0.26241251826286316 0.0 9 -0.02620234154164791
-2.380161762237549 3.2283709049224854 -0.779645562171936 1.0 2 -0.026200037449598312
-3.5000247955322266 4.749054908752441 0.5161362886428833 22.0 10 -0.026197733357548714
-2.9092600345611572 3.948906421661377 -0.776853621006012 8.0 3 -0.026195429265499115
-3.4843788146972656 4.731277942657471 0.7214665412902832 32.0 11 -0.026193125173449516
-3.4727046489715576 4.718879222869873 0.9279693365097046 37.0 12 -0.02618851698935032
-2.9109714031219482 3.955568790435791 -0.429677814245224 1.0 5 -0.02618621289730072
-3.455230712890625 4.696846961975098 1.1334054470062256 30.0 13 -0.02618390880525112
-3.4453701972961426 4.6868743896484375 1.342957854270935 32.0 14 -0.026179300621151924
-2.776779890060425 3.7787423133850098 -0.0818517804145813 1.0 7 -0.026176996529102325
-3.418464183807373 4.6536760330200195 1.547220230102539 43.0 15 -0.026174692437052727
-1.9296058416366577 2.633577585220337 -0.8748083710670471 6.0 0 -0.026153957471251488
-2.8712751865386963 3.9202280044555664 0.08481869101524353 1.0 8 -0.02615165337920189
-2.1470096111297607 2.9324424266815186 -0.8390675187110901 1.0 1 -0.02614934928715229
-2.953699827194214 4.03571891784668 0.262098491191864 5.0 9 -0.02614704519510269
-2.4755520820617676 3.3824126720428467 -0.8147544264793396 2.0 2 -0.026144741103053093
-3.5046026706695557 4.790185928344727 0.5192738771438599 22.0 10 -0.026142437011003494
-2.8907926082611084 3.9526610374450684 -0.7756021618843079 8.0 3 -0.026140132918953896
-3.486586332321167 4.769052505493164 0.7253663539886475 30.0 11 -0.026137828826904297
-3.4841794967651367 4.769253730773926 0.9354782700538635 35.0 12 -0.0261332206428051
-2.83838152885437 3.8852651119232178 -0.42096224427223206 1.0 5 -0.0261309165507555
-3.4584970474243164 4.735833644866943 1.1398930549621582 28.0 13 -0.026128612458705902
-3.4542622566223145 4.733503341674805 1.3528558015823364 33.0 14 -0.026124004274606705
-2.805997610092163 3.846571922302246 -0.08310835808515549 1.0 7 -0.026121700182557106
-3.4238264560699463 4.695236682891846 1.5570554733276367 35.0 15 -0.026119396090507507
-1.9204018115997314 2.640296697616577 -0.8748083710670471 6.0 0 -0.02609866112470627
-2.8481667041778564 3.9172873497009277 0.08453945815563202 1.0 8 -0.02609635703265667
-2.9208102226257324 4.0201520919799805 0.2604237496852875 4.0 9 -0.026091748848557472
-2.4683454036712646 3.3973875045776367 -0.8162809610366821 2.0 2 -0.026089444756507874
-3.507765054702759 4.829794406890869 0.5222371816635132 21.0 10 -0.026087140664458275
-2.8734965324401855 3.9579312801361084 -0.7746635675430298 4.0 3 -0.026084836572408676
-3.4862401485443115 4.80368709564209 0.7287787795066833 30.0 11 -0.026082532480359077
-2.151858329772949 2.9661293029785156 -0.4499416649341583 1.0 4 -0.02608022838830948
-3.4883861541748047 4.8101701736450195 0.941109836101532 24.0 12 -0.02607792429625988
-2.824802875518799 3.895148515701294 -0.42096224427223206 1.0 5 -0.02607562020421028
-3.466142177581787 4.7812581062316895 1.147907018661499 23.0 13 -0.026073316112160683
-2.1435604095458984 2.957948923110962 -0.19144494831562042 1.0 6 -0.026071012020111084
-3.4548656940460205 4.769205093383789 1.3596042394638062 35.0 14 -0.026068709790706635
-2.867614984512329 3.960000514984131 -0.08534227311611176 1.0 7 -0.026066405698657036
-3.430072784423828 4.7384562492370605 1.5674082040786743 33.0 15 -0.026064101606607437
-1.9145656824111938 2.6516835689544678 -0.8763613104820251 5.0 0 -0.02604336477816105
-2.085480213165283 2.8894636631011963 0.06220037490129471 1.0 8 -0.02604106068611145
-2.0626347064971924 2.858858823776245 -0.8138729929924011 1.0 1 -0.02603875659406185
-2.9102652072906494 4.035182476043701 0.2607377767562866 0.0 9 -0.026036452502012253
-2.4599173069000244 3.410759687423706 -0.8174257874488831 2.0 2 -0.026034148409962654
-3.5200130939483643 4.882414817810059 0.5265949964523315 20.0 10 -0.026031844317913055
-2.8642821311950684 3.974348545074463 -0.7759150266647339 2.0 3 -0.026029540225863457
-3.497300386428833 4.854482173919678 0.7346284985542297 25.0 11 -0.026027236133813858
-2.1182892322540283 2.941406488418579 -0.4450668692588806 1.0 4 -0.02602493204176426
-3.488884449005127 4.8463664054870605 0.9458029270172119 28.0 12 -0.02602262794971466
-3.4758074283599854 4.829977989196777 1.156684160232544 25.0 13 -0.026018021628260612
-2.099397897720337 2.9183950424194336 -0.1884094625711441 11.0 6 -0.026015717536211014
-3.4575390815734863 4.808131694793701 1.3672525882720947 33.0 14 -0.026013413444161415
-2.1534624099731445 2.995755910873413 -0.06439937651157379 1.0 7 -0.026011109352111816
-3.4383115768432617 4.784915924072266 1.5787962675094604 33.0 15 -0.026008805260062218
-1.895169973373413 2.6442184448242188 -0.8717026114463806 6.0 0 -0.02598806843161583
-2.0753819942474365 2.8967251777648926 0.06220037490129471 1.0 8 -0.02598576433956623
-2.0458338260650635 2.8565361499786377 -0.8111735582351685 1.0 1 -0.025983460247516632
-2.8089640140533447 3.923517942428589 0.2528873682022095 3.0 9 -0.025981156155467033
-2.4388539791107178 3.4065539836883545 -0.8143728375434875 2.0 2 -0.025978852063417435
-3.5249810218811035 4.925455570220947 0.5299069285392761 21.0 10 -0.025976547971367836
-2.8366003036499023 3.965043067932129 -0.7721606492996216 2.0 3 -0.025974245741963387
-3.5057389736175537 4.9021830558776855 0.739990770816803 25.0 11 -0.025971941649913788
-2.0964651107788086 2.932633399963379 -0.44262948632240295 1.0 4 -0.02596963755786419
-3.4972145557403564 4.893871784210205 0.9526860117912292 30.0 12 -0.02596733346581459
-3.481750965118408 4.8740315437316895 1.1643165349960327 25.0 13 -0.025962725281715393
-2.08803653717041 2.9240810871124268 -0.18830479681491852 1.0 6 -0.025960421189665794
-3.469040632247925 4.859823703765869 1.3785001039505005 35.0 14 -0.025958117097616196
-2.1429924964904785 3.0032544136047363 -0.06439937651157379 1.0 7 -0.025955813005566597
-3.4372923374176025 4.818908214569092 1.586043119430542 34.0 15 -0.025953508913517
-1.894888162612915 2.663409948348999 -0.8758436441421509 6.0 0 -0.02593277208507061
-2.0652570724487305 2.9039525985717773 0.06220037490129471 1.0 8 -0.02593046799302101
-2.123922824859619 2.987545967102051 -0.8462659120559692 1.0 1 -0.025928165763616562
-2.7906224727630615 3.926787853240967 0.25246867537498474 21.0 9 -0.025925861671566963
-2.4360456466674805 3.4278500080108643 -0.8174257874488831 2.0 2 -0.025923557579517365
-3.5285348892211914 4.966967582702637 0.5330445170402527 23.0 10 -0.025921253487467766
-2.846759557723999 4.0087432861328125 -0.7787308692932129 2.0 3 -0.025918949395418167
-3.51503324508667 4.9516215324401855 0.745596706867218 27.0 11 -0.02591664530336857
-3.0397160053253174 4.283626556396484 -0.6449326276779175 11.0 4 -0.02591434121131897
-3.504110097885132 4.939886093139648 0.9592562913894653 30.0 12 -0.02591203711926937
-3.484020233154297 4.913381576538086 1.1708040237426758 26.0 13 -0.025907428935170174
-3.4734601974487305 4.9021148681640625 1.387048363685608 33.0 14 -0.025902820751070976
-3.4427781105041504 4.8624091148376465 1.5963959693908691 35.0 15 -0.02589821256697178
-1.8822357654571533 2.6652748584747314 -0.8742908239364624 5.0 0 -0.02587747760117054
-2.0551085472106934 2.9111435413360596 0.06220037490129471 1.0 8 -0.02587517350912094
-2.130336046218872 3.018824338912964 -0.8530144691467285 3.0 1 -0.025872869417071342
-2.7844958305358887 3.9458110332489014 0.25309672951698303 7.0 9 -0.025870565325021744
-2.4308557510375977 3.4459569454193115 -0.8197154402732849 2.0 2 -0.025868261232972145
-3.5364370346069336 5.01507568359375 0.5368793606758118 23.0 10 -0.025865957140922546
-2.8316121101379395 4.017041206359863 -0.7784180045127869 1.0 3 -0.025863653048872948
-3.5148797035217285 4.988200664520264 0.7492527961730957 32.0 11 -0.02586134895682335
-3.0403597354888916 4.314777851104736 -0.6481012105941772 26.0 4 -0.02585904486477375
-3.5104615688323975 4.9837775230407715 0.9655136466026306 30.0 12 -0.02585674077272415
-3.487189292907715 4.954410552978516 1.1776732206344604 26.0 13 -0.025852132588624954
-2.9674673080444336 4.217581272125244 -0.2702628970146179 10.0 6 -0.025849828496575356
-3.4773709774017334 4.942293643951416 1.3951464891433716 32.0 14 -0.025847524404525757
-3.4488577842712402 4.905405521392822 1.6067487001419067 34.0 15 -0.02584291622042656
-1.882260799407959 2.684154987335205 -0.8784318566322327 6.0 0 -0.02582218125462532
-2.068399429321289 2.9506921768188477 0.06289847195148468 1.0 8 -0.025819877162575722
-2.1259043216705322 3.0338523387908936 -0.8552640080451965 3.0 1 -0.025817573070526123
-2.805778980255127 4.004093170166016 0.25623688101768494 7.0 9 -0.025815268978476524
-2.4194161891937256 3.453998565673828 -0.8197154402732849 2.0 2 -0.025812964886426926
-3.5426411628723145 5.059417247772217 0.5403655767440796 23.0 10 -0.025810660794377327
-2.81827449798584 4.02640962600708 -0.7784180045127869 1.0 3 -0.02580835670232773
-3.522218704223633 5.033984661102295 0.7543712854385376 35.0 11 -0.02580605261027813
-3.0374157428741455 4.341100215911865 -0.6505386233329773 6.0 4 -0.02580374851822853
-3.515425443649292 5.026147842407227 0.9714581966400146 28.0 12 -0.025801444426178932
-3.0208005905151367 4.320567607879639 -0.4612281918525696 9.0 5 -0.025799140334129333
-3.49211049079895 4.99652099609375 1.1849240064620972 23.0 13 -0.025796836242079735
-2.972909688949585 4.255232810974121 -0.27204233407974243 36.0 6 -0.025794532150030136
-3.481050729751587 4.982553482055664 1.4032447338104248 36.0 14 -0.025792228057980537
-2.799466133117676 4.008467197418213 -0.08534227311611176 1.0 7 -0.02578992396593094
-3.4546875953674316 4.9484968185424805 1.6171014308929443 33.0 15 -0.02578762173652649
-1.8733487129211426 2.690382480621338 -0.8784318566322327 5.0 0 -0.0257668849080801
-2.0357558727264404 2.9247095584869385 0.06220037490129471 1.0 8 -0.025764580816030502
-2.1202845573425293 3.04728364944458 -0.8570635914802551 3.0 1 -0.025762276723980904
-2.822577714920044 4.058133125305176 0.2590630054473877 0.0 9 -0.025759972631931305
-2.4062230587005615 3.4608118534088135 -0.8193338513374329 1.0 2 -0.025757668539881706
-3.545180320739746 5.0989460945129395 0.5433288812637329 26.0 10 -0.025755364447832108
-2.8206911087036133 4.058441638946533 -0.782798171043396 1.0 3 -0.02575306035578251
-3.522494077682495 5.07009220123291 0.7580273747444153 30.0 11 -0.02575075626373291
-3.440080165863037 4.953313827514648 -0.7404781579971313 3.0 4 -0.02574845217168331
-3.512505054473877 5.059481620788574 0.9755253791809082 30.0 12 -0.025746148079633713
-3.543001413345337 5.105311393737793 -0.5436775088310242 40.0 5 -0.025743843987584114
-3.4992659091949463 5.0441694259643555 1.19331955909729 26.0 13 -0.025741541758179665
-2.971696615219116 4.2852783203125 -0.27329838275909424 30.0 6 -0.025739237666130066
-3.4847378730773926 5.025099754333496 1.4117929935455322 40.0 14 -0.025736933574080467
-3.463801860809326 4.9986348152160645 1.629524827003479 33.0 15 -0.02573232538998127
-1.8590823411941528 2.690873622894287 -0.8763613104820251 6.0 0 -0.02571158856153488
-2.77048659324646 4.011551380157471 0.08509793877601624 7.0 8 -0.025709284469485283
-2.1068878173828125 3.0518264770507812 -0.8561637997627258 3.0 1 -0.025706980377435684
-2.820162534713745 4.086534023284912 0.2602143883705139 3.0 9 -0.025704676285386086
-2.389064073562622 3.4631433486938477 -0.8178074359893799 2.0 2 -0.025702372193336487
-3.5457022190093994 5.139784812927246 0.5462921857833862 23.0 10 -0.025700068101286888
-2.794583797454834 4.052489757537842 -0.779669463634491 1.0 3 -0.02569776400923729
-3.527545928955078 5.117291450500488 0.7631458640098572 26.0 11 -0.02569546177983284
-3.421903133392334 4.965888500213623 -0.7404781579971313 3.0 4 -0.02569315768778324
-3.516350269317627 5.104857444763184 0.981782853603363 32.0 12 -0.025690853595733643
-3.5084455013275146 5.095290184020996 -0.5412371754646301 43.0 5 -0.025688549503684044
-3.504131317138672 5.090921401977539 1.2013335227966309 26.0 13 -0.025686245411634445
-2.978611469268799 4.329050064086914 -0.2753918170928955 26.0 6 -0.025683941319584846
-3.491701126098633 5.074763774871826 1.4221407175064087 36.0 14 -0.025681637227535248
-3.467348575592041 5.043133735656738 1.6398775577545166 33.0 15 -0.02567702904343605
-1.8492077589035034 2.69766902923584 -0.8763613104820251 6.0 0 -0.025656292214989662
-2.756894111633301 4.02332878112793 0.08513283729553223 12.0 8 -0.025653988122940063
-2.1044974327087402 3.072390556335449 -0.8597630262374878 3.0 1 -0.025651684030890465
-3.492114305496216 5.098195552825928 0.323854923248291 7.0 9 -0.025649379938840866
-2.3758509159088135 3.4698424339294434 -0.8174257874488831 2.0 2 -0.025647077709436417
-3.544844388961792 5.179052829742432 0.5490811467170715 24.0 10 -0.025644773617386818
-2.779710531234741 4.062706470489502 -0.779669463634491 1.0 3 -0.02564246952533722
-3.537904739379883 5.172786712646484 0.7694830894470215 26.0 11 -0.02564016543328762
-3.4045469760894775 4.977803707122803 -0.7404781579971313 3.0 4 -0.025637861341238022
-3.523035764694214 5.1529765129089355 0.9886659383773804 31.0 12 -0.025635557249188423
-3.4793968200683594 5.091055393218994 -0.5394940376281738 40.0 5 -0.025633253157138824
-3.501842737197876 5.125817775726318 1.2066761255264282 27.0 13 -0.025630949065089226
-3.487245798110962 5.106364727020264 -0.3240642845630646 55.0 6 -0.025628644973039627
-3.4981448650360107 5.122323989868164 1.432038426399231 32.0 14 -0.02562634088099003
-3.4649672508239746 5.0775465965271 1.6471245288848877 34.0 15 -0.02562173269689083
-1.839165449142456 2.702188730239868 -0.8758436441421509 6.0 0 -0.025600997731089592
-2.74128794670105 4.029141426086426 0.08506302535533905 9.0 8 -0.025598693639039993
-2.0855307579040527 3.0664610862731934 -0.8561637997627258 3.0 1 -0.025596389546990395
-3.5740320682525635 5.25507926940918 0.33306604623794556 5.0 9 -0.025594085454940796
-2.38420033454895 3.5069258213043213 -0.824294924736023 2.0 2 -0.025591781362891197
-3.5556485652923584 5.231975555419922 0.5534389615058899 21.0 10 -0.0255894772708416
-2.761784076690674 4.065365314483643 -0.7784180045127869 1.0 3 -0.025587173178792
-3.5329997539520264 5.202554225921631 0.7721642255783081 23.0 11 -0.0255848690867424
-3.352334976196289 4.936514377593994 -0.7326785326004028 3.0 4 -0.025582564994692802
-3.5358822345733643 5.208759784698486 0.9971133470535278 29.0 12 -0.025580260902643204
-3.4535465240478516 5.089375972747803 -0.5380995273590088 41.0 5 -0.025577956810593605
-3.5079703330993652 5.171520709991455 1.214690089225769 25.0 13 -0.025575652718544006
-3.0959126949310303 4.565776824951172 -0.28910383582115173 12.0 6 -0.025573348626494408
-3.501917600631714 5.1645426750183105 1.4405866861343384 35.0 14 -0.02557104453444481
-2.7432281970977783 4.047162055969238 -0.08534227311611176 1.0 7 -0.02556874044239521
-3.471951484680176 5.12419319152832 1.6585125923156738 34.0 15 -0.02556643635034561
-1.8388471603393555 2.721078395843506 -0.8799847960472107 6.0 0 -0.025545701384544373
-2.075349807739258 3.0733604431152344 -0.8561637997627258 3.0 1 -0.025541093200445175
-3.613771677017212 5.353605270385742 0.3385089933872223 5.0 9 -0.025538789108395576
-2.375852108001709 3.519695281982422 -0.8254397511482239 2.0 2 -0.025536485016345978
-3.5683672428131104 5.288331031799316 0.5581453442573547 21.0 10 -0.02553418092429638
-2.752704620361328 4.081052780151367 -0.779669463634491 1.0 3 -0.02553187683224678
-3.5368120670318604 5.245514392852783 0.7767952084541321 21.0 11 -0.02552957274019718
-3.063260555267334 4.544892311096191 -0.6729626059532166 5.0 4 -0.025527268648147583
-3.5397555828094482 5.253835201263428 1.003370761871338 21.0 12 -0.025524964556097984
-3.4321963787078857 5.094192028045654 -0.537402331829071 40.0 5 -0.025522660464048386
-3.5182180404663086 5.223835468292236 1.2242306470870972 22.0 13 -0.025520356371998787
-3.0629096031188965 4.549509048461914 -0.2874290943145752 34.0 6 -0.025518052279949188
-3.5034546852111816 5.205835819244385 1.4486849308013916 35.0 14 -0.02551574818789959
-3.4809927940368652 5.176359176635742 1.6714534759521484 32.0 15 -0.025511140003800392
-1.831490397453308 2.73068904876709 -0.8810200095176697 6.0 0 -0.025490405037999153
-3.385288953781128 5.049253940582275 0.10611063241958618 0.0 8 -0.025488100945949554
-2.0635247230529785 3.0789668560028076 -0.8557138442993164 3.0 1 -0.025485796853899956
-3.6217427253723145 5.406009674072266 0.3410211205482483 5.0 9 -0.025483492761850357
-2.355903387069702 3.5165491104125977 -0.8227684497833252 2.0 2 -0.02548118866980076
-3.579820394515991 5.345451831817627 0.5628517866134644 20.0 10 -0.02547888457775116
-2.756025552749634 4.1168999671936035 -0.7846753597259521 1.0 3 -0.02547658048570156
-3.563746213912964 5.325469017028809 0.7867885231971741 18.0 11 -0.025474276393651962
-3.033029556274414 4.534106731414795 -0.669793963432312 33.0 4 -0.025471972301602364
-3.54774808883667 5.305568218231201 1.010879635810852 18.0 12 -0.025469668209552765
-3.4132869243621826 5.104484558105469 -0.537227988243103 38.0 5 -0.025467364117503166
-3.5305113792419434 5.281785488128662 1.234915852546692 16.0 13 -0.025465060025453568
-3.050340175628662 4.565154075622559 -0.28774312138557434 56.0 6 -0.025462757796049118
-3.5079922676086426 5.252063274383545 1.4581328630447388 32.0 14 -0.02546045370399952
-3.48757004737854 5.225435256958008 1.683359146118164 26.0 15 -0.025455845519900322
-1.8208775520324707 2.735457181930542 -0.880502462387085 6.0 0 -0.025435108691453934
-3.3909051418304443 5.096002101898193 0.10684363543987274 41.0 8 -0.025432804599404335
-2.0527637004852295 3.0861518383026123 -0.8557138442993164 3.0 1 -0.025430500507354736
-3.6139097213745117 5.4352498054504395 0.3420678377151489 5.0 9 -0.025428196415305138
-2.338179349899292 3.516576051712036 -0.8208603262901306 1.0 2 -0.02542589232325554
-3.6118695735931396 5.434244155883789 0.5708701014518738 30.0 10 -0.02542358823120594
-2.7547547817230225 4.146240234375 -0.788429856300354 1.0 3 -0.02542128413915634
-3.5967535972595215 5.415595054626465 0.7982442378997803 36.0 11 -0.025418980047106743
-3.0094974040985107 4.533090591430664 -0.6680877804756165 41.0 4 -0.025416675955057144
-3.5739896297454834 5.385402679443359 1.0237072706222534 34.0 12 -0.025414373725652695
-3.384429693222046 5.099767208099365 -0.5354848504066467 38.0 5 -0.025412069633603096
-3.5619781017303467 5.3693318367004395 1.2524702548980713 28.0 13 -0.025409765541553497
-3.026658296585083 4.564123153686523 -0.28701040148735046 61.0 6 -0.0254074614495039
-3.5305514335632324 5.3259992599487305 1.475229024887085 25.0 14 -0.0254051573574543
-3.489577054977417 5.268178939819336 1.6931942701339722 24.0 15 -0.025400549173355103
-1.8059929609298706 2.7337374687194824 -0.8779142498970032 6.0 0 -0.025379812344908714
-3.358771562576294 5.086113929748535 0.10638986527919769 49.0 8 -0.025377508252859116
-2.055935859680176 3.1144402027130127 -0.8615626096725464 4.0 1 -0.025375204160809517
-3.6290149688720703 5.499510765075684 0.3453126847743988 5.0 9 -0.025372900068759918
-2.3280515670776367 3.5279946327209473 -0.8216235637664795 2.0 2 -0.02537059783935547
-3.5994622707366943 5.456797122955322 0.5719159841537476 31.0 10 -0.02536829188466072
-2.742440700531006 4.159128665924072 -0.7890555262565613 1.0 3 -0.02536598965525627
-3.5985829830169678 5.459609508514404 0.802875280380249 33.0 11 -0.025363685563206673
-2.9914722442626953 4.540252208709717 -0.6676003336906433 45.0 4 -0.025361381471157074
-3.58233380317688 5.439087390899658 1.0315289497375488 33.0 12 -0.025359077379107475
-3.3655123710632324 5.1098856925964355 -0.5353105664253235 40.0 5 -0.025356773287057877
-3.569122791290283 5.421088695526123 1.2616292238235474 36.0 13 -0.025354469195008278
-3.0085132122039795 4.571323871612549 -0.2868010699748993 69.0 6 -0.02535216510295868
-3.5654919147491455 5.419691562652588 1.4977242946624756 56.0 14 -0.02534986101090908
-3.518921136856079 5.352970600128174 1.716488003730774 27.0 15 -0.025345252826809883
-1.7949028015136719 2.738722324371338 -0.8773965835571289 5.0 0 -0.025337934494018555
-2.040235996246338 3.115434408187866 -0.8597630262374878 4.0 1 -0.025333326309919357
-3.632772922515869 5.547234058380127 0.34751078486442566 5.0 9 -0.02533102221786976
-2.3237085342407227 3.5496439933776855 -0.824676513671875 1.0 2 -0.02532871812582016
-3.594712257385254 5.493292331695557 0.5743563175201416 26.0 10 -0.02532641403377056
-2.7336652278900146 4.179071426391602 -0.7909327745437622 1.0 3 -0.025324109941720963
-3.582895040512085 5.47940731048584 0.8038502335548401 33.0 11 -0.025321805849671364
-2.974519968032837 4.549004554748535 -0.6673566102981567 46.0 4 -0.025319501757621765
-3.581697940826416 5.479669570922852 1.036847710609436 35.0 12 -0.025317197665572166
-3.335862159729004 5.105508804321289 -0.5335674285888672 31.0 5 -0.025314893573522568
-3.5395684242248535 5.419339656829834 1.2581945657730103 38.0 13 -0.02531259134411812
-2.9884612560272217 4.577302932739258 -0.28648707270622253 52.0 6 -0.02531028725206852
-3.5476160049438477 5.433737277984619 1.4981740713119507 51.0 14 -0.02530798316001892
-2.9869351387023926 4.576709747314453 -0.09539484977722168 1.0 7 -0.025305679067969322
-3.5234375 5.400815486907959 1.7278759479522705 33.0 15 -0.025303374975919724
-1.796345829963684 2.760852575302124 -0.8825729489326477 5.0 0 -0.025282638147473335
-2.906693935394287 4.469082355499268 0.09305623173713684 26.0 8 -0.025280334055423737
-2.0277695655822754 3.118914842605591 -0.8588631749153137 3.0 1 -0.025278029963374138
-3.6470181941986084 5.609483242034912 0.35065093636512756 4.0 9 -0.02527572587132454
-2.3204822540283203 3.570499897003174 -0.8277294635772705 1.0 2 -0.02527342177927494
-3.6340019702911377 5.593734264373779 0.583594799041748 33.0 10 -0.025271117687225342
-2.721944808959961 4.191426753997803 -0.7915585041046143 1.0 3 -0.025268813595175743
-3.602534294128418 5.549535274505615 0.8123810887336731 29.0 11 -0.025266511365771294
-2.952932119369507 4.548853874206543 -0.6658941507339478 16.0 4 -0.025264207273721695
-3.5989925861358643 5.546198844909668 1.0471724271774292 36.0 12 -0.025261903181672096
-2.9741199016571045 4.584996223449707 -0.4781363904476166 16.0 5 -0.025259599089622498
-3.5771186351776123 5.516706466674805 1.278038740158081 38.0 13 -0.0252572949975729
-2.9591448307037354 4.565399646759033 -0.28512632846832275 31.0 6 -0.0252549909055233
-3.5656163692474365 5.501070022583008 1.5134707689285278 51.0 14 -0.0252526868134737
-2.9325978755950928 4.526173114776611 -0.09413827955722809 2.0 7 -0.025250382721424103
-3.526510715484619 5.4449005126953125 1.7382287979125977 36.0 15 -0.025248078629374504
-1.7871813774108887 2.766793966293335 -0.8825729489326477 5.0 0 -0.025227341800928116
-2.882096529006958 4.463576793670654 0.09274208545684814 44.0 8 -0.025225037708878517
-2.029041051864624 3.143631935119629 -0.8638120889663696 4.0 1 -0.02522273361682892
-3.6534039974212646 5.66245698928833 0.35316306352615356 3.0 9 -0.02522043138742447
-2.307565927505493 3.5765254497528076 -0.8273478746414185 2.0 2 -0.02521812729537487
-3.6424307823181152 5.647612571716309 0.5879526138305664 29.0 10 -0.02521582320332527
-2.703749895095825 4.193788528442383 -0.7903069853782654 1.0 3 -0.025213519111275673
-3.6142218112945557 5.608171463012695 0.8192057609558105 29.0 11 -0.025211215019226074
-2.9456372261047363 4.572484016418457 -0.6678441166877747 4.0 4 -0.025208910927176476
-3.6031384468078613 5.595266819000244 1.0540555715560913 34.0 12 -0.025206606835126877
-2.9578194618225098 4.5931596755981445 -0.47796207666397095 28.0 5 -0.025204302743077278
-3.583246946334839 5.566505432128906 1.2868160009384155 37.0 13 -0.02520199865102768
-2.9342634677886963 4.560070514678955 -0.2841842770576477 30.0 6 -0.02519969455897808
-3.5706377029418945 5.551180362701416 1.5238184928894043 47.0 14 -0.025197390466928482
-2.9232685565948486 4.546474933624268 -0.09434770792722702 7.0 7 -0.025195086374878883
-3.54508638381958 5.51568078994751 1.7568637132644653 36.0 15 -0.025192782282829285
-1.7712565660476685 2.7632575035095215 -0.8794671893119812 5.0 0 -0.025172047317028046
-2.863260269165039 4.468559741973877 0.09263737499713898 53.0 8 -0.025169743224978447
-2.00964617729187 3.1375679969787598 -0.8602128624916077 3.0 1 -0.02516743913292885
-3.614229917526245 5.644899845123291 0.35127899050712585 1.0 9 -0.02516513504087925
-2.2918906211853027 3.5795986652374268 -0.8262030482292175 1.0 2 -0.02516283094882965
-3.6452479362487793 5.6955342292785645 0.5916131734848022 28.0 10 -0.025160526856780052
-2.6869637966156006 4.199873447418213 -0.7896813154220581 1.0 3 -0.025158222764730453
-3.625638246536255 5.669252395629883 0.8262742161750793 27.0 11 -0.025155918672680855
-2.9382107257843018 4.596118927001953 -0.669793963432312 2.0 4 -0.025153614580631256
-3.604860305786133 5.64109992980957 1.0603129863739014 33.0 12 -0.025151310488581657
-2.9321136474609375 4.588346004486084 -0.4763932526111603 37.0 5 -0.02514900639653206
-3.595499277114868 5.628615856170654 1.298264503479004 35.0 13 -0.02514670230448246
-2.9086523056030273 4.555135250091553 -0.28324222564697266 36.0 6 -0.02514439821243286
-3.578500747680664 5.60631799697876 1.5355160236358643 52.0 14 -0.025142094120383263
-2.911684036254883 4.563394069671631 -0.09448732435703278 8.0 7 -0.025139790028333664
-3.5569751262664795 5.576886177062988 1.772392988204956 35.0 15 -0.025137485936284065
-1.7667850255966187 2.777573347091675 -0.8820553421974182 6.0 0 -0.025116750970482826
-2.8304779529571533 4.451527118682861 0.09207889437675476 51.0 8 -0.025114446878433228
-2.005999803543091 3.156076192855835 -0.8633622527122498 3.0 1 -0.02511214278638363
-3.29353404045105 5.183775901794434 0.32186615467071533 1.0 9 -0.02510983869433403
-2.2850711345672607 3.5979177951812744 -0.8284926414489746 1.0 2 -0.02510753460228443
-3.6477773189544678 5.743542194366455 0.5952737331390381 26.0 10 -0.025105230510234833
-2.676523208618164 4.215897083282471 -0.7909327745437622 1.0 3 -0.025102926418185234
-3.6313562393188477 5.7220988273620605 0.8321239948272705 24.0 11 -0.025100622326135635
-2.933845281600952 4.624786853790283 -0.6724750995635986 1.0 4 -0.025098318234086037
-3.61371111869812 5.698690414428711 1.0687603950500488 32.0 12 -0.025096014142036438
-2.9174110889434814 4.602427005767822 -0.4767419099807739 24.0 5 -0.02509371004998684
-3.5990121364593506 5.679899215698242 1.3070416450500488 33.0 13 -0.02509140595793724
-2.8887321949005127 4.560702800750732 -0.2829281985759735 43.0 6 -0.025089101865887642
-3.591236114501953 5.669809341430664 1.5494630336761475 57.0 14 -0.025086797773838043
-2.912853717803955 4.60056209564209 -0.09504580497741699 12.0 7 -0.025084493681788445
-3.5540153980255127 5.615386962890625 1.7806750535964966 34.0 15 -0.025082189589738846
-1.7596849203109741 2.7889323234558105 -0.8836082816123962 5.0 0 -0.025061454623937607
-2.80987548828125 4.455106735229492 0.091939277946949 54.0 8 -0.025059150531888008
-1.9881834983825684 3.1535160541534424 -0.8606628179550171 3.0 1 -0.02505684643983841
-3.258538007736206 5.170468330383301 0.3202960789203644 5.0 9 -0.02505454234778881
-2.273960828781128 3.6095917224884033 -0.8292559385299683 1.0 2 -0.025052238255739212
-2.642106771469116 4.195590496063232 -0.785301148891449 1.0 3 -0.025047630071640015
-3.6389102935791016 5.780729293823242 0.8387048840522766 22.0 11 -0.025045325979590416
-2.899960517883301 4.608626365661621 -0.6685752272605896 1.0 4 -0.025043021887540817
-3.6254029273986816 5.763733386993408 1.07845938205719 34.0 12 -0.02504071779549122
-3.1868622303009033 5.068495273590088 -0.5238059759140015 23.0 5 -0.02503841370344162
