# .PCD v0.7 - Point Cloud Data file format
VERSION 0.7
FIELDS x y z intensity ring time
SIZE 4 4 4 4 4 4
TYPE F F F F F F
COUNT 1 1 1 1 1 1
WIDTH 549
HEIGHT 1
VIEWPOINT 0 0 0 1 0 0 0
POINTS 549
DATA ascii
1.2359874248504639 -2.12534499168396 0.21510037779808044 7.0 10 -0.06424252688884735
1.2756963968276978 -2.1945080757141113 -0.4020366370677948 107.0 3 -0.0642402246594429
1.2307214736938477 -2.117990732192993 0.300773561000824 5.0 11 -0.06423791497945786
1.2772127389907837 -2.198882579803467 -0.3122292757034302 103.0 4 -0.0642356127500534
1.233880877494812 -2.1251351833343506 0.38920900225639343 5.0 12 -0.06423331052064896
1.235795021057129 -2.1292874813079834 0.4785490036010742 5.0 13 -0.06422870606184006
1.2327675819396973 -2.124925374984741 -0.12874646484851837 11.0 6 -0.06422639638185501
1.2347193956375122 -2.1291463375091553 0.5682263970375061 6.0 14 -0.06422409415245056
1.2305201292037964 -2.122758626937866 -0.042828209698200226 8.0 7 -0.06422179192304611
1.2290931940078735 -2.121150493621826 0.6568827629089355 7.0 15 -0.06421948969364166
0.7036190032958984 -1.2177222967147827 -0.3768405616283417 8.0 0 -0.06419874727725983
1.2221834659576416 -2.11603045463562 0.042653679847717285 7.0 8 -0.06419644504785538
0.8399069905281067 -1.4547617435455322 -0.3878156542778015 6.0 1 -0.06419414281845093
1.2269446849822998 -2.1259875297546387 0.12864179909229279 6.0 9 -0.06419184058904648
1.0559115409851074 -1.829629898071289 -0.4106209874153137 6.0 2 -0.06418953835964203
1.2375212907791138 -2.14517879486084 0.21666917204856873 6.0 10 -0.06418722867965698
1.267041563987732 -2.1972365379333496 -0.4017237424850464 104.0 3 -0.06418492645025253
1.223320722579956 -2.1222739219665527 0.300773561000824 5.0 11 -0.06418262422084808
1.2655651569366455 -2.1964473724365234 -0.3112543225288391 103.0 4 -0.06418032199144363
1.2234975099563599 -2.1242940425872803 0.38827037811279297 6.0 12 -0.06417801231145859
1.224436640739441 -2.1267826557159424 0.4770224988460541 5.0 13 -0.06417340785264969
1.2273350954055786 -2.1326777935028076 -0.12895581126213074 11.0 6 -0.06417110562324524
1.2224210500717163 -2.12499737739563 0.5659768581390381 6.0 14 -0.06416879594326019
1.2151283025741577 -2.1131725311279297 -0.04254896938800812 8.0 7 -0.06416649371385574
1.2216817140579224 -2.125427722930908 0.6568827629089355 7.0 15 -0.0641641914844513
0.6974429488182068 -1.2168188095092773 -0.3758052587509155 8.0 0 -0.06414345651865005
1.2207541465759277 -2.1306943893432617 0.042863111943006516 7.0 8 -0.0641411542892456
0.8367608785629272 -1.4610666036605835 -0.3887154459953308 6.0 1 -0.06413884460926056
1.2215008735656738 -2.1337239742279053 0.12885113060474396 6.0 9 -0.06413654237985611
1.0534203052520752 -1.8401198387145996 -0.4121474623680115 6.0 2 -0.06413424015045166
1.22111976146698 -2.1339218616485596 0.21510037779808044 6.0 10 -0.06413193792104721
1.2613255977630615 -2.205075263977051 -0.40234947204589844 111.0 3 -0.06412962824106216
1.2218170166015625 -2.136870861053467 0.30223599076271057 6.0 11 -0.06412732601165771
1.256905436515808 -2.1991283893585205 -0.31101056933403015 106.0 4 -0.06412502378225327
1.2101951837539673 -2.118260622024536 0.38639315962791443 6.0 12 -0.06412272155284882
1.2228468656539917 -2.141272783279419 0.4793122112751007 5.0 13 -0.06411810964345932
1.2169127464294434 -2.1317455768585205 -0.12864179909229279 11.0 6 -0.06411580741405487
1.2188595533370972 -2.136021614074707 0.5677765011787415 6.0 14 -0.06411350518465042
1.2087351083755493 -2.11913800239563 -0.04258387163281441 9.0 7 -0.06411119550466537
1.2056435346603394 -2.1145753860473633 0.652224063873291 6.0 15 -0.06410889327526093
0.6893719434738159 -1.2125283479690552 -0.3737347424030304 8.0 0 -0.06408815830945969
1.2014528512954712 -2.1140801906585693 0.04244425520300865 8.0 8 -0.06408585608005524
0.8355059623718262 -1.4707562923431396 -0.3905150592327118 6.0 1 -0.06408355385065079
1.2101004123687744 -2.1310276985168457 0.12843245267868042 6.0 9 -0.06408124417066574
1.037296175956726 -1.8267135620117188 -0.4083312749862671 6.0 2 -0.06407894194126129
1.2067790031433105 -2.126042604446411 0.21388019621372223 6.0 10 -0.06407663971185684
1.2448474168777466 -2.194002151489258 -0.3995336890220642 107.0 3 -0.06407433748245239
1.214350700378418 -2.141122579574585 0.30223599076271057 5.0 11 -0.06407202780246735
1.252158522605896 -2.2086827754974365 -0.31174179911613464 103.0 4 -0.0640697255730629
1.2008459568023682 -2.119035005569458 0.3857674300670624 6.0 12 -0.06406742334365845
1.2018179893493652 -2.1216135025024414 0.47396957874298096 5.0 13 -0.06406281143426895
1.2134004831314087 -2.142932415008545 -0.12906047701835632 12.0 6 -0.0640605092048645
1.2152354717254639 -2.1470468044281006 0.5695760846138 6.0 14 -0.06405820697546005
1.201330542564392 -2.1233444213867188 -0.04258387163281441 9.0 7 -0.0640559047460556
1.199205756187439 -2.120452404022217 0.6527416706085205 7.0 15 -0.06405359506607056
0.6870330572128296 -1.2182928323745728 -0.37476998567581177 8.0 0 -0.06403286010026932
1.1901379823684692 -2.111293077468872 0.0423046313226223 7.0 8 -0.06403055787086487
0.8208004832267761 -1.4566861391067505 -0.38601604104042053 7.0 1 -0.06402825564146042
1.2104954719543457 -2.149160146713257 0.1292698234319687 6.0 9 -0.06402595341205597
1.0318769216537476 -1.8320339918136597 -0.40871289372444153 7.0 2 -0.06402364373207092
1.203260064125061 -2.1371865272521973 0.21457743644714355 6.0 10 -0.06402134150266647
1.2352439165115356 -2.1948907375335693 -0.39890795946121216 107.0 3 -0.06401903927326202
1.2029762268066406 -2.138427972793579 0.3012610375881195 6.0 11 -0.06401673704385757
1.244441032409668 -2.213040351867676 -0.31174179911613464 107.0 4 -0.06401442736387253
1.1953774690628052 -2.126657724380493 0.38639315962791443 6.0 12 -0.06401212513446808
1.195366621017456 -2.127506971359253 0.474351167678833 6.0 13 -0.06400752067565918
1.1971105337142944 -2.1314821243286133 -0.12811844050884247 12.0 6 -0.06400521099567413
1.1991477012634277 -2.1359825134277344 0.5655270218849182 6.0 14 -0.06400290876626968
1.1919543743133545 -2.124037265777588 -0.04251406341791153 9.0 7 -0.06400060653686523
1.193686842918396 -2.127995014190674 0.6537768840789795 7.0 15 -0.06399830430746078
0.6865485906600952 -1.22742760181427 -0.3768405616283417 8.0 0 -0.06397756934165955
1.1866647005081177 -2.1224162578582764 0.04244425520300865 7.0 8 -0.0639752596616745
0.8147599697113037 -1.4578412771224976 -0.3855661451816559 7.0 1 -0.06397295743227005
1.1932452917099 -2.1359364986419678 0.12822310626506805 6.0 9 -0.0639706552028656
1.0283479690551758 -1.8407663106918335 -0.40985772013664246 6.0 2 -0.06396835297346115
1.1928783655166626 -2.136155128479004 0.21405449509620667 6.0 10 -0.0639660432934761
1.226611852645874 -2.1974644660949707 -0.39859506487846375 111.0 3 -0.06396374106407166
1.189700961112976 -2.1322131156921387 0.2997986078262329 6.0 11 -0.0639614388346672
1.228973150253296 -2.2035014629364014 -0.3097918927669525 103.0 4 -0.06395913660526276
1.1879470348358154 -2.130817174911499 0.38639315962791443 6.0 12 -0.06395682692527771
1.1831543445587158 -2.12309193611145 0.4724431037902832 5.0 13 -0.06395222246646881
1.1828594207763672 -2.123434066772461 -0.1273857206106186 11.0 6 -0.06394992023706436
1.1907362937927246 -2.1384525299072266 0.5650770664215088 6.0 14 -0.06394761800765991
1.1816152334213257 -2.122943162918091 -0.042409345507621765 8.0 7 -0.06394530832767487
1.180616021156311 -2.1220200061798096 0.650671124458313 7.0 15 -0.06394300609827042
0.6841341853141785 -1.233195185661316 -0.37787580490112305 8.0 0 -0.06392227113246918
1.183127760887146 -2.133540391921997 0.04258387163281441 7.0 8 -0.06391996890306473
0.8134452104568481 -1.4674941301345825 -0.38736575841903687 7.0 1 -0.06391765922307968
1.1842191219329834 -2.136388063430786 0.1280137598514557 6.0 9 -0.06391535699367523
1.0162073373794556 -1.8340411186218262 -0.4075680375099182 6.0 2 -0.06391305476427078
1.1912063360214233 -2.150763511657715 0.21510037779808044 6.0 10 -0.06391075253486633
1.2198904752731323 -2.203461170196533 -0.39890795946121216 107.0 3 -0.06390844285488129
1.1784061193466187 -2.1294054985046387 0.29882365465164185 5.0 11 -0.06390614062547684
1.2212738990783691 -2.207777976989746 -0.3097918927669525 109.0 4 -0.06390383839607239
1.1789621114730835 -2.1312880516052246 0.3857674300670624 6.0 12 -0.06390153616666794
1.1795350313186646 -2.134082317352295 0.47396957874298096 5.0 13 -0.06389692425727844
1.176405906677246 -2.129298210144043 -0.12749040126800537 12.0 6 -0.06389462202787399
1.1785541772842407 -2.134066581726074 0.5628275871276855 6.0 14 -0.06389231979846954
1.1736019849777222 -2.1250994205474854 -0.042374443262815475 9.0 7 -0.0638900175690651
1.177307367324829 -2.132688283920288 0.6527416706085205 7.0 15 -0.06388770788908005
0.6686501502990723 -1.2152650356292725 -0.3716641664505005 8.0 0 -0.06386697292327881
1.1721904277801514 -2.1304445266723633 0.04244425520300865 7.0 8 -0.06386467069387436
0.8085744380950928 -1.4701834917068481 -0.38736575841903687 7.0 1 -0.06386236846446991
1.1786789894104004 -2.1440091133117676 0.12822310626506805 6.0 9 -0.06386006623506546
1.0079081058502197 -1.8341360092163086 -0.4068048298358917 6.0 2 -0.06385775655508041
1.1750587224960327 -2.1391918659210205 0.21353155374526978 6.0 10 -0.06385545432567596
1.2163811922073364 -2.214419364929199 -0.40015941858291626 118.0 3 -0.06385315209627151
1.1789815425872803 -2.1472220420837402 0.300773561000824 6.0 11 -0.06385084986686707
1.2101258039474487 -2.204854965209961 -0.30881693959236145 103.0 4 -0.06384854018688202
1.1696149110794067 -2.1319265365600586 0.3851417005062103 6.0 12 -0.06384623795747757
1.1743396520614624 -2.1414246559143066 0.47473281621932983 5.0 13 -0.06384163349866867
1.1741386651992798 -2.1419448852539062 -0.1280137598514557 13.0 6 -0.06383932381868362
1.163979411125183 -2.124290943145752 0.5592283606529236 6.0 14 -0.06383702158927917
1.1613738536834717 -2.1204140186309814 -0.04219992086291313 8.0 7 -0.06383471935987473
1.1680002212524414 -2.1333959102630615 0.6517063975334167 7.0 15 -0.06383241713047028
0.6646164655685425 -1.2174756526947021 -0.3716641664505005 8.0 0 -0.06381168216466904
1.1628308296203613 -2.131012439727783 0.042374443262815475 8.0 8 -0.06380937248468399
0.806236982345581 -1.4781293869018555 -0.3887154459953308 7.0 1 -0.06380707025527954
1.1734755039215088 -2.1514129638671875 0.12843245267868042 6.0 9 -0.06380476802587509
0.9961815476417542 -1.827126145362854 -0.4045150876045227 6.0 2 -0.06380246579647064
1.164144515991211 -2.1360790729522705 0.21283432841300964 6.0 10 -0.0638001561164856
1.199194073677063 -2.201305389404297 -0.39703071117401123 107.0 3 -0.06379785388708115
1.1695806980133057 -2.1478376388549805 0.30028611421585083 5.0 11 -0.0637955516576767
1.2024219036102295 -2.2090656757354736 -0.30881693959236145 103.0 4 -0.06379324942827225
1.1644277572631836 -2.13926362991333 0.3857674300670624 6.0 12 -0.0637909397482872
1.1612293720245361 -2.135162591934204 0.4724431037902832 5.0 13 -0.0637863352894783
1.165700912475586 -2.144275188446045 -0.1279090791940689 12.0 6 -0.06378403306007385
1.1602789163589478 -2.13519024848938 0.561028003692627 6.0 14 -0.0637817233800888
1.1552904844284058 -2.1260104179382324 -0.04223482310771942 9.0 7 -0.06377942115068436
1.154464602470398 -2.1253745555877686 0.6480829119682312 7.0 15 -0.06377711892127991
0.6640414595603943 -1.2265836000442505 -0.3737347424030304 8.0 0 -0.06375638395547867
1.1500455141067505 -2.124305486679077 0.042165014892816544 8.0 8 -0.06375408172607422
0.7929838299751282 -1.4653698205947876 -0.3846663236618042 7.0 1 -0.06375177204608917
1.1659585237503052 -2.1554958820343018 0.12843245267868042 6.0 9 -0.06374946981668472
0.9935327172279358 -1.8375003337860107 -0.40604156255722046 6.0 2 -0.06374716758728027
1.1566810607910156 -2.140129804611206 0.21283432841300964 6.0 10 -0.06374486535787582
1.1881307363510132 -2.1983189582824707 -0.39577925205230713 114.0 3 -0.06374255567789078
1.1549031734466553 -2.1377320289611816 0.2983361780643463 6.0 11 -0.06374025344848633
1.1969761848449707 -2.21653413772583 -0.309304416179657 103.0 4 -0.06373795121908188
1.1494466066360474 -2.129408597946167 0.3832644820213318 6.0 12 -0.06373564898967743
1.147616982460022 -2.1269071102142334 0.46977177262306213 6.0 13 -0.06373103708028793
1.1528950929641724 -2.1375820636749268 -0.127281054854393 12.0 6 -0.06372873485088348
1.158740758895874 -2.149317979812622 0.5637273788452148 6.0 14 -0.06372643262147903
1.1459649801254272 -2.126509666442871 -0.042165014892816544 9.0 7 -0.06372413039207458
1.151619553565979 -2.137895345687866 0.650671124458313 7.0 15 -0.06372182071208954
0.6613684892654419 -1.232413649559021 -0.37476998567581177 9.0 0 -0.06362557411193848
1.1437709331512451 -2.132229804992676 0.04223482310771942 8.0 8 -0.06362327188253403
0.7891929745674133 -1.4718388319015503 -0.3855661451816559 7.0 1 -0.06362096965312958
1.1529560089111328 -2.1511547565460205 0.1279090791940689 7.0 9 -0.06361865997314453
0.994210958480835 -1.8549723625183105 -0.40909451246261597 6.0 2 -0.06361635774374008
1.1488293409347534 -2.144354820251465 0.21283432841300964 6.0 10 -0.06361405551433563
1.1806135177612305 -2.204606056213379 -0.39609211683273315 111.0 3 -0.06361175328493118
1.1373182535171509 -2.1246497631073 0.29589879512786865 6.0 11 -0.06360944360494614
1.1828372478485107 -2.2106120586395264 -0.3078419864177704 103.0 4 -0.06360714137554169
1.1412616968154907 -2.1338064670562744 0.3832644820213318 6.0 12 -0.06360483914613724
1.1403673887252808 -2.1330294609069824 0.47015342116355896 5.0 13 -0.06360022723674774
1.1418548822402954 -2.1367084980010986 -0.12696704268455505 12.0 6 -0.06359792500734329
1.1412975788116455 -2.1365625858306885 0.5592283606529236 7.0 14 -0.06359562277793884
1.14155912399292 -2.1379499435424805 -0.0423046313226223 9.0 7 -0.0635933205485344
1.137943983078003 -2.132075548171997 0.6475652456283569 7.0 15 -0.06359101086854935
0.6570624709129333 -1.2347147464752197 -0.37476998567581177 8.0 0 -0.06357027590274811
1.1381993293762207 -2.139740467071533 0.0423046313226223 8.0 8 -0.06356797367334366
0.7803910970687866 -1.467702031135559 -0.3837665319442749 7.0 1 -0.06356567144393921
1.1426280736923218 -2.1498756408691406 0.12759508192539215 7.0 9 -0.06356336921453476
0.9803586006164551 -1.8445626497268677 -0.40604156255722046 6.0 2 -0.06356105953454971
1.149749755859375 -2.16418719291687 0.21440312266349792 6.0 10 -0.06355875730514526
1.1747636795043945 -2.212202787399292 -0.3967178463935852 111.0 3 -0.06355645507574081
1.1392021179199219 -2.1461403369903564 0.2983361780643463 6.0 11 -0.06355415284633636
1.1713918447494507 -2.2077133655548096 -0.3068670332431793 107.0 4 -0.06355184316635132
1.135657548904419 -2.141267776489258 0.3838902413845062 6.0 12 -0.06354954093694687
1.1273972988128662 -2.12658953666687 0.46786367893218994 6.0 13 -0.06354493647813797
1.1353245973587036 -2.1424460411071777 -0.12707172334194183 12.0 6 -0.06354262679815292
1.1301839351654053 -2.1336452960968018 0.557428777217865 7.0 14 -0.06354032456874847
1.1294106245040894 -2.1330854892730713 -0.042130108922719955 9.0 7 -0.06353802233934402
1.1341098546981812 -2.14286470413208 0.6496358513832092 7.0 15 -0.06353572010993958
0.6473389863967896 -1.2267495393753052 -0.3716641664505005 8.0 0 -0.06351498514413834
1.1288573741912842 -2.140162944793701 0.04223482310771942 8.0 8 -0.06351267546415329
0.7725364565849304 -1.4652457237243652 -0.38241681456565857 7.0 1 -0.06351037323474884
1.133629322052002 -2.1501193046569824 0.1273857206106186 7.0 9 -0.06350807100534439
0.9757445454597473 -1.8514472246170044 -0.4068048298358917 6.0 2 -0.06350576877593994
1.1329025030136108 -2.150559902191162 0.21265999972820282 7.0 10 -0.0635034590959549
1.166114330291748 -2.2145421504974365 -0.3964049816131592 107.0 3 -0.06350115686655045
1.1317037343978882 -2.150103807449341 0.2983361780643463 6.0 11 -0.063498854637146
1.1655268669128418 -2.2153024673461914 -0.30735450983047485 107.0 4 -0.06349655240774155
1.1193526983261108 -2.127539873123169 0.3807615041732788 6.0 12 -0.0634942427277565
1.1272752285003662 -2.1444144248962402 0.47091662883758545 6.0 13 -0.0634896382689476
1.1287680864334106 -2.1481640338897705 -0.12717638909816742 13.0 6 -0.06348733603954315
1.1254477500915527 -2.1427533626556396 0.5587784647941589 6.0 14 -0.0634850338101387
1.1195414066314697 -2.1315081119537354 -0.04202539846301079 9.0 7 -0.06348272413015366
1.118017315864563 -2.1295089721679688 0.6444594264030457 7.0 15 -0.0634804219007492
0.6430529952049255 -1.229001522064209 -0.3716641664505005 8.0 0 -0.06345968693494797
1.1199002265930176 -2.1403510570526123 0.042165014892816544 8.0 8 -0.06345738470554352
0.7748984098434448 -1.481614112854004 -0.38601604104042053 6.0 1 -0.06345507502555847
1.1251918077468872 -2.1522934436798096 0.127281054854393 7.0 9 -0.06345277279615402
0.9692757725715637 -1.854841947555542 -0.4068048298358917 7.0 2 -0.06345047056674957
1.1216989755630493 -2.147437572479248 0.2119627594947815 6.0 10 -0.06344816833734512
1.1532766819000244 -2.2078914642333984 -0.39452776312828064 107.0 3 -0.06344585865736008
1.1245673894882202 -2.1538448333740234 0.2983361780643463 6.0 11 -0.06344355642795563
1.157256007194519 -2.217395305633545 -0.3071107864379883 106.0 4 -0.06344125419855118
1.1174017190933228 -2.1419427394866943 0.38263875246047974 6.0 12 -0.06343895196914673
1.118342638015747 -2.1446590423583984 0.47015342116355896 5.0 13 -0.06343434005975723
1.1225615739822388 -2.1536664962768555 -0.127281054854393 12.0 6 -0.06343203783035278
1.117435336112976 -2.144745349884033 0.5583285689353943 7.0 14 -0.06342973560094833
1.1083996295928955 -2.1283082962036133 -0.041885774582624435 9.0 7 -0.06342743337154388
1.1123613119125366 -2.1368260383605957 0.6454947590827942 7.0 15 -0.06342512369155884
0.6407537460327148 -1.2345565557479858 -0.37269943952560425 8.0 0 -0.0634043887257576
1.1068967580795288 -2.133596658706665 0.04195558279752731 8.0 8 -0.06340208649635315
0.7634420394897461 -1.4722001552581787 -0.3828667104244232 7.0 1 -0.0633997842669487
1.1213487386703491 -2.1633005142211914 0.12769974768161774 7.0 9 -0.06339747458696365
0.9540848135948181 -1.8406158685684204 -0.40298861265182495 6.0 2 -0.0633951723575592
1.1145718097686768 -2.1511454582214355 0.2119627594947815 6.0 10 -0.06339287012815475
1.1464711427688599 -2.213658094406128 -0.39484065771102905 111.0 3 -0.0633905678987503
1.1097413301467896 -2.1436545848846436 0.2963862717151642 6.0 11 -0.06338826566934586
1.1485964059829712 -2.219658374786377 -0.3068670332431793 101.0 4 -0.06338595598936081
1.111733078956604 -2.149338960647583 0.3832644820213318 6.0 12 -0.06338365375995636
1.1063412427902222 -2.1398301124572754 0.46824532747268677 6.0 13 -0.06337904930114746
1.1086182594299316 -2.1451518535614014 -0.12654836475849152 13.0 6 -0.06337673962116241
1.114414095878601 -2.157289505004883 0.5605780482292175 6.0 14 -0.06337443739175797
1.1037160158157349 -2.1374950408935547 -0.0419904924929142 9.0 7 -0.06337213516235352
1.0995794534683228 -2.1303958892822266 0.6423888802528381 7.0 15 -0.06336983293294907
0.6362245678901672 -1.2368967533111572 -0.37269943952560425 8.0 0 -0.06334909051656723
1.0994422435760498 -2.1374475955963135 0.04195558279752731 8.0 8 -0.06334678828716278
0.7565164566040039 -1.4713900089263916 -0.3819669187068939 7.0 1 -0.06334448605775833
1.1046611070632935 -2.149437665939331 0.1266530305147171 7.0 9 -0.06334218382835388
0.9580972790718079 -1.865056037902832 -0.4075680375099182 6.0 2 -0.06333988159894943
1.1066796779632568 -2.1552162170410156 0.2119627594947815 6.0 10 -0.06333757191896439
1.1347421407699585 -2.2108154296875 -0.3935891389846802 111.0 3 -0.06333526968955994
1.100439190864563 -2.1439828872680664 0.29589879512786865 6.0 11 -0.06333296746015549
1.135404348373413 -2.213057041168213 -0.3054046034812927 103.0 4 -0.06333066523075104
1.1006180047988892 -2.1461758613586426 0.3820130228996277 6.0 12 -0.06332835555076599
1.0993860960006714 -2.145617723464966 0.4686269164085388 6.0 13 -0.06332375109195709
1.09892737865448 -2.1456451416015625 -0.12633900344371796 12.0 6 -0.06332144886255264
1.0914031267166138 -2.131870746612549 0.5529297590255737 6.0 14 -0.0633191391825676
1.0989818572998047 -2.146674633026123 -0.042095206677913666 9.0 7 -0.06331683695316315
1.0938962697982788 -2.137660503387451 0.6434241533279419 7.0 15 -0.0633145347237587
0.635413646697998 -1.245993971824646 -0.37476998567581177 8.0 0 -0.06329379975795746
1.0897845029830933 -2.137899875640869 0.041885774582624435 8.0 8 -0.06329149752855301
0.7528878450393677 -1.4776254892349243 -0.3828667104244232 7.0 1 -0.06328918784856796
1.0971513986587524 -2.153280735015869 0.1266530305147171 7.0 9 -0.06328688561916351
0.9355432391166687 -1.8368993997573853 -0.4006989300251007 6.0 2 -0.06328458338975906
1.101861834526062 -2.1643924713134766 0.21248570084571838 7.0 10 -0.06328228116035461
1.1270179748535156 -2.2147629261016846 -0.3935891389846802 111.0 3 -0.06327997148036957
1.0961735248565674 -2.1550793647766113 0.2968737483024597 6.0 11 -0.06327766925096512
1.1236867904663086 -2.21012544631958 -0.30442965030670166 100.0 4 -0.06327536702156067
1.08953857421875 -2.142961025238037 0.3807615041732788 7.0 12 -0.06327306479215622
1.0927789211273193 -2.1511924266815186 0.46900853514671326 6.0 13 -0.06326845288276672
1.0941437482833862 -2.1548104286193848 -0.1266530305147171 13.0 6 -0.06326615065336227
1.082190752029419 -2.1321921348571777 0.5520299673080444 6.0 14 -0.06326384842395782
1.0860514640808105 -2.139798641204834 -0.041885774582624435 9.0 7 -0.06326153874397278
1.0899239778518677 -2.148357391357422 0.6454947590827942 7.0 15 -0.06325923651456833
0.6223441362380981 -1.230964183807373 -0.36959362030029297 8.0 0 -0.06323850154876709
1.0899068117141724 -2.1557788848876953 0.042165014892816544 8.0 8 -0.06323619931936264
0.7514994740486145 -1.48707115650177 -0.3846663236618042 7.0 1 -0.06323389708995819
1.0932304859161377 -2.1642284393310547 0.12707172334194183 7.0 9 -0.06323158740997314
0.9326651096343994 -1.8471639156341553 -0.4022253751754761 6.0 2 -0.0632292851805687
1.0907089710235596 -2.1611108779907227 0.21178844571113586 7.0 10 -0.06322698295116425
1.1223373413085938 -2.223778486251831 -0.39452776312828064 114.0 3 -0.0632246807217598
1.0925971269607544 -2.1657917499542236 0.2978487014770508 6.0 11 -0.06322237104177475
1.1163517236709595 -2.213839530944824 -0.30442965030670166 100.0 4 -0.0632200688123703
1.0784953832626343 -2.139695405960083 0.3795100450515747 6.0 12 -0.06321776658296585
1.085639476776123 -2.1548044681549072 0.46900853514671326 6.0 13 -0.06321315467357635
1.086093783378601 -2.1566433906555176 -0.12654836475849152 12.0 6 -0.0632108524441719
1.0751142501831055 -2.1357691287994385 0.5520299673080444 6.0 14 -0.06320855021476746
1.0776768922805786 -2.1417901515960693 -0.04185086861252785 9.0 7 -0.063206247985363
1.0824180841445923 -2.152148962020874 0.6454947590827942 7.0 15 -0.06320394575595856
0.6182587742805481 -1.2330211400985718 -0.36959362030029297 8.0 0 -0.06318320333957672
1.0716232061386108 -2.1381173133850098 0.04174615815281868 8.0 8 -0.06318090111017227
0.7445582747459412 -1.4862008094787598 -0.3837665319442749 7.0 1 -0.06317859888076782
1.0838807821273804 -2.164459228515625 0.12686236202716827 7.0 9 -0.06317629665136337
0.9221392869949341 -1.841469168663025 -0.4003172814846039 6.0 2 -0.06317398697137833
1.0790774822235107 -2.1558077335357666 0.2109168916940689 7.0 10 -0.06317168474197388
1.109264850616455 -2.21708345413208 -0.3926505744457245 114.0 3 -0.06316938251256943
1.0797030925750732 -2.158939838409424 0.2963862717151642 6.0 11 -0.06316708028316498
1.112167477607727 -2.224825143814087 -0.3054046034812927 103.0 4 -0.06316477060317993
1.065722107887268 -2.1328444480895996 0.37763282656669617 6.0 12 -0.06316246837377548
1.0763567686080933 -2.1550683975219727 0.46824532747268677 6.0 13 -0.06315786391496658
1.0767749547958374 -2.1568472385406494 -0.12633900344371796 13.0 6 -0.06315556168556213
1.0659122467041016 -2.136021375656128 0.5511301159858704 6.0 14 -0.06315325200557709
1.0666238069534302 -2.138381242752075 -0.04171125218272209 10.0 7 -0.06315094977617264
1.0680030584335327 -2.142082929611206 0.6413536071777344 7.0 15 -0.06314864754676819
0.6156706213951111 -1.2386313676834106 -0.37062889337539673 8.0 0 -0.06312791258096695
1.0623736381530762 -2.13826322555542 0.041676346212625504 8.0 8 -0.0631256029009819
0.7376324534416199 -1.485299825668335 -0.3828667104244232 7.0 1 -0.06312330067157745
1.0727665424346924 -2.161073684692383 0.12644368410110474 7.0 9 -0.063120998442173
0.9174515604972839 -1.848193883895874 -0.40108051896095276 6.0 2 -0.06311869621276855
1.0759737491607666 -2.168484926223755 0.21178844571113586 7.0 10 -0.06311638653278351
1.0980080366134644 -2.2138631343841553 -0.391399085521698 118.0 3 -0.06311408430337906
1.0633435249328613 -2.1449100971221924 0.2939488887786865 6.0 11 -0.06311178207397461
1.104394555091858 -2.228693962097168 -0.3054046034812927 107.0 4 -0.06310947984457016
1.0617777109146118 -2.143632411956787 0.37888431549072266 6.0 12 -0.06310717761516571
1.0550042390823364 -2.129957437515259 -0.20795360207557678 1.0 5 -0.06310486793518066
1.058374285697937 -2.1376991271972656 0.4636658728122711 6.0 13 -0.06310256570577621
1.0630384683609009 -2.1480624675750732 -0.12560631334781647 12.0 6 -0.06310026347637177
1.0662260055541992 -2.155449867248535 0.555179238319397 7.0 14 -0.06309796124696732
1.061811923980713 -2.1474692821502686 -0.04181596636772156 11.0 7 -0.06309565156698227
1.0605194568634033 -2.1457977294921875 0.6413536071777344 7.0 15 -0.06309334933757782
0.6130508780479431 -1.2442389726638794 -0.3716641664505005 8.0 0 -0.06307261437177658
1.0531362295150757 -2.1383707523345947 0.041606537997722626 9.0 8 -0.06307031214237213
0.725557804107666 -1.4738786220550537 -0.37926751375198364 7.0 1 -0.06306800246238708
1.060301423072815 -2.1538679599761963 0.12581564486026764 7.0 9 -0.06306570023298264
0.9170621037483215 -1.8637161254882812 -0.4037518799304962 7.0 2 -0.06306339800357819
1.0692771673202515 -2.174015522003174 0.2119627594947815 7.0 10 -0.06306109577417374
1.0902737379074097 -2.217682361602783 -0.391399085521698 114.0 3 -0.06305879354476929
1.057600736618042 -2.152172088623047 0.29443636536598206 6.0 11 -0.06305648386478424
1.091745138168335 -2.2216544151306152 -0.30394217371940613 100.0 4 -0.06305418163537979
1.0546633005142212 -2.147141695022583 0.37888431549072266 7.0 12 -0.06305187940597534
1.0475627183914185 -2.133626937866211 -0.20795360207557678 1.0 5 -0.06304957717657089
1.053501009941101 -2.146667957305908 0.46481072902679443 5.0 13 -0.06304726749658585
1.0546541213989258 -2.1499669551849365 -0.1255016326904297 12.0 6 -0.0630449652671814
1.0496315956115723 -2.139728307723999 0.5502303242683411 6.0 14 -0.06304266303777695
1.0555648803710938 -2.152773857116699 -0.04185086861252785 9.0 7 -0.0630403608083725
1.055098295211792 -2.1527724266052246 0.6423888802528381 7.0 15 -0.06303805112838745
0.608921468257904 -1.2462650537490845 -0.3716641664505005 9.0 0 -0.06301731616258621
1.0495498180389404 -2.149038791656494 0.04174615815281868 8.0 8 -0.06301501393318176
0.7275052666664124 -1.4902863502502441 -0.3828667104244232 7.0 1 -0.06301271170377731
1.0514007806777954 -2.153782606124878 0.12560631334781647 7.0 9 -0.06301040947437286
0.9143204689025879 -1.8738046884536743 -0.4052783250808716 7.0 2 -0.06300809979438782
1.056821346282959 -2.1668050289154053 0.2109168916940689 7.0 10 -0.06300579756498337
1.0863761901855469 -2.2283883094787598 -0.3926505744457245 114.0 3 -0.06300349533557892
1.0443708896636963 -2.1431758403778076 0.2927301824092865 7.0 11 -0.06300119310617447
1.0826325416564941 -2.221693515777588 -0.3034546673297882 100.0 4 -0.06299888342618942
1.0475374460220337 -2.1506271362304688 0.37888431549072266 7.0 12 -0.06299658119678497
1.0404815673828125 -2.1370890140533447 -0.20795360207557678 2.0 5 -0.06299427896738052
1.050671935081482 -2.1589760780334473 0.4667188227176666 6.0 13 -0.06299197673797607
1.0501399040222168 -2.1588404178619385 -0.12581564486026764 12.0 6 -0.06298966705799103
1.040825605392456 -2.1396923065185547 0.5493305325508118 7.0 14 -0.06298736482858658
1.0440481901168823 -2.147270441055298 -0.041676346212625504 10.0 7 -0.06298506259918213
1.0462645292282104 -2.1527841091156006 0.6413536071777344 7.0 15 -0.06298276036977768
0.6047852635383606 -1.2482775449752808 -0.3716641664505005 8.0 0 -0.06296202540397644
1.0459038019180298 -2.1597063541412354 0.041885774582624435 8.0 8 -0.0629597157239914
0.7208612561225891 -1.4891825914382935 -0.3819669187068939 7.0 1 -0.06295741349458694
1.0456159114837646 -2.1610352993011475 0.12581564486026764 7.0 9 -0.0629551112651825
0.8966620564460754 -1.8540083169937134 -0.4003172814846039 7.0 2 -0.06295280903577805
1.047027826309204 -2.1649162769317627 0.21039395034313202 7.0 10 -0.062950499355793
1.078980803489685 -2.231978416442871 -0.3926505744457245 114.0 3 -0.06294819712638855
1.0484857559204102 -2.16986346244812 0.29589879512786865 6.0 11 -0.0629458948969841
1.0748707056045532 -2.225458860397339 -0.3034546673297882 100.0 4 -0.06294359266757965
1.0365889072418213 -2.1471548080444336 0.37763282656669617 7.0 12 -0.0629412829875946
1.0217589139938354 -2.1173808574676514 -0.20568755269050598 3.0 5 -0.06293898075819016
1.044835090637207 -2.1661672592163086 0.4674820601940155 6.0 13 -0.0629366785287857
1.041730284690857 -2.1606943607330322 -0.12571097910404205 12.0 6 -0.06293437629938126
1.0375815629959106 -2.1520893573760986 0.551580011844635 7.0 14 -0.06293206661939621
1.0348104238510132 -2.147298812866211 -0.041606537997722626 10.0 7 -0.06292976438999176
1.0353902578353882 -2.149461507797241 0.6392830610275269 7.0 15 -0.06292746216058731
0.5968624353408813 -1.2435191869735718 -0.36959362030029297 8.0 0 -0.06290672719478607
1.0267361402511597 -2.140087127685547 0.041432011872529984 9.0 8 -0.06290442496538162
0.7204540967941284 -1.5023573637008667 -0.3846663236618042 7.0 1 -0.06290211528539658
1.0411418676376343 -2.1720573902130127 0.12623433768749237 7.0 9 -0.06289981305599213
0.8898605108261108 -1.8572824001312256 -0.4003172814846039 6.0 2 -0.06289751082658768
1.0390857458114624 -2.1687395572662354 0.21039395034313202 7.0 10 -0.06289520859718323
1.0639671087265015 -2.221665143966675 -0.3901476263999939 100.0 3 -0.06289289891719818
1.0319546461105347 -2.1557865142822266 0.293461412191391 6.0 11 -0.06289059668779373
1.064993143081665 -2.225802421569824 -0.30296722054481506 100.0 4 -0.06288829445838928
1.0287121534347534 -2.150939464569092 0.37763282656669617 6.0 12 -0.06288599222898483
1.0105541944503784 -2.1139214038848877 -0.20499029755592346 7.0 5 -0.06288368254899979
1.030117154121399 -2.155810832977295 0.46442911028862 6.0 13 -0.06288138031959534
1.0346647500991821 -2.166299819946289 -0.12581564486026764 12.0 6 -0.06287907809019089
1.0280072689056396 -2.1523609161376953 0.5506802201271057 7.0 14 -0.06287677586078644
1.0252101421356201 -2.147468328475952 -0.04153672605752945 10.0 7 -0.06287447363138199
1.0258411169052124 -2.149754762649536 0.6382477879524231 7.0 15 -0.06287216395139694
0.5939597487449646 -1.249187707901001 -0.37062889337539673 9.0 0 -0.0628514289855957
1.0180270671844482 -2.1420300006866455 0.041397109627723694 9.0 8 -0.06284912675619125
0.7065809369087219 -1.4873857498168945 -0.38016730546951294 7.0 1 -0.0628468245267868
1.0331737995147705 -2.175858736038208 0.12623433768749237 7.0 9 -0.06284451484680176
0.8833721280097961 -1.8603771924972534 -0.4003172814846039 6.0 2 -0.06284221261739731
1.0311298370361328 -2.1725335121154785 0.21039395034313202 7.0 10 -0.06283991038799286
1.0541236400604248 -2.221980333328247 -0.38952183723449707 100.0 3 -0.06283760815858841
1.0223454236984253 -2.1559667587280273 0.29297390580177307 6.0 11 -0.06283529847860336
1.0576783418655396 -2.231484889984131 -0.30321094393730164 100.0 4 -0.06283299624919891
1.0191298723220825 -2.15112566947937 0.3770070970058441 7.0 12 -0.06283069401979446
1.0040220022201538 -2.119236707687378 -0.2051646113395691 7.0 5 -0.06282839179039001
1.020065188407898 -2.1540703773498535 0.46328428387641907 6.0 13 -0.06282608956098557
1.0228241682052612 -2.160872220993042 -0.12529228627681732 12.0 6 -0.06282377988100052
1.0192780494689941 -2.1543526649475098 0.5502303242683411 7.0 14 -0.06282147765159607
1.0190423727035522 -2.1548266410827637 -0.041606537997722626 10.0 7 -0.06281917542219162
1.01795494556427 -2.1535003185272217 0.6382477879524231 7.0 15 -0.06281687319278717
0.5879488587379456 -1.247758388519287 -0.36959362030029297 8.0 0 -0.06279613077640533
1.0130997896194458 -2.1509974002838135 0.04150182008743286 9.0 8 -0.06279382854700089
0.6980644464492798 -1.4827907085418701 -0.37836769223213196 7.0 1 -0.06279152631759644
1.01706862449646 -2.1613800525665283 0.12518762052059174 7.0 9 -0.06278922408819199
0.8802167177200317 -1.8705551624298096 -0.401843786239624 6.0 2 -0.06278692185878754
1.0201483964920044 -2.168907880783081 0.2096967101097107 7.0 10 -0.06278461217880249
1.0463610887527466 -2.225646495819092 -0.38952183723449707 100.0 3 -0.06278230994939804
1.0131245851516724 -2.1559293270111084 0.2924864590167999 7.0 11 -0.06278000771999359
1.0456628799438477 -2.226179361343384 -0.301992267370224 100.0 4 -0.06277770549058914
1.0132941007614136 -2.158245801925659 0.37763282656669617 6.0 12 -0.0627753958106041
1.0000056028366089 -2.1299424171447754 -0.2058618664741516 9.0 5 -0.06277309358119965
1.0133734941482544 -2.159395217895508 0.4636658728122711 6.0 13 -0.0627707913517952
1.0144270658493042 -2.162621021270752 -0.12518762052059174 12.0 6 -0.06276848912239075
1.0034793615341187 -2.1402530670166016 0.5457313060760498 7.0 14 -0.0627661794424057
1.0115141868591309 -2.1583707332611084 -0.041606537997722626 10.0 7 -0.06276387721300125
1.012070655822754 -2.160539388656616 0.6392830610275269 7.0 15 -0.0627615749835968
0.5868589878082275 -1.2568048238754272 -0.3716641664505005 8.0 0 -0.06274084001779556
1.0055855512619019 -2.1545207500457764 0.04150182008743286 9.0 8 -0.06273853778839111
0.6912364959716797 -1.4816863536834717 -0.37746790051460266 7.0 1 -0.06273622810840607
1.007829189300537 -2.161296844482422 0.12497827410697937 7.0 9 -0.06273392587900162
0.8703626990318298 -1.8664990663528442 -0.4003172814846039 6.0 2 -0.06273162364959717
1.0125712156295776 -2.1724557876586914 0.2096967101097107 7.0 10 -0.06272932142019272
1.0402541160583496 -2.2328667640686035 -0.3901476263999939 100.0 3 -0.06272701174020767
1.0030790567398071 -2.1540539264678955 0.29175522923469543 7.0 11 -0.06272470951080322
1.0345350503921509 -2.2226171493530273 -0.30101728439331055 100.0 4 -0.06272240728139877
1.0040876865386963 -2.1581878662109375 0.3770070970058441 6.0 12 -0.06272010505199432
0.9942454099655151 -2.137032985687256 -0.20621049404144287 10.0 5 -0.06271779537200928
1.0058298110961914 -2.162919521331787 0.4636658728122711 6.0 13 -0.06271549314260483
1.0068719387054443 -2.1661489009857178 -0.12518762052059174 12.0 6 -0.06271319091320038
0.9968231320381165 -2.14551043510437 0.5461812019348145 7.0 14 -0.06271088868379593
1.0022896528244019 -2.158261299133301 -0.04153672605752945 11.0 7 -0.06270857900381088
1.0061495304107666 -2.1675636768341064 0.6403183937072754 8.0 15 -0.06270627677440643
0.5743560791015625 -1.2413129806518555 -0.3664877712726593 8.0 0 -0.0626855418086052
1.0014160871505737 -2.1652779579162598 0.041641443967819214 9.0 8 -0.06268323957920074
0.6926020979881287 -1.4982411861419678 -0.3810671269893646 7.0 1 -0.0626809373497963
1.0011168718338013 -2.1666147708892822 0.12508295476436615 8.0 9 -0.06267862766981125
0.8621954321861267 -1.8659614324569702 -0.399554044008255 6.0 2 -0.0626763254404068
1.0066523551940918 -2.1795945167541504 0.21004533767700195 7.0 10 -0.06267402321100235
1.0324535369873047 -2.2364842891693115 -0.3901476263999939 100.0 3 -0.0626717209815979
0.998880922794342 -2.1647517681121826 0.2927301824092865 7.0 11 -0.06266941130161285
1.0267702341079712 -2.226214647293091 -0.30101728439331055 100.0 4 -0.0626671090722084
0.9915858507156372 -2.1509158611297607 0.3751298785209656 6.0 12 -0.06266480684280396
0.9801066517829895 -2.1260156631469727 -0.20481599867343903 15.0 5 -0.0626625046133995
1.000738263130188 -2.171766757965088 0.46481072902679443 6.0 13 -0.06266019493341446
1.0001399517059326 -2.171464443206787 -0.12529228627681732 13.0 6 -0.06265789270401001
0.9909578561782837 -2.152517318725586 0.5470809936523438 7.0 14 -0.06265559047460556
0.9897338151931763 -2.1508471965789795 -0.04132729768753052 11.0 7 -0.06265328824520111
0.992119312286377 -2.1570217609405518 0.6361772418022156 7.0 15 -0.06265097856521606
0.5716299414634705 -1.246822476387024 -0.36752307415008545 8.0 0 -0.06263024359941483
0.9855212569236755 -2.1505813598632812 0.04129239544272423 9.0 8 -0.06262794137001038
0.6906140446662903 -1.5077364444732666 -0.3828667104244232 7.0 1 -0.06262563914060593
0.9985360503196716 -2.180992364883423 0.12571097910404205 8.0 9 -0.06262333691120148
0.8622145652770996 -1.8832403421401978 -0.4026069939136505 6.0 2 -0.06262102723121643
0.9907474517822266 -2.16497802734375 0.20830221474170685 7.0 10 -0.06261872500181198
1.021353840827942 -2.23288893699646 -0.388896107673645 100.0 3 -0.06261642277240753
0.9896672964096069 -2.1646149158477783 0.29224270582199097 7.0 11 -0.06261412054300308
1.0214685201644897 -2.235201597213745 -0.30174851417541504 100.0 4 -0.06261181086301804
0.9873549342155457 -2.1615512371063232 0.37638136744499207 6.0 12 -0.06260950863361359
0.9644015431404114 -2.1113009452819824 -0.20307287573814392 20.0 5 -0.06260720640420914
0.9874438047409058 -2.162745237350464 0.46213942766189575 6.0 13 -0.06260490417480469
0.9942124485969543 -2.1785764694213867 -0.1255016326904297 13.0 6 -0.06260259449481964
0.9850555658340454 -2.1595091819763184 0.547980785369873 7.0 14 -0.06260029226541519
0.9847089052200317 -2.159747362136841 -0.041432011872529984 11.0 7 -0.06259799003601074
0.9813792109489441 -2.153439998626709 0.6341066956520081 7.0 15 -0.06259568780660629
0.5688719749450684 -1.2523280382156372 -0.3685583174228668 8.0 0 -0.06257495284080505
0.9713944792747498 -2.139441728591919 0.04101315513253212 9.0 8 -0.06257264316082001
0.678904116153717 -1.4959417581558228 -0.37926751375198364 7.0 1 -0.06257034093141556
0.9892668724060059 -2.180826425552368 0.1255016326904297 8.0 9 -0.06256803870201111
0.8442812561988831 -1.8612076044082642 -0.3972643315792084 6.0 2 -0.06256573647260666
0.9848297238349915 -2.1720526218414307 0.2086508423089981 7.0 10 -0.06256342679262161
1.0094761848449707 -2.2274444103240967 -0.3873317837715149 100.0 3 -0.06256112456321716
0.9788291454315186 -2.160823345184326 0.2912677526473999 7.0 11 -0.06255882233381271
1.013659954071045 -2.2387535572052 -0.30174851417541504 100.0 4 -0.06255652010440826
0.9781744480133057 -2.1613855361938477 0.37575563788414 7.0 12 -0.06255421042442322
0.9578469395637512 -2.116469621658325 -0.20324717462062836 22.0 5 -0.06255190819501877
0.9782702922821045 -2.1626012325286865 0.4613761901855469 6.0 13 -0.06254960596561432
0.975081741809845 -2.156555414199829 -0.12403623014688492 12.0 6 -0.06254730373620987
0.9791164398193359 -2.1664860248565674 0.5488805770874023 7.0 14 -0.06254500150680542
0.9771641492843628 -2.1631715297698975 -0.041432011872529984 11.0 7 -0.06254269182682037
0.9754462838172913 -2.1603739261627197 0.6351419687271118 7.0 15 -0.06254038959741592
0.5660828948020935 -1.2578295469284058 -0.36959362030029297 8.0 0 -0.06251965463161469
0.967201828956604 -2.1501142978668213 0.041152775287628174 10.0 8 -0.06251735240221024
0.6672850251197815 -1.4840837717056274 -0.3756682872772217 7.0 1 -0.06251504272222519
0.9771153330802917 -2.173165798187256 0.12487360835075378 8.0 9 -0.06251274049282074
0.8393891453742981 -1.867724895477295 -0.39802759885787964 7.0 2 -0.06251043826341629
0.9788746237754822 -2.1791117191314697 0.20899945497512817 7.0 10 -0.06250813603401184
1.0016947984695435 -2.23095440864563 -0.3873317837715149 100.0 3 -0.0625058263540268
0.9680293202400208 -2.156982660293579 0.29029279947280884 7.0 11 -0.06250352412462234
1.0001517534255981 -2.229599952697754 -0.30004236102104187 99.0 4 -0.0625012218952179
0.9701933860778809 -2.1628150939941406 0.375442773103714 7.0 12 -0.062498919665813446
0.9537140130996704 -2.127072334289551 -0.20394444465637207 28.0 5 -0.0624966137111187
0.9739266633987427 -2.1731691360473633 0.46290263533592224 6.0 13 -0.06249431148171425
0.9699977040290833 -2.1654140949249268 -0.12435024976730347 13.0 6 -0.0624920055270195
0.9675664901733398 -2.1609973907470703 0.5466310977935791 7.0 14 -0.06248970329761505
0.9699854254722595 -2.1663999557495117 -0.041432011872529984 11.0 7 -0.0624873973429203
0.9690659046173096 -2.16536021232605 0.6356595754623413 8.0 15 -0.062485095113515854
0.5601152181625366 -1.2562689781188965 -0.3685583174228668 8.0 0 -0.062464356422424316
0.9649522304534912 -2.1642682552337646 0.041362203657627106 10.0 8 -0.06246205419301987
0.6639465093612671 -1.4898481369018555 -0.376568078994751 7.0 1 -0.06245975196361542
0.964647650718689 -2.165616512298584 0.12424556910991669 8.0 9 -0.06245744600892067
0.8272743821144104 -1.8580889701843262 -0.3953562378883362 7.0 2 -0.06245514377951622
0.9736922383308411 -2.187976360321045 0.20952239632606506 8.0 10 -0.06245283782482147
0.9902754426002502 -2.2252402305603027 -0.3857674300670624 100.0 3 -0.06245053559541702
0.9640984535217285 -2.167435884475708 0.2912677526473999 7.0 11 -0.062448229640722275
0.9895266890525818 -2.225648880004883 -0.2990674078464508 100.0 4 -0.062445927411317825
0.962637722492218 -2.1661884784698486 0.375442773103714 7.0 12 -0.06244362145662308
0.944665789604187 -2.126746892929077 -0.2035958170890808 31.0 5 -0.06244131922721863
0.9667149782180786 -2.176386594772339 0.46290263533592224 6.0 13 -0.06243901327252388
0.9628114700317383 -2.168618679046631 -0.12435024976730347 13.0 6 -0.06243671104311943
0.9556523561477661 -2.1535069942474365 0.5439317226409912 7.0 14 -0.06243440508842468
0.956741452217102 -2.1569771766662598 -0.04118768125772476 12.0 7 -0.06243210285902023
0.9607187509536743 -2.166963577270508 0.6351419687271118 7.0 15 -0.062429796904325485
0.5528230667114258 -1.251051425933838 -0.3664877712726593 8.0 0 -0.062409061938524246
0.954160213470459 -2.160306453704834 0.04122258722782135 9.0 8 -0.0624067597091198
0.6603159308433533 -1.4957222938537598 -0.37746790051460266 7.0 1 -0.06240445375442505
0.9606873393058777 -2.176111936569214 0.12466426193714142 8.0 9 -0.0624021515250206
0.8211084008216858 -1.8608219623565674 -0.3953562378883362 7.0 2 -0.06239984557032585
0.9608032703399658 -2.1784324645996094 0.20830221474170685 7.0 10 -0.0623975433409214
0.9809083938598633 -2.2250683307647705 -0.3851417005062103 100.0 3 -0.062395237386226654
0.9501230120658875 -2.1562554836273193 0.2893178462982178 7.0 11 -0.062392935156822205
0.9833521246910095 -2.232722759246826 -0.29955488443374634 99.0 4 -0.06239062920212746
0.9506720304489136 -2.1585216522216797 0.37356552481651306 7.0 12 -0.06238832697272301
0.9376079440116882 -2.1298677921295166 -0.2035958170890808 38.0 5 -0.06238602101802826
0.9591120481491089 -2.1797478199005127 0.46290263533592224 6.0 13 -0.06238371878862381
0.9560397267341614 -2.1737945079803467 -0.12445490807294846 13.0 6 -0.06238141283392906
0.9504818916320801 -2.1621816158294678 0.5452813506126404 7.0 14 -0.06237911060452461
0.9495835900306702 -2.160137891769409 -0.04118768125772476 14.0 7 -0.062376804649829865
0.954304575920105 -2.1719062328338623 0.6356595754623413 8.0 15 -0.062374502420425415
0.5484526753425598 -1.2529734373092651 -0.3664877712726593 8.0 0 -0.062353767454624176
0.9421799182891846 -2.1524674892425537 0.04101315513253212 10.0 8 -0.06235146149992943
0.6569146513938904 -1.501474380493164 -0.37836769223213196 7.0 1 -0.06234915927052498
0.9514848589897156 -2.1757922172546387 0.12445490807294846 8.0 9 -0.06234685331583023
0.8193256258964539 -1.8744703531265259 -0.3976459801197052 7.0 2 -0.06234455108642578
0.9515979290008545 -2.178121566772461 0.20795360207557678 7.0 10 -0.06234224513173103
0.9687792658805847 -2.2174479961395264 -0.3832644820213318 100.0 3 -0.062339942902326584
0.9509116411209106 -2.177586317062378 0.29175522923469543 7.0 11 -0.062337636947631836
0.9743545055389404 -2.232332706451416 -0.2990674078464508 100.0 4 -0.062335334718227386
0.946290910243988 -2.169069766998291 0.37481701374053955 7.0 12 -0.06233302876353264
0.9245931506156921 -2.1203434467315674 -0.2023756206035614 41.0 5 -0.06233072653412819
0.948739767074585 -2.175718069076538 0.4613761901855469 6.0 13 -0.06232842057943344
0.9504221677780151 -2.180614948272705 -0.12466426193714142 14.0 6 -0.06232611835002899
0.9417499899864197 -2.1617484092712402 0.5443815588951111 7.0 14 -0.062323812395334244
0.9404407739639282 -2.1597726345062256 -0.041117873042821884 15.0 7 -0.062321510165929794
0.9451757073402405 -2.1716811656951904 0.6346243023872375 8.0 15 -0.062319204211235046
0.5427571535110474 -1.2512407302856445 -0.36545249819755554 8.0 0 -0.06231570243835449
0.9354562759399414 -2.1575777530670166 0.04104805737733841 10.0 8 -0.06231340020895004
0.6485698223114014 -1.4966061115264893 -0.376568078994751 7.0 1 -0.062311094254255295
0.9454718232154846 -2.1827659606933594 0.12466426193714142 8.0 9 -0.062308792024850845
0.8076428174972534 -1.8645665645599365 -0.39497464895248413 6.0 2 -0.0623064860701561
0.9435784220695496 -2.179436683654785 0.20777928829193115 8.0 10 -0.06230418384075165
0.9618175625801086 -2.2226293087005615 -0.3835773468017578 100.0 3 -0.0623018778860569
0.9362120032310486 -2.164494752883911 0.28956159949302673 7.0 11 -0.06229957565665245
0.9697073698043823 -2.243008613586426 -0.30004236102104187 100.0 4 -0.0622972697019577
0.9387138485908508 -2.1723594665527344 0.37481701374053955 7.0 12 -0.06229496747255325
0.9183470010757446 -2.1252269744873047 -0.20254994928836823 42.0 5 -0.062292661517858505
0.9349117279052734 -2.164597988128662 0.45832324028015137 6.0 13 -0.062290359288454056
0.9396377801895142 -2.176584482192993 -0.12424556910991669 14.0 6 -0.06228805333375931
0.9341984987258911 -2.165022611618042 0.5443815588951111 7.0 14 -0.06228575110435486
0.9328961968421936 -2.1630420684814453 -0.041117873042821884 16.0 7 -0.06228344514966011
0.9330004453659058 -2.164323091506958 0.6315184831619263 8.0 15 -0.06228114292025566
0.5399113297462463 -1.256677508354187 -0.3664877712726593 8.0 0 -0.06226040795445442
0.9247627854347229 -2.153480291366577 0.040908440947532654 10.0 8 -0.062258101999759674
0.6402674317359924 -1.491697907447815 -0.3747684955596924 7.0 1 -0.062255799770355225
0.9315474629402161 -2.1713690757751465 0.12382689118385315 9.0 9 -0.06225349381566048
0.8057736754417419 -1.878199577331543 -0.3972643315792084 7.0 2 -0.06225119158625603
0.9383202791213989 -2.1882107257843018 0.20830221474170685 8.0 10 -0.06224888563156128
0.9509406685829163 -2.21871018409729 -0.3823258578777313 100.0 3 -0.06224658340215683
0.9247424006462097 -2.158626079559326 0.2883428931236267 7.0 11 -0.06224427744746208
0.9571833610534668 -2.2354307174682617 -0.2985799014568329 100.0 4 -0.06224197521805763
0.9326795339584351 -2.1792550086975098 0.375442773103714 7.0 12 -0.062239669263362885
0.9124907851219177 -2.132082939147949 -0.2028985619544983 44.0 5 -0.062237367033958435
0.9312108159065247 -2.1768734455108643 0.46023133397102356 6.0 13 -0.06223506107926369
0.9288938045501709 -2.1725056171417236 -0.12382689118385315 14.0 6 -0.06223275884985924
