# .PCD v0.7 - Point Cloud Data file format
VERSION 0.7
FIELDS x y z intensity ring time
SIZE 4 4 4 4 4 4
TYPE F F F F F F
COUNT 1 1 1 1 1 1
WIDTH 538
HEIGHT 1
VIEWPOINT 0 0 0 1 0 0 0
POINTS 538
DATA ascii
-2.801287889480591 -0.9793511629104614 0.0517987422645092 15.0 8 -0.03880803659558296
-2.446763753890991 -0.8549277186393738 -0.598369836807251 7.0 1 -0.038805730640888214
-2.82084321975708 -0.9850823283195496 0.15658919513225555 10.0 9 -0.038803428411483765
-2.409679889678955 -0.8410264849662781 -0.4961034059524536 12.0 2 -0.03880112245678902
-2.3707611560821533 -0.8265141844749451 -0.3976564407348633 27.0 3 -0.03879651427268982
-2.4256808757781982 -0.8451866507530212 -0.31539788842201233 8.0 4 -0.03879190608859062
-2.8338098526000977 -0.9862824082374573 -0.26251310110092163 12.0 5 -0.038787297904491425
-2.2034413814544678 -0.7660260796546936 -0.1222568079829216 9.0 6 -0.038782693445682526
-2.193040609359741 -0.7619812488555908 -0.04052448645234108 11.0 7 -0.03877808526158333
-2.4411373138427734 -0.8438886404037476 -0.6920821070671082 5.0 0 -0.03875504434108734
-2.7897379398345947 -0.9638524055480957 0.05151950567960739 10.0 8 -0.03875273838639259
-2.4535648822784424 -0.8472262024879456 -0.5992696285247803 5.0 1 -0.038750436156988144
-2.8263227939605713 -0.9753890037536621 0.15669387578964233 17.0 9 -0.038748130202293396
-2.4200239181518555 -0.8351716995239258 -0.49762988090515137 9.0 2 -0.03874582797288895
-2.369896650314331 -0.8169466853141785 -0.39703071117401123 23.0 3 -0.03874121978878975
-2.47005558013916 -0.8505081534385681 -0.32076016068458557 7.0 4 -0.03873661160469055
-2.844771146774292 -0.9789785146713257 -0.26321035623550415 12.0 5 -0.038732003420591354
-2.202324151992798 -0.7570313215255737 -0.12204745411872864 6.0 6 -0.03872739523649216
-2.1844706535339355 -0.7500419020652771 -0.040315061807632446 11.0 7 -0.03872278705239296
-2.436755895614624 -0.8328630328178406 -0.6900116205215454 3.0 0 -0.03869974613189697
-2.4089415073394775 -0.8228868246078491 0.044433824717998505 5.0 8 -0.03869744390249252
-2.454663038253784 -0.8380268216133118 -0.5988197326660156 3.0 1 -0.038695141673088074
-2.8542838096618652 -0.9739011526107788 0.15805460512638092 12.0 9 -0.038692835718393326
-2.4284989833831787 -0.8286204934120178 -0.4987747371196747 7.0 2 -0.038690533488988876
-2.393301248550415 -0.8156789541244507 -0.4004722833633423 19.0 3 -0.03868592530488968
-2.4899215698242188 -0.8476388454437256 -0.3229537904262543 5.0 4 -0.03868131712079048
-2.8632609844207764 -0.9741763472557068 -0.2646048367023468 8.0 5 -0.038676708936691284
-2.212517499923706 -0.7519103288650513 -0.12246615439653397 6.0 6 -0.03867210075259209
-2.1946499347686768 -0.7449831366539001 -0.0404546782374382 11.0 7 -0.03866749256849289
-2.4469690322875977 -0.8268256783485413 -0.6920821070671082 1.0 0 -0.0386444516479969
-2.3606455326080322 -0.7971981763839722 0.04349139705300331 6.0 8 -0.03864214941859245
-2.4631128311157227 -0.8313228487968445 -0.6001694798469543 2.0 1 -0.038639843463897705
-2.901193141937256 -0.9786149263381958 0.16046206653118134 3.0 9 -0.038637541234493256
-2.420215129852295 -0.8163740038871765 -0.49648505449295044 6.0 2 -0.03863523527979851
-2.3905181884765625 -0.8054275512695312 -0.3995336890220642 15.0 3 -0.03863062709569931
-2.4796955585479736 -0.8345100283622742 -0.3212476074695587 3.0 4 -0.03862601891160011
-2.8666441440582275 -0.9641751050949097 -0.2646048367023468 7.0 5 -0.038621410727500916
-2.2227015495300293 -0.7467267513275146 -0.1228848323225975 3.0 6 -0.03861680254340172
-2.1858620643615723 -0.7335007786750793 -0.04024524614214897 10.0 7 -0.03861219435930252
-2.4644992351531982 -0.823175311088562 -0.696223258972168 1.0 0 -0.03858915716409683
-2.4165244102478027 -0.8066823482513428 0.04446873068809509 2.0 8 -0.038586851209402084
-2.477090835571289 -0.8264201879501343 -0.6028688549995422 1.0 1 -0.038584548979997635
-2.9159598350524902 -0.9722723364830017 0.16109009087085724 2.0 9 -0.03858224302530289
-2.430499792098999 -0.8104047775268555 -0.4980114996433258 2.0 2 -0.03857994079589844
-2.3876922130584717 -0.7952055335044861 -0.39859506487846375 9.0 3 -0.03857533261179924
-2.5127310752868652 -0.835874617099762 -0.32514744997024536 3.0 4 -0.03857072442770004
-2.856757402420044 -0.9497632384300232 -0.2633846402168274 5.0 5 -0.038566116243600845
-2.184612989425659 -0.7246076464653015 -0.040175437927246094 13.0 7 -0.03855689987540245
-2.9115805625915527 -0.9600953459739685 0.1606713980436325 2.0 9 -0.038486722856760025
-2.4294447898864746 -0.8011108040809631 -0.4972482919692993 1.0 2 -0.03848441690206528
-2.379058599472046 -0.7835759520530701 -0.3967178463935852 7.0 3 -0.03847980871796608
-2.8638412952423096 -0.9410295486450195 -0.26373329758644104 3.0 5 -0.038470592349767685
-2.192704200744629 -0.7192288637161255 -0.04028015583753586 10.0 7 -0.03846137598156929
-2.9029293060302734 -0.9471421241760254 0.05329965054988861 3.0 8 -0.038436032831668854
-2.9206111431121826 -0.9517826437950134 0.16098542511463165 2.0 9 -0.038431424647569656
-2.3800363540649414 -0.7742393612861633 -0.3964049816131592 4.0 3 -0.03842451423406601
-2.872793436050415 -0.9328730702400208 -0.26425620913505554 3.0 5 -0.038415297865867615
-2.1990058422088623 -0.7128036618232727 -0.040349964052438736 12.0 7 -0.03840608149766922
-2.898768186569214 -0.9340420961380005 0.05316003039479256 3.0 8 -0.038380738347768784
-2.9221787452697754 -0.9404597878456116 0.16088074445724487 2.0 9 -0.038376130163669586
-2.8703408241271973 -0.9210139513015747 -0.26373329758644104 3.0 5 -0.038359999656677246
-2.2035083770751953 -0.705348789691925 -0.040384870022535324 6.0 7 -0.03835078701376915
-2.9115381240844727 -0.9269517064094543 0.0533345565199852 2.0 8 -0.038325440138578415
-2.9064104557037354 -0.9242013096809387 0.15983402729034424 2.0 9 -0.03832083195447922
-2.2078638076782227 -0.698255717754364 -0.04041977599263191 2.0 7 -0.03829548880457878
-2.9189858436584473 -0.917552649974823 0.16035738587379456 2.0 9 -0.03826553747057915
-2.9240782260894775 -0.9079508781433105 0.16046206653118134 2.0 9 -0.03821024298667908
-1.8089652061462402 -0.5551283359527588 -0.4368549883365631 2.0 1 -0.038157250732183456
-2.932957887649536 -0.899495005607605 0.1607760637998581 2.0 9 -0.03815494477748871
-2.8975560665130615 -0.8831074833869934 0.8116565346717834 1.0 15 -0.038127295672893524
-1.8127567768096924 -0.5493756532669067 -0.43730488419532776 4.0 1 -0.03810195252299309
-2.913141965866089 -0.8823042511940002 0.1595200151205063 2.0 9 -0.03809965029358864
-2.8580737113952637 -0.8601823449134827 0.7997508645057678 7.0 15 -0.038072001188993454
-1.820264220237732 -0.5447205901145935 -0.4386545717716217 2.0 1 -0.03804665803909302
-2.9181177616119385 -0.8727030158042908 0.15962468087673187 2.0 9 -0.03804435208439827
-2.8369851112365723 -0.8430473208427429 0.793021559715271 6.0 15 -0.038016706705093384
-2.9383857250213623 -0.8676009774208069 0.16056673228740692 2.0 9 -0.0379890576004982
-2.9438700675964355 -0.8658699989318848 0.5964689254760742 1.0 13 -0.03797062486410141
-2.836203098297119 -0.8320515751838684 0.791986346244812 6.0 15 -0.037961408495903015
-2.919729471206665 -0.8521300554275513 0.05309021845459938 2.0 8 -0.03793836757540703
-2.929891586303711 -0.8539854884147644 0.15993870794773102 3.0 9 -0.03793375939130783
-2.901624917984009 -0.8424508571624756 0.5873100757598877 1.0 13 -0.03791533038020134
-2.8520796298980713 -0.8259077072143555 0.7956097722053528 8.0 15 -0.037906114012002945
-2.9251770973205566 -0.8415440917015076 0.1595200151205063 4.0 9 -0.03787846490740776
-2.886258125305176 -0.8276212215423584 0.47556084394454956 1.0 12 -0.03786464035511017
-2.863027572631836 -0.8204192519187927 0.5789145231246948 1.0 13 -0.03786003217101097
-2.854945182800293 -0.8159469962120056 0.7956097722053528 7.0 15 -0.037850815802812576
-2.9338607788085938 -0.8329653739929199 0.15983402729034424 2.0 9 -0.03782317042350769
-2.910691738128662 -0.8247408270835876 0.3714577853679657 1.0 11 -0.037813954055309296
-2.9263269901275635 -0.8275161981582642 0.5911262631416321 1.0 13 -0.0378047376871109
-2.868932008743286 -0.809122622013092 0.7987156510353088 7.0 15 -0.037795521318912506
-2.9290575981140137 -0.8205640316009521 0.1594153493642807 2.0 9 -0.03776787221431732
-2.9216341972351074 -0.8151851892471313 0.5895998477935791 1.0 13 -0.03774943947792053
-2.8661556243896484 -0.7975494265556335 0.7971627116203308 6.0 15 -0.037740226835012436
-2.924203872680664 -0.8082056045532227 0.15899664163589478 2.0 9 -0.03771257773041725
-2.958533525466919 -0.8143600821495056 0.5964689254760742 1.0 13 -0.03769414499402046
-2.8782365322113037 -0.7900974750518799 0.7997508645057678 7.0 15 -0.03768492862582207
-2.927006959915161 -0.7979938983917236 0.15899664163589478 2.0 9 -0.03765727952122688
-2.92346453666687 -0.7937402725219727 0.5888366103172302 1.0 13 -0.03763885051012039
-2.864194393157959 -0.775501549243927 0.7950921058654785 6.0 15 -0.037629634141922
-2.941209316253662 -0.7913968563079834 0.15962468087673187 2.0 9 -0.03760198503732681
-2.964146375656128 -0.79368656873703 0.5964689254760742 1.0 13 -0.03758355230093002
-2.8667502403259277 -0.7659991383552551 0.7950921058654785 5.0 15 -0.03757433593273163
-2.930440664291382 -0.7775396704673767 0.15889199078083038 2.0 9 -0.03754669055342674
-2.966762065887451 -0.7838526368141174 0.5964689254760742 1.0 13 -0.03752825781702995
-2.873143196105957 -0.756972074508667 0.796127438545227 4.0 15 -0.03751904144883156
-2.9370012283325195 -0.7683166265487671 0.15910132229328156 3.0 9 -0.037491392344236374
-2.9248573780059814 -0.7618684768676758 -0.26443052291870117 1.0 5 -0.03747526556253433
-2.969480276107788 -0.7734918594360352 0.5964689254760742 1.0 13 -0.037472959607839584
-2.8869869709014893 -0.749851405620575 0.7992331981658936 4.0 15 -0.03746374696493149
-2.9280612468719482 -0.7550681829452515 0.15847328305244446 3.0 9 -0.037436097860336304
-2.9348959922790527 -0.7540993094444275 0.4799409806728363 1.0 12 -0.03742227330803871
-2.915919780731201 -0.7486817240715027 -0.2633846402168274 1.0 5 -0.037419967353343964
-2.9722952842712402 -0.7626028656959534 0.5964689254760742 1.0 13 -0.037417665123939514
-2.883972406387329 -0.7383326888084412 0.7976803779602051 4.0 15 -0.03740844875574112
-2.9306790828704834 -0.7448427081108093 0.15847328305244446 3.0 9 -0.037380799651145935
-2.4223239421844482 -0.6151917576789856 -0.4857997000217438 1.0 2 -0.037378497421741486
-2.891474485397339 -0.7316555380821228 -0.26094430685043335 2.0 5 -0.03736467286944389
-2.869673490524292 -0.7240078449249268 0.793021559715271 4.0 15 -0.03735315427184105
-2.9331328868865967 -0.7351199984550476 0.15847328305244446 5.0 9 -0.037325505167245865
-2.4433953762054443 -0.6119251251220703 -0.48961591720581055 1.0 2 -0.037323202937841415
-2.590301990509033 -0.6472753882408142 -0.3278285562992096 1.0 4 -0.03731398656964302
-2.928462028503418 -0.7312340140342712 0.47806379199028015 1.0 12 -0.03731168061494827
-2.8919517993927 -0.721581220626831 -0.26076996326446533 3.0 5 -0.03730937838554382
-2.977417230606079 -0.7423533797264099 0.5964689254760742 1.0 13 -0.037307072430849075
-2.910151243209839 -0.7250433564186096 0.6923993825912476 1.0 14 -0.03730246424674988
-2.8795573711395264 -0.7163529992103577 0.7950921058654785 5.0 15 -0.03729785606265068
-2.9297378063201904 -0.7239518761634827 0.1581592708826065 2.0 9 -0.037270210683345795
-2.418726921081543 -0.5972307920455933 -0.4842732548713684 3.0 2 -0.03726790472865105
-2.6001439094543457 -0.6405813694000244 -0.32880350947380066 3.0 4 -0.03725868836045265
-2.9001808166503906 -0.713963508605957 0.47305789589881897 1.0 12 -0.0372563861310482
-2.907871723175049 -0.7153186202049255 -0.26199015974998474 3.0 5 -0.037254080176353455
-2.5350658893585205 -0.6226723790168762 -0.1368062049150467 1.0 6 -0.03724947199225426
-2.8936147689819336 -0.7107404470443726 0.6879003643989563 1.0 14 -0.03724716976284981
-2.878164768218994 -0.7058796882629395 0.7940568327903748 5.0 15 -0.03724256157875061
-1.8036134243011475 -0.4400070905685425 -0.49745020270347595 0.0 0 -0.03722182661294937
-1.8252158164978027 -0.44460225105285645 -0.4337056577205658 0.0 1 -0.037217218428850174
-2.42069411277771 -0.5892066359519958 -0.4842732548713684 3.0 2 -0.03721261024475098
-2.6176857948303223 -0.6357036828994751 -0.3307534456253052 7.0 4 -0.03720339387655258
-2.8871753215789795 -0.7006155252456665 0.470554918050766 1.0 12 -0.037201087921857834
-2.890864849090576 -0.7009766101837158 -0.26024702191352844 4.0 5 -0.037198785692453384
-2.5332345962524414 -0.6133217215538025 -0.13659685850143433 2.0 6 -0.03719417750835419
-2.8883798122406006 -0.6993059515953064 0.6861007809638977 1.0 14 -0.03719187155365944
-2.8786120414733887 -0.6958774924278259 0.7935392260551453 7.0 15 -0.03718726336956024
-1.775158405303955 -0.42617785930633545 -0.4891680181026459 0.0 0 -0.03715825080871582
-2.632887125015259 -0.6316143274307251 0.04726111888885498 1.0 8 -0.03715594857931137
-1.8306230306625366 -0.43881845474243164 -0.4346054494380951 0.0 1 -0.03715364262461662
-2.6376686096191406 -0.6317877769470215 0.14214447140693665 2.0 9 -0.03715134039521217
-2.4209280014038086 -0.5798729658126831 -0.4838916063308716 3.0 2 -0.037149034440517426
-2.6374847888946533 -0.6297972202301025 -0.3329470753669739 18.0 4 -0.03713981807231903
-2.887922763824463 -0.6890652179718018 0.47024205327033997 2.0 12 -0.03713751584291458
-2.8760926723480225 -0.6857126951217651 -0.25867822766304016 7.0 5 -0.03713520988821983
-2.8720860481262207 -0.6836974024772644 0.6816017627716064 3.0 14 -0.037128299474716187
-2.8718650341033936 -0.6825863718986511 0.7909510731697083 9.0 15 -0.03712369129061699
-1.7541470527648926 -0.41433995962142944 -0.4829563498497009 0.0 0 -0.03710295632481575
-2.621452808380127 -0.619202733039856 0.04701678454875946 2.0 8 -0.037100650370121
-1.8245573043823242 -0.43063467741012573 -0.4328058660030365 1.0 1 -0.03709834814071655
-2.6418018341064453 -0.623035192489624 0.14224915206432343 2.0 9 -0.037096042186021805
-2.405838966369629 -0.5669437050819397 -0.480457067489624 4.0 2 -0.037093739956617355
-2.93327260017395 -0.6901538372039795 0.3699953854084015 1.0 11 -0.03708682581782341
-2.6242077350616455 -0.6169529557228088 -0.33099716901779175 24.0 4 -0.03708452358841896
-2.8960795402526855 -0.6803361177444458 0.47118064761161804 6.0 12 -0.03708221763372421
-2.8862273693084717 -0.677490234375 -0.2593754827976227 9.0 5 -0.03707991540431976
-2.987492084503174 -0.7007094621658325 0.5964689254760742 1.0 13 -0.037077609449625015
-2.876469612121582 -0.6736109852790833 0.6820515990257263 8.0 14 -0.03707300126552582
-2.846014976501465 -0.6659544706344604 0.7831864953041077 9.0 15 -0.03706839308142662
-1.7442928552627563 -0.40558868646621704 -0.47985053062438965 0.0 0 -0.03704765811562538
-2.6081223487854004 -0.6059693098068237 0.04673754796385765 4.0 8 -0.03704535588622093
-1.8185303211212158 -0.4221820831298828 -0.4310062527656555 2.0 1 -0.037043049931526184
-2.6421220302581787 -0.6128969192504883 0.14214447140693665 4.0 9 -0.037040747702121735
-2.4039783477783203 -0.5576543807983398 -0.47969385981559753 1.0 2 -0.03703844174742699
-2.9241786003112793 -0.6767127513885498 0.3685329258441925 2.0 11 -0.03703153133392334
-2.6206493377685547 -0.6059882640838623 -0.33026593923568726 37.0 4 -0.03702922537922859
-2.8850808143615723 -0.6666046977043152 0.46899059414863586 6.0 12 -0.03702692314982414
-2.876927137374878 -0.6647207736968994 -0.2583296298980713 12.0 5 -0.037024617195129395
-2.921053886413574 -0.6743785738945007 0.5827307105064392 1.0 13 -0.037022314965724945
-2.8769047260284424 -0.6631283760070801 0.6816017627716064 13.0 14 -0.03701770678162575
-2.861614942550659 -0.6585522890090942 0.7868099212646484 15.0 15 -0.03701309859752655
-1.723099946975708 -0.39432594180107117 -0.4736388623714447 0.0 0 -0.03699236363172531
-2.6043732166290283 -0.5955249071121216 0.046632830053567886 6.0 8 -0.03699005767703056
-1.8370909690856934 -0.41973814368247986 -0.43505537509918213 7.0 1 -0.036987755447626114
-2.6442453861236572 -0.6036704182624817 0.14214447140693665 6.0 9 -0.036985449492931366
-2.9168453216552734 -0.6642972826957703 0.36731424927711487 2.0 11 -0.03697623312473297
-2.4640285968780518 -0.5607181787490845 -0.31027936935424805 26.0 4 -0.03697393089532852
-2.908578634262085 -0.6613467931747437 0.4724321663379669 13.0 12 -0.03697162866592407
-2.87923002243042 -0.6546735763549805 -0.2583296298980713 17.0 5 -0.036969322711229324
-2.8774425983428955 -0.6537390351295471 0.5735718607902527 1.0 13 -0.036967020481824875
-2.615765333175659 -0.5938073396682739 -0.1405743956565857 1.0 6 -0.03696471452713013
-2.879202127456665 -0.653082013130188 0.6816017627716064 23.0 14 -0.03696241229772568
-2.858243703842163 -0.6472792029380798 0.7852570414543152 22.0 15 -0.03695780411362648
-1.7093886137008667 -0.3849141299724579 -0.46949777007102966 0.0 0 -0.03693706542253494
-2.6142399311065674 -0.5881860256195068 0.04677245020866394 8.0 8 -0.03693476319313049
-1.8480514287948608 -0.41545960307121277 -0.43730488419532776 12.0 1 -0.036932457238435745
-2.6364893913269043 -0.5927079916000366 0.14162111282348633 7.0 9 -0.036930155009031296
-2.1166532039642334 -0.4754563271999359 -0.42168790102005005 1.0 2 -0.03692784905433655
-2.901712656021118 -0.6502049565315247 0.3651205599308014 4.0 11 -0.0369209386408329
-2.444662570953369 -0.5473434329032898 -0.3075982630252838 33.0 4 -0.03691863641142845
-2.9107556343078613 -0.6516985297203064 0.4724321663379669 25.0 12 -0.036916330456733704
-2.8873305320739746 -0.6459239721298218 -0.2588525414466858 21.0 5 -0.036914028227329254
-2.875875234603882 -0.6428342461585999 0.5728086233139038 2.0 13 -0.036911722272634506
-2.6529083251953125 -0.5925091505050659 -0.1424584835767746 1.0 6 -0.03690942004323006
-2.902385711669922 -0.6476964950561523 0.6865506172180176 42.0 14 -0.03690711408853531
-2.854717969894409 -0.6365359425544739 0.7837041020393372 29.0 15 -0.03690250590443611
-1.7163801193237305 -0.38019824028015137 -0.4710506796836853 1.0 0 -0.03688177093863487
-2.6083664894104004 -0.5777836441993713 0.046632830053567886 10.0 8 -0.036879464983940125
-1.8646403551101685 -0.41269826889038086 -0.44090408086776733 20.0 1 -0.036877162754535675
-2.636592388153076 -0.5830706357955933 0.14151644706726074 8.0 9 -0.036874860525131226
-2.6867873668670654 -0.5931867957115173 0.24072414636611938 1.0 10 -0.03687025234103203
-1.6164391040802002 -0.3568761348724365 -0.262184202671051 0.0 3 -0.03686794638633728
-2.9077301025390625 -0.6414341926574707 0.3656080663204193 8.0 11 -0.03686564415693283
-2.452280044555664 -0.5405154228210449 -0.3083294630050659 14.0 4 -0.03686333820223808
-2.911083698272705 -0.6411084532737732 0.4721192717552185 35.0 12 -0.03686103597283363
-2.868163585662842 -0.6311313509941101 -0.25693511962890625 24.0 5 -0.036858730018138885
-2.8856608867645264 -0.634981632232666 0.5743350982666016 3.0 13 -0.036856427788734436
-2.6353518962860107 -0.579420268535614 -0.14141176640987396 2.0 6 -0.03685412183403969
-2.902614116668701 -0.6376500129699707 0.6861007809638977 53.0 14 -0.03685181960463524
-2.5938453674316406 -0.5693447589874268 -0.04635359346866608 1.0 7 -0.03684951364994049
-2.8550355434417725 -0.6261540651321411 0.7831864953041077 33.0 15 -0.03684721142053604
-1.7214064598083496 -0.375327467918396 -0.47208595275878906 3.0 0 -0.0368264764547348
-2.6064600944519043 -0.5678238868713379 0.04656302183866501 11.0 8 -0.036824170500040054
-1.860357403755188 -0.40494304895401 -0.4395543932914734 25.0 1 -0.036821868270635605
-2.6347079277038574 -0.5730146169662476 0.14130708575248718 9.0 9 -0.03681956231594086
-2.6692698001861572 -0.5800434947013855 0.23898103833198547 1.0 10 -0.03681495413184166
-1.6176750659942627 -0.35123151540756226 -0.262184202671051 0.0 3 -0.03681265190243721
-2.911890983581543 -0.6317018270492554 0.3658517897129059 15.0 11 -0.03681034594774246
-2.65203595161438 -0.5748445987701416 -0.33319082856178284 7.0 4 -0.03680804371833801
-2.905581474304199 -0.6292704343795776 0.4708678126335144 47.0 12 -0.036805737763643265
-2.8586652278900146 -0.6185880899429321 -0.25588926672935486 25.0 5 -0.036803435534238815
-2.8801841735839844 -0.62324458360672 0.5728086233139038 7.0 13 -0.03680112957954407
-2.6139326095581055 -0.565152108669281 -0.14015570282936096 2.0 6 -0.03679882735013962
-2.8838694095611572 -0.622987687587738 0.681151807308197 51.0 14 -0.03679652139544487
-2.6016812324523926 -0.561553418636322 -0.04645830765366554 2.0 7 -0.03679421916604042
-2.8553152084350586 -0.6157761812210083 0.7826688289642334 44.0 15 -0.03679191321134567
-1.7171037197113037 -0.36780133843421936 -0.4705330431461334 5.0 0 -0.036771178245544434
-2.596693992614746 -0.5562084317207336 0.04635359346866608 13.0 8 -0.036768876016139984
-1.8579481840133667 -0.39763143658638 -0.4386545717716217 28.0 1 -0.036766570061445236
-2.6445047855377197 -0.5654848217964172 0.1417257934808731 9.0 9 -0.03676426783204079
-2.6791722774505615 -0.5719200372695923 0.239678293466568 1.0 10 -0.03675965964794159
-1.618951439857483 -0.34530043601989746 -0.262184202671051 0.0 3 -0.03675735369324684
-2.9004886150360107 -0.6186349391937256 0.3641456365585327 20.0 11 -0.03675505146384239
-2.7588672637939453 -0.5879249572753906 -0.3463527262210846 9.0 4 -0.036752745509147644
-2.9135563373565674 -0.6203590035438538 0.4718063771724701 62.0 12 -0.036750443279743195
-2.86275577545166 -0.6090202331542969 -0.2560635805130005 26.0 5 -0.03674813732504845
-2.874768018722534 -0.611050546169281 0.571282148361206 7.0 13 -0.036745835095644
-2.594496011734009 -0.5510042905807495 -0.13900431990623474 2.0 6 -0.03674352914094925
-2.9147279262542725 -0.6184817552566528 0.6879003643989563 85.0 14 -0.0367412269115448
-2.591888427734375 -0.5499778389930725 -0.04624887555837631 3.0 7 -0.03673892468214035
-2.865006685256958 -0.6074081063270569 0.7847393751144409 53.0 15 -0.0367366187274456
-1.7240482568740845 -0.3629997670650482 -0.47208595275878906 8.0 0 -0.03671588376164436
-2.6104564666748047 -0.549157977104187 0.04656302183866501 14.0 8 -0.036713577806949615
-1.8555790185928345 -0.3900177776813507 -0.4377547800540924 30.0 1 -0.036711275577545166
-2.6366896629333496 -0.5541967153549194 0.1412024199962616 10.0 9 -0.03670896962285042
-2.675302267074585 -0.5613369345664978 0.2391553521156311 2.0 10 -0.03670436143875122
-1.6336803436279297 -0.3424838185310364 -0.2643742859363556 1.0 3 -0.03670205920934677
-2.898850679397583 -0.6071860194206238 0.3636581599712372 30.0 11 -0.03669975325465202
-2.869811773300171 -0.6005807518959045 -0.3600020706653595 48.0 4 -0.036697451025247574
-2.8944358825683594 -0.6057339906692505 0.4683648645877838 43.0 12 -0.036695145070552826
-2.8707151412963867 -0.6002461910247803 -0.2565865218639374 25.0 5 -0.036692842841148376
-2.888413667678833 -0.6034214496612549 0.5735718607902527 18.0 13 -0.03669054061174393
-2.600313663482666 -0.5427606105804443 -0.1392136514186859 3.0 6 -0.03668823465704918
-2.8901615142822266 -0.6027331352233887 0.6816017627716064 83.0 14 -0.03668593242764473
-2.6074955463409424 -0.5437841415405273 -0.04649320989847183 3.0 7 -0.03668362647294998
-2.8671092987060547 -0.5974043011665344 0.7847393751144409 55.0 15 -0.03668132424354553
-1.7253048419952393 -0.35697945952415466 -0.47208595275878906 8.0 0 -0.036660585552453995
-2.608346462249756 -0.5396878719329834 0.04649320989847183 16.0 8 -0.036658283323049545
-1.8492285013198853 -0.38228416442871094 -0.4359551668167114 28.0 1 -0.0366559773683548
-2.628828525543213 -0.5429689884185791 0.14067906141281128 10.0 9 -0.03665367513895035
-2.6655373573303223 -0.5495809316635132 0.23810948431491852 3.0 10 -0.03664906695485115
-1.6580231189727783 -0.34185150265693665 -0.26812872290611267 5.0 3 -0.0366467610001564
-2.893070936203003 -0.5959674715995789 0.36268317699432373 40.0 11 -0.03664445877075195
-2.8795647621154785 -0.5926613807678223 -0.36097702383995056 54.0 4 -0.036642156541347504
-2.9197511672973633 -0.6004012823104858 0.4721192717552185 90.0 12 -0.036639850586652756
-2.874744176864624 -0.5906233787536621 -0.2567608058452606 28.0 5 -0.036637548357248306
-2.9000141620635986 -0.5958151817321777 0.5754799246788025 30.0 13 -0.03663524240255356
-2.5981862545013428 -0.5333313345909119 -0.13900431990623474 6.0 6 -0.03663294017314911
-2.8921444416046143 -0.5931455492973328 0.6816017627716064 100.0 14 -0.03663063421845436
-2.603501081466675 -0.5334753394126892 -0.046388499438762665 2.0 7 -0.03662833198904991
-2.872962474822998 -0.5881674289703369 0.7857747077941895 55.0 15 -0.036626026034355164
-1.7113345861434937 -0.34817489981651306 -0.467944860458374 10.0 0 -0.036605291068553925
-2.60825514793396 -0.5301814079284668 0.04645830765366554 18.0 8 -0.03660298511385918
-1.8581907749176025 -0.3773781955242157 -0.4377547800540924 30.0 1 -0.03660068288445473
-2.636486291885376 -0.535441517829895 0.14099308848381042 10.0 9 -0.03659837692975998
-2.6673452854156494 -0.540738582611084 0.23810948431491852 6.0 10 -0.03659377247095108
-1.665014624595642 -0.3372381925582886 -0.26906731724739075 8.0 3 -0.03659146651625633
-2.9068076610565186 -0.5882275104522705 0.3641456365585327 51.0 11 -0.03658916428685188
-2.8796701431274414 -0.5822126865386963 -0.3607332706451416 66.0 4 -0.036586858332157135
-2.9023642539978027 -0.5868009924888611 0.46899059414863586 69.0 12 -0.036584556102752686
-2.8805930614471436 -0.5818760395050049 -0.2571094334125519 66.0 5 -0.03658225014805794
-2.9059255123138428 -0.5864653587341309 0.5762432217597961 45.0 13 -0.03657994791865349
-2.586327075958252 -0.5214952230453491 -0.13827161490917206 6.0 6 -0.03657764196395874
-2.8789141178131104 -0.579968273639679 0.6780025362968445 92.0 14 -0.03657533973455429
-2.593493700027466 -0.5224692821502686 -0.046179067343473434 3.0 7 -0.03657303377985954
-2.8654279708862305 -0.5767311453819275 0.7831864953041077 58.0 15 -0.03657073155045509
-1.6992785930633545 -0.3395492732524872 -0.4643213748931885 12.0 0 -0.036549996584653854
-2.606076955795288 -0.5207453966140747 0.046388499438762665 21.0 8 -0.036547690629959106
-1.8575209379196167 -0.37083256244659424 -0.43730488419532776 36.0 1 -0.03654538840055466
-2.6442153453826904 -0.5274065136909485 0.14130708575248718 11.0 9 -0.03654308244585991
-2.6633541584014893 -0.5302579998970032 0.23758654296398163 7.0 10 -0.03653847426176071
-1.662248969078064 -0.33094388246536255 -0.2684415876865387 15.0 3 -0.03653617203235626
-2.9126362800598145 -0.5793593525886536 0.36463311314582825 58.0 11 -0.036533866077661514
-2.8971610069274902 -0.5757555365562439 -0.36268317699432373 71.0 4 -0.036531563848257065
-2.9082696437835693 -0.5774362683296204 0.4696163237094879 91.0 12 -0.03652925789356232
-2.865017890930176 -0.5683282613754272 -0.2555406391620636 59.0 5 -0.03652695566415787
-2.894374132156372 -0.5741515755653381 0.5735718607902527 55.0 13 -0.03652464970946312
-2.490084409713745 -0.493501752614975 -0.1330380141735077 5.0 6 -0.03652234748005867
-2.9075841903686523 -0.5757173299789429 0.6843011379241943 100.0 14 -0.03652004152536392
-2.6031484603881836 -0.514965295791626 -0.04631868749856949 2.0 7 -0.03651773929595947
-2.876899480819702 -0.5685981512069702 0.7857747077941895 67.0 15 -0.036515433341264725
-1.7079778909683228 -0.335401326417923 -0.466391921043396 12.0 0 -0.036494698375463486
-2.6039540767669678 -0.5108758807182312 0.04631868749856949 21.0 8 -0.036492396146059036
-1.8052583932876587 -0.3538503050804138 -0.4247076213359833 24.0 1 -0.03649009019136429
-2.646040439605713 -0.5181731581687927 0.14130708575248718 11.0 9 -0.03648778796195984
-2.6533660888671875 -0.519127607345581 0.23654069006443024 7.0 10 -0.03648317977786064
-1.6692101955413818 -0.32627594470977783 -0.2693801820278168 15.0 3 -0.036480873823165894
-2.902951240539551 -0.5669059157371521 0.36317068338394165 67.0 11 -0.036478571593761444
-2.893308162689209 -0.5644992589950562 -0.3619519770145416 66.0 4 -0.036476265639066696
-2.9160845279693604 -0.5684140920639038 0.470554918050766 93.0 12 -0.03647396340966225
-2.8748066425323486 -0.5598472952842712 -0.25623786449432373 61.0 5 -0.0364716574549675
-2.8906776905059814 -0.5624151229858398 0.5724270343780518 62.0 13 -0.03646935522556305
-2.4565863609313965 -0.47751206159591675 -0.1311539113521576 24.0 6 -0.0364670492708683
-2.894272804260254 -0.562589704990387 0.6807019710540771 92.0 14 -0.03646474704146385
-2.601004123687744 -0.5051129460334778 -0.04624887555837631 3.0 7 -0.036462441086769104
-2.878866672515869 -0.5585529804229736 0.7857747077941895 60.0 15 -0.036460138857364655
-1.7148866653442383 -0.3302353322505951 -0.467944860458374 13.0 0 -0.036439403891563416
-2.605809211730957 -0.5013278126716614 0.04631868749856949 24.0 8 -0.03643709793686867
-1.6706695556640625 -0.32111573219299316 -0.3927645683288574 36.0 1 -0.03643479570746422
-2.640075922012329 -0.5069654583930969 0.14088840782642365 10.0 9 -0.03643248975276947
-2.6630780696868896 -0.5108999609947205 0.23723793029785156 7.0 10 -0.03642788156867027
-1.6568143367767334 -0.31755325198173523 -0.2671900987625122 17.0 3 -0.03642557933926582
-2.903059959411621 -0.5558888912200928 0.3629269301891327 75.0 11 -0.036423273384571075
-2.8797600269317627 -0.5509063601493835 -0.3600020706653595 67.0 4 -0.036420971155166626
-2.9181480407714844 -0.5577229261398315 0.470554918050766 96.0 12 -0.03641866520047188
-2.8768393993377686 -0.5493068099021912 -0.25623786449432373 63.0 5 -0.03641636297106743
-2.890791177749634 -0.551447868347168 0.5720453858375549 58.0 13 -0.03641405701637268
-2.4524340629577637 -0.46738380193710327 -0.13083989918231964 41.0 6 -0.03641175478696823
-2.9039723873138428 -0.5534377694129944 0.6825015544891357 90.0 14 -0.03640945255756378
-2.618553400039673 -0.4985685646533966 -0.04652811586856842 3.0 7 -0.036407146602869034
-2.8789968490600586 -0.5476359128952026 0.7852570414543152 52.0 15 -0.036404844373464584
-1.7160855531692505 -0.3239476978778839 -0.467944860458374 15.0 0 -0.03638410568237305
-2.6095941066741943 -0.4921448230743408 0.04635359346866608 24.0 8 -0.0363818034529686
-1.660345196723938 -0.31282496452331543 -0.39006516337394714 43.0 1 -0.03637949749827385
-2.6321022510528564 -0.4954383373260498 0.14036504924297333 11.0 9 -0.0363771952688694
-2.670806884765625 -0.5022410750389099 0.23776087164878845 8.0 10 -0.0363725870847702
-1.66767418384552 -0.31330180168151855 -0.2687544524669647 21.0 3 -0.036370281130075455
-2.9050776958465576 -0.5452455282211304 0.3629269301891327 76.0 11 -0.036367978900671005
-2.8817598819732666 -0.540348470211029 -0.3600020706653595 49.0 4 -0.03636567294597626
-2.9104647636413574 -0.5452043414115906 0.46899059414863586 92.0 12 -0.03636337071657181
-2.8865725994110107 -0.540728747844696 -0.25693511962890625 59.0 5 -0.03636106848716736
-2.9004173278808594 -0.5427989363670349 0.5735718607902527 73.0 13 -0.03635876253247261
-2.465830087661743 -0.4610220789909363 -0.13146793842315674 46.0 6 -0.03635646030306816
-2.8944876194000244 -0.5406429171562195 0.6798021197319031 78.0 14 -0.03635415434837341
-2.6242945194244385 -0.48970192670822144 -0.0465979240834713 3.0 7 -0.036351852118968964
-2.8885810375213623 -0.5384963154792786 0.7873275279998779 50.0 15 -0.036349546164274216
-1.6412233114242554 -0.3038865923881531 -0.44723930954933167 29.0 0 -0.03632881119847298
-2.61326265335083 -0.48339635133743286 0.046388499438762665 26.0 8 -0.03632650524377823
-1.6288498640060425 -0.30100756883621216 -0.38241681456565857 21.0 1 -0.03632420301437378
-2.6397080421447754 -0.48733535408973694 0.14067906141281128 11.0 9 -0.03632189705967903
-2.643153667449951 -0.4874938428401947 0.2351461946964264 7.0 10 -0.03631729260087013
-1.651273488998413 -0.30425742268562317 -0.2659386098384857 19.0 3 -0.036314986646175385
-2.9147722721099854 -0.5365389585494995 0.36390188336372375 82.0 11 -0.036312684416770935
-2.898750066757202 -0.5325437188148499 0.4668005108833313 84.0 12 -0.03630807623267174
-2.9235355854034424 -0.5365697145462036 0.5777696371078491 83.0 13 -0.03630346804857254
-2.4634954929351807 -0.45169147849082947 -0.13125859200954437 50.0 6 -0.03630116209387779
-2.8982741832733154 -0.5308877229690552 0.6802520155906677 76.0 14 -0.03629885986447334
-2.616152763366699 -0.47873860597610474 -0.046423401683568954 3.0 7 -0.036296553909778595
-2.884742259979248 -0.5273677110671997 0.7857747077941895 46.0 15 -0.036294251680374146
-1.623266339302063 -0.2947049140930176 -0.44206294417381287 25.0 0 -0.03627351298928261
-2.603128433227539 -0.4721301794052124 0.046179067343473434 27.0 8 -0.03627121075987816
-1.6164681911468506 -0.29288792610168457 -0.37926751375198364 21.0 1 -0.03626890853047371
-2.6511359214782715 -0.48035940527915955 0.1412024199962616 11.0 9 -0.03626660257577896
-1.632422685623169 -0.2954844832420349 -0.32246720790863037 0.0 2 -0.03626430034637451
-2.640918016433716 -0.4775559902191162 0.23479758203029633 7.0 10 -0.036261994391679764
-1.619279146194458 -0.2925216853618622 -0.2606198489665985 20.0 3 -0.036259692162275314
-2.9166274070739746 -0.5263611674308777 0.36390188336372375 82.0 11 -0.036257386207580566
-1.6351085901260376 -0.2950865924358368 -0.2040092945098877 7.0 4 -0.03625508397817612
-2.9121642112731934 -0.5250309109687805 0.46867769956588745 86.0 12 -0.03625277802348137
-1.6255358457565308 -0.29277318716049194 -0.14450421929359436 2.0 5 -0.03625047579407692
-2.913797378540039 -0.5242745876312256 0.5754799246788025 85.0 13 -0.03624816983938217
-2.461125612258911 -0.442383348941803 -0.131049245595932 14.0 6 -0.03624586760997772
-2.8923466205596924 -0.5198945999145508 0.6784523725509644 65.0 14 -0.036243561655282974
-2.611821174621582 -0.4690001308917999 -0.04631868749856949 3.0 7 -0.036241259425878525
-2.8788692951202393 -0.5164341330528259 0.7837041020393372 41.0 15 -0.03623895347118378
-1.5976078510284424 -0.284577339887619 -0.43481600284576416 18.0 0 -0.03621821850538254
-2.604679822921753 -0.4634951949119568 0.046179067343473434 29.0 8 -0.03621591627597809
-1.5982439517974854 -0.28411510586738586 -0.3747684955596924 25.0 1 -0.03621361032128334
-2.650747776031494 -0.4712156057357788 0.141097754240036 10.0 9 -0.03621130809187889
-1.63339364528656 -0.29006949067115784 -0.32246720790863037 0.0 2 -0.03620900213718414
-2.656219244003296 -0.4712319076061249 0.23601774871349335 8.0 10 -0.036206699907779694
-1.594954490661621 -0.28266897797584534 -0.2565525472164154 17.0 3 -0.036204393953084946
-2.908583402633667 -0.5149559378623962 0.36268317699432373 87.0 11 -0.036202091723680496
-1.6126219034194946 -0.28550985455513 -0.2010844349861145 32.0 4 -0.03619978576898575
-2.925560474395752 -0.5174350738525391 0.470554918050766 93.0 12 -0.0361974835395813
-1.630421757698059 -0.2880743443965912 -0.14485284686088562 20.0 5 -0.03619517758488655
-2.9077863693237305 -0.5132448673248291 0.5739535093307495 87.0 13 -0.0361928753554821
-2.9074888229370117 -0.5126690864562988 0.6816017627716064 63.0 14 -0.036188267171382904
-2.6153314113616943 -0.4606831967830658 -0.04635359346866608 3.0 7 -0.036185961216688156
-2.8748579025268555 -0.5058807730674744 0.7821511626243591 33.0 15 -0.03618365898728371
-1.5966397523880005 -0.2789453864097595 -0.4342983663082123 26.0 0 -0.03616292402148247
-2.61605167388916 -0.4565747082233429 0.04635359346866608 37.0 8 -0.03616061806678772
-1.5934178829193115 -0.27780938148498535 -0.37341877818107605 31.0 1 -0.03615831583738327
-2.6366353034973145 -0.45921823382377625 0.14026036858558655 9.0 9 -0.03615600988268852
-1.5956639051437378 -0.27791401743888855 -0.314834862947464 0.0 2 -0.03615370765328407
-2.6695444583892822 -0.46447059512138367 0.23706360161304474 8.0 10 -0.036151401698589325
-1.5958830118179321 -0.27737826108932495 -0.2565525472164154 23.0 3 -0.036149099469184875
-2.9083194732666016 -0.5049682259559631 0.36243945360183716 83.0 11 -0.03614679351449013
-1.6018733978271484 -0.27784350514411926 -0.1996220052242279 21.0 4 -0.03614449128508568
-2.9254024028778076 -0.5068824887275696 0.47024205327033997 91.0 12 -0.03614218533039093
-1.6136999130249023 -0.2796046733856201 -0.14328403770923615 22.0 5 -0.03613988310098648
-2.9056034088134766 -0.5029296278953552 0.5731902718544006 85.0 13 -0.03613757714629173
-1.6256139278411865 -0.28108420968055725 -0.08645901083946228 25.0 6 -0.03613527491688728
-2.8919777870178223 -0.4995315670967102 0.6775525808334351 52.0 14 -0.036132968962192535
-2.8785102367401123 -0.49616995453834534 0.7826688289642334 26.0 15 -0.036128364503383636
-1.6109328269958496 -0.2756514847278595 -0.43792182207107544 29.0 0 -0.0361076258122921
-2.6176297664642334 -0.4474395215511322 0.04635359346866608 32.0 8 -0.03610532358288765
-1.580931305885315 -0.2699494957923889 -0.37026944756507874 31.0 1 -0.0361030176281929
-2.6382222175598145 -0.4500123858451843 0.14026036858558655 8.0 9 -0.03610071539878845
-1.5772711038589478 -0.26904162764549255 -0.3110186755657196 0.0 2 -0.036098409444093704
-2.665257692337036 -0.4541446268558502 0.23654069006443024 8.0 10 -0.036096107214689255
-1.602683424949646 -0.2728002667427063 -0.2574911415576935 30.0 3 -0.03609380125999451
-2.9178919792175293 -0.4961448311805725 0.3634144067764282 83.0 11 -0.03609149903059006
-1.571520447731018 -0.2669314742088318 -0.19572217762470245 21.0 4 -0.03608919307589531
-2.9193637371063232 -0.49534597992897034 0.46899059414863586 69.0 12 -0.03608689084649086
-1.5969871282577515 -0.2709704041481018 -0.14171522855758667 43.0 5 -0.03608458489179611
-2.9228265285491943 -0.49540942907333374 0.5762432217597961 87.0 13 -0.03608228266239166
-1.6226468086242676 -0.2747415602207184 -0.08624966442584991 38.0 6 -0.03607998043298721
-2.8975467681884766 -0.4900835156440735 0.6784523725509644 42.0 14 -0.036077674478292465
-1.5793718099594116 -0.2668469250202179 -0.027958756312727928 5.0 7 -0.036075372248888016
-2.8916540145874023 -0.4880487620830536 0.7857747077941895 21.0 15 -0.03607306629419327
-1.5947375297546387 -0.26715394854545593 -0.4332630932331085 40.0 0 -0.03605233132839203
-2.619175672531128 -0.4382995069026947 0.04635359346866608 31.0 8 -0.03605002537369728
-1.5895522832870483 -0.2657149136066437 -0.3720690608024597 37.0 1 -0.03604772314429283
-2.653566837310791 -0.443103164434433 0.14099308848381042 7.0 9 -0.036045417189598083
-1.5975651741027832 -0.2667677700519562 -0.314834862947464 0.0 2 -0.036043114960193634
-2.6530699729919434 -0.442543625831604 0.23532049357891083 8.0 10 -0.036040809005498886
-1.5880379676818848 -0.26460719108581543 -0.2549882233142853 30.0 3 -0.03603850677609444
-2.9215645790100098 -0.4862816035747528 0.3636581599712372 87.0 11 -0.03603620454668999
-1.5626516342163086 -0.2598162293434143 -0.19450348615646362 24.0 4 -0.03603389859199524
-2.919126272201538 -0.4848293960094452 0.46867769956588745 65.0 12 -0.03603159636259079
-1.5743378400802612 -0.2614772915840149 -0.1396235078573227 24.0 5 -0.03602929040789604
-2.9245381355285645 -0.4852030873298645 0.5762432217597961 87.0 13 -0.03602698817849159
-1.6137440204620361 -0.2674430012702942 -0.0857263058423996 40.0 6 -0.036024682223796844
-2.8953945636749268 -0.47933027148246765 0.6775525808334351 30.0 14 -0.036022379994392395
-1.5605645179748535 -0.2580700218677521 -0.027609705924987793 40.0 7 -0.03602007403969765
-2.8723740577697754 -0.4744885265827179 0.7800806164741516 18.0 15 -0.0360177718102932
-1.5918476581573486 -0.2609601616859436 -0.43222782015800476 57.0 0 -0.03599703311920166
-2.6285831928253174 -0.43044736981391907 0.04649320989847183 14.0 8 -0.03599473088979721
-1.5904700756072998 -0.26016467809677124 -0.3720690608024597 46.0 1 -0.03599242866039276
-2.714231014251709 -0.443499356508255 0.14413323998451233 1.0 9 -0.03599012270569801
-1.550047516822815 -0.2532743513584137 -0.305294394493103 3.0 2 -0.035987820476293564
-2.699824810028076 -0.44066232442855835 0.23932965099811554 1.0 10 -0.035985514521598816
-1.577254056930542 -0.25715500116348267 -0.25311097502708435 34.0 3 -0.035983212292194366
-2.934999704360962 -0.4779949486255646 0.3651205599308014 39.0 11 -0.03598090633749962
-1.5635489225387573 -0.2543603181838989 -0.19450348615646362 24.0 4 -0.03597860410809517
-2.92275071144104 -0.47495362162590027 0.46899059414863586 56.0 12 -0.03597629815340042
-1.5496752262115479 -0.2518257200717926 -0.1373574435710907 25.0 5 -0.03597399592399597
-2.922337770462036 -0.474362313747406 0.5754799246788025 83.0 13 -0.035971689969301224
-1.585094928741455 -0.2570136487483978 -0.08415622264146805 56.0 6 -0.035969387739896774
-2.904745101928711 -0.4704660475254059 0.6793522238731384 22.0 14 -0.035967081785202026
-1.5673779249191284 -0.25357913970947266 -0.027714421972632408 60.0 7 -0.03596477955579758
-2.866384267807007 -0.4632262587547302 0.7780100703239441 13.0 15 -0.03596247360110283
-1.5927488803863525 -0.2554023265838623 -0.43222782015800476 54.0 0 -0.03594173863530159
-1.5778988599777222 -0.25245580077171326 -0.3689197599887848 53.0 1 -0.03593713045120239
-1.5758129358291626 -0.25184041261672974 0.08363286405801773 0.0 9 -0.03593482822179794
-1.5838793516159058 -0.2531295418739319 -0.3117819130420685 54.0 2 -0.035932522267103195
-1.5838195085525513 -0.25283652544021606 0.14032074809074402 0.0 10 -0.035930220037698746
-1.5742406845092773 -0.2510252892971039 -0.2524852454662323 43.0 3 -0.035927914083004
-1.5565855503082275 -0.2476532906293869 -0.19352853298187256 26.0 4 -0.0359233058989048
-2.924391031265259 -0.4647476375102997 0.46899059414863586 51.0 12 -0.03592100366950035
-1.5407063961029053 -0.24485085904598236 -0.13648588955402374 27.0 5 -0.0359186977148056
-2.9123423099517822 -0.4623117446899414 0.5731902718544006 83.0 13 -0.035916395485401154
-1.5662562847137451 -0.24835117161273956 -0.08310950547456741 28.0 6 -0.035914089530706406
-2.9005954265594482 -0.45940911769866943 0.6780025362968445 16.0 14 -0.035911787301301956
-1.5583778619766235 -0.2465440034866333 -0.027539897710084915 46.0 7 -0.03590948134660721
-2.8737080097198486 -0.4541230797767639 0.7795630097389221 11.0 15 -0.03590717911720276
-1.5993564128875732 -0.25073865056037903 -0.4337807595729828 53.0 0 -0.03588644415140152
-1.540982723236084 -0.24131159484386444 0.027225753292441368 20.0 8 -0.03588413819670677
-1.5710691213607788 -0.2457420825958252 -0.3671201467514038 52.0 1 -0.03588183596730232
-1.5648424625396729 -0.24448835849761963 0.08300483226776123 27.0 9 -0.035879530012607574
-1.5925121307373047 -0.24881142377853394 -0.31330838799476624 65.0 2 -0.035877227783203125
-1.566975474357605 -0.2445414662361145 0.13875193893909454 45.0 10 -0.03587492182850838
-1.5809627771377563 -0.24644169211387634 -0.25342386960983276 60.0 3 -0.03587261959910393
-1.545629620552063 -0.24065765738487244 0.19206610321998596 11.0 11 -0.03587031364440918
-1.5456715822219849 -0.24038751423358917 -0.19206610321998596 27.0 4 -0.03586801141500473
-2.9377071857452393 -0.456356018781662 0.4708678126335144 46.0 12 -0.03586570546030998
-1.5395829677581787 -0.23916541039943695 -0.1363115906715393 30.0 5 -0.03586340323090553
-2.921698570251465 -0.45334768295288086 0.5747166872024536 83.0 13 -0.035861097276210785
-1.545403003692627 -0.23951712250709534 -0.0819581151008606 29.0 6 -0.035858795046806335
-2.8964037895202637 -0.4483868479728699 0.6766527891159058 11.0 14 -0.03585648909211159
-1.5572528839111328 -0.2407975047826767 -0.027504993602633476 31.0 7 -0.03585418686270714
-2.8810036182403564 -0.4449731111526489 0.7811158895492554 9.0 15 -0.03585188090801239
-1.5907164812088013 -0.24341391026973724 -0.431192547082901 45.0 0 -0.035828590393066406
-1.5517405271530151 -0.23717260360717773 0.02740027755498886 36.0 8 -0.03582628816366196
-1.579664945602417 -0.24115851521492004 -0.3689197599887848 47.0 1 -0.03582398220896721
-1.5479167699813843 -0.23631171882152557 0.08206278830766678 14.0 9 -0.03582167997956276
-1.5875909328460693 -0.2420850247144699 -0.3121635317802429 61.0 2 -0.03581937402486801
-1.5461946725845337 -0.23549658060073853 0.136834517121315 23.0 10 -0.03581707179546356
-1.5759966373443604 -0.23975421488285065 -0.2524852454662323 61.0 3 -0.035814765840768814
-1.5366884469985962 -0.23349957168102264 0.19084741175174713 21.0 11 -0.035812463611364365
-1.5426169633865356 -0.23412533104419708 -0.19157861173152924 34.0 4 -0.03581015765666962
-2.9275641441345215 -0.4443208873271942 0.46899059414863586 32.0 12 -0.03580785542726517
-1.5483285188674927 -0.2347157597541809 -0.13700881600379944 37.0 5 -0.03580554947257042
-2.9349873065948486 -0.44439882040023804 0.577006459236145 68.0 13 -0.03580324724316597
-1.538371205329895 -0.2326570302248001 -0.08153942972421646 29.0 6 -0.03580094128847122
-2.892247200012207 -0.4368947148323059 0.6753031015396118 10.0 14 -0.03579863905906677
-1.5402885675430298 -0.23267166316509247 -0.02719084918498993 33.0 7 -0.035796333104372025
-2.892090320587158 -0.4363548457622528 0.7837041020393372 8.0 15 -0.035794030874967575
-1.593467116355896 -0.23814527690410614 -0.4317101836204529 45.0 0 -0.035773295909166336
-1.5386744737625122 -0.2299564629793167 0.02715594507753849 30.0 8 -0.03577098995447159
-1.5920201539993286 -0.2376450151205063 -0.37161916494369507 46.0 1 -0.03576868772506714
-1.5408304929733276 -0.2297292798757553 0.08164409548044205 14.0 9 -0.03576638177037239
-1.570949673652649 -0.2339392453432083 -0.308728963136673 49.0 2 -0.03576407954096794
-1.535183072090149 -0.22833918035030365 0.13578864932060242 29.0 10 -0.03576177358627319
-1.5728753805160522 -0.23394542932510376 -0.25185951590538025 45.0 3 -0.035759471356868744
-1.531563639640808 -0.22752726078033447 0.19011619687080383 23.0 11 -0.035757165402173996
-1.5473121404647827 -0.2295912206172943 -0.19206610321998596 42.0 4 -0.035754863172769547
-2.92518949508667 -0.4335198402404785 0.4683648645877838 27.0 12 -0.0357525572180748
-1.5274584293365479 -0.22610007226467133 -0.1350913941860199 46.0 5 -0.03575025498867035
-2.928676128387451 -0.4335135221481323 0.5754799246788025 60.0 13 -0.0357479490339756
-1.531231164932251 -0.22638581693172455 -0.08112073689699173 32.0 6 -0.03574564680457115
-2.907174587249756 -0.429294615983963 0.6784523725509644 8.0 14 -0.035743340849876404
-1.5232867002487183 -0.22466760873794556 -0.02687670662999153 39.0 7 -0.035741038620471954
-2.887862205505371 -0.4254128634929657 0.7821511626243591 7.0 15 -0.035738732665777206
-1.5923365354537964 -0.23258060216903687 -0.431192547082901 40.0 0 -0.03571799769997597
-1.519680142402649 -0.2216973751783371 0.026806894689798355 36.0 8 -0.03571569547057152
-1.6024818420410156 -0.23349159955978394 -0.3738686740398407 44.0 1 -0.03571338951587677
-1.5337172746658325 -0.22319844365119934 0.08122541010379791 14.0 9 -0.03571108728647232
-1.5717167854309082 -0.22872842848300934 -0.308728963136673 49.0 2 -0.03570878133177757
-1.5260734558105469 -0.2218140810728073 0.13491709530353546 30.0 10 -0.03570647910237312
-1.5756372213363647 -0.22873777151107788 -0.2521723806858063 47.0 3 -0.035704173147678375
-1.5185966491699219 -0.22018611431121826 0.18841002881526947 24.0 11 -0.035701870918273926
-1.5579270124435425 -0.22561115026474 -0.1932847946882248 39.0 4 -0.03569956496357918
-2.9305946826934814 -0.42387253046035767 0.46899059414863586 21.0 12 -0.03569726273417473
-1.5400309562683105 -0.22274549305438995 -0.13613726198673248 52.0 5 -0.03569495677947998
-2.9204561710357666 -0.42188507318496704 0.5735718607902527 60.0 13 -0.03569265455007553
-1.5458496809005737 -0.22303590178489685 -0.08185344934463501 42.0 6 -0.03569034859538078
-2.8951539993286133 -0.41719767451286316 0.6753031015396118 7.0 14 -0.035688046365976334
-1.524061679840088 -0.21934929490089417 -0.02687670662999153 40.0 7 -0.035685744136571884
-2.8835930824279785 -0.4145050048828125 0.7805982232093811 6.0 15 -0.035683438181877136
