# .PCD v0.7 - Point Cloud Data file format
VERSION 0.7
FIELDS x y z intensity ring time
SIZE 4 4 4 4 4 4
TYPE F F F F F F
COUNT 1 1 1 1 1 1
WIDTH 526
HEIGHT 1
VIEWPOINT 0 0 0 1 0 0 0
POINTS 526
DATA ascii
0.6300206780433655 0.039527058601379395 -0.07750891149044037 90.0 4 -0.00330917676910758
0.6446806788444519 0.04044681787490845 0.10230815410614014 47.0 12 -0.0033068726770579815
0.6263779997825623 0.03918907418847084 -0.05490811914205551 36.0 5 -0.0033045688178390265
0.6936433911323547 0.04327597841620445 0.13509276509284973 37.0 13 -0.0033022647257894278
0.6538368463516235 0.04067760705947876 -0.03433239087462425 25.0 6 -0.0032999608665704727
0.7177053093910217 0.04452570527791977 0.1660138964653015 17.0 14 -0.003297656774520874
0.6227078437805176 0.03863215446472168 -0.010890301316976547 23.0 7 -0.0032953526824712753
3.6268794536590576 0.22437074780464172 0.9736772775650024 117.0 15 -0.0032930488232523203
0.63075190782547 0.038136761635541916 0.011029920540750027 97.0 8 -0.003270008834078908
0.6519269943237305 0.03918837010860443 0.03422771766781807 2.0 9 -0.0032654008828103542
1.5501521825790405 0.09291134774684906 -0.3018598258495331 21.0 2 -0.0032630967907607555
0.6503510475158691 0.038865819573402405 0.05699985474348068 94.0 10 -0.003260792698711157
0.623107373714447 0.03723770007491112 -0.09886659681797028 87.0 3 -0.003258488839492202
0.6776995062828064 0.04038150608539581 0.08335863798856735 6.0 11 -0.003256184747442603
0.647982656955719 0.03849730268120766 -0.07970255613327026 88.0 4 -0.003253880888223648
0.6586213707923889 0.03901401162147522 0.1044982373714447 46.0 12 -0.0032515767961740494
0.6225331425666809 0.03676726669073105 -0.05455949530005455 12.0 5 -0.0032492727041244507
0.6722248792648315 0.039702098816633224 0.1308949738740921 36.0 13 -0.0032469688449054956
0.6739062666893005 0.03968337923288345 -0.035379111766815186 64.0 6 -0.003244664752855897
0.7295213937759399 0.04283055663108826 0.1687133014202118 21.0 14 -0.003242360893636942
0.6428017020225525 0.03762663155794144 -0.011239349842071533 45.0 7 -0.003240056801587343
3.631497859954834 0.2119351029396057 0.974712610244751 120.0 15 -0.0032377527095377445
0.6308811902999878 0.035934627056121826 0.011029920540750027 94.0 8 -0.003214712720364332
0.6540538668632507 0.03702550008893013 0.03433239087462425 3.0 9 -0.0032101047690957785
1.568092942237854 0.08876856416463852 -0.305294394493103 47.0 2 -0.0032078009098768234
0.6564440131187439 0.03704587370157242 0.057522788643836975 100.0 10 -0.0032054968178272247
0.6311225891113281 0.03550638630986214 -0.10011807084083557 91.0 3 -0.003203192725777626
0.6619805693626404 0.037126533687114716 0.08140873163938522 7.0 11 -0.0032008886337280273
0.6401850581169128 0.03579207509756088 -0.0787276029586792 88.0 4 -0.0031985847745090723
0.6725597381591797 0.03748404607176781 0.10668832063674927 65.0 12 -0.0031962806824594736
0.6226516366004944 0.034702498465776443 -0.05455949530005455 8.0 5 -0.0031939768232405186
0.6841207146644592 0.03800894320011139 0.13318468630313873 34.0 13 -0.00319167273119092
0.6580870151519775 0.03644733503460884 -0.03454173356294632 95.0 6 -0.003189368639141321
0.7063170671463013 0.03899451717734337 0.16331447660923004 24.0 14 -0.003187064779922366
0.6748759150505066 0.03714056685566902 -0.011797827668488026 59.0 7 -0.0031847606878727674
3.636073350906372 0.1994699090719223 0.97574782371521 117.0 15 -0.0031824568286538124
0.6349965333938599 0.03394554927945137 0.011099730618298054 78.0 8 -0.0031594168394804
0.642212450504303 0.03410650044679642 0.03370435908436775 5.0 9 -0.0031548086553812027
1.5527093410491943 0.08246100693941116 -0.3022414743900299 23.0 2 -0.0031525047961622477
0.6605485677719116 0.03496468812227249 0.057871412485837936 100.0 10 -0.003150200704112649
0.645051121711731 0.03403178229928017 -0.10230815410614014 100.0 3 -0.003147896844893694
0.6977885365486145 0.03669166564941406 0.08579602837562561 6.0 11 -0.0031455927528440952
0.636341392993927 0.03334924206137657 -0.07824012637138367 88.0 4 -0.0031432886607944965
0.650986909866333 0.03400317206978798 0.10324675589799881 57.0 12 -0.0031409848015755415
0.6148102879524231 0.03211354836821556 -0.05386224761605263 8.0 5 -0.003138680709525943
0.684249222278595 0.03562049940228462 0.13318468630313873 34.0 13 -0.0031363768503069878
0.6562156677246094 0.03404630348086357 -0.034437064081430435 97.0 6 -0.003134072758257389
0.7025566697120667 0.03632799908518791 0.16241468489170074 22.0 14 -0.0031317686662077904
0.6390545964241028 0.032932281494140625 -0.01116954069584608 49.0 7 -0.0031294648069888353
3.6483232975006104 0.1873699575662613 0.9788536429405212 117.0 15 -0.0031271607149392366
1.4451419115066528 0.07244934141635895 -0.38771092891693115 0.0 0 -0.003106424817815423
0.6331138610839844 0.03162914514541626 0.01106482557952404 52.0 8 -0.0031041207257658243
1.4811570644378662 0.07373660802841187 -0.3423755168914795 1.0 1 -0.0031018168665468693
0.650306761264801 0.03226052224636078 0.03412304446101189 11.0 9 -0.0030995127744972706
1.529457688331604 0.07587357610464096 -0.29766204953193665 4.0 2 -0.003097208682447672
0.6467369198799133 0.03197028115391731 0.05665123090147972 100.0 10 -0.003094904823228717
0.6510849595069885 0.0320713110268116 -0.10324675589799881 94.0 3 -0.003092600731179118
0.6820506453514099 0.03347698226571083 0.08384611457586288 6.0 11 -0.003090296871960163
0.6404193043708801 0.03132186830043793 -0.0787276029586792 91.0 4 -0.0030879927799105644
0.6511016488075256 0.031730420887470245 0.10324675589799881 82.0 12 -0.0030856886878609657
0.6228840351104736 0.03024601750075817 -0.05455949530005455 8.0 5 -0.003083384595811367
0.6863303780555725 0.03332684561610222 0.13356630504131317 42.0 13 -0.003081080736592412
0.6503456830978394 0.031466044485569 -0.03412304446101189 92.0 6 -0.003078776877373457
0.6968396902084351 0.03359369561076164 0.1610649675130844 18.0 14 -0.0030764727853238583
0.6311760544776917 0.030317429453134537 -0.011029920540750027 34.0 7 -0.0030741686932742596
3.6335179805755615 0.17389579117298126 0.974712610244751 117.0 15 -0.003071864601224661
1.4396085739135742 0.06688281893730164 -0.3861580491065979 1.0 0 -0.0030511287041008472
0.6332204341888428 0.029418805614113808 0.01106482557952404 19.0 8 -0.0030488246120512486
1.500872015953064 0.06946655362844467 -0.34687453508377075 2.0 1 -0.0030465207528322935
0.666376531124115 0.03072643280029297 0.03496042266488075 36.0 9 -0.0030442168936133385
1.4767733812332153 0.06783462315797806 -0.2873583436012268 0.0 2 -0.0030419128015637398
0.6309272050857544 0.02887088619172573 0.055256739258766174 85.0 10 -0.003039608709514141
0.6314648985862732 0.028785353526473045 -0.10011807084083557 87.0 3 -0.0030373046174645424
0.6900955438613892 0.03145803511142731 0.08482106775045395 6.0 11 -0.0030350007582455873
0.6444908976554871 0.029266126453876495 -0.07921507954597473 88.0 4 -0.0030326968990266323
0.6433150172233582 0.02910022623836994 0.10199528187513351 81.0 12 -0.0030303928069770336
0.6229857802391052 0.028071990236639977 -0.05455949530005455 4.0 5 -0.003028088714927435
0.6805640459060669 0.03054715134203434 0.13242144882678986 48.0 13 -0.0030257846228778362
0.6544471979141235 0.02926045097410679 -0.03433239087462425 100.0 6 -0.003023480763658881
0.7008517980575562 0.031212983652949333 0.1619647741317749 16.0 14 -0.003021176904439926
0.6352734565734863 0.028292402625083923 -0.011099730618298054 34.0 7 -0.0030188728123903275
3.6302428245544434 0.16103917360305786 0.9736772775650024 115.0 15 -0.0030165687203407288
1.4552737474441528 0.06252158433198929 -0.39029911160469055 1.0 0 -0.002995832823216915
0.6353219151496887 0.02718336135149002 0.011099730618298054 18.0 8 -0.0029935287311673164
1.4855406284332275 0.06330173462629318 -0.3432753086090088 2.0 1 -0.0029912246391177177
0.6584979295730591 0.028059858828783035 0.03454173356294632 76.0 9 -0.0029889207798987627
1.4809242486953735 0.06284680217504501 -0.28812161087989807 0.0 2 -0.0029866169206798077
0.6529209613800049 0.02759390138089657 0.057174164801836014 60.0 10 -0.002984312828630209
0.6355087757110596 0.02674691751599312 -0.10074380785226822 98.0 3 -0.0029820087365806103
0.6802894473075867 0.02851235866546631 0.08360237628221512 13.0 11 -0.0029797046445310116
0.6564940810203552 0.027400584891438484 -0.08067751675844193 84.0 4 -0.0029774007853120565
0.6631492972373962 0.027678359299898148 0.10512397438287735 82.0 12 -0.0029750969260931015
0.6151173114776611 0.02556607685983181 -0.05386224761605263 8.0 5 -0.002972792834043503
0.6787049770355225 0.028089987114071846 0.13203983008861542 76.0 13 -0.002970488741993904
0.6505542397499084 0.026811474934220314 -0.03412304446101189 100.0 6 -0.0029681846499443054
0.7184804081916809 0.02948533184826374 0.1660138964653015 14.0 14 -0.0029658807907253504
0.6373663544654846 0.026156537234783173 -0.011134634725749493 26.0 7 -0.0029635769315063953
3.642364263534546 0.1488385647535324 0.9767830967903137 117.0 15 -0.0029612728394567966
1.4535527229309082 0.05736478045582771 -0.38978150486946106 0.0 0 -0.002940536942332983
0.6314122676849365 0.024918822571635246 0.011029920540750027 22.0 8 -0.0029382328502833843
1.485742449760437 0.05837474390864372 -0.3432753086090088 1.0 1 -0.0029359287582337856
0.6426260471343994 0.02513672597706318 0.03370435908436775 51.0 9 -0.002933624666184187
1.4929051399230957 0.05813498795032501 -0.2904112935066223 0.0 2 -0.002931320806965232
0.6331043243408203 0.024542659521102905 0.055431053042411804 14.0 10 -0.002929016714915633
0.6415156126022339 0.02486872673034668 -0.10168241709470749 100.0 3 -0.002926712855696678
0.6347571015357971 0.024496087804436684 0.0779963880777359 38.0 11 -0.0029244087636470795
0.6407122015953064 0.024613916873931885 -0.0787276029586792 88.0 4 -0.0029221046715974808
0.6691636443138123 0.025589648634195328 0.10606258362531662 95.0 12 -0.0029198008123785257
0.6311303377151489 0.02402520179748535 -0.055256739258766174 8.0 5 -0.002917496720328927
0.6787943243980408 0.02583962492644787 0.13203983008861542 92.0 13 -0.002915192861109972
0.6486437320709229 0.02457851730287075 -0.034018374979496 100.0 6 -0.0029128887690603733
0.6874164938926697 0.025927232578396797 0.15881545841693878 15.0 14 -0.0029105846770107746
0.6414503455162048 0.02408142387866974 -0.01120444480329752 18.0 7 -0.0029082808177918196
3.6467227935791016 0.136270210146904 0.9778183698654175 120.0 15 -0.002905976725742221
1.4691797494888306 0.05310213938355446 -0.3939225971698761 0.0 0 -0.0028852405957877636
0.6414874196052551 0.023073868826031685 0.01120444480329752 31.0 8 -0.0028829367365688086
1.4859371185302734 0.053189199417829514 -0.3432753086090088 2.0 1 -0.0028806328773498535
0.6367178559303284 0.02279135026037693 0.0333903431892395 52.0 9 -0.002878328785300255
1.4813177585601807 0.05276428908109665 -0.28812161087989807 0.0 2 -0.002876024693250656
0.6351733803749084 0.022513777017593384 0.05560535937547684 7.0 10 -0.0028737206012010574
0.6435726284980774 0.02269933931529522 -0.10199528187513351 87.0 3 -0.0028714167419821024
0.6586451530456543 0.023115554824471474 0.0809212476015091 79.0 11 -0.0028691128827631474
0.6487298011779785 0.022654211148619652 -0.07970255613327026 84.0 4 -0.0028668087907135487
0.6495031118392944 0.022681215777993202 0.10293389111757278 85.0 12 -0.00286450469866395
0.6471360921859741 0.02248579077422619 -0.05665123090147972 7.0 5 -0.0028622006066143513
0.6749562621116638 0.023334188386797905 0.13127659261226654 88.0 13 -0.0028598967473953962
0.6467294692993164 0.022245345637202263 -0.03391370177268982 100.0 6 -0.002857592888176441
0.6777648329734802 0.023194434121251106 0.15656594932079315 18.0 14 -0.0028552887961268425
0.6295355558395386 0.02154393494129181 -0.010995016433298588 13.0 7 -0.002852984704077244
3.6510159969329834 0.12430695444345474 0.9788536429405212 117.0 15 -0.002850680612027645
1.4616329669952393 0.04772087559103966 -0.3918520510196686 0.0 0 -0.0028299447149038315
0.6375631093978882 0.020815808326005936 0.011134634725749493 31.0 8 -0.002827640622854233
1.5172687768936157 0.04927298054099083 -0.3504737615585327 1.0 1 -0.0028253367636352777
0.6487709283828735 0.02095535211265087 0.034018374979496 55.0 9 -0.0028230329044163227
1.4638327360153198 0.047025471925735474 -0.2846870422363281 1.0 2 -0.002820728812366724
0.6272826790809631 0.02004210278391838 0.05490811914205551 7.0 10 -0.0028184247203171253
0.6515418887138367 0.02081720158457756 -0.10324675589799881 87.0 3 -0.0028161206282675266
0.6547499895095825 0.020805319771170616 0.08043377101421356 100.0 11 -0.0028138167690485716
0.6527695655822754 0.02062804065644741 -0.08019004017114639 65.0 4 -0.0028115129098296165
0.6436550617218018 0.02022787742316723 0.10199528187513351 99.0 12 -0.002809208817780018
0.6233136057853699 0.019479727372527122 -0.05455949530005455 8.0 5 -0.002806904725730419
0.6828791499137878 0.021341262385249138 0.1328030675649643 81.0 13 -0.0028046006336808205
0.6587774753570557 0.02047264203429222 -0.03454173356294632 97.0 6 -0.0028022967744618654
0.6817336678504944 0.02106727845966816 0.15746575593948364 18.0 14 -0.0027999929152429104
0.6276081204414368 0.01928502880036831 -0.010960111394524574 7.0 7 -0.0027976888231933117
3.6437039375305176 0.11132482439279556 0.9767830967903137 117.0 15 -0.002795384731143713
1.4695072174072266 0.04310120269656181 -0.3939225971698761 0.0 0 -1.0013999599323142e-05
0.6436285376548767 0.018765443935990334 0.011239349842071533 31.0 8 -7.709999408689328e-06
1.509639859199524 0.043750207871198654 -0.34867414832115173 1.0 1 -5.405999672802864e-06
0.6508365273475647 0.018747925758361816 0.03412304446101189 58.0 9 -3.101999482169049e-06
1.4737927913665771 0.042453914880752563 -0.2865951359272003 1.0 2 -7.97999746282585e-07
0.6512444615364075 0.01864623837172985 0.05699985474348068 6.0 10 1.5060004443512298e-06
0.6397630572319031 0.01820545643568039 -0.10136953741312027 98.0 3 3.8100006349850446e-06
0.6508500576019287 0.018407275900244713 0.07994629442691803 100.0 11 6.114000825618859e-06
0.648868978023529 0.01823822408914566 -0.07970255613327026 24.0 4 8.418000106757972e-06
0.6496456265449524 0.018146276473999023 0.10293389111757278 97.0 12 1.0722001206886489e-05
0.651257336139679 0.018191296607255936 -0.05699985474348068 18.0 5 1.3026000488025602e-05
0.6711744666099548 0.018630405887961388 0.13051335513591766 88.0 13 1.5329998859670013e-05
0.6688274145126343 0.018448444083333015 -0.03506509214639664 100.0 6 1.763399995979853e-05
0.6779070496559143 0.018580488860607147 0.15656594932079315 20.0 14 1.9938001059927046e-05
0.6236737966537476 0.016985103487968445 -0.010890301316976547 5.0 7 2.2242002160055563e-05
3.6402080059051514 0.09850150346755981 0.97574782371521 115.0 15 2.4545999622205272e-05
1.4503366947174072 0.03747205063700676 -0.3887462317943573 0.0 0 4.528200224740431e-05
0.6456890106201172 0.016569772735238075 0.011274254880845547 28.0 8 4.7585999709554017e-05
1.490302324295044 0.03798411041498184 -0.3441751301288605 1.0 1 4.989000080968253e-05
0.6588844656944275 0.01667826622724533 0.03454173356294632 58.0 9 5.219399827183224e-05
1.5072965621948242 0.03815402463078499 -0.2930826246738434 1.0 2 5.4498003009939566e-05
0.6632561087608337 0.016673099249601364 0.05804572254419327 6.0 10 5.6802000472089276e-05
0.6378479599952698 0.015922993421554565 -0.10105667263269424 94.0 3 5.9105997934238985e-05
0.6509103178977966 0.016135409474372864 0.07994629442691803 100.0 11 6.14099990343675e-05
0.6667891144752502 0.016412587836384773 -0.08189620822668076 8.0 4 6.371399649651721e-05
0.6655032634735107 0.016264405101537704 0.10543683916330338 100.0 12 6.601800123462453e-05
0.6612758636474609 0.01616108976304531 -0.057871412485837936 78.0 5 6.832199869677424e-05
0.6673100590705872 0.016192350536584854 0.1297501176595688 86.0 13 7.062599615892395e-05
0.650917649269104 0.015680920332670212 -0.03412304446101189 85.0 6 7.293000089703128e-05
0.6935532093048096 0.01658659055829048 0.16016516089439392 24.0 14 7.523399835918099e-05
0.6457196474075317 0.015330183319747448 -0.011274254880845547 7.0 7 7.75379958213307e-05
3.644392251968384 0.08588600158691406 0.9767830967903137 117.0 15 7.984200055943802e-05
1.4388705492019653 0.032149892300367355 -0.385640412569046 0.0 0 0.00010057799954665825
0.6337477564811707 0.014050002209842205 0.01106482557952404 39.0 8 0.00010288199700880796
3.1347649097442627 0.06894946843385696 -0.7238925695419312 2.0 1 0.00010518599447095767
0.6509515047073364 0.014203773811459541 0.03412304446101189 58.0 9 0.00010748999920906499
1.5034949779510498 0.032806288450956345 -0.2923193871974945 1.0 2 0.0001097939966712147
0.6752618551254272 0.014616644009947777 0.05909159407019615 6.0 10 0.00011209800140932202
0.6438243985176086 0.0138234319165349 -0.10199528187513351 84.0 3 0.00011440199159551412
0.6529473662376404 0.013905301690101624 0.08019004017114639 100.0 11 0.00011670599633362144
0.6549344062805176 0.013833578675985336 -0.08043377101421356 5.0 4 0.00011901000107172877
0.6714807748794556 0.014065513387322426 0.10637544840574265 100.0 12 0.00012131399125792086
0.6673065423965454 0.013861563056707382 -0.05839434638619423 100.0 5 0.00012361799599602818
0.6732510924339294 0.0139850452542305 0.1308949738740921 76.0 13 0.0001259220007341355
0.6429811120033264 0.013244309462606907 -0.03370435908436775 45.0 6 0.0001282259909203276
0.6721752285957336 0.013727979734539986 0.155216246843338 40.0 14 0.00013052999565843493
0.6637628674507141 0.013440282084047794 -0.01158839836716652 20.0 7 0.00013283400039654225
3.652395725250244 0.07331829518079758 0.9788536429405212 117.0 15 0.00013513799058273435
1.4544305801391602 0.027164870873093605 -0.38978150486946106 0.0 0 0.0001558740041218698
0.6557857394218445 0.012248322367668152 0.011448778212070465 42.0 8 0.0001581779943080619
1.4983248710632324 0.027723118662834167 -0.34597474336624146 1.0 1 0.00016048199904616922
0.6509971618652344 0.011931578628718853 0.03412304446101189 54.0 9 0.00016278600378427655
1.4800498485565186 0.026868203654885292 -0.28773996233940125 2.0 2 0.00016508999397046864
0.6553902626037598 0.011783260852098465 0.057348478585481644 6.0 10 0.00016739399870857596
0.6458458304405212 0.011498911306262016 -0.10230815410614014 91.0 3 0.0001696980034466833
0.6609309315681458 0.011767493560910225 0.08116498589515686 100.0 11 0.00017200199363287538
0.6629178524017334 0.011687138117849827 -0.08140873163938522 7.0 4 0.0001743059983709827
0.6695507764816284 0.011687187477946281 0.10606258362531662 100.0 12 0.00017661000310909003
0.651414155960083 0.011256887577474117 -0.05699985474348068 100.0 5 0.00017891399329528213
0.6752607226371765 0.011551089584827423 0.13127659261226654 76.0 13 0.00018121799803338945
0.6370342969894409 0.010785975493490696 -0.0333903431892395 7.0 6 0.00018352200277149677
0.6741694808006287 0.011297040618956089 0.15566614270210266 44.0 14 0.00018582599295768887
0.6678045392036438 0.011190383695065975 -0.011658207513391972 45.0 7 0.0001881299976957962
3.6564927101135254 0.06063343212008476 0.9798889756202698 117.0 15 0.00019043400243390352
1.4583799839019775 0.022146075963974 -0.3908167779445648 0.0 0 0.00021117000142112374
0.667823076248169 0.010024898685514927 0.011658207513391972 78.0 8 0.00021347399160731584
1.4984164237976074 0.022230911999940872 -0.34597474336624146 1.0 1 0.00021577799634542316
0.6470407247543335 0.009599671699106693 0.03391370177268982 58.0 9 0.00021808200108353049
1.4369478225708008 0.021068114787340164 -0.279344379901886 2.0 2 0.00022038599126972258
0.6713647842407227 0.00972648337483406 0.05874297022819519 6.0 10 0.0002226899960078299
0.6458820700645447 0.00924424733966589 -0.10230815410614014 77.0 3 0.00022499400074593723
0.6550150513648987 0.009260625578463078 0.08043377101421356 100.0 11 0.00022729799093212932
0.6589863896369934 0.00920205656439066 -0.0809212476015091 7.0 4 0.00022960199567023665
0.6537860631942749 0.009129438549280167 0.10355963557958603 100.0 12 0.00023190600040834397
0.643480658531189 0.008872904814779758 -0.05630260705947876 100.0 5 0.0002342100051464513
0.6831492185592651 0.009300644509494305 0.1328030675649643 73.0 13 0.00023651400988455862
0.6430594325065613 0.008642904460430145 -0.03370435908436775 7.0 6 0.00023881798551883548
0.6781019568443298 0.008995198644697666 0.15656594932079315 44.0 14 0.0002411219902569428
0.6658399701118469 0.008832540363073349 -0.011623302474617958 100.0 7 0.00024342599499505013
3.6528186798095703 0.04781797528266907 0.9788536429405212 117.0 15 0.0002457300142850727
1.4275407791137695 0.01669410802423954 -0.38253456354141235 0.0 0 0.0002664659987203777
0.6378592252731323 0.00745932525023818 0.011134634725749493 84.0 8 0.000268770003458485
1.4828929901123047 0.01708258129656315 -0.3423755168914795 1.0 1 0.00027107400819659233
0.6530617475509644 0.007409130223095417 0.03422771766781807 48.0 9 0.00027337801293469965
1.3211877346038818 0.014758562669157982 -0.2568289339542389 7.0 2 0.000275682017672807
0.647487461566925 0.007119858171790838 0.05665123090147972 6.0 10 0.0002779860224109143
0.6380081176757812 0.00701562175527215 -0.10105667263269424 77.0 3 0.00028028999804519117
0.6590120792388916 0.0071315583772957325 0.0809212476015091 100.0 11 0.0002825940027832985
0.6709232330322266 0.007143351249396801 -0.08238368481397629 7.0 4 0.0002848980075214058
0.6715912818908691 0.007033243775367737 0.10637544840574265 100.0 12 0.00028720201225951314
0.6395230889320374 0.006585786119103432 -0.0559539832174778 100.0 5 0.00028950601699762046
0.67139732837677 0.006914026569575071 0.13051335513591766 72.0 13 0.0002918100217357278
0.645081639289856 0.006530435290187597 -0.033809032291173935 5.0 6 0.0002941140264738351
0.6761794090270996 0.00672723026946187 0.1561160385608673 40.0 14 0.000296418002108112
0.6718656420707703 0.006567046046257019 -0.011728017590939999 99.0 7 0.0002987220068462193
3.649099826812744 0.03503064811229706 0.9778183698654175 115.0 15 0.0003010260115843266
1.3657711744308472 0.011442499235272408 -0.3659701347351074 1.0 0 0.0003217620251234621
0.6418806910514832 0.0052653718739748 0.01120444480329752 50.0 8 0.00032406600075773895
1.451764702796936 0.011656193062663078 -0.33517709374427795 1.0 1 0.00032637000549584627
0.6610724329948425 0.005192359443753958 0.0346464067697525 29.0 9 0.0003286740102339536
1.2898184061050415 0.010130811482667923 -0.2507230341434479 28.0 2 0.0003309780149720609
0.6574691534042358 0.0050489935092628 0.057522788643836975 13.0 10 0.00033328201971016824
0.6340780854225159 0.00475899875164032 -0.1004309356212616 84.0 3 0.00033558602444827557
0.6510927677154541 0.004773064516484737 0.07994629442691803 100.0 11 0.00033789000008255243
0.6709440350532532 0.004801169969141483 -0.08238368481397629 5.0 4 0.00034019400482065976
0.6676611304283142 0.004661150276660919 0.1057497188448906 100.0 12 0.0003424980095587671
0.6435261368751526 0.004492656327784061 -0.05630260705947876 100.0 5 0.0003448020142968744
0.6616014242172241 0.00450369156897068 0.12860526144504547 74.0 13 0.00034710601903498173
0.6371116042137146 0.004225483629852533 -0.0333903431892395 5.0 6 0.00034941002377308905
0.6800961494445801 0.004391870927065611 0.1570158451795578 28.0 14 0.0003517139994073659
0.651887834072113 0.004096246790140867 -0.011378969065845013 95.0 7 0.00035401800414547324
3.6491997241973877 0.022291729226708412 0.9778183698654175 117.0 15 0.00035632200888358057
1.275006890296936 0.006230918224900961 -0.3416411578655243 8.0 0 0.000377058022422716
0.6438948512077332 0.0030346240382641554 0.011239349842071533 43.0 8 0.0003793619980569929
1.3718990087509155 0.006225562188774347 -0.31673112511634827 2.0 1 0.0003816660027951002
0.6590892672538757 0.002875863341614604 0.03454173356294632 23.0 9 0.00038397000753320754
1.2780663967132568 0.005576701834797859 -0.24843332171440125 54.0 2 0.00038627401227131486
0.6714293360710144 0.0028128463309258223 0.05874297022819519 44.0 10 0.0003885780170094222
0.6380415558815002 0.002561314729973674 -0.10105667263269424 73.0 3 0.0003908820217475295
0.6550756692886353 0.00251536862924695 0.08043377101421356 100.0 11 0.00039318602648563683
0.6590462327003479 0.0024159089662134647 -0.0809212476015091 7.0 4 0.0003954900021199137
0.6696487069129944 0.0023375856690108776 0.10606258362531662 100.0 12 0.000397794006858021
0.6594769954681396 0.002302078530192375 -0.057697102427482605 100.0 5 0.00040009801159612834
0.6753557920455933 0.002239641733467579 0.13127659261226654 76.0 13 0.00040240201633423567
0.6411169767379761 0.0020145128946751356 -0.03359968587756157 5.0 6 0.000404706021072343
0.6762098670005798 0.0020064441487193108 0.1561160385608673 22.0 14 0.0004070100258104503
0.651898205280304 0.001820534816943109 -0.011378969065845013 87.0 7 0.0004093140014447272
3.656982898712158 0.009572762995958328 0.9798889756202698 113.0 15 0.0004116180061828345
1.2537705898284912 0.0017508681630715728 -0.3359471559524536 24.0 0 0.00043235401972196996
0.643901526927948 0.0007868214743211865 0.011239349842071533 31.0 8 0.0004346580244600773
1.2471930980682373 0.0013057611649855971 -0.28793737292289734 8.0 1 0.00043696200009435415
0.6511062383651733 0.0005683598574250937 0.03412304446101189 23.0 9 0.0004392660048324615
1.2721883058547974 0.0011105112498626113 -0.24728846549987793 48.0 2 0.0004415700095705688
0.6614731550216675 0.0004619673709385097 0.057871412485837936 99.0 10 0.0004438740143086761
0.6597757935523987 0.00034532163408584893 -0.1044982373714447 81.0 3 0.00044617801904678345
0.6630207896232605 0.00023162420256994665 0.08140873163938522 100.0 11 0.00044848202378489077
0.6630208492279053 0.00011591221846174449 -0.08140873163938522 10.0 4 0.00045078599941916764
0.6696527600288391 -0.0 0.10606258362531662 100.0 12 0.00045309000415727496
0.6574885249137878 -0.0 -0.057522788643836975 100.0 5 0.0004553940088953823
0.6733962893486023 -0.00011752982391044497 0.1308949738740921 72.0 13 0.0004576980136334896
0.6491091847419739 -0.00022658186207991093 -0.034018374979496 5.0 6 0.00046000201837159693
0.6898539662361145 -0.0003612067084759474 0.15926535427570343 24.0 14 0.00046230602310970426
0.6519005298614502 -0.0004551124875433743 -0.011378969065845013 95.0 7 0.0004646099987439811
3.660857915878296 -0.003194701625034213 0.9809242486953735 113.0 15 0.00046691400348208845
1.2344505786895752 -0.0025854308623820543 -0.3307707607746124 34.0 0 0.00048764998791739345
0.6399009227752686 -0.0014518916141241789 0.01116954069584608 25.0 8 0.0004899540217593312
1.233548879623413 -0.003014134708791971 -0.2847880423069 30.0 1 0.0004922579973936081
0.649107038974762 -0.0016993619501590729 0.034018374979496 26.0 9 0.0004945620312355459
1.2191768884658813 -0.003191804513335228 -0.23698478937149048 40.0 2 0.0004968660068698227
0.6674479246139526 -0.0018638708861544728 0.05839434638619423 100.0 10 0.0004991700407117605
0.6637237071990967 -0.0019693137146532536 -0.10512397438287735 94.0 3 0.0005014740163460374
0.6769131422042847 -0.0021265922114253044 0.08311489969491959 48.0 11 0.0005037779919803143
0.6729426383972168 -0.002231570426374674 -0.08262742310762405 14.0 4 0.000506082025822252
0.6617472171783447 -0.0023099426180124283 0.10481110215187073 100.0 12 0.0005083860014565289
0.6435378789901733 -0.0022463800851255655 -0.05630260705947876 100.0 5 0.0005106900352984667
0.6792814135551453 -0.002489707665517926 0.13203983008861542 64.0 13 0.0005129940109327435
0.6371209025382996 -0.002446380676701665 -0.0333903431892395 5.0 6 0.0005152979865670204
0.6840023398399353 -0.0027457757387310266 0.1579156517982483 37.0 14 0.0005176020204089582
0.6498953104019165 -0.0027222910430282354 -0.011344064027071 97.0 7 0.0005199059960432351
3.6569604873657227 -0.01595660112798214 0.9798889756202698 115.0 15 0.0005222100298851728
1.2151157855987549 -0.006786557380110025 -0.32559436559677124 62.0 0 0.0005429459852166474
0.647890567779541 -0.003731622826308012 0.011309158988296986 21.0 8 0.0005452500190585852
1.2315821647644043 -0.0073084416799247265 -0.2843381464481354 52.0 1 0.000547553994692862
0.6490978598594666 -0.0038518693763762712 0.034018374979496 25.0 9 0.0005498580285347998
1.2132686376571655 -0.007411528378725052 -0.23583993315696716 55.0 2 0.0005521620041690767
0.6574755311012268 -0.004131094552576542 0.057522788643836975 100.0 10 0.0005544660380110145
0.651860773563385 -0.004209591541439295 -0.10324675589799881 94.0 3 0.0005567700136452913
0.6729315519332886 -0.004463116638362408 0.08262742310762405 20.0 11 0.0005590739892795682
0.6630054712295532 -0.004513004794716835 -0.08140873163938522 31.0 4 0.000561378023121506
0.6656865477561951 -0.004531254526227713 0.10543683916330338 78.0 12 0.0005636819987557828
0.6315720677375793 -0.004409275949001312 -0.055256739258766174 100.0 5 0.0005659860325977206
0.6694526076316833 -0.004790584556758404 0.13013173639774323 49.0 13 0.0005682900082319975
0.6490917801856995 -0.004758176393806934 -0.034018374979496 5.0 6 0.0005705939838662744
0.6917833089828491 -0.005191872827708721 0.15971526503562927 45.0 14 0.0005728980177082121
0.6598809957504272 -0.004952443763613701 -0.011518588289618492 100.0 7 0.000575201993342489
3.6530237197875977 -0.028053758665919304 0.9788536429405212 113.0 15 0.0005775060271844268
1.2228118181228638 -0.011098191142082214 -0.32766491174697876 81.0 0 0.0005982420407235622
0.6538735032081604 -0.005934529937803745 0.011413874104619026 12.0 8 0.0006005460163578391
1.2081671953201294 -0.011176160536706448 -0.27893930673599243 66.0 1 0.000602849991992116
0.6710492968559265 -0.006324677728116512 0.03516976535320282 32.0 9 0.0006051540258340538
1.2171616554260254 -0.011684272438287735 -0.23660315573215485 83.0 2 0.0006074580014683306
0.6614417433738708 -0.0064650340937078 0.057871412485837936 100.0 10 0.0006097620353102684
0.6459174156188965 -0.006313296500593424 -0.10230815410614014 100.0 3 0.0006120660109445453
0.6729130148887634 -0.0066946130245924 0.08262742310762405 13.0 11 0.0006143699865788221
0.6669568419456482 -0.0067517743445932865 -0.08189620822668076 68.0 4 0.0006166740204207599
0.6696172952651978 -0.006895588710904121 0.10606258362531662 55.0 12 0.0006189779960550368
0.6554602384567261 -0.0068642133846879005 -0.057348478585481644 100.0 5 0.0006212820298969746
0.6498016119003296 -0.00680495472624898 0.12631556391716003 51.0 13 0.0006235860055312514
0.6650496125221252 -0.007080723997205496 -0.03485574945807457 15.0 6 0.0006258900393731892
0.6976081728935242 -0.00754914153367281 0.1610649675130844 43.0 14 0.0006281940150074661
0.6658583283424377 -0.0073217893950641155 -0.011623302474617958 97.0 7 0.0006304979906417429
3.6567671298980713 -0.040848180651664734 0.9798889756202698 115.0 15 0.0006328020244836807
1.2169731855392456 -0.015081305056810379 -0.3261120319366455 78.0 0 0.0006535380380228162
0.6738441586494446 -0.008468220941722393 0.011762921698391438 8.0 8 0.000655842013657093
1.1944807767868042 -0.015219587832689285 -0.2757900059223175 74.0 1 0.0006581459892913699
0.6610376834869385 -0.008538064546883106 0.0346464067697525 38.0 9 0.0006604500231333077
1.2092639207839966 -0.015619038604199886 -0.23507671058177948 83.0 2 0.0006627539987675846
0.6733700037002563 -0.008814896456897259 0.05891728401184082 100.0 10 0.0006650580326095223
0.6478666067123413 -0.008594132028520107 -0.10262101888656616 94.0 3 0.0006673620082437992
0.672885537147522 -0.009043477475643158 0.08262742310762405 13.0 11 0.0006696659838780761
0.6431102752685547 -0.008755565620958805 -0.07897134125232697 90.0 4 0.0006719700177200139
0.6656386852264404 -0.00917847454547882 0.10543683916330338 53.0 12 0.0006742739933542907
0.6534416675567627 -0.009010289795696735 -0.057174164801836014 48.0 5 0.0006765780271962285
0.6674414277076721 -0.009319844655692577 0.1297501176595688 45.0 13 0.0006788820028305054
0.6550354957580566 -0.009260963648557663 -0.03433239087462425 27.0 6 0.0006811860366724432
0.680040717124939 -0.009733202867209911 0.1570158451795578 38.0 14 0.00068349001230672
0.6598303318023682 -0.009559123776853085 -0.011518588289618492 90.0 7 0.0006857939879409969
3.668191909790039 -0.05378235504031181 0.9829947352409363 113.0 15 0.0006880980217829347
1.2091867923736572 -0.019206520169973373 -0.3240414559841156 78.0 0 0.0007088340353220701
0.6698116064071655 -0.010756108909845352 0.011693112552165985 9.0 8 0.000711138010956347
1.1983174085617065 -0.019452271983027458 -0.2766897976398468 75.0 1 0.0007134419865906239
0.6590068340301514 -0.010812698863446712 0.03454173356294632 41.0 9 0.0007157460204325616
1.1954610347747803 -0.019614607095718384 -0.23240536451339722 90.0 2 0.0007180499960668385
0.6793114542961121 -0.011264443397521973 0.05944021791219711 100.0 10 0.0007203540299087763
0.6636334657669067 -0.011120324954390526 -0.10512397438287735 100.0 3 0.0007226580055430532
0.6887283325195312 -0.011661074124276638 0.08457732945680618 13.0 11 0.0007249620393849909
0.6490302681922913 -0.011102242395281792 -0.07970255613327026 93.0 4 0.0007272660150192678
0.6616524457931519 -0.011433670297265053 0.10481110215187073 53.0 12 0.0007295699906535447
0.6633666753768921 -0.011463292874395847 -0.05804572254419327 15.0 5 0.0007318740244954824
0.6791825294494629 -0.011855174787342548 0.13203983008861542 48.0 13 0.0007341780001297593
0.6689778566360474 -0.011793847195804119 -0.03506509214639664 61.0 6 0.0007364820339716971
0.6605182886123657 -0.011760024353861809 0.15251682698726654 24.0 14 0.000738786009605974
0.647796630859375 -0.011646623723208904 -0.011309158988296986 90.0 7 0.0007410899852402508
3.6718451976776123 -0.06665653735399246 0.9840300679206848 113.0 15 0.0007433940190821886
1.205249309539795 -0.023352399468421936 -0.32300618290901184 74.0 0 0.0007641300326213241
0.6797665953636169 -0.0132895577698946 0.011867635883390903 17.0 8 0.0007664340082556009
1.1982421875 -0.023635059595108032 -0.2766897976398468 77.0 1 0.0007687379838898778
0.6589673161506653 -0.012997984886169434 0.03454173356294632 46.0 9 0.0007710420177318156
1.1875338554382324 -0.023631185293197632 -0.23087888956069946 96.0 2 0.0007733459933660924
0.669308066368103 -0.01343567855656147 0.05856866016983986 100.0 10 0.0007756500272080302
0.6635906100273132 -0.01343677006661892 -0.10512397438287735 100.0 3 0.0007779540028423071
0.6807447075843811 -0.013902978971600533 0.08360237628221512 13.0 11 0.0007802580366842449
0.6489875316619873 -0.013367712497711182 -0.07970255613327026 91.0 4 0.0007825620123185217
0.6537111401557922 -0.01346500776708126 0.10355963557958603 53.0 12 0.0007848659879527986
0.6334432363510132 -0.013158137910068035 -0.055431053042411804 12.0 5 0.0007871700217947364
0.6693229079246521 -0.014020315371453762 0.13013173639774323 49.0 13 0.0007894739974290133
0.6829103231430054 -0.014424173161387444 -0.03579779714345932 100.0 6 0.000791778031270951
0.6643698215484619 -0.014148576185107231 0.15341663360595703 16.0 14 0.0007940820069052279
0.6357590556144714 -0.013539274223148823 -0.011099730618298054 47.0 7 0.0007963860407471657
3.667740821838379 -0.07874950766563416 0.9829947352409363 115.0 15 0.0007986900163814425
1.19550359249115 -0.027338536456227303 -0.32041797041893005 72.0 0 0.000819426029920578
0.669722855091095 -0.015315087512135506 0.011693112552165985 27.0 8 0.0008217300055548549
1.2020537853240967 -0.027698228135704994 -0.2775896191596985 80.0 1 0.0008240340393967927
0.6609147191047668 -0.015344489365816116 0.0346464067697525 47.0 9 0.0008263380150310695
1.1854814291000366 -0.027730394154787064 -0.23049728572368622 89.0 2 0.0008286419906653464
0.6652734279632568 -0.01567803882062435 0.0582200363278389 100.0 10 0.0008309460245072842
0.6615675091743469 -0.015590704046189785 -0.10481110215187073 100.0 3 0.000833250000141561
0.6886330246925354 -0.016348792240023613 0.08457732945680618 13.0 11 0.0008355540339834988
0.6568778157234192 -0.015709606930613518 -0.08067751675844193 95.0 4 0.0008378580096177757
0.655634880065918 -0.015794377774000168 0.10387250036001205 48.0 12 0.0008401619852520525
0.6572950482368469 -0.015949156135320663 -0.057522788643836975 11.0 5 0.0008424660190939903
0.6790860891342163 -0.016477912664413452 0.13203983008861542 64.0 13 0.0008447699947282672
0.6688820719718933 -0.0163471270352602 -0.03506509214639664 100.0 6 0.000847074028570205
3.6878483295440674 -0.0907730981707573 0.8516647815704346 18.0 14 0.0008493780042044818
0.6497014760971069 -0.0161052867770195 -0.011344064027071 12.0 7 0.0008516820380464196
3.6597189903259277 -0.09135899692773819 0.9809242486953735 115.0 15 0.0008539860136806965
1.195406436920166 -0.03130282089114189 -0.32041797041893005 64.0 0 0.0008747220272198319
0.6536733508110046 -0.017231205478310585 0.011413874104619026 54.0 8 0.0008770260028541088
1.1902613639831543 -0.03158385679125786 -0.2748901844024658 84.0 1 0.0008793300366960466
0.6708398461341858 -0.0179180558770895 0.03516976535320282 49.0 9 0.0008816340123303235
1.1853829622268677 -0.031661439687013626 -0.23049728572368622 89.0 2 0.0008839379879646003
0.6672093868255615 -0.017937621101737022 0.05839434638619423 100.0 10 0.0008862420218065381
0.6516358256340027 -0.017632747069001198 -0.10324675589799881 100.0 3 0.000888545997440815
0.6766656041145325 -0.018428219482302666 0.08311489969491959 13.0 11 0.0008908500312827528
0.6607875823974609 -0.01811121590435505 -0.08116498589515686 88.0 4 0.0008931540069170296
0.6575503349304199 -0.018137337639927864 0.10418536514043808 44.0 12 0.0008954580407589674
0.6313442587852478 -0.01752476580440998 -0.055256739258766174 8.0 5 0.0008977620163932443
0.6535120010375977 -0.018140094354748726 0.12707878649234772 51.0 13 0.0009000659920275211
0.6608350872993469 -0.018458794802427292 -0.0346464067697525 100.0 6 0.0009023700258694589
3.6894569396972656 -0.10370030254125595 0.8521146178245544 45.0 14 0.0009046740015037358
0.6336500644683838 -0.017920808866620064 -0.01106482557952404 7.0 7 0.0009069780353456736
3.6671016216278076 -0.10435304790735245 0.9829947352409363 115.0 15 0.0009092820109799504
1.199145793914795 -0.035799287259578705 -0.3214532732963562 69.0 0 0.0009300180245190859
0.6656020283699036 -0.019870877265930176 0.011623302474617958 100.0 8 0.0009323220001533628
1.1881959438323975 -0.03567995876073837 -0.27444028854370117 85.0 1 0.0009346260339953005
0.656798779964447 -0.01983754150569439 0.034437064081430435 35.0 9 0.0009369300096295774
1.1872212886810303 -0.036065489053726196 -0.23087888956069946 91.0 2 0.0009392339852638543
0.6790879964828491 -0.020748015493154526 0.05944021791219711 81.0 10 0.000941538019105792
0.6555156707763672 -0.0201423317193985 -0.10387250036001205 100.0 3 0.0009438419947400689
0.6805654764175415 -0.0209120474755764 0.08360237628221512 13.0 11 0.0009461460285820067
0.6527838110923767 -0.020172428339719772 -0.08019004017114639 86.0 4 0.0009484500042162836
0.6752528548240662 -0.02098473720252514 0.10700118541717529 46.0 12 0.0009507540380582213
0.6392449140548706 -0.019977401942014694 -0.0559539832174778 7.0 5 0.0009530580136924982
0.6593279838562012 -0.020720215514302254 0.12822365760803223 45.0 13 0.0009553619893267751
0.6587666869163513 -0.020817667245864868 -0.03454173356294632 100.0 6 0.0009576660231687129
3.6851563453674316 -0.1170983538031578 0.8512148261070251 67.0 14 0.0009599699988029897
0.6435771584510803 -0.020450102165341377 -0.011239349842071533 5.0 7 0.0009622740326449275
3.674438714981079 -0.11739975214004517 0.9850653409957886 115.0 15 0.0009645780082792044
1.1893595457077026 -0.039662931114435196 -0.3188650906085968 74.0 0 0.000985313905403018
0.6495361924171448 -0.02177431620657444 0.011344064027071 100.0 8 0.0009876179974526167
1.1880571842193604 -0.04003467410802841 -0.27444028854370117 87.0 1 0.0009899219730868936
0.6527332663536072 -0.02199554443359375 0.03422771766781807 18.0 9 0.0009922259487211704
1.1792396306991577 -0.039943594485521317 -0.2293524146080017 91.0 2 0.0009945299243554473
0.6650727391242981 -0.02264377661049366 0.0582200363278389 58.0 10 0.0009968338999897242
0.659389853477478 -0.022565508261322975 -0.1044982373714447 100.0 3 0.0009991379920393229
0.6785002946853638 -0.023338062688708305 0.08335863798856735 34.0 11 0.0010014419676735997
0.652709424495697 -0.022450946271419525 -0.08019004017114639 80.0 4 0.0010037459433078766
0.6850464940071106 -0.023682935163378716 0.10856552422046661 62.0 12 0.0010060499189421535
0.6331977248191833 -0.022001104429364204 -0.055431053042411804 12.0 5 0.0010083540109917521
0.6612136960029602 -0.023090090602636337 0.12860526144504547 37.0 13 0.001010657986626029
0.668670117855072 -0.023467324674129486 -0.03506509214639664 100.0 6 0.0010129619622603059
3.676957845687866 -0.12904474139213562 0.8494152426719666 88.0 14 0.0010152659378945827
0.6355080008506775 -0.022414537146687508 -0.011099730618298054 5.0 7 0.0010175699135288596
3.681729316711426 -0.1304989457130432 0.9871358871459961 111.0 15 0.0010198740055784583
1.177638053894043 -0.043182022869586945 -0.31575924158096313 81.0 0 0.001040609902702272
0.6594521403312683 -0.024296263232827187 0.011518588289618492 100.0 8 0.0010429139947518706
1.1918128728866577 -0.04411837458610535 -0.27534011006355286 87.0 1 0.0010452179703861475
0.6646320819854736 -0.024603264406323433 0.03485574945807457 13.0 9 0.0010475219460204244
1.1712530851364136 -0.04356200248003006 -0.22782593965530396 80.0 2 0.0010498259216547012
0.6729580163955688 -0.02514670602977276 0.05891728401184082 51.0 10 0.001052129897288978
0.6612853407859802 -0.024826107546687126 -0.10481110215187073 94.0 3 0.0010544339893385768
0.6804028749465942 -0.02566274255514145 0.08360237628221512 60.0 11 0.0010567379649728537
0.6645333766937256 -0.025064194574952126 -0.08165246248245239 71.0 4 0.0010590419406071305
0.6671985983848572 -0.025281330570578575 0.1057497188448906 82.0 12 0.0010613459162414074
0.6390941143035889 -0.024328108876943588 -0.0559539832174778 7.0 5 0.001063650008291006
0.6650571227073669 -0.02543267421424389 0.12936849892139435 28.0 13 0.001065953983925283
0.6705844402313232 -0.025761255994439125 -0.03516976535320282 100.0 6 0.0010682579595595598
3.682351589202881 -0.14146167039871216 0.8507649302482605 94.0 14 0.0010705619351938367
0.6314337253570557 -0.02436760999262333 -0.011029920540750027 5.0 7 0.0010728659108281136
3.6735546588897705 -0.14240795373916626 0.9850653409957886 113.0 15 0.0010751700028777122
1.1736278533935547 -0.04693260043859482 -0.3147239685058594 85.0 0 0.0010959059000015259
0.6393870711326599 -0.025680437684059143 0.01116954069584608 100.0 8 0.0010982099920511246
1.1955541372299194 -0.04822741448879242 -0.27623990178108215 92.0 1 0.0011005139676854014
0.658555269241333 -0.026680564507842064 0.03454173356294632 8.0 9 0.0011028179433196783
1.167170524597168 -0.04749053716659546 -0.22706271708011627 68.0 2 0.0011051219189539552
0.6649079322814941 -0.02705417573451996 0.0582200363278389 58.0 10 0.0011074260110035539
0.6513307690620422 -0.026615608483552933 -0.10324675589799881 81.0 3 0.0011097299866378307
0.6723803877830505 -0.02759331464767456 0.08262742310762405 100.0 11 0.0011120339622721076
0.6485746502876282 -0.026729756966233253 -0.07970255613327026 73.0 4 0.0011143379379063845
0.6789483428001404 -0.028100252151489258 0.10762692242860794 78.0 12 0.0011166419135406613
0.644977331161499 -0.02680702693760395 -0.05647691711783409 11.0 5 0.00111894600559026
3.6916306018829346 -0.15407972037792206 0.7182050943374634 6.0 13 0.001121249981224537
0.6844590306282043 -0.028687328100204468 -0.0359024703502655 100.0 6 0.0011235539568588138
3.685729503631592 -0.1544778198003769 0.8516647815704346 88.0 14 0.0011258579324930906
0.6413345336914062 -0.026992009952664375 -0.01120444480329752 5.0 7 0.0011281619081273675
3.669174909591675 -0.15506704151630402 0.9840300679206848 113.0 15 0.0011304660001769662
1.1773078441619873 -0.05140237137675285 -0.31575924158096313 87.0 0 0.0011512018973007798
0.6392886638641357 -0.028023736551404 0.01116954069584608 100.0 8 0.0011535059893503785
1.1875818967819214 -0.05226628854870796 -0.27444028854370117 85.0 1 0.0011558099649846554
0.6644389629364014 -0.029358603060245514 0.03485574945807457 7.0 9 0.0011581139406189322
1.155220866203308 -0.05124608799815178 -0.22477301955223083 73.0 2 0.0011604179162532091
0.6648043394088745 -0.02949100360274315 0.0582200363278389 58.0 10 0.0011627220083028078
0.6472820043563843 -0.028826899826526642 -0.10262101888656616 64.0 3 0.0011650259839370847
0.6583929061889648 -0.0294368676841259 0.0809212476015091 100.0 11 0.0011673299595713615
0.6623539924621582 -0.029729804024100304 -0.08140873163938522 47.0 4 0.0011696339352056384
0.6768674850463867 -0.030499616637825966 0.10731405764818192 66.0 12 0.0011719379108399153
0.6488555073738098 -0.029350873082876205 -0.05682554095983505 11.0 5 0.001174242002889514
3.6655452251434326 -0.16645142436027527 0.7132440805435181 16.0 13 0.0011765459785237908
0.6604070067405701 -0.03010440617799759 -0.0346464067697525 100.0 6 0.0011788499541580677
3.6968185901641846 -0.1685180962085724 0.8543641567230225 94.0 14 0.0011811539297923446
0.6412312388420105 -0.029342439025640488 -0.01120444480329752 7.0 7 0.0011834579054266214
3.6763010025024414 -0.168868750333786 0.9861006140708923 113.0 15 0.0011857619974762201
1.1848304271697998 -0.05608244240283966 -0.31782978773117065 89.0 0 0.0012064980110153556
0.6471713185310364 -0.03074623830616474 0.011309158988296986 100.0 8 0.0012088019866496325
1.187382459640503 -0.056618642061948776 -0.27444028854370117 79.0 1 0.0012111059622839093
0.6663219332695007 -0.0318891741335392 0.03496042266488075 6.0 9 0.0012134099379181862
1.1491421461105347 -0.05519725754857063 -0.22362814843654633 70.0 2 0.001215713913552463
0.6746422052383423 -0.032405391335487366 0.05909159407019615 70.0 10 0.0012180180056020617
0.6471719741821289 -0.03119911625981331 -0.10262101888656616 43.0 3 0.0012203219812363386
0.6543150544166565 -0.03165793791413307 0.08043377101421356 100.0 11 0.0012226259568706155
0.6543095111846924 -0.03177213296294212 -0.08043377101421356 39.0 4 0.0012249299325048923
0.6767510771751404 -0.03298025578260422 0.10731405764818192 50.0 12 0.0012272339081391692
0.6746136546134949 -0.032994113862514496 -0.05909159407019615 29.0 5 0.001229538000188768
3.670793294906616 -0.18017396330833435 0.714388906955719 31.0 13 0.0012318419758230448
0.6563025712966919 -0.03232819214463234 -0.034437064081430435 100.0 6 0.0012341459514573216
3.6844980716705322 -0.18149124085903168 0.8516647815704346 94.0 14 0.0012364499270915985
0.6511056423187256 -0.0321861207485199 -0.011378969065845013 7.0 7 0.0012387539027258754
3.683375358581543 -0.18272481858730316 0.9881711006164551 113.0 15 0.001241057994775474
1.1884756088256836 -0.06062150001525879 -0.3188650906085968 90.0 0 0.0012617940083146095
0.6570398211479187 -0.03362911567091942 0.011483684182167053 100.0 8 0.0012640979839488864
1.1852208375930786 -0.06087028235197067 -0.2739903926849365 75.0 1 0.0012664019595831633
0.6582220792770386 -0.03392000123858452 0.03454173356294632 6.0 9 0.0012687059352174401
1.150892734527588 -0.05951007828116417 -0.22400976717472076 73.0 2 0.001271009910851717
0.6824778318405151 -0.03528939560055733 0.059788838028907776 91.0 10 0.0012733140029013157
0.6450806260108948 -0.03346855938434601 -0.10230815410614014 33.0 3 0.0012756179785355926
0.6581594347953796 -0.03426230698823929 0.0809212476015091 100.0 11 0.0012779219541698694
0.6581534147262573 -0.03437717631459236 -0.0809212476015091 33.0 4 0.0012802259298041463
3.682974100112915 -0.19301651418209076 0.584126353263855 31.0 12 0.0012825299054384232
0.656581461429596 -0.034524884074926376 -0.057522788643836975 56.0 5 0.0012848339974880219
3.675989866256714 -0.19393716752529144 0.7155337929725647 52.0 13 0.0012871379731222987
