# .PCD v0.7 - Point Cloud Data file format
VERSION 0.7
FIELDS x y z intensity ring time
SIZE 4 4 4 4 4 4
TYPE F F F F F F
COUNT 1 1 1 1 1 1
WIDTH 541
HEIGHT 1
VIEWPOINT 0 0 0 1 0 0 0
POINTS 541
DATA ascii
-3.044154167175293 0.28614896535873413 0.7058964967727661 2.0 14 -0.014663923531770706
-2.438835620880127 0.22967873513698578 -0.04275839403271675 15.0 7 -0.014661619439721107
-2.7077062129974365 0.2588142156600952 -0.7288345098495483 9.0 0 -0.01463857851922512
-2.587766170501709 0.24780623614788055 0.045376256108284 87.0 8 -0.014636275358498096
-2.7118875980377197 0.2601698338985443 -0.6289632320404053 11.0 1 -0.014633971266448498
-3.0417892932891846 0.292354553937912 0.1601480394601822 3.0 9 -0.014631667174398899
-2.702726125717163 0.25976628065109253 -0.5277776718139648 10.0 2 -0.0146293630823493
-2.6555275917053223 0.2556982934474945 0.23340308666229248 1.0 10 -0.014627058990299702
-2.685896873474121 0.25909560918807983 -0.4273790121078491 11.0 3 -0.014624754898250103
-2.6812334060668945 0.25959035754203796 -0.3307534456253052 11.0 4 -0.014620146714150906
-3.051464557647705 0.2959727644920349 0.4855726361274719 1.0 12 -0.014617843553423882
-2.65336537361145 0.25735965371131897 -0.23322875797748566 12.0 5 -0.014615539461374283
-2.4510345458984375 0.23859846591949463 -0.12906047701835632 26.0 6 -0.014610931277275085
-2.4638919830322266 0.24071826040744781 -0.0432121567428112 19.0 7 -0.014606323093175888
-9.678694725036621 0.9472980499267578 2.605790376663208 0.0 15 -0.01460401900112629
-2.664492607116699 0.2640727460384369 -0.7174463868141174 9.0 0 -0.01455783937126398
-2.652787685394287 0.2638477683067322 -0.6154661178588867 10.0 1 -0.014553231187164783
-3.0328004360198975 0.3021793067455292 0.15972934663295746 3.0 9 -0.014550927095115185
-2.652963399887085 0.26433345675468445 -0.5182372331619263 11.0 2 -0.014548623003065586
-2.6070377826690674 0.2602171003818512 0.22921960055828094 1.0 10 -0.014546318911015987
-2.635836601257324 0.2635555863380432 -0.4195573031902313 13.0 3 -0.014544015750288963
-2.6289563179016113 0.26379507780075073 -0.32441622018814087 11.0 4 -0.014539407566189766
-2.6187500953674316 0.26323196291923523 -0.23026546835899353 10.0 5 -0.014534799382090569
-2.4581356048583984 0.2479545772075653 -0.12947916984558105 24.0 6 -0.014530191197991371
-2.51277494430542 0.2543521523475647 -0.04408477619290352 26.0 7 -0.014525583013892174
-9.656107902526855 0.9791285395622253 2.600613832473755 0.0 15 -0.014523278921842575
-2.6174325942993164 0.2686389684677124 -0.7050231099128723 9.0 0 -0.014502543024718761
-2.963923454284668 0.3047228753566742 0.05200817435979843 6.0 8 -0.014500238932669163
-2.6130807399749756 0.2691134214401245 -0.6064680814743042 11.0 1 -0.014497935771942139
-3.0217936038970947 0.3117392361164093 0.15920598804950714 2.0 9 -0.01449563167989254
-2.591484785079956 0.2673470079898834 -0.5064070820808411 12.0 2 -0.014493327587842941
-2.590258836746216 0.26767680048942566 0.2278251051902771 1.0 10 -0.014491023495793343
-2.5956029891967773 0.2686868906021118 -0.41329991817474365 12.0 3 -0.014488719403743744
-2.5865554809570312 0.26866286993026733 -0.3192977011203766 13.0 4 -0.014484111219644547
-2.5861079692840576 0.2690732181072235 -0.22747649252414703 11.0 5 -0.014479503035545349
-9.195159912109375 0.95833820104599 1.7970391511917114 1.0 13 -0.01447719894349575
-2.4711601734161377 0.2579847276210785 -0.13021187484264374 26.0 6 -0.014474895782768726
-9.758691787719727 1.0205140113830566 2.2652573585510254 1.0 14 -0.014472591690719128
-2.5556256771087646 0.26770517230033875 -0.04485268518328667 18.0 7 -0.014470287598669529
-9.602677345275879 1.007585048675537 2.587155342102051 0.0 15 -0.01446798350661993
-2.581899881362915 0.2741023004055023 -0.6957056522369385 9.0 0 -0.014447247609496117
-2.769958257675171 0.29455602169036865 0.04862240329384804 6.0 8 -0.014444943517446518
-2.5694944858551025 0.27369293570518494 -0.5965702533721924 10.0 1 -0.01444263942539692
-3.0246591567993164 0.32270851731300354 0.1594153493642807 2.0 9 -0.01444033533334732
-2.5534448623657227 0.27243345975875854 -0.4991563558578491 12.0 2 -0.014438031241297722
-2.5378000736236572 0.27121222019195557 0.2232930064201355 1.0 10 -0.014435727149248123
-2.557330369949341 0.27375146746635437 -0.407355397939682 12.0 3 -0.014433423057198524
-2.5441534519195557 0.27323853969573975 -0.3141791820526123 11.0 4 -0.014428815804421902
-2.5356292724609375 0.27277129888534546 -0.22311870753765106 12.0 5 -0.014424207620322704
-2.4603161811828613 0.2655376195907593 -0.12968851625919342 28.0 6 -0.014419599436223507
-9.755069732666016 1.054572343826294 2.2652573585510254 1.0 14 -0.014417295344173908
-2.516902446746826 0.2725336253643036 -0.04418949410319328 17.0 7 -0.01441499125212431
-9.645195960998535 1.0461004972457886 2.599578619003296 0.0 15 -0.01441268716007471
-2.5233170986175537 0.2767936885356903 -0.6801764369010925 9.0 0 -0.014391951262950897
-2.6397104263305664 0.2900276482105255 0.04635359346866608 3.0 8 -0.014389647170901299
-2.533656597137451 0.2788229286670685 -0.5884720087051392 11.0 1 -0.0143873430788517
-3.0175583362579346 0.3326081931591034 0.15910132229328156 2.0 9 -0.014385038986802101
-2.5134494304656982 0.2770431339740753 -0.49152401089668274 11.0 2 -0.014382735826075077
-2.489309072494507 0.2748226225376129 0.21910953521728516 1.0 10 -0.014380431734025478
-2.5112006664276123 0.27768248319625854 -0.40015941858291626 12.0 3 -0.01437812764197588
-25.43233299255371 2.8167386054992676 3.141791820526123 2.0 11 -0.014375823549926281
-2.4958324432373047 0.27686554193496704 -0.3083294630050659 12.0 4 -0.014373519457876682
-2.4831762313842773 0.2758996784687042 -0.21858659386634827 12.0 5 -0.014368911273777485
-2.4514341354370117 0.27323976159095764 -0.1292698234319687 23.0 6 -0.014364303089678288
-9.75132942199707 1.0886154174804688 2.2652573585510254 1.0 14 -0.014361998997628689
-2.4821512699127197 0.2775401175022125 -0.04359611123800278 16.0 7 -0.014359695836901665
-9.633806228637695 1.0789023637771606 2.597507953643799 0.0 15 -0.014357391744852066
-2.499300718307495 0.282991886138916 -0.67396479845047 9.0 0 -0.014336654916405678
-2.5909950733184814 0.29383230209350586 0.04551587626338005 6.0 8 -0.014334351755678654
-2.486196994781494 0.2823871374130249 -0.5776743292808533 11.0 1 -0.014332047663629055
-3.014394521713257 0.34291374683380127 0.15899664163589478 2.0 9 -0.014329743571579456
-2.4676015377044678 0.28071126341819763 -0.48274680972099304 12.0 2 -0.014327439479529858
-2.417069911956787 0.2753901183605194 0.21283432841300964 1.0 10 -0.014325135387480259
-2.4572250843048096 0.2803996801376343 -0.391711950302124 13.0 3 -0.01432283129543066
-2.4771006107330322 0.2835436165332794 -0.30613580346107483 12.0 4 -0.014318223111331463
-2.446568489074707 0.2804813086986542 -0.2154489904642105 13.0 5 -0.014313614927232265
-2.4266552925109863 0.2790566086769104 -0.1280137598514557 19.0 6 -0.014309007674455643
-2.4513697624206543 0.2827662229537964 -0.04307254031300545 17.0 7 -0.014304399490356445
-9.629981994628906 1.112522006034851 2.597507953643799 0.0 15 -0.014302095398306847
-2.4560835361480713 0.28678470849990845 -0.6625767946243286 9.0 0 -0.014281359501183033
-2.518451690673828 0.2945132553577423 0.04425930231809616 1.0 8 -0.014279055409133434
-2.446485757827759 0.2865302264690399 -0.5686762928962708 11.0 1 -0.014276751317083836
-2.418081521987915 0.2836313247680664 0.12759508192539215 1.0 9 -0.014274447225034237
-2.4315085411071777 0.28520628809928894 -0.47587767243385315 12.0 2 -0.014272143132984638
-2.3804757595062256 0.2796415090560913 0.2096967101097107 1.0 10 -0.01426983904093504
-2.4248416423797607 0.28528234362602234 -0.38670605421066284 13.0 3 -0.01426753494888544
-2.4248390197753906 0.28614017367362976 -0.2997986078262329 12.0 4 -0.014262927696108818
-2.4218311309814453 0.28621378540992737 -0.21335725486278534 13.0 5 -0.01425831951200962
-2.4038491249084473 0.2849394679069519 -0.12686236202716827 18.0 6 -0.014253711327910423
-2.404696226119995 0.285891056060791 -0.04226972907781601 14.0 7 -0.014249103143811226
-9.6528959274292 1.1493279933929443 2.60475492477417 0.0 15 -0.014246799051761627
-2.4205431938171387 0.29120349884033203 -0.6532593369483948 10.0 0 -0.014226063154637814
-2.3486547470092773 0.2829708158969879 0.04129239544272423 9.0 8 -0.014223759062588215
-2.4106459617614746 0.29086586833000183 -0.5605780482292175 12.0 1 -0.014221454970538616
-2.361607074737549 0.2849488854408264 0.12466426193714142 25.0 9 -0.014219151809811592
-2.3895676136016846 0.28874626755714417 -0.46786367893218994 15.0 2 -0.014216847717761993
-2.363661289215088 0.28603440523147583 0.20830221474170685 12.0 10 -0.014214543625712395
-2.396376609802246 0.2904171645641327 -0.3823258578777313 17.0 3 -0.014212239533662796
-2.374560832977295 0.2886148989200592 -0.29370513558387756 24.0 4 -0.014207631349563599
-2.38521671295166 0.29033252596855164 -0.21021965146064758 28.0 5 -0.014203023165464401
-2.37904953956604 0.29042455554008484 -0.12560631334781647 56.0 6 -0.014198414981365204
-9.739395141601562 1.190670371055603 2.2652573585510254 1.0 14 -0.01419611182063818
-2.3660216331481934 0.28925323486328125 -0.041606537997722626 54.0 7 -0.014193807728588581
-9.62985610961914 1.1789846420288086 2.599578619003296 0.0 15 -0.014191503636538982
-2.4137604236602783 0.2989387512207031 -0.6517063975334167 30.0 0 -0.014170767739415169
-2.35762619972229 0.2919866442680359 0.04146691784262657 74.0 8 -0.01416846364736557
-2.4077341556549072 0.29861849546432495 -0.5601281523704529 39.0 1 -0.014166159555315971
-2.360597848892212 0.2931913137435913 0.12466426193714142 82.0 9 -0.014163855463266373
-2.390493631362915 0.29732805490493774 -0.46824532747268677 54.0 2 -0.014161551371216774
-2.350785970687866 0.2928052842617035 0.20725634694099426 79.0 10 -0.014159247279167175
-2.3895199298858643 0.29762986302375793 -0.38138729333877563 50.0 3 -0.014156943187117577
-2.3814697265625 0.29747194051742554 -0.294680118560791 64.0 4 -0.01415233500301838
-2.3703503608703613 0.29692327976226807 -0.20899945497512817 72.0 5 -0.014147727750241756
-2.3899636268615723 0.29980385303497314 -0.12623433768749237 92.0 6 -0.014143119566142559
-2.3550772666931152 0.29626256227493286 -0.041432011872529984 96.0 7 -0.014138511382043362
-9.706183433532715 1.2227333784103394 2.62131929397583 0.0 15 -0.014136207289993763
-2.410839319229126 0.30669769644737244 -0.6511887311935425 32.0 0 -0.01411547139286995
-2.3526253700256348 0.29970863461494446 0.041397109627723694 83.0 8 -0.01411316730082035
-2.431807279586792 0.3102271556854248 -0.5659768581390381 48.0 1 -0.014110863208770752
-2.3615410327911377 0.3016826808452606 0.124768927693367 62.0 9 -0.014108559116721153
-2.412863254547119 0.30823904275894165 -0.47282472252845764 58.0 2 -0.014106255024671555
-2.3418970108032227 0.29958802461624146 0.20655910670757294 70.0 10 -0.014103950932621956
-2.4178569316864014 0.3097347021102905 -0.3860803246498108 65.0 3 -0.014101647771894932
-2.411919593811035 0.3098292648792267 -0.2985799014568329 67.0 4 -0.014097039587795734
-2.3692994117736816 0.3051955997943878 -0.20899945497512817 64.0 5 -0.014092431403696537
-2.3770174980163574 0.30661097168922424 -0.12560631334781647 62.0 6 -0.01408782321959734
-9.731064796447754 1.25693678855896 2.2652573585510254 1.0 14 -0.014085519127547741
-2.359978437423706 0.3052511215209961 -0.04153672605752945 61.0 7 -0.014083215035498142
-9.70952033996582 1.2575973272323608 2.623389959335327 0.0 15 -0.014080910943448544
-2.561023712158203 0.3353460431098938 -0.6920821070671082 63.0 0 -0.01406017504632473
-2.970188856124878 0.3889230191707611 0.05228740721940994 41.0 8 -0.014057870954275131
-2.556302547454834 0.3351822793483734 -0.5952205061912537 74.0 1 -0.014055567793548107
-3.053565740585327 0.40092477202415466 0.1614041030406952 31.0 9 -0.014053263701498508
-2.5596518516540527 0.3365296423435211 -0.5018276572227478 89.0 2 -0.01405095960944891
-2.5479204654693604 0.335891991853714 -0.407042533159256 86.0 3 -0.014046351425349712
-2.5505526065826416 0.33669188618659973 -0.31588536500930786 54.0 4 -0.014041743241250515
-2.6783201694488525 0.3545093536376953 -0.2363663762807846 12.0 5 -0.014037135057151318
-2.389737129211426 0.31716111302375793 -0.12633900344371796 21.0 6 -0.014032527804374695
-9.72639274597168 1.2925924062728882 2.2652573585510254 1.0 14 -0.014030223712325096
-2.991241693496704 0.39752212166786194 -0.05267136171460152 72.0 7 -0.014027919620275497
-9.697410583496094 1.2904653549194336 2.62131929397583 0.0 15 -0.014025615528225899
-2.5808980464935303 0.34711626172065735 -0.6977761387825012 70.0 0 -0.014004879631102085
-3.022252321243286 0.4070129096508026 0.05322984233498573 45.0 8 -0.014002575539052486
-2.55698823928833 0.3448092043399811 -0.5956704616546631 72.0 1 -0.014000271447002888
-3.044158458709717 0.41104570031166077 0.16098542511463165 31.0 9 -0.013997967354953289
-2.5662436485290527 0.34651392698287964 -0.5033541321754456 86.0 2 -0.01399566326290369
-2.9734835624694824 0.4020302891731262 0.26251310110092163 5.0 10 -0.013993359170854092
-2.5428173542022705 0.34425389766693115 -0.40641677379608154 75.0 3 -0.013991055078804493
-2.543400526046753 0.34523695707321167 -0.31515416502952576 63.0 4 -0.01398644782602787
-2.761958599090576 0.3753945827484131 -0.24386176466941833 10.0 5 -0.013981839641928673
-2.392573595046997 0.32603979110717773 -0.12654836475849152 21.0 6 -0.013977231457829475
-9.721821784973145 1.3265362977981567 2.2652573585510254 1.0 14 -0.013974927365779877
-3.0036332607269287 0.41037851572036743 -0.05291569605469704 72.0 7 -0.013972623273730278
-9.6773042678833 1.3239049911499023 2.617178201675415 0.0 15 -0.01397031918168068
-2.5873255729675293 0.35717999935150146 -0.6998467445373535 73.0 0 -0.013949583284556866
-3.032698154449463 0.4192029535770416 0.053439266979694366 45.0 8 -0.013947279192507267
-2.557699203491211 0.35399988293647766 -0.596120297908783 64.0 1 -0.013944975100457668
-3.040727138519287 0.4213944673538208 0.16088074445724487 34.0 9 -0.01394267100840807
-2.5630741119384766 0.3551996946334839 -0.5029725432395935 82.0 2 -0.013940367847681046
-3.00166392326355 0.41651493310928345 0.2651277482509613 4.0 10 -0.013938063755631447
-2.570948600769043 0.3572056293487549 -0.4111098051071167 82.0 3 -0.013935759663581848
-2.542180061340332 0.35411304235458374 -0.31515416502952576 63.0 4 -0.01393115147948265
-2.764577865600586 0.3855844736099243 -0.2442103773355484 9.0 5 -0.013926543295383453
-2.3993330001831055 0.33549582958221436 -0.12696704268455505 22.0 6 -0.013921935111284256
-9.717131614685059 1.3604662418365479 2.2652573585510254 1.0 14 -0.013919631019234657
-3.0021824836730957 0.42086073756217957 -0.05291569605469704 72.0 7 -0.013917326927185059
-9.684102058410645 1.3592861890792847 2.620284080505371 0.0 15 -0.013915023766458035
-2.5764992237091064 0.36485499143600464 -0.6972585916519165 74.0 0 -0.013894286938011646
-3.037155866622925 0.43062877655029297 0.05354398116469383 40.0 8 -0.013891983777284622
-3.04121470451355 0.43228718638420105 0.16098542511463165 31.0 9 -0.013887375593185425
-2.5598747730255127 0.3638680875301361 -0.5025908946990967 86.0 2 -0.013885071501135826
-2.9883570671081543 0.42530587315559387 0.2640818953514099 4.0 10 -0.013882767409086227
-2.555996894836426 0.3642270863056183 -0.40891972184181213 75.0 3 -0.013880463317036629
-2.5527191162109375 0.36466920375823975 -0.31661656498908997 73.0 4 -0.013875855132937431
-9.77346420288086 1.397933006286621 1.5637190341949463 0.0 12 -0.013873551040887833
-2.7553257942199707 0.3941039741039276 -0.24351313710212708 10.0 5 -0.013871246948838234
-9.781264305114746 1.400788426399231 1.92068350315094 1.0 13 -0.01386894378811121
-2.394193172454834 0.3433021306991577 -0.1267576962709427 19.0 6 -0.013866639696061611
-2.9927778244018555 0.4301990270614624 -0.05277607962489128 72.0 7 -0.013862031511962414
-9.709891319274902 1.3974874019622803 2.628566265106201 0.0 15 -0.013859727419912815
-2.5713863372802734 0.3732914328575134 -0.696223258972168 72.0 0 -0.013838991522789001
-3.023761034011841 0.43950140476226807 0.0533345565199852 32.0 8 -0.013836687430739403
-3.0515453815460205 0.4446282684803009 0.16161344945430756 33.0 9 -0.013832079246640205
-2.558588981628418 0.3728015720844269 -0.5025908946990967 75.0 2 -0.013829775154590607
-2.9671390056610107 0.43285855650901794 0.262338787317276 4.0 10 -0.013827471062541008
-2.568392276763916 0.3751455545425415 -0.4111098051071167 82.0 3 -0.01382516697049141
-2.5592873096466064 0.3747286796569824 -0.3175915479660034 71.0 4 -0.013820559717714787
-9.768525123596191 1.4320381879806519 1.5637190341949463 0.0 12 -0.013818255625665188
-2.749990701675415 0.4031408727169037 -0.243164524435997 10.0 5 -0.01381595153361559
-2.4048361778259277 0.35340026021003723 -0.1273857206106186 21.0 6 -0.013811343349516392
-3.001149892807007 0.4421004056930542 -0.052950602024793625 74.0 7 -0.013806735165417194
-9.743178367614746 1.4370105266571045 2.638918876647949 0.0 15 -0.013804431073367596
-2.5738894939422607 0.3828328847885132 -0.6972585916519165 69.0 0 -0.013783695176243782
-3.0123190879821777 0.448581725358963 0.05316003039479256 33.0 8 -0.013781391084194183
-3.055901288986206 0.4561614394187927 0.1619274616241455 30.0 9 -0.013776782900094986
-2.5650391578674316 0.3828893005847931 -0.5041174292564392 75.0 2 -0.013774479739367962
-2.979403257369995 0.44527468085289 0.263558954000473 6.0 10 -0.013772175647318363
-2.5494847297668457 0.38147780299186707 -0.4082939922809601 75.0 3 -0.013769871555268764
-2.5638530254364014 0.3845427632331848 -0.3183227777481079 69.0 4 -0.013765263371169567
-9.763466835021973 1.4661282300949097 1.5637190341949463 0.0 12 -0.013762959279119968
-2.752507448196411 0.41332948207855225 -0.24351313710212708 9.0 5 -0.01376065518707037
-2.385812997817993 0.3591165244579315 -0.12644368410110474 18.0 6 -0.013756047002971172
-3.0055203437805176 0.45346948504447937 -0.05305531620979309 72.0 7 -0.01375143975019455
-9.738102912902832 1.4710098505020142 2.638918876647949 0.0 15 -0.01374913565814495
-2.580176591873169 0.3929786682128906 -0.6993290781974792 35.0 0 -0.013728399761021137
-3.0206191539764404 0.46060124039649963 0.0533345565199852 31.0 8 -0.013726095668971539
-3.0582387447357178 0.467430055141449 0.16213680803775787 29.0 9 -0.013721487484872341
-2.989647626876831 0.45748037099838257 0.2646048367023468 5.0 10 -0.013716879300773144
-2.5696163177490234 0.3936648368835449 -0.41173556447029114 82.0 3 -0.013714575208723545
-2.552684783935547 0.3919835686683655 -0.3171040713787079 73.0 4 -0.013709967024624348
-2.7510478496551514 0.4229350984096527 -0.24351313710212708 9.0 5 -0.013705359771847725
-2.384544849395752 0.36744242906570435 -0.12644368410110474 18.0 6 -0.013700751587748528
-3.0177528858184814 0.4660939574241638 -0.05329965054988861 74.0 7 -0.01369614340364933
-9.732908248901367 1.5049934387207031 2.638918876647949 0.0 15 -0.013693839311599731
-3.0249199867248535 0.4720667004585266 0.053439266979694366 28.0 8 -0.013670799322426319
-2.4702656269073486 0.38594940304756165 -0.5772244930267334 1.0 1 -0.01366849523037672
-3.044832468032837 0.47571852803230286 0.16150878369808197 28.0 9 -0.013666191138327122
-2.486656427383423 0.38895541429519653 -0.4892342984676361 1.0 2 -0.013663887046277523
-2.9860644340515137 0.46760454773902893 0.26443052291870117 4.0 10 -0.013661582954227924
-2.5526139736175537 0.4001845419406891 -0.40923261642456055 68.0 3 -0.0136592797935009
-2.5494096279144287 0.40013864636421204 -0.3168603181838989 69.0 4 -0.013654671609401703
-2.7416818141937256 0.43129706382751465 -0.24281588196754456 9.0 5 -0.013650063425302505
-2.3891665935516357 0.3766970932483673 -0.1267576962709427 20.0 6 -0.013645455241203308
-3.006314754486084 0.4745398461818695 -0.05312512442469597 72.0 7 -0.01364084705710411
-2.4438953399658203 0.38926175236701965 -0.6630944013595581 1.0 0 -0.013617807067930698
-3.0312371253967285 0.4833548367023468 0.05357888713479042 26.0 8 -0.0136155029758811
-2.4997620582580566 0.39905425906181335 -0.5844228863716125 1.0 1 -0.013613199815154076
-3.0550715923309326 0.4877021312713623 0.16213680803775787 27.0 9 -0.013610895723104477
-2.512493848800659 0.4015370011329651 -0.49457693099975586 1.0 2 -0.013608591631054878
-2.9963014125823975 0.4793928265571594 0.26547640562057495 3.0 10 -0.01360628753900528
-2.559828996658325 0.41047653555870056 -0.3183227777481079 67.0 4 -0.013599375262856483
-2.740236759185791 0.4403859078884125 -0.24281588196754456 9.0 5 -0.013594767078757286
-2.391847848892212 0.38525307178497314 -0.12696704268455505 16.0 6 -0.013590158894658089
-2.9968278408050537 0.4832325875759125 -0.05298550799489021 65.0 7 -0.013585551641881466
-9.722713470458984 1.5695117712020874 2.638918876647949 0.0 15 -0.013583247549831867
-3.0217227935791016 0.4921184480190277 0.053439266979694366 25.0 8 -0.013560207560658455
-2.4407248497009277 0.3979342579841614 -0.5709258317947388 2.0 1 -0.013557903468608856
-3.0612354278564453 0.49965038895606995 0.1625555008649826 27.0 9 -0.013555599376559258
-2.5110769271850586 0.41030487418174744 -0.49457693099975586 1.0 2 -0.013553295284509659
-2.9986276626586914 0.4899696707725525 0.2658250033855438 4.0 10 -0.01355099119246006
-2.4641270637512207 0.4030742943286896 -0.3954663872718811 1.0 3 -0.013548687100410461
-2.562298536300659 0.42005184292793274 -0.31881022453308105 67.0 4 -0.013544078916311264
-2.734750747680664 0.44930312037467957 -0.2424672693014145 9.0 5 -0.013539471663534641
-2.406254291534424 0.3961952030658722 -0.12780441343784332 19.0 6 -0.013534863479435444
-3.0030148029327393 0.494992196559906 -0.05312512442469597 65.0 7 -0.013530255295336246
-2.460174798965454 0.4094851315021515 -0.6682707667350769 1.0 0 -0.013507215306162834
-3.013981342315674 0.5022043585777283 0.0533345565199852 23.0 8 -0.013504911214113235
-2.466160297393799 0.41136670112609863 -0.5772244930267334 1.0 1 -0.013502607122063637
-3.0692331790924072 0.5125118494033813 0.16307885944843292 25.0 9 -0.013500303030014038
-2.435973644256592 0.40720483660697937 -0.4800754487514496 1.0 2 -0.01349799893796444
-2.9850211143493652 0.49898529052734375 0.26477915048599243 4.0 10 -0.013495695777237415
-2.4236674308776855 0.40558308362960815 -0.38920900225639343 1.0 3 -0.013493391685187817
-2.568572521209717 0.4307529926300049 -0.3197851777076721 67.0 4 -0.01348878350108862
-2.729156017303467 0.4586624801158905 -0.24211864173412323 9.0 5 -0.013484175316989422
-2.3850908279418945 0.40169546008110046 -0.1267576962709427 17.0 6 -0.013479567132890224
-3.009068012237549 0.5073246359825134 -0.05326474457979202 67.0 7 -0.013474959880113602
-2.439612865447998 0.41525718569755554 -0.6630944013595581 1.0 0 -0.013451918959617615
-3.012120485305786 0.5132478475570679 0.0533345565199852 22.0 8 -0.013449614867568016
-2.4146902561187744 0.4118828773498535 -0.5655270218849182 1.0 1 -0.013447311706840992
-3.063488006591797 0.5225507616996765 0.16286951303482056 24.0 9 -0.013445007614791393
-2.985136032104492 0.5102583169937134 0.26495346426963806 3.0 10 -0.013440399430692196
-2.5195186138153076 0.43112146854400635 -0.40485242009162903 1.0 3 -0.013438095338642597
-2.5553138256073 0.4377061724662781 -0.3183227777481079 64.0 4 -0.0134334871545434
-2.741283893585205 0.4705457389354706 -0.24333882331848145 9.0 5 -0.013428878970444202
-2.391547441482544 0.4113723337650299 -0.12717638909816742 15.0 6 -0.01342427171766758
-3.0151615142822266 0.519182562828064 -0.05340436473488808 67.0 7 -0.013419663533568382
-3.024193048477173 0.5256307125091553 0.05357888713479042 20.0 8 -0.013394319452345371
-2.3672335147857666 0.41187113523483276 -0.5547293424606323 2.0 1 -0.013392015360295773
-3.0538673400878906 0.5313374400138855 0.16245082020759583 22.0 9 -0.013389711268246174
-2.40993595123291 0.41973361372947693 -0.4754960536956787 1.0 2 -0.013387407176196575
-2.9912784099578857 0.5215235352516174 0.2656506896018982 3.0 10 -0.013385103084146976
-2.615373134613037 0.4564554691314697 -0.4204958975315094 1.0 3 -0.013382798992097378
-2.5538485050201416 0.44617700576782227 -0.3183227777481079 66.0 4 -0.013378191739320755
-2.731858491897583 0.478259414434433 -0.24264158308506012 8.0 5 -0.013373583555221558
-2.3980391025543213 0.42068126797676086 -0.12759508192539215 20.0 6 -0.01336897537112236
-2.99963641166687 0.5267574191093445 -0.05316003039479256 58.0 7 -0.013364367187023163
-3.024402141571045 0.536005437374115 0.05361378937959671 19.0 8 -0.013339023105800152
-2.3927178382873535 0.4244846701622009 -0.561028003692627 1.0 1 -0.013336719013750553
-3.0638880729675293 0.5435549020767212 0.16307885944843292 21.0 9 -0.013334415853023529
-2.9993410110473633 0.5331838130950928 0.26652225852012634 4.0 10 -0.013329807668924332
-2.5640807151794434 0.4567321836948395 -0.3197851777076721 61.0 4 -0.013322895392775536
-2.714566230773926 0.48451536893844604 -0.24124708771705627 8.0 5 -0.013318287208676338
-2.410393238067627 0.4310925602912903 -0.12832777202129364 18.0 6 -0.01331367902457714
-2.993936061859131 0.5359969139099121 -0.05309021845459938 56.0 7 -0.013309071771800518
-2.397338390350342 0.4326447546482086 -0.6527416706085205 1.0 0 -0.013286031782627106
-3.0147368907928467 0.5446092486381531 0.053474172949790955 12.0 8 -0.013283727690577507
-2.460331916809082 0.4449005424976349 -0.5772244930267334 1.0 1 -0.013281423598527908
-3.0640339851379395 0.5540676712989807 0.1631835252046585 22.0 9 -0.01327911950647831
-2.430281400680542 0.4399045705795288 -0.4800754487514496 1.0 2 -0.013276815414428711
-2.995596170425415 0.5427712202072144 0.2663479447364807 3.0 10 -0.013274511322379112
-2.5703647136688232 0.46665096282958984 -0.32076016068458557 60.0 4 -0.013267599046230316
-3.5955560207366943 0.6534231901168823 0.5788075923919678 1.0 12 -0.013265294954180717
-2.716864824295044 0.4942277669906616 -0.24159571528434753 8.0 5 -0.013262990862131119
-3.592578887939453 0.6541776061058044 0.7098095417022705 1.0 13 -0.013260687701404095
-2.4109153747558594 0.43944162130355835 -0.12843245267868042 20.0 6 -0.013258383609354496
-3.5218114852905273 0.6419264674186707 0.8264702558517456 1.0 14 -0.013256079517304897
-2.998044013977051 0.5469991564750671 -0.053194932639598846 47.0 7 -0.013253775425255299
-3.525275230407715 0.6438292860984802 0.9602187275886536 2.0 15 -0.0132514713332057
-3.0046606063842773 0.5552539229393005 0.0533345565199852 13.0 8 -0.013233741745352745
-2.458526134490967 0.45477333664894104 -0.5772244930267334 1.0 1 -0.013231437653303146
-3.0873165130615234 0.5710857510566711 0.1645442545413971 22.0 9 -0.013229133561253548
-2.4053306579589844 0.4453669488430023 -0.4754960536956787 1.0 2 -0.013226829469203949
-2.9933931827545166 0.554792582988739 0.2663479447364807 3.0 10 -0.01322452537715435
-3.4389405250549316 0.6386107802391052 0.4294675886631012 1.0 11 -0.013219918124377728
-2.580181121826172 0.4791392982006073 -0.3222225606441498 58.0 4 -0.013217614032328129
-3.5152194499969482 0.6534112691879272 0.5662928223609924 2.0 12 -0.01321530994027853
-2.712900400161743 0.504765510559082 -0.2414214164018631 8.0 5 -0.013213005848228931
-3.4934206008911133 0.6506208181381226 0.6907286047935486 2.0 13 -0.013210701756179333
-2.4150218963623047 0.45021411776542664 -0.12874646484851837 23.0 6 -0.013208397664129734
-3.5000486373901367 0.6524873971939087 0.8219712376594543 1.0 14 -0.013206093572080135
-3.513167142868042 0.6562018990516663 0.9576305150985718 4.0 15 -0.013201485387980938
-2.4434654712677 0.4594890773296356 -0.6662002205848694 1.0 0 -0.013180749490857124
-3.002803087234497 0.5652140974998474 0.0533345565199852 11.0 8 -0.013178445398807526
-2.4570045471191406 0.46292370557785034 -0.5772244930267334 1.0 1 -0.013176142238080502
-3.0697038173675537 0.578362226486206 0.16370689868927002 20.0 9 -0.013173838146030903
-2.4038405418395996 0.45334094762802124 -0.4754960536956787 1.0 2 -0.013171534053981304
-3.0032832622528076 0.5669335722923279 0.2673937976360321 5.0 10 -0.013169229961931705
-3.532378911972046 0.6680876612663269 0.4414108097553253 2.0 11 -0.013164621777832508
-2.5512709617614746 0.4825282692909241 -0.31881022453308105 51.0 4 -0.01316231768578291
-3.4431610107421875 0.6518369317054749 0.5550295114517212 2.0 12 -0.01316001359373331
-2.7170841693878174 0.5148720145225525 -0.2419443279504776 8.0 5 -0.013157709501683712
-3.238562822341919 0.6142739057540894 0.6407366394996643 3.0 13 -0.013155405409634113
-2.4056670665740967 0.45673009753227234 -0.12832777202129364 23.0 6 -0.01315310224890709
-3.206855535507202 0.6088404655456543 0.7535860538482666 1.0 14 -0.01315079815685749
-3.055494785308838 0.5812079906463623 0.833397388458252 11.0 15 -0.013146189972758293
-2.3925962448120117 0.4581432342529297 -0.6527416706085205 1.0 0 -0.01312545407563448
-3.0166237354278564 0.5781800746917725 0.05361378937959671 11.0 8 -0.01312314998358488
-2.455455780029297 0.47106894850730896 -0.5772244930267334 1.0 1 -0.013120845891535282
-3.071589231491089 0.5898266434669495 0.1639162302017212 20.0 9 -0.013118541799485683
-2.4023239612579346 0.4613099694252014 -0.4754960536956787 1.0 2 -0.013116237707436085
-3.0150833129882812 0.5795215964317322 0.2686139941215515 6.0 10 -0.013113933615386486
-3.0603678226470947 0.5893334150314331 0.3826697766780853 6.0 11 -0.013109325431287289
-2.55346941947937 0.4921824038028717 -0.3192977011203766 51.0 4 -0.013107022270560265
-3.0587615966796875 0.5901321172714233 0.4933943450450897 20.0 12 -0.013104718178510666
-2.717226982116699 0.5247304439544678 -0.24211864173412323 8.0 5 -0.013102414086461067
-3.051454544067383 0.589273989200592 0.604101300239563 25.0 13 -0.013100109994411469
-2.4080610275268555 0.46546322107315063 -0.128537118434906 23.0 6 -0.01309780590236187
-3.047823429107666 0.589677095413208 0.7166941165924072 32.0 14 -0.013095501810312271
-3.023102045059204 0.5859889984130859 0.8251151442527771 29.0 15 -0.013090893626213074
-2.3909010887145996 0.46691009402275085 -0.6527416706085205 1.0 0 -0.01307015772908926
-3.0126242637634277 0.5883241295814514 0.05357888713479042 10.0 8 -0.013067853637039661
-3.0773518085479736 0.602078914642334 0.16433492302894592 21.0 9 -0.013063245452940464
-3.0618185997009277 0.6001495122909546 0.2729717791080475 31.0 10 -0.013058638200163841
-3.062187671661377 0.6007769107818604 0.38315722346305847 36.0 11 -0.013054030016064644
-2.555631399154663 0.5018584132194519 -0.3197851777076721 50.0 4 -0.013051725924015045
-3.0528066158294678 0.6000430583953857 0.49276861548423767 48.0 12 -0.013049421831965446
-2.7036490440368652 0.5319045782089233 -0.24107277393341064 7.0 5 -0.013047117739915848
-3.0550529956817627 0.6015929579734802 0.6052461862564087 47.0 13 -0.013044813647866249
-2.4239752292633057 0.4777616262435913 -0.12947916984558105 29.0 6 -0.01304250955581665
-3.055201292037964 0.6027292013168335 0.7189435958862305 42.0 14 -0.013040205463767052
-2.672083854675293 0.5271479487419128 -0.04754035547375679 1.0 7 -0.013037901371717453
-3.0229332447052 0.5969122648239136 0.8256327509880066 35.0 15 -0.013035598210990429
-2.389256715774536 0.47525250911712646 -0.6527416706085205 1.0 0 -0.01301486138254404
-3.0026028156280518 0.5977994203567505 0.053439266979694366 10.0 8 -0.013012558221817017
-2.452022075653076 0.4886271357536316 -0.5772244930267334 1.0 1 -0.013010254129767418
-3.0829596519470215 0.6149167418479919 0.16475361585617065 21.0 9 -0.01300795003771782
-2.3989615440368652 0.4784887433052063 -0.4754960536956787 1.0 2 -0.01300564594566822
-3.046027898788452 0.6081032156944275 0.2717515826225281 29.0 10 -0.013003341853618622
-3.0716445446014404 0.6143322587013245 0.38461968302726746 52.0 11 -0.012998733669519424
-2.573239803314209 0.5151178240776062 -0.3222225606441498 47.0 4 -0.012996429577469826
-3.042839288711548 0.6096765995025635 0.49151715636253357 32.0 12 -0.012994125485420227
-2.697868585586548 0.5405567288398743 -0.24072414636611938 7.0 5 -0.012991821393370628
-3.0336849689483643 0.6083924174308777 0.6014299988746643 32.0 13 -0.012989518232643604
-2.4183762073516846 0.4854338765144348 -0.1292698234319687 23.0 6 -0.012987214140594006
-3.030151844024658 0.6087847948074341 0.7135447859764099 27.0 14 -0.012984910048544407
-2.70150089263916 0.5432457327842712 -0.04809883236885071 23.0 7 -0.012982605956494808
-2.9979989528656006 0.6034130454063416 0.819421112537384 36.0 15 -0.01298030186444521
-2.9985382556915283 0.607879638671875 0.05340436473488808 9.0 8 -0.012957261875271797
-2.4503016471862793 0.4971834123134613 -0.5772244930267334 1.0 1 -0.012954957783222198
-3.0925378799438477 0.6280596256256104 0.16538164019584656 19.0 9 -0.0129526536911726
-2.3972764015197754 0.48685985803604126 -0.4754960536956787 1.0 2 -0.012950349599123001
-3.0419342517852783 0.6183353662490845 0.27157729864120483 30.0 10 -0.012948045507073402
-3.034468412399292 0.6179207563400269 0.38023239374160767 46.0 11 -0.01294343825429678
-2.5753164291381836 0.5248899459838867 -0.3227100670337677 46.0 4 -0.012941134162247181
-3.0368218421936035 0.6195040345191956 0.4908914268016815 41.0 12 -0.012938830070197582
-2.6979176998138428 0.5503684282302856 -0.2408984750509262 7.0 5 -0.012936525978147984
-3.018078088760376 0.6162290573120117 0.5987586975097656 45.0 13 -0.012934221886098385
-2.404926061630249 0.491473913192749 -0.12864179909229279 25.0 6 -0.012931917794048786
-3.0241899490356445 0.6185766458511353 0.7126449942588806 30.0 14 -0.012929613701999187
-2.6956698894500732 0.5518703460693359 -0.04802902415394783 7.0 7 -0.012927309609949589
-3.0129072666168213 0.617365300655365 0.8240798711776733 32.0 15 -0.01292500551789999
-3.0022737979888916 0.6195545792579651 0.05350907891988754 9.0 8 -0.012901965528726578
-2.3989312648773193 0.4954848885536194 -0.5655270218849182 1.0 1 -0.012899661436676979
-3.086526393890381 0.6375035047531128 0.1651722937822342 21.0 9 -0.012897358275949955
-3.0456104278564453 0.6301611065864563 0.2721002399921417 36.0 10 -0.012892750091850758
-3.0342369079589844 0.6289122700691223 0.38047611713409424 40.0 11 -0.01288814190775156
-2.5734684467315674 0.533876359462738 -0.3227100670337677 44.0 4 -0.012885837815701962
-3.0618293285369873 0.6351887583732605 0.49527156352996826 36.0 12 -0.012883533723652363
-2.6998815536499023 0.560592770576477 -0.24124708771705627 7.0 5 -0.012881229631602764
-3.058196544647217 0.6355486512184143 0.6071542501449585 42.0 13 -0.012878925539553165
-2.403195858001709 0.49986574053764343 -0.12864179909229279 24.0 6 -0.012876621447503567
-3.067800283432007 0.6386615633964539 0.7234426140785217 38.0 14 -0.012874318286776543
-3.0562329292297363 0.6368100047111511 0.8365032076835632 37.0 15 -0.012869710102677345
-3.0158591270446777 0.6327922940254211 0.05378831923007965 9.0 8 -0.012846670113503933
-3.0803730487823486 0.6474520564079285 0.16496294736862183 21.0 9 -0.012842061929404736
-3.0804355144500732 0.6485880017280579 0.2754121422767639 30.0 10 -0.012837453745305538
-3.094292163848877 0.6520695090293884 0.38827574253082275 53.0 11 -0.01283284556120634
-2.5716841220855713 0.5424067974090576 -0.3227100670337677 45.0 4 -0.012830541469156742
-3.09631609916687 0.6536248922348022 0.5012161135673523 48.0 12 -0.012828238308429718
-2.7018067836761475 0.5708374381065369 -0.24159571528434753 7.0 5 -0.01282593421638012
-3.086805820465088 0.652180016040802 0.6132601499557495 46.0 13 -0.01282363012433052
-2.4034788608551025 0.5082455277442932 -0.12874646484851837 23.0 6 -0.012821326032280922
-3.099982738494873 0.6560944318771362 0.731540858745575 51.0 14 -0.012819021940231323
-3.0653305053710938 0.6498791575431824 0.8396090269088745 38.0 15 -0.012814413756132126
-3.013631582260132 0.6433165669441223 0.05378831923007965 9.0 8 -0.012791373766958714
-3.089812755584717 0.6607058048248291 0.16559097170829773 20.0 9 -0.012786765582859516
-3.0958023071289062 0.6625522971153259 0.2769809365272522 34.0 10 -0.012782157398760319
-3.1133482456207275 0.6674432158470154 0.3909568786621094 55.0 11 -0.012777550145983696
-2.577538251876831 0.5530468225479126 -0.3236849904060364 44.0 4 -0.012775246053934097
-3.0998098850250244 0.6656734347343445 0.5021546483039856 45.0 12 -0.012772941961884499
-2.688211441040039 0.5772840976715088 -0.24054984748363495 7.0 5 -0.0127706378698349
-3.0998661518096924 0.6662506461143494 0.616313099861145 45.0 13 -0.012768333777785301
-2.405595541000366 0.5174717307090759 -0.12895581126213074 23.0 6 -0.012766029685735703
-3.082432985305786 0.6636302471160889 0.727941632270813 38.0 14 -0.012763725593686104
-3.05171275138855 0.6581310033798218 0.8365032076835632 38.0 15 -0.012759117409586906
-3.009413719177246 0.6534079909324646 0.05375341325998306 8.0 8 -0.012736077420413494
-3.0933425426483154 0.6727606654167175 0.16590499877929688 22.0 9 -0.012731470167636871
-3.093470811843872 0.6733547449111938 0.2769809365272522 36.0 10 -0.012726861983537674
-3.110999345779419 0.6783075928688049 0.3909568786621094 55.0 11 -0.012722253799438477
-2.5833497047424316 0.563733696937561 -0.32465994358062744 42.0 4 -0.012719949707388878
-3.089747905731201 0.6748030781745911 0.5009031891822815 41.0 12 -0.01271764561533928
-2.6725542545318604 0.5836876630783081 -0.23932965099811554 7.0 5 -0.01271534152328968
-3.0860135555267334 0.6745525598526001 0.6140233874320984 36.0 13 -0.012713037431240082
-2.4135303497314453 0.5279999375343323 -0.12947916984558105 23.0 6 -0.012710734270513058
-3.0781941413879395 0.673968493938446 0.7274917960166931 36.0 14 -0.012708430178463459
-3.0229787826538086 0.6629856824874878 0.8292562961578369 40.0 15 -0.012703821994364262
-2.265681505203247 0.4998011291027069 -0.6216834187507629 1.0 0 -0.012683086097240448
-3.003209114074707 0.6630458831787109 0.053683605045080185 8.0 8 -0.01268078200519085
-3.098775863647461 0.6852802634239197 0.1663236916065216 22.0 9 -0.012676173821091652
-3.0813748836517334 0.6819954514503479 0.27610939741134644 37.0 10 -0.012671565636992455
-3.069851875305176 0.6805698871612549 0.38608211278915405 48.0 11 -0.012666957452893257
-2.5774905681610107 0.5718873143196106 -0.3241724669933319 39.0 4 -0.012664653360843658
-3.0623042583465576 0.6800174117088318 0.4968359172344208 40.0 12 -0.012662350200116634
-2.67234206199646 0.5939121842384338 -0.23950397968292236 5.0 5 -0.012660046108067036
-3.049143075942993 0.677653968334198 0.6071542501449585 37.0 13 -0.012657742016017437
-2.411672353744507 0.5364215970039368 -0.12947916984558105 24.0 6 -0.012655437923967838
-3.06060528755188 0.6813225150108337 0.7238925695419312 41.0 14 -0.01265313383191824
-3.030073881149292 0.6756360530853271 0.8318444490432739 41.0 15 -0.012648525647819042
-2.2487549781799316 0.5047168731689453 -0.6175422668457031 2.0 0 -0.012627789750695229
-3.008681058883667 0.6752768158912659 0.05382322147488594 8.0 8 -0.01262548565864563
-3.0905191898345947 0.6947780251502991 0.16600966453552246 24.0 9 -0.012620877474546432
-3.0730233192443848 0.6919724345207214 0.27558645606040955 34.0 10 -0.01261627022176981
-3.0519654750823975 0.6877896189689636 0.3841322064399719 50.0 11 -0.012611662037670612
-2.5735421180725098 0.5804442763328552 -0.32392874360084534 40.0 4 -0.012609357945621014
-3.0714733600616455 0.6933132410049438 0.4987131357192993 37.0 12 -0.012607053853571415
-2.666365623474121 0.6023587584495544 -0.2391553521156311 5.0 5 -0.012604749761521816
-3.0600433349609375 0.6918550133705139 0.6098255515098572 38.0 13 -0.012602445669472218
-2.4057939052581787 0.5443755984306335 -0.1292698234319687 20.0 6 -0.012600141577422619
-3.0466837882995605 0.6899531483650208 0.7211931347846985 36.0 14 -0.01259783748537302
-3.029581069946289 0.6866351962089539 0.8323620557785034 46.0 15 -0.012593230232596397
-2.2658140659332275 0.5168598890304565 -0.6227186322212219 1.0 0 -0.01257249340415001
-3.017882823944092 0.6889700889587402 0.05403264984488487 8.0 8 -0.012570190243422985
-3.080286741256714 0.7037822604179382 0.16559097170829773 25.0 9 -0.012565582059323788
-3.0744736194610596 0.703583300113678 0.2759350836277008 34.0 10 -0.01256097387522459
-2.587899923324585 0.5927078723907471 -0.4204958975315094 1.0 3 -0.012558669783174992
-3.059098720550537 0.7011885643005371 0.38535091280937195 51.0 11 -0.012556365691125393
-2.561723232269287 0.5876543521881104 -0.3227100670337677 39.0 4 -0.012554061599075794
-3.0594074726104736 0.7018221616744995 0.4971488118171692 41.0 12 -0.012551757507026196
-2.6836655139923096 0.6161200404167175 -0.2408984750509262 5.0 5 -0.012549453414976597
-3.059523105621338 0.7029728293418884 0.610207200050354 45.0 13 -0.012547150254249573
-2.4136111736297607 0.5550081133842468 -0.129793182015419 8.0 6 -0.012544846162199974
-3.0594499111175537 0.7040796279907227 0.7247923612594604 53.0 14 -0.012542542070150375
-2.626924514770508 0.6045414209365845 -0.04705168679356575 1.0 7 -0.012540237978100777
-3.038461208343506 0.6998085975646973 0.8354679346084595 53.0 15 -0.012537933886051178
-3.0272700786590576 0.7016833424568176 0.054242078214883804 8.0 8 -0.012514893896877766
-3.087538957595825 0.7167885899543762 0.16611434519290924 28.0 9 -0.012510285712778568
-3.0700581073760986 0.7138597369194031 0.2757607400417328 41.0 10 -0.012505677528679371
-2.593616247177124 0.6030759811401367 -0.4217473566532135 21.0 3 -0.012503373436629772
-3.062556743621826 0.7126789689064026 0.38608211278915405 58.0 11 -0.012501070275902748
-2.5752270221710205 0.5997481942176819 -0.32465994358062744 34.0 4 -0.01249876618385315
-3.0530917644500732 0.7115998268127441 0.49652308225631714 47.0 12 -0.01249646209180355
-2.6698567867279053 0.6227685213088989 -0.23985259234905243 4.0 5 -0.012494157999753952
-3.0648229122161865 0.7148979902267456 0.6117336750030518 45.0 13 -0.012491853907704353
-2.437041997909546 0.5689114928245544 -0.1311539113521576 24.0 6 -0.012489549815654755
-3.0438146591186523 0.7111179828643799 0.7216430306434631 51.0 14 -0.012487245723605156
-3.0247135162353516 0.7077696323394775 0.8323620557785034 53.0 15 -0.012482637539505959
-2.250960350036621 0.529615581035614 -0.6196128129959106 1.0 0 -0.012461901642382145
-3.020909070968628 0.7113295793533325 0.054172269999980927 8.0 8 -0.012459597550332546
-3.0927939414978027 0.7293949127197266 0.16653302311897278 28.0 9 -0.012454990297555923
-3.063795804977417 0.7231212854385376 0.2754121422767639 40.0 10 -0.012450382113456726
-2.5914952754974365 0.612125813961029 -0.4217473566532135 33.0 3 -0.012448078021407127
-3.071641206741333 0.7261057496070862 0.38754454255104065 55.0 11 -0.012445773929357529
-2.5847086906433105 0.6114752888679504 -0.3261224031448364 34.0 4 -0.01244346983730793
-3.064044713973999 0.7254385948181152 0.4987131357192993 48.0 12 -0.012441165745258331
-2.650327682495117 0.6274875998497009 -0.23828379809856415 1.0 5 -0.012438861653208733
-3.058487892150879 0.724687397480011 0.6109704375267029 42.0 13 -0.012436557561159134
-2.440871477127075 0.5787968635559082 -0.13146793842315674 31.0 6 -0.012434253469109535
-3.0507941246032715 0.7239884734153748 0.7238925695419312 50.0 14 -0.012431949377059937
-3.018465757369995 0.717429518699646 0.8313267827033997 56.0 15 -0.012427342124283314
-2.220913887023926 0.5307350754737854 -0.6118482351303101 3.0 0 -0.0124066062271595
-3.0184078216552734 0.7218703031539917 0.054172269999980927 8.0 8 -0.012404302135109901
-3.094113349914551 0.7411175966262817 0.16674236953258514 28.0 9 -0.012399693951010704
-3.069002866744995 0.7356694340705872 0.27610939741134644 37.0 10 -0.012395085766911507
-2.5720551013946533 0.6170202493667603 -0.4189315736293793 13.0 3 -0.012392781674861908
-3.0690879821777344 0.7368226647377014 0.38754454255104065 56.0 11 -0.01239047758281231
-2.6095809936523438 0.6269865036010742 -0.32953473925590515 8.0 4 -0.01238817349076271
-3.0749380588531494 0.7393624186515808 0.5009031891822815 50.0 12 -0.012385869398713112
-2.665555715560913 0.640927255153656 -0.23985259234905243 3.0 5 -0.012383566237986088
-3.0521223545074463 0.7344398498535156 0.610207200050354 45.0 13 -0.012381262145936489
-2.421360731124878 0.583105206489563 -0.1305258870124817 27.0 6 -0.01237895805388689
-3.057720899581909 0.7369169592857361 0.7261420488357544 51.0 14 -0.012376653961837292
-3.0234549045562744 0.7297748327255249 0.833397388458252 56.0 15 -0.012372045777738094
-2.2284345626831055 0.5407622456550598 -0.6144364476203918 1.0 0 -0.01235130988061428
-3.0158698558807373 0.7324014902114868 0.054172269999980927 8.0 8 -0.012349005788564682
-2.497683048248291 0.6070218682289124 -0.5934209227561951 1.0 1 -0.012346701696515083
-3.0876262187957764 0.750969648361206 0.16653302311897278 31.0 9 -0.012344397604465485
-3.078031539916992 0.7492042779922485 0.2771552503108978 37.0 10 -0.012339789420366287
-2.592916488647461 0.6316054463386536 -0.42268598079681396 40.0 3 -0.012337486259639263
-3.0684261322021484 0.7480015754699707 0.3877882957458496 53.0 11 -0.012335182167589664
-2.588090658187866 0.6313869953155518 -0.3270973265171051 27.0 4 -0.012332878075540066
-3.0780956745147705 0.7514970898628235 0.5018418431282043 45.0 12 -0.012330573983490467
-2.659317970275879 0.6497470140457153 -0.23950397968292236 5.0 5 -0.012328269891440868
-3.057168483734131 0.7469532489776611 0.6117336750030518 45.0 13 -0.01232596579939127
-2.4231908321380615 0.5925025939941406 -0.13073523342609406 31.0 6 -0.012323661707341671
-3.051344156265259 0.7466589212417603 0.7252422571182251 55.0 14 -0.012321357615292072
-3.0283942222595215 0.7421635389328003 0.8354679346084595 55.0 15 -0.012316749431192875
-3.02882719039917 0.7467539310455322 0.054451506584882736 8.0 8 -0.012293709442019463
-3.0888640880584717 0.7627004981040955 0.16674236953258514 31.0 9 -0.01228910218924284
-3.088803768157959 0.7638296484947205 0.27837544679641724 36.0 10 -0.012284494005143642
-2.596336841583252 0.6425283551216125 -0.42362460494041443 41.0 3 -0.012282189913094044
-3.0735042095184326 0.7606154084205627 0.3887632191181183 52.0 11 -0.012279885821044445
-2.58394455909729 0.639939546585083 -0.32685360312461853 33.0 4 -0.012277581728994846
-3.0697014331817627 0.7608115077018738 0.5009031891822815 45.0 12 -0.012275277636945248
-2.6744377613067627 0.6633425951004028 -0.24107277393341064 4.0 5 -0.012272973544895649
-3.0639374256134033 0.7605181336402893 0.6136417388916016 38.0 13 -0.01227066945284605
-2.4190642833709717 0.6008985638618469 -0.13063055276870728 29.0 6 -0.012268366292119026
-3.0466959476470947 0.7573675513267517 0.7247923612594604 52.0 14 -0.012266062200069427
-2.615973711013794 0.6502957940101624 -0.04705168679356575 1.0 7 -0.012263758108019829
-3.0332837104797363 0.7545956373214722 0.8375384211540222 56.0 15 -0.01226145401597023
-3.029949188232422 0.7588225603103638 0.05452131852507591 7.0 8 -0.012238414026796818
-3.0899224281311035 0.7749884724617004 0.1669517159461975 31.0 9 -0.01223380584269762
-3.0764565467834473 0.7721818089485168 0.2775038778781891 37.0 10 -0.012229197658598423
-2.599825859069824 0.653030514717102 -0.4245631992816925 42.0 3 -0.012226893566548824
-3.078396797180176 0.7738111019134521 0.38973820209503174 52.0 11 -0.012224589474499226
-2.5892820358276367 0.6513436436653137 -0.3278285562992096 33.0 4 -0.012222286313772202
-3.066892623901367 0.7720567584037781 0.5009031891822815 45.0 12 -0.012219982221722603
-2.662445545196533 0.6702415943145752 -0.2402012199163437 4.0 5 -0.012217678129673004
-3.0669753551483154 0.7726475596427917 0.6147866249084473 45.0 13 -0.012215374037623405
-2.4363186359405518 0.6142215728759766 -0.1316772699356079 36.0 6 -0.012213069945573807
-3.0629289150238037 0.7727644443511963 0.7292913794517517 60.0 14 -0.012210765853524208
-3.024878978729248 0.7642884850502014 0.8359856009483337 58.0 15 -0.01220615766942501
