# .PCD v0.7 - Point Cloud Data file format
VERSION 0.7
FIELDS x y z intensity ring time
SIZE 4 4 4 4 4 4
TYPE F F F F F F
COUNT 1 1 1 1 1 1
WIDTH 538
HEIGHT 1
VIEWPOINT 0 0 0 1 0 0 0
POINTS 538
DATA ascii
-2.6958022117614746 -2.148181915283203 0.5459563732147217 12.0 12 -0.022527461871504784
-1.5067574977874756 -1.2006776332855225 -0.1685592085123062 0.0 5 -0.022525157779455185
-2.7088074684143066 -2.1577727794647217 0.6731741428375244 15.0 13 -0.022522855550050735
-2.470186471939087 -1.9669872522354126 -0.16548630595207214 1.0 6 -0.022520551458001137
-2.681905508041382 -2.1348135471343994 0.7913778424263 11.0 14 -0.022518247365951538
-2.1781466007232666 -1.7331974506378174 -0.04858750104904175 9.0 7 -0.02251594327390194
-2.677544593811035 -2.129814863204956 0.9167370796203613 42.0 15 -0.02251363918185234
-2.404906988143921 -1.907473087310791 0.05357888713479042 4.0 8 -0.022490598261356354
-2.2935595512390137 -1.818504810333252 -0.6757529973983765 48.0 1 -0.022488294169306755
-2.6718623638153076 -2.1176931858062744 0.17867498099803925 4.0 9 -0.022485990077257156
-2.2817280292510986 -1.808476209640503 -0.5659394860267639 46.0 2 -0.022483685985207558
-2.720374584197998 -2.155369520187378 0.3036506175994873 6.0 10 -0.02248138189315796
-2.7251667976379395 -2.1576197147369385 0.42678648233413696 4.0 11 -0.02247677557170391
-2.697087526321411 -2.1338560581207275 0.5447048544883728 12.0 12 -0.022472167387604713
-2.7086243629455566 -2.142214059829712 0.6712660789489746 12.0 13 -0.022467559203505516
-2.4833037853240967 -1.9633076190948486 -0.16590499877929688 1.0 6 -0.022465255111455917
-2.6908700466156006 -2.1266472339630127 0.7918277978897095 12.0 14 -0.02246295101940632
-2.1763384342193604 -1.7193849086761475 -0.048412974923849106 18.0 7 -0.02246064692735672
-2.669801712036133 -2.108482837677002 0.9115607142448425 42.0 15 -0.02245834283530712
-2.2497334480285645 -1.7716374397277832 0.04998369142413139 2.0 8 -0.022435301914811134
-2.2998929023742676 -1.810488224029541 -0.6757529973983765 48.0 1 -0.022432997822761536
-2.682377815246582 -2.110823154449463 0.17888431251049042 4.0 9 -0.022430695593357086
-2.2787704467773438 -1.7932153940200806 -0.5636498332023621 49.0 2 -0.022428391501307487
-2.7169198989868164 -2.137237548828125 0.3024304211139679 7.0 10 -0.02242608740925789
-2.732682228088379 -2.1480932235717773 0.42678648233413696 4.0 11 -0.02242147922515869
-2.69830584526062 -2.1195473670959473 0.5434533953666687 12.0 12 -0.022416871041059494
-2.706820487976074 -2.125471830368042 0.668976366519928 11.0 13 -0.022412262856960297
-2.499568462371826 -1.9620267152786255 -0.16653302311897278 1.0 6 -0.022409958764910698
-2.6875455379486084 -2.1088204383850098 0.7886784672737122 15.0 14 -0.0224076546728611
-2.188620090484619 -1.7167147397994995 -0.04855259507894516 11.0 7 -0.0224053505808115
-2.674104928970337 -2.096766710281372 0.9105254411697388 44.0 15 -0.022403046488761902
-2.1692590713500977 -1.6960313320159912 0.04806393012404442 5.0 8 -0.022380007430911064
-2.2954509258270264 -1.79404878616333 -0.6726037263870239 36.0 1 -0.022377703338861465
-2.6676955223083496 -2.0842318534851074 0.17741890251636505 6.0 9 -0.022375399246811867
-2.2912042140960693 -1.7900848388671875 -0.565176248550415 55.0 2 -0.022373095154762268
-2.727504253387451 -2.1301932334899902 0.30277904868125916 8.0 10 -0.02237079106271267
-2.727644681930542 -2.128770589828491 0.42483654618263245 2.0 11 -0.022366182878613472
-2.708803415298462 -2.1125452518463135 0.5440791249275208 13.0 12 -0.022361574694514275
-2.7002882957458496 -2.1051464080810547 0.6655418276786804 10.0 13 -0.022356966510415077
-2.5064022541046143 -1.9532893896102905 -0.16653302311897278 2.0 6 -0.02235466241836548
-2.6995019912719727 -2.1030189990997314 0.7900281548500061 19.0 14 -0.02235235832631588
-2.2009103298187256 -1.7139791250228882 -0.048692215234041214 11.0 7 -0.02235005423426628
-2.67378568649292 -2.0814859867095947 0.907937228679657 48.0 15 -0.022347750142216682
-2.1625289916992188 -1.67863929271698 0.04778468981385231 6.0 8 -0.022324711084365845
-2.292462110519409 -1.778856635093689 -0.6699042916297913 13.0 1 -0.022322406992316246
-2.6623294353485107 -2.0651140213012695 0.17658153176307678 6.0 9 -0.022320102900266647
-2.291233777999878 -1.7772629261016846 -0.5636498332023621 47.0 2 -0.02231779880821705
-2.731774091720581 -2.118218421936035 0.3024304211139679 8.0 10 -0.02231549471616745
-2.7287824153900146 -2.114372968673706 0.42386162281036377 4.0 11 -0.022310886532068253
-2.7130374908447266 -2.1006579399108887 0.5434533953666687 16.0 12 -0.022306278347969055
-2.702962636947632 -2.0921027660369873 0.6643969416618347 8.0 13 -0.022301670163869858
-2.532160758972168 -1.9591950178146362 -0.16778908669948578 3.0 6 -0.02229936607182026
-2.6914119720458984 -2.081660747528076 0.7855291366577148 24.0 14 -0.02229706197977066
-2.2037155628204346 -1.7038394212722778 -0.04862240329384804 11.0 7 -0.02229475788772106
-2.6810355186462402 -2.0721397399902344 0.907937228679657 48.0 15 -0.022292453795671463
-2.226979970932007 -1.7162446975708008 0.04907616600394249 7.0 8 -0.022269414737820625
-2.656862258911133 -2.046060085296631 0.1757441610097885 6.0 9 -0.022264806553721428
-2.2849795818328857 -1.759671688079834 -0.5605968832969666 49.0 2 -0.02226250246167183
-2.7312581539154053 -2.1025922298431396 0.30155888199806213 11.0 10 -0.02226019836962223
-2.726705551147461 -2.0975730419158936 0.4223991632461548 4.0 11 -0.022255590185523033
-2.7125229835510254 -2.0851552486419678 0.5418890714645386 17.0 12 -0.022250982001423836
-2.7086920738220215 -2.0814595222473145 0.6640153527259827 7.0 13 -0.02224637381732464
-2.519977569580078 -1.9357439279556274 -0.16653302311897278 3.0 6 -0.02224407158792019
-2.703298568725586 -2.0758137702941895 0.7868788242340088 31.0 14 -0.02224176749587059
-2.2033045291900635 -1.6912668943405151 -0.04848278686404228 11.0 7 -0.02223946340382099
-2.6897850036621094 -2.0639448165893555 0.9084548950195312 52.0 15 -0.022237159311771393
-2.2551920413970947 -1.7254718542099 0.04956483468413353 8.0 8 -0.022214118391275406
-2.597348690032959 -1.9858235120773315 0.17134793102741241 9.0 9 -0.02220951020717621
-2.2957870960235596 -1.7552621364593506 -0.5617417097091675 27.0 2 -0.02220720611512661
-2.730665683746338 -2.086996078491211 0.3006872832775116 13.0 10 -0.02220490202307701
-2.738743543624878 -2.0916569232940674 0.4231303930282593 5.0 11 -0.022200293838977814
-2.716644048690796 -2.0732779502868652 0.5412633419036865 21.0 12 -0.022195687517523766
-2.7143807411193848 -2.0708000659942627 0.6636337041854858 7.0 13 -0.022191079333424568
-2.4997212886810303 -1.9063462018966675 -0.16475361585617065 3.0 6 -0.02218877524137497
-2.705878496170044 -2.0628209114074707 0.7855291366577148 37.0 14 -0.02218647114932537
-2.188518762588501 -1.6678080558776855 -0.04802902415394783 9.0 7 -0.022184167057275772
-2.6846790313720703 -2.045177459716797 0.9043138027191162 52.0 15 -0.022181862965226173
-2.235722541809082 -1.6982364654541016 0.04900635778903961 13.0 8 -0.022158822044730186
-2.5692660808563232 -1.9501785039901733 0.16904516518115997 13.0 9 -0.02215421386063099
-2.31441068649292 -1.7567328214645386 -0.564794659614563 27.0 2 -0.02215190976858139
-2.7284107208251953 -2.0702264308929443 0.2996414303779602 17.0 10 -0.02214960753917694
-2.7365379333496094 -2.074887275695801 0.4216679632663727 8.0 11 -0.022144999355077744
-2.7222900390625 -2.062589406967163 0.5409504771232605 26.0 12 -0.022140391170978546
-2.696552038192749 -2.042346954345703 0.6575278043746948 7.0 13 -0.02213578298687935
-2.501582622528076 -1.8939926624298096 -0.1644395887851715 2.0 6 -0.02213347889482975
-2.720832109451294 -2.0592432022094727 0.7877786159515381 49.0 14 -0.02213117480278015
-2.178380012512207 -1.648093342781067 -0.047679975628852844 12.0 7 -0.022128870710730553
-2.681015729904175 -2.027637004852295 0.9006903171539307 53.0 15 -0.022126566618680954
-2.23525071144104 -1.6856060028076172 0.04886673763394356 12.0 8 -0.022103527560830116
-2.588818073272705 -1.9508146047592163 0.16988252103328705 11.0 9 -0.02209891937673092
-2.3315041065216064 -1.7569146156311035 -0.5674660205841064 26.0 2 -0.02209661528468132
-2.7356204986572266 -2.060689687728882 0.2996414303779602 20.0 10 -0.02209431119263172
-2.7279036045074463 -2.053384780883789 0.41923055052757263 8.0 11 -0.022089703008532524
-2.7310526371002197 -2.0542612075805664 0.5412633419036865 31.0 12 -0.022085094824433327
-2.6973876953125 -2.028202772140503 0.6560013890266418 7.0 13 -0.02208048664033413
-2.291048288345337 -1.7220447063446045 -0.15020421147346497 1.0 6 -0.02207818254828453
-2.7248880863189697 -2.047391176223755 0.7868788242340088 59.0 14 -0.022075878456234932
-2.185718297958374 -1.6416808366775513 -0.04771488159894943 13.0 7 -0.022073574364185333
-2.6818976402282715 -2.0136263370513916 0.8986197710037231 56.0 15 -0.022071270272135735
-2.2411208152770996 -1.677793025970459 0.04886673763394356 12.0 8 -0.022048231214284897
-2.654784917831421 -1.9860330820083618 0.17375539243221283 7.0 9 -0.0220436230301857
-2.3646557331085205 -1.7683452367782593 -0.5739535093307495 32.0 2 -0.0220413189381361
-2.7383675575256348 -2.0470705032348633 0.2991184890270233 28.0 10 -0.022039014846086502
-2.7255139350891113 -2.0367202758789062 0.4177681505680084 11.0 11 -0.022034406661987305
-2.739788770675659 -2.0458977222442627 0.5415762066841125 35.0 12 -0.022029798477888107
-2.7063772678375244 -2.0194759368896484 0.6563829779624939 7.0 13 -0.02202519029378891
-2.2637245655059814 -1.6885583400726318 -0.14800609648227692 6.0 6 -0.02202288620173931
-2.718313455581665 -2.026907205581665 0.782829761505127 67.0 14 -0.022020582109689713
-2.201054096221924 -1.641213297843933 -0.047924306243658066 11.0 7 -0.022018278017640114
-2.6858129501342773 -2.0019428730010986 0.8975844979286194 54.0 15 -0.022015973925590515
-2.269727945327759 -1.6862634420394897 0.0493554063141346 16.0 8 -0.021992934867739677
-1.850783109664917 -1.3745129108428955 -0.532234251499176 1.0 1 -0.02199063077569008
-2.676478862762451 -1.987004041671753 0.17469742894172668 6.0 9 -0.02198832668364048
-2.377119541168213 -1.7647610902786255 -0.5754799246788025 32.0 2 -0.02198602259159088
-2.7518961429595947 -2.0422487258911133 0.29981574416160583 35.0 10 -0.021983718499541283
-2.731365919113159 -2.0255346298217773 0.41752439737319946 12.0 11 -0.021979110315442085
-2.729810953140259 -2.022904872894287 0.5381346344947815 37.0 12 -0.021974502131342888
-2.713409423828125 -2.0100173950195312 0.6563829779624939 8.0 13 -0.02196989394724369
-2.2503440380096436 -1.6663832664489746 -0.14675003290176392 6.0 6 -0.021967589855194092
-2.719106674194336 -2.012768268585205 0.7810301184654236 72.0 14 -0.021965287625789642
-2.1958024501800537 -1.624808669090271 -0.047679975628852844 9.0 7 -0.021962983533740044
-2.6915786266326904 -1.9909371137619019 0.8970668315887451 58.0 15 -0.021960679441690445
-1.6493619680404663 -1.2169033288955688 -0.5492140650749207 1.0 0 -0.021939942613244057
-2.2884750366210938 -1.6878256797790527 0.04963464289903641 23.0 8 -0.021937638521194458
-1.9120365381240845 -1.4096755981445312 -0.5484307408332825 1.0 1 -0.02193533442914486
-2.6769676208496094 -1.9729095697402954 0.17427875101566315 7.0 9 -0.02193303033709526
-2.3943281173706055 -1.76460599899292 -0.578151285648346 31.0 2 -0.021930726245045662
-2.7397592067718506 -2.018449068069458 0.29772400856018066 33.0 10 -0.021928422152996063
-2.732025384902954 -2.0112802982330322 0.4165494441986084 16.0 11 -0.021923813968896866
-2.717761278152466 -1.9993170499801636 0.5343801975250244 40.0 12 -0.02191920578479767
-2.725154399871826 -2.0040228366851807 0.6575278043746948 10.0 13 -0.02191459946334362
-2.2690207958221436 -1.667981505393982 -0.14758741855621338 10.0 6 -0.02191229537129402
-2.72611665725708 -2.0032637119293213 0.7810301184654236 81.0 14 -0.021909991279244423
-2.1837329864501953 -1.6041115522384644 -0.04729602113366127 11.0 7 -0.021907687187194824
-2.6969552040100098 -1.9803862571716309 0.8965492248535156 70.0 15 -0.021905383095145226
-2.2895116806030273 -1.676283597946167 0.04952992871403694 39.0 8 -0.02188234217464924
-1.8603339195251465 -1.361558437347412 -0.532234251499176 1.0 1 -0.02188003808259964
-2.6870617866516113 -1.965911626815796 0.1744880974292755 6.0 9 -0.02187773399055004
-2.416317939758301 -1.7678296566009521 -0.5819674730300903 29.0 2 -0.021875429898500443
-2.7403552532196045 -2.004169225692749 0.29702678322792053 46.0 10 -0.021873125806450844
-2.7358243465423584 -1.9993891716003418 0.41606199741363525 19.0 11 -0.021868519484996796
-2.731104850769043 -1.9944781064987183 0.5356317162513733 43.0 12 -0.0218639113008976
-2.7226192951202393 -1.987552523612976 0.655238151550293 10.0 13 -0.0218593031167984
-2.282895803451538 -1.6659382581710815 -0.1481107771396637 20.0 6 -0.021856999024748802
-2.7157742977142334 -1.9811029434204102 0.7760811448097229 74.0 14 -0.021854694932699203
-2.2103235721588135 -1.6117957830429077 -0.04774978384375572 15.0 7 -0.021852390840649605
-2.6913630962371826 -1.9618555307388306 0.8924081325531006 70.0 15 -0.021850086748600006
-2.2791733741760254 -1.6565247774124146 0.049180880188941956 27.0 8 -0.02182704582810402
-2.6906752586364746 -1.95417320728302 0.17427875101566315 6.0 9 -0.02182243950664997
-2.438358783721924 -1.7709218263626099 -0.5857836604118347 25.0 2 -0.021820135414600372
-2.747335195541382 -1.9945906400680542 0.29702678322792053 53.0 10 -0.021817831322550774
-2.7299318313598633 -1.9805021286010742 0.41411206126213074 23.0 11 -0.021813223138451576
-2.739649534225464 -1.9860919713974 0.5359445214271545 51.0 12 -0.02180861495435238
-2.720001459121704 -1.9711250066757202 0.6529484391212463 11.0 13 -0.02180400677025318
-2.2709057331085205 -1.6450698375701904 -0.14695937931537628 15.0 6 -0.021801702678203583
-2.717938184738159 -1.9681822061538696 0.7747315168380737 78.0 14 -0.021799398586153984
-2.26939058303833 -1.6427656412124634 -0.048901643604040146 17.0 7 -0.021797094494104385
-2.701324701309204 -1.9547146558761597 0.8934433460235596 72.0 15 -0.021794790402054787
-2.2541306018829346 -1.6263279914855957 0.04851769283413887 15.0 8 -0.02177175134420395
-1.871374249458313 -1.3496780395507812 -0.5326840877532959 1.0 1 -0.02176944725215435
-2.6845192909240723 -1.9354248046875 0.17344138026237488 6.0 9 -0.02176714316010475
-2.4763762950897217 -1.7853624820709229 -0.5934159755706787 1.0 2 -0.021764839068055153
-2.7429661750793457 -1.9768340587615967 0.2958065867424011 57.0 10 -0.021762534976005554
-2.7319958209991455 -1.9674805402755737 0.41338086128234863 31.0 11 -0.021757926791906357
-2.735341787338257 -1.9684404134750366 0.5337544679641724 55.0 12 -0.02175331860780716
-2.718897581100464 -1.955885410308838 0.6510403156280518 13.0 13 -0.021748710423707962
-2.2733912467956543 -1.6348007917404175 -0.14675003290176392 14.0 6 -0.021746406331658363
-2.7184619903564453 -1.9541336297988892 0.7729318737983704 83.0 14 -0.021744102239608765
-2.288102865219116 -1.644168734550476 -0.049180880188941956 22.0 7 -0.021741798147559166
-2.697148323059082 -1.937384009361267 0.8898199200630188 78.0 15 -0.021739494055509567
-2.237032651901245 -1.6021491289138794 0.04802902415394783 25.0 8 -0.02171645499765873
-2.6815145015716553 -1.9190673828125 0.17281334102153778 6.0 9 -0.021711846813559532
-2.749849319458008 -1.967247724533081 0.2958065867424011 58.0 10 -0.021707238629460335
-2.738847494125366 -1.9579312801361084 0.41338086128234863 37.0 11 -0.021702630445361137
-2.7325518131256104 -1.9519906044006348 0.5318772196769714 60.0 12 -0.02169802226126194
-2.730501413345337 -1.9498053789138794 0.6521852016448975 16.0 13 -0.021693414077162743
-2.2839605808258057 -1.6303361654281616 -0.14706405997276306 20.0 6 -0.021691109985113144
-2.712576150894165 -1.9355769157409668 0.7693326473236084 78.0 14 -0.021688805893063545
-2.2710366249084473 -1.6199146509170532 -0.048692215234041214 18.0 7 -0.021686501801013947
-2.70389461517334 -1.9279574155807495 0.8898199200630188 76.0 15 -0.021684199571609497
-1.6703485250473022 -1.1879328489303589 -0.5492140650749207 1.0 0 -0.02166346274316311
-2.2344629764556885 -1.588537335395813 0.04785449802875519 27.0 8 -0.02166115865111351
-2.6911191940307617 -1.9124791622161865 0.17302268743515015 6.0 9 -0.021656550467014313
-2.748577356338501 -1.951869249343872 0.294935017824173 60.0 10 -0.021651942282915115
-2.7456648349761963 -1.948359489440918 0.41338086128234863 49.0 11 -0.021647334098815918
-2.727731704711914 -1.9349181652069092 0.5296871662139893 61.0 12 -0.02164272591471672
-2.7292823791503906 -1.9345855712890625 0.6502770781517029 20.0 13 -0.021638119593262672
-2.299414873123169 -1.6292823553085327 -0.14769208431243896 12.0 6 -0.021635815501213074
-2.7224972248077393 -1.9283486604690552 0.7702324986457825 83.0 14 -0.021633511409163475
-2.286186695098877 -1.619309425354004 -0.048901643604040146 24.0 7 -0.021631207317113876
-2.6945066452026367 -1.9078168869018555 0.8846435546875 82.0 15 -0.021628903225064278
-2.2364509105682373 -1.5788122415542603 0.04778468981385231 29.0 8 -0.02160586230456829
-2.6912503242492676 -1.8984684944152832 0.17260399460792542 4.0 9 -0.021601254120469093
-2.7423465251922607 -1.933079481124878 0.2935405373573303 63.0 10 -0.021596645936369896
-2.750488758087158 -1.93809974193573 0.4131371080875397 59.0 11 -0.021592039614915848
-2.7360846996307373 -1.9265222549438477 0.5300000309944153 63.0 12 -0.02158743143081665
-2.722839117050171 -1.9164842367172241 0.6472241282463074 25.0 13 -0.021582823246717453
-2.3178727626800537 -1.6308425664901733 -0.14852945506572723 11.0 6 -0.021580519154667854
-2.7288765907287598 -1.9193105697631836 0.7702324986457825 89.0 14 -0.021578215062618256
-2.3081836700439453 -1.6228203773498535 -0.04925068840384483 24.0 7 -0.021575910970568657
-2.697988271713257 -1.8961787223815918 0.8836082816123962 78.0 15 -0.021573606878519058
-2.238673448562622 -1.568700909614563 0.04771488159894943 39.0 8 -0.02155056595802307
-1.5705811977386475 -1.100142002105713 -0.4427036941051483 0.0 1 -0.021548261865973473
-2.7011330127716064 -1.8913538455963135 0.17281334102153778 4.0 9 -0.021545957773923874
-1.5776480436325073 -1.104681134223938 -0.37436726689338684 0.0 2 -0.021543655544519424
-2.7520062923431396 -1.926259994506836 0.2938891649246216 68.0 10 -0.021541351452469826
-2.7393434047698975 -1.9159722328186035 0.41045600175857544 61.0 11 -0.02153674326837063
-2.5965116024017334 -1.815397024154663 -0.38900697231292725 1.0 4 -0.02153443917632103
-2.7411739826202393 -1.9158272743225098 0.5296871662139893 67.0 12 -0.02153213508427143
-2.3241372108459473 -1.6237541437149048 -0.24804525077342987 4.0 5 -0.021529830992221832
-2.719855785369873 -1.9002223014831543 0.6449344158172607 30.0 13 -0.021527526900172234
-2.326826572418213 -1.6250289678573608 -0.1487388014793396 7.0 6 -0.021525222808122635
-2.7275707721710205 -1.9041950702667236 0.7679829597473145 81.0 14 -0.021522918716073036
-2.3318724632263184 -1.6273423433303833 -0.04963464289903641 34.0 7 -0.021520614624023438
-2.6982531547546387 -1.8823280334472656 0.881537675857544 76.0 15 -0.02151831053197384
-1.6826964616775513 -1.1703764200210571 -0.5492140650749207 1.0 0 -0.0214975755661726
-2.2441351413726807 -1.5608773231506348 0.04771488159894943 33.0 8 -0.021495271474123
-1.5744121074676514 -1.094652533531189 -0.4427036941051483 0.0 1 -0.021492967382073402
-2.7044386863708496 -1.879633903503418 0.17260399460792542 5.0 9 -0.021490663290023804
-1.6848745346069336 -1.170582890510559 -0.3987908363342285 1.0 2 -0.021488359197974205
-2.7655935287475586 -1.9207063913345337 0.2945863902568817 75.0 10 -0.021486055105924606
-2.737861394882202 -1.90073823928833 0.4092372953891754 68.0 11 -0.02148144692182541
-2.5930469036102295 -1.799532175064087 -0.38754454255104065 10.0 4 -0.02147914282977581
-2.7510905265808105 -1.9084997177124023 0.5303128957748413 67.0 12 -0.02147683873772621
-2.334702730178833 -1.6190377473831177 -0.24856817722320557 7.0 5 -0.021474534645676613
-2.7219619750976562 -1.8868844509124756 0.6437895894050598 32.0 13 -0.021472230553627014
-2.3918659687042236 -1.657442331314087 -0.1525069922208786 2.0 6 -0.021469926461577415
-2.7185113430023193 -1.8830889463424683 0.7634838819503784 75.0 14 -0.021467622369527817
-2.3391828536987305 -1.6203314065933228 -0.049669548869132996 27.0 7 -0.021465318277478218
-2.7048075199127197 -1.8728971481323242 0.881537675857544 74.0 15 -0.02146301418542862
-1.5595881938934326 -1.07669198513031 -0.5078030228614807 0.0 0 -0.02144227921962738
-2.2712371349334717 -1.5674065351486206 0.048168644309043884 31.0 8 -0.02143997512757778
-1.578413486480713 -1.0888749361038208 -0.4427036941051483 0.0 1 -0.021437671035528183
-2.7011189460754395 -1.8633779287338257 0.1719759702682495 3.0 9 -0.021435366943478584
-2.767359972000122 -1.9076483249664307 0.2940634489059448 80.0 10 -0.021430758759379387
-2.5976665019989014 -1.7900042533874512 -0.4996517598628998 2.0 3 -0.021428454667329788
-2.741539716720581 -1.8884382247924805 0.4087498188018799 68.0 11 -0.02142615057528019
-2.620880365371704 -1.8046507835388184 -0.3907131552696228 19.0 4 -0.02142384648323059
-2.7398390769958496 -1.886561632156372 0.526871383190155 65.0 12 -0.021421542391180992
-2.3534693717956543 -1.6199151277542114 -0.24996265769004822 7.0 5 -0.021419238299131393
-2.73176646232605 -1.8795981407165527 0.6445528268814087 38.0 13 -0.021416934207081795
-2.479917049407959 -1.7056747674942017 -0.15774059295654297 2.0 6 -0.021414630115032196
-2.7218565940856934 -1.871380090713501 0.7625840902328491 74.0 14 -0.021412326022982597
-2.3481204509735107 -1.614422082901001 -0.04973935708403587 22.0 7 -0.021410021930933
-2.714512348175049 -1.8656331300735474 0.8825729489326477 78.0 15 -0.0214077178388834
-1.5792734622955322 -1.0821608304977417 -0.5129793882369995 0.0 0 -0.02138698287308216
-2.3193113803863525 -1.5892548561096191 0.04907616600394249 21.0 8 -0.021384678781032562
-1.6398943662643433 -1.1232800483703613 -0.45890021324157715 1.0 1 -0.021382374688982964
-2.7076070308685303 -1.8539378643035889 0.1719759702682495 5.0 9 -0.021380070596933365
-2.642385244369507 -1.8086014986038208 -0.6224189400672913 1.0 2 -0.021377766504883766
-2.76413631439209 -1.8912265300750732 0.29301759600639343 80.0 10 -0.021375462412834167
-2.634564161300659 -1.8025730848312378 -0.5055962204933167 21.0 3 -0.02137315832078457
-2.749425172805786 -1.880457878112793 0.40899354219436646 74.0 11 -0.02137085422873497
-2.646515130996704 -1.8093942403793335 -0.393638014793396 19.0 4 -0.02136855013668537
-2.7366223335266113 -1.8702986240386963 0.5249941349029541 65.0 12 -0.021366246044635773
-2.350884199142456 -1.6060705184936523 -0.24909110367298126 6.0 5 -0.021363941952586174
-2.7347421646118164 -1.8683136701583862 0.6437895894050598 52.0 13 -0.021361637860536575
-2.5234944820404053 -1.7233480215072632 -0.1601480394601822 3.0 6 -0.021359335631132126
-2.726438045501709 -1.8612449169158936 0.7621342539787292 72.0 14 -0.021357031539082527
-2.342179298400879 -1.5983256101608276 -0.04949502646923065 16.0 7 -0.02135472744703293
-2.705049514770508 -1.8452597856521606 0.8773965835571289 74.0 15 -0.02135242335498333
-1.6371591091156006 -1.1138654947280884 -0.5305790901184082 1.0 0 -0.02133168652653694
-2.286813497543335 -1.5552845001220703 0.04827335476875305 16.0 8 -0.021329382434487343
-1.7469462156295776 -1.1876695156097412 -0.4876939356327057 1.0 1 -0.021327078342437744
-2.7104363441467285 -1.842702865600586 0.17176662385463715 5.0 9 -0.021324774250388145
-2.640249490737915 -1.7943114042282104 -0.6205108761787415 13.0 2 -0.021322470158338547
-2.7605042457580566 -1.8753321170806885 0.29197174310684204 77.0 10 -0.021320166066288948
-2.655547618865967 -1.8033541440963745 -0.5084120631217957 25.0 3 -0.02131786197423935
-2.754330635070801 -1.869733452796936 0.4087498188018799 81.0 11 -0.02131555788218975
-2.675811767578125 -1.815750002861023 -0.3970503509044647 18.0 4 -0.021313253790140152
-2.742809534072876 -1.8612133264541626 0.5249941349029541 65.0 12 -0.021310951560735703
-2.3578457832336426 -1.5993847846984863 -0.2492654174566269 7.0 5 -0.021308647468686104
-2.736372709274292 -1.855450987815857 0.6426447629928589 53.0 13 -0.021306343376636505
-2.5328011512756348 -1.716770052909851 -0.16035738587379456 2.0 6 -0.021304039284586906
-2.7280781269073486 -1.8484379053115845 0.7607845067977905 66.0 14 -0.021301735192537308
-2.3905086517333984 -1.6197141408920288 -0.050402551889419556 29.0 7 -0.02129943110048771
-2.7047557830810547 -1.8319458961486816 0.8753260374069214 74.0 15 -0.02129712700843811
-1.6410369873046875 -1.1081442832946777 -0.5305790901184082 1.0 0 -0.021276390179991722
-2.311845541000366 -1.5611217021942139 0.048692215234041214 19.0 8 -0.021274086087942123
-1.9123947620391846 -1.290898323059082 -0.5326840877532959 1.0 1 -0.021271781995892525
-2.720163583755493 -1.8354647159576416 0.1719759702682495 4.0 9 -0.021269477903842926
-2.6709108352661133 -1.8015518188476562 -0.6262351274490356 21.0 2 -0.021267175674438477
-2.770336866378784 -1.8679128885269165 0.2923203408718109 77.0 10 -0.02126486971974373
-2.6762537956237793 -1.8044769763946533 -0.5112279057502747 25.0 3 -0.02126256749033928
-2.7457008361816406 -1.8506040573120117 0.4065561592578888 74.0 11 -0.02126026339828968
-2.7032201290130615 -1.8212860822677612 -0.4002189636230469 28.0 4 -0.021257959306240082
-2.7476508617401123 -1.85052490234375 0.5246812701225281 67.0 12 -0.021255655214190483
-2.3534979820251465 -1.5844677686691284 -0.2482195496559143 7.0 5 -0.021253351122140884
-2.732738971710205 -1.8397878408432007 0.6403550505638123 60.0 13 -0.021251047030091286
-2.5235679149627686 -1.698325514793396 -0.1594153493642807 5.0 6 -0.021248742938041687
-2.7487449645996094 -1.8491705656051636 0.7648336291313171 72.0 14 -0.02124643884599209
-2.4110827445983887 -1.6214022636413574 -0.050716694444417953 25.0 7 -0.02124413475394249
-2.7095305919647217 -1.8214154243469238 0.8748083710670471 70.0 15 -0.02124183066189289
-1.702667236328125 -1.1411279439926147 -0.5492140650749207 1.0 0 -0.021190166473388672
-2.3358261585235596 -1.5648807287216187 0.04907616600394249 16.0 8 -0.021187862381339073
-1.9171135425567627 -1.2838798761367798 -0.5326840877532959 1.0 1 -0.021185558289289474
-2.687040090560913 -1.7988169193267822 0.1694638431072235 6.0 9 -0.021183254197239876
-2.7032859325408936 -1.8096925020217896 -0.6323410272598267 24.0 2 -0.021180950105190277
-2.773528814315796 -1.8560152053833008 0.29197174310684204 77.0 10 -0.02117864601314068
-2.717329740524292 -1.8177200555801392 -0.517798125743866 47.0 3 -0.02117634192109108
-2.745864152908325 -1.8361148834228516 0.40558120608329773 67.0 11 -0.02117403782904148
-2.7428839206695557 -1.8334294557571411 -0.4050937294960022 54.0 4 -0.021171733736991882
-2.7560577392578125 -1.841538667678833 0.5249941349029541 65.0 12 -0.021169429644942284
-2.367297649383545 -1.581777572631836 -0.24909110367298126 7.0 5 -0.021167125552892685
-2.7394633293151855 -1.829759955406189 0.6403550505638123 62.0 13 -0.021164823323488235
-2.521470308303833 -1.6835194826126099 -0.15889199078083038 10.0 6 -0.021162519231438637
-2.7328121662139893 -1.8239375352859497 0.7585350275039673 63.0 14 -0.021160215139389038
-2.397047281265259 -1.5992369651794434 -0.05029783770442009 13.0 7 -0.02115791104733944
-2.7226171493530273 -1.8157597780227661 0.8768789768218994 70.0 15 -0.02115560695528984
-2.3612568378448486 -1.5700045824050903 0.04949502646923065 15.0 8 -0.021132566034793854
-2.650050163269043 -1.7606894969940186 0.16674236953258514 7.0 9 -0.021127957850694656
-2.727574110031128 -1.8121962547302246 -0.6365388631820679 60.0 2 -0.021125653758645058
-2.7750117778778076 -1.8430147171020508 0.29144880175590515 75.0 10 -0.02112334966659546
-2.7450520992279053 -1.822427749633789 -0.5218654274940491 52.0 3 -0.02112104557454586
-2.7522566318511963 -1.8265188932418823 0.40558120608329773 77.0 11 -0.02111874334514141
-2.734379768371582 -1.8139668703079224 -0.4029000997543335 47.0 4 -0.021116439253091812
-2.754237413406372 -1.826448917388916 0.523429811000824 67.0 12 -0.021114135161042213
-2.3678231239318848 -1.5702016353607178 -0.24856817722320557 7.0 5 -0.021111831068992615
-2.7474701404571533 -1.8212711811065674 0.6407366394996643 65.0 13 -0.021109526976943016
-2.5323262214660645 -1.678017258644104 -0.15920598804950714 5.0 6 -0.021107222884893417
-2.7310385704040527 -1.809006929397583 0.7562854886054993 61.0 14 -0.02110491879284382
-2.397613286972046 -1.587548017501831 -0.050193123519420624 15.0 7 -0.02110261470079422
-2.7257168292999268 -1.8041123151779175 0.8758436441421509 67.0 15 -0.02110031060874462
-2.416794776916504 -1.5947932004928589 0.05054216831922531 12.0 8 -0.021077269688248634
-1.9260298013687134 -1.2704650163650513 -0.5326840877532959 1.0 1 -0.021074965596199036
-2.6528453826904297 -1.7492293119430542 0.16653302311897278 6.0 9 -0.021072663366794586
-2.737161159515381 -1.8048254251480103 -0.6373021006584167 45.0 2 -0.021070359274744987
-2.7731103897094727 -1.827835202217102 0.290577232837677 77.0 10 -0.02106805518269539
-2.746448278427124 -1.809574007987976 -0.520926833152771 45.0 3 -0.02106575109064579
-2.7602736949920654 -1.8179924488067627 0.4058249592781067 73.0 11 -0.02106344699859619
-2.735720634460449 -1.80113685131073 -0.402168869972229 43.0 4 -0.021061142906546593
-2.7424449920654297 -1.8048779964447021 0.5199882388114929 72.0 12 -0.021058838814496994
-2.3669044971466064 -1.5571317672729492 -0.24787092208862305 7.0 5 -0.021056534722447395
-2.7538115978240967 -1.811668872833252 0.6407366394996643 65.0 13 -0.021054230630397797
-2.5331616401672363 -1.6658759117126465 -0.15889199078083038 3.0 6 -0.021051926538348198
-2.743849992752075 -1.8037444353103638 0.7580850720405579 61.0 14 -0.0210496224462986
-2.316239833831787 -1.5220634937286377 -0.04837806895375252 10.0 7 -0.021047318354249
-2.714236259460449 -1.782920479774475 0.8701496720314026 63.0 15 -0.021045014262199402
-2.3537585735321045 -1.5414299964904785 0.04911107197403908 12.0 8 -0.021021975204348564
-1.930452823638916 -1.263734221458435 -0.5326840877532959 1.0 1 -0.021019671112298965
-2.7057294845581055 -1.7705799341201782 0.1694638431072235 6.0 9 -0.021017367020249367
-2.743757963180542 -1.794780969619751 -0.6373021006584167 40.0 2 -0.021015062928199768
-2.7664506435394287 -1.8089358806610107 0.28918275237083435 72.0 10 -0.02101275883615017
-2.7431414127349854 -1.793010950088501 -0.5190495848655701 42.0 3 -0.02101045474410057
-2.7649409770965576 -1.8072599172592163 0.40558120608329773 75.0 11 -0.021008150652050972
-2.7419912815093994 -1.7915762662887573 -0.402168869972229 41.0 4 -0.021005846560001373
-2.7586517333984375 -1.8017752170562744 0.5218654274940491 66.0 12 -0.021003542467951775
-2.368988513946533 -1.5466822385787964 -0.24752230942249298 7.0 5 -0.021001238375902176
-2.750568151473999 -1.795125961303711 0.6384469270706177 67.0 13 -0.020998934283852577
-2.550959587097168 -1.6642191410064697 -0.15962468087673187 3.0 6 -0.02099663019180298
-2.7488107681274414 -1.7926112413406372 0.757635235786438 60.0 14 -0.02099432609975338
-2.3198635578155518 -1.5128774642944336 -0.04834316670894623 19.0 7 -0.02099202200770378
-2.7091147899627686 -1.766050100326538 0.866526186466217 60.0 15 -0.020989717915654182
-2.347653388977051 -1.5251673460006714 0.04886673763394356 11.0 8 -0.020966678857803345
-1.935071587562561 -1.2566503286361694 -0.5326840877532959 1.0 1 -0.020964374765753746
-2.7370193004608154 -1.7774412631988525 0.17103391885757446 7.0 9 -0.020962070673704147
-2.7434194087982178 -1.7809168100357056 -0.635775625705719 36.0 2 -0.02095976658165455
-2.7744195461273193 -1.800352692604065 0.28935706615448 67.0 10 -0.02095746248960495
-2.7410972118377686 -1.7780494689941406 -0.5174852609634399 41.0 3 -0.02095515839755535
-2.756556272506714 -1.7873939275741577 0.40338757634162903 71.0 11 -0.020952854305505753
-2.7452080249786377 -1.7793549299240112 -0.40168139338493347 43.0 4 -0.020950550213456154
-2.758293867111206 -1.7878369092941284 0.520613968372345 65.0 12 -0.020948246121406555
-2.381061553955078 -1.5427370071411133 -0.2482195496559143 7.0 5 -0.020945942029356956
-2.7469305992126465 -1.7791101932525635 0.636157214641571 66.0 13 -0.020943637937307358
-2.548370361328125 -1.6498773097991943 -0.15910132229328156 2.0 6 -0.02094133384525776
-2.7566871643066406 -1.7840639352798462 0.7580850720405579 61.0 14 -0.02093902975320816
-2.345275640487671 -1.517807960510254 -0.04876202344894409 24.0 7 -0.02093672566115856
-2.7233734130859375 -1.7618294954299927 0.8691143989562988 60.0 15 -0.020934421569108963
-2.3543789386749268 -1.5184575319290161 0.048901643604040146 9.0 8 -0.020911382511258125
-2.7549588680267334 -1.7754496335983276 0.17176662385463715 9.0 9 -0.020906774327158928
-2.7496190071105957 -1.7713301181793213 -0.635775625705719 34.0 2 -0.02090447023510933
-2.780687093734741 -1.7906570434570312 0.28935706615448 65.0 10 -0.02090216614305973
-2.7386741638183594 -1.763602375984192 -0.5159209370613098 39.0 3 -0.020899862051010132
-2.7591300010681152 -1.7760939598083496 0.4029000997543335 70.0 11 -0.020897557958960533
-2.744415521621704 -1.765945315361023 -0.4007064402103424 41.0 4 -0.020895253866910934
-2.7695019245147705 -1.781403660774231 0.521552562713623 67.0 12 -0.020892949774861336
-2.3763771057128906 -1.5279510021209717 -0.24717368185520172 7.0 5 -0.020890645682811737
-2.7528152465820312 -1.769991159439087 0.636157214641571 67.0 13 -0.02088834159076214
-2.5723092555999756 -1.6532959938049316 -0.16025270521640778 3.0 6 -0.02088603936135769
-2.7511117458343506 -1.7675389051437378 0.7549358010292053 63.0 14 -0.02088373526930809
-2.369068145751953 -1.521498680114746 -0.049145977944135666 26.0 7 -0.02088143117725849
-2.7213780879974365 -1.747093915939331 0.866526186466217 60.0 15 -0.020879127085208893
-2.3815605640411377 -1.5242435932159424 0.0493554063141346 8.0 8 -0.020856086164712906
-1.9435806274414062 -1.2434494495391846 -0.5326840877532959 1.0 1 -0.020853782072663307
-2.7577738761901855 -1.7636706829071045 0.17155727744102478 10.0 9 -0.02085147798061371
-2.745553970336914 -1.755855679512024 -0.6334859132766724 34.0 2 -0.02084917388856411
-2.781574010848999 -1.7782065868377686 0.2888341248035431 61.0 10 -0.02084686979651451
-2.7564656734466553 -1.7614777088165283 -0.5181110501289368 40.0 3 -0.020844565704464912
-2.765312671661377 -1.7664525508880615 0.4029000997543335 70.0 11 -0.020842261612415314
-2.7371785640716553 -1.7478073835372925 -0.3987565040588379 40.0 4 -0.020839959383010864
-2.7607178688049316 -1.7621599435806274 0.5187367796897888 68.0 12 -0.020837655290961266
-2.3850550651550293 -1.5217903852462769 -0.24752230942249298 7.0 5 -0.020835351198911667
-2.758976697921753 -1.7603718042373657 0.636157214641571 65.0 13 -0.020833047106862068
-2.611743211746216 -1.6657869815826416 -0.16234615445137024 5.0 6 -0.02083074301481247
-2.745762586593628 -1.7505913972854614 0.751786470413208 66.0 14 -0.02082843892276287
-2.4704854488372803 -1.5744799375534058 -0.05113555118441582 22.0 7 -0.020826134830713272
-2.740494728088379 -1.7458877563476562 0.8706672787666321 63.0 15 -0.020823830738663673
-2.5168447494506836 -1.5984704494476318 0.05204307660460472 14.0 8 -0.020800789818167686
-2.7622275352478027 -1.7529634237289429 0.1714526116847992 10.0 9 -0.02079618163406849
-2.7420246601104736 -1.73947012424469 -0.6311962008476257 34.0 2 -0.02079387754201889
-2.7813422679901123 -1.7637324333190918 0.28813689947128296 60.0 10 -0.02079157531261444
-2.754560708999634 -1.7460755109786987 -0.5165466666221619 38.0 3 -0.020789271220564842
-2.7731385231018066 -1.7578517198562622 0.40314382314682007 67.0 11 -0.020786967128515244
-2.7449398040771484 -1.7393046617507935 -0.39900025725364685 33.0 4 -0.020784663036465645
-2.7568390369415283 -1.746170997619629 0.5168595314025879 65.0 12 -0.020782358944416046
-2.3802528381347656 -1.507060170173645 -0.2464764267206192 7.0 5 -0.020780054852366447
-2.7654106616973877 -1.7502471208572388 0.636157214641571 66.0 13 -0.02077775076031685
-2.634708881378174 -1.6668822765350342 -0.16339287161827087 6.0 6 -0.02077544666826725
-2.753807306289673 -1.7415575981140137 0.7522363662719727 63.0 14 -0.02077314257621765
-2.4945576190948486 -1.5776033401489258 -0.05151950567960739 21.0 7 -0.020770838484168053
-2.7318758964538574 -1.7270203828811646 0.8660085797309875 63.0 15 -0.020768534392118454
-1.7340562343597412 -1.092839241027832 -0.5492140650749207 1.0 0 -0.020747797563672066
-2.5379140377044678 -1.598828911781311 0.05235722288489342 22.0 8 -0.020745495334267616
-2.768634080886841 -1.7428275346755981 0.1714526116847992 10.0 9 -0.02074088715016842
-2.753063917160034 -1.733026385307312 -0.6323410272598267 33.0 2 -0.02073858305811882
-2.7773635387420654 -1.7476460933685303 0.2870910167694092 58.0 10 -0.02073627896606922
-2.742246150970459 -1.7248796224594116 -0.5131050944328308 37.0 3 -0.020733974874019623
-2.7762017250061035 -1.7455625534057617 0.40265634655952454 65.0 11 -0.020731670781970024
-2.7344889640808105 -1.7186694145202637 -0.3965628743171692 36.0 4 -0.020729366689920425
-2.7682387828826904 -1.7392070293426514 0.517798125743866 67.0 12 -0.020727062597870827
-2.3888731002807617 -1.5008621215820312 -0.24682505428791046 7.0 5 -0.020724758505821228
-2.758202314376831 -1.7322309017181396 0.6331042647361755 67.0 13 -0.02072245441377163
-2.6337451934814453 -1.6534273624420166 -0.16297417879104614 6.0 6 -0.02072015032172203
-2.7598695755004883 -1.7319343090057373 0.7522363662719727 63.0 14 -0.020717846229672432
-2.5003225803375244 -1.5684503316879272 -0.05151950567960739 23.0 7 -0.020715542137622833
-2.7234573364257812 -1.7077592611312866 0.8613498210906982 55.0 15 -0.020713238045573235
-1.7116531133651733 -1.0703907012939453 -0.5409318208694458 1.0 0 -0.020692503079771996
-2.551957607269287 -1.5952597856521606 0.05253174528479576 20.0 8 -0.020690198987722397
-1.9567084312438965 -1.2226873636245728 -0.5326840877532959 1.0 1 -0.020687894895672798
-2.7696187496185303 -1.7299782037734985 0.17113859951496124 7.0 9 -0.0206855908036232
-2.7557663917541504 -1.7213256359100342 -0.6315777897834778 33.0 2 -0.0206832867115736
-2.7800676822662354 -1.7358295917510986 0.2867423892021179 59.0 10 -0.020680982619524002
-2.7599804401397705 -1.7226190567016602 -0.5152952075004578 41.0 3 -0.020678678527474403
-2.7738568782806396 -1.730607271194458 0.4014376401901245 70.0 11 -0.020676374435424805
-2.726997137069702 -1.700709342956543 -0.39461296796798706 36.0 4 -0.020674070343375206
-2.7608819007873535 -1.7211737632751465 0.5152952075004578 62.0 12 -0.020671766251325607
-2.3907158374786377 -1.4904067516326904 -0.2464764267206192 7.0 5 -0.02066946215927601
-2.754234790802002 -1.7163623571395874 0.6308146119117737 66.0 13 -0.02066715806722641
-2.6344151496887207 -1.6410548686981201 -0.1626601666212082 7.0 6 -0.02066485397517681
-2.7658982276916504 -1.7222903966903687 0.7522363662719727 63.0 14 -0.020662549883127213
-2.611039161682129 -1.6252293586730957 -0.053683605045080185 38.0 7 -0.020660245791077614
-2.7310423851013184 -1.6992626190185547 0.8618674278259277 50.0 15 -0.020657941699028015
-1.7219451665878296 -1.068483591079712 -0.5430023670196533 2.0 0 -0.020637206733226776
-2.5575106143951416 -1.5863418579101562 0.05253174528479576 14.0 8 -0.020634902641177177
-1.960964560508728 -1.2158496379852295 -0.5326840877532959 1.0 1 -0.02063259854912758
-2.6652939319610596 -1.65190851688385 0.16433492302894592 5.0 9 -0.02063029445707798
-2.7567520141601562 -1.7085927724838257 -0.6304329633712769 36.0 2 -0.02062799036502838
-2.792884111404419 -1.7303125858306885 0.28743961453437805 55.0 10 -0.020625686272978783
-2.7609386444091797 -1.709854006767273 -0.5143565535545349 40.0 3 -0.020623382180929184
-2.76806640625 -1.7136000394821167 0.39973148703575134 66.0 11 -0.020621078088879585
-2.712660312652588 -1.6786454916000366 -0.39168810844421387 37.0 4 -0.020618773996829987
-2.7819929122924805 -1.7208783626556396 0.5181110501289368 63.0 12 -0.020616469904780388
-2.402681589126587 -1.4862449169158936 -0.24717368185520172 7.0 5 -0.02061416581273079
-2.758540153503418 -1.705704689025879 0.6304329633712769 61.0 13 -0.02061186172068119
-2.629934072494507 -1.6255484819412231 -0.1620321422815323 7.0 6 -0.020609557628631592
-2.760288715362549 -1.7054551839828491 0.7490870356559753 47.0 14 -0.020607255399227142
-2.628606081008911 -1.6234599351882935 -0.053927935659885406 14.0 7 -0.020604951307177544
-2.7386012077331543 -1.6907340288162231 0.862385094165802 45.0 15 -0.020602647215127945
-1.778306007385254 -1.0948777198791504 -0.5595667958259583 1.0 0 -0.020581910386681557
-2.5579233169555664 -1.5742605924606323 0.052427031099796295 7.0 8 -0.020579606294631958
-1.9651966094970703 -1.208997130393982 -0.5326840877532959 1.0 1 -0.02057730220258236
-2.3205759525299072 -1.4270696640014648 0.14277251064777374 8.0 9 -0.02057499811053276
-2.7526650428771973 -1.69278883934021 -0.6281432509422302 36.0 2 -0.020572694018483162
-2.7921178340911865 -1.7163794040679932 0.2867423892021179 24.0 10 -0.020570389926433563
-2.765207290649414 -1.6991719007492065 -0.5140437483787537 41.0 3 -0.020568085834383965
-2.770648241043091 -1.7018492221832275 0.3992440104484558 65.0 11 -0.020565781742334366
-2.723578453063965 -1.6722825765609741 -0.39241933822631836 38.0 4 -0.020563477650284767
-2.767780065536499 -1.6987571716308594 0.5143565535545349 58.0 12 -0.02056117355823517
-2.401062488555908 -1.473680019378662 -0.2464764267206192 7.0 5 -0.02055887132883072
-2.766150712966919 -1.6970915794372559 0.6308146119117737 51.0 13 -0.02055656723678112
-2.635591983795166 -1.6163591146469116 -0.1620321422815323 7.0 6 -0.02055426314473152
-2.7612407207489014 -1.6927540302276611 0.7477373480796814 45.0 14 -0.020551959052681923
-2.642782211303711 -1.6194987297058105 -0.05410246178507805 11.0 7 -0.020549654960632324
-2.769196033477783 -1.6963013410568237 0.8701496720314026 50.0 15 -0.020547350868582726
-1.7656315565109253 -1.0785921812057495 -0.5543904304504395 1.0 0 -0.020526614040136337
-2.5412166118621826 -1.551774024963379 0.05197326838970184 9.0 8 -0.02052430994808674
-1.969404697418213 -1.2021304368972778 -0.5326840877532959 1.0 1 -0.02052200585603714
-2.337228536605835 -1.426651120185852 0.14350520074367523 7.0 9 -0.02051970176398754
-2.7552056312561035 -1.6811248064041138 -0.6273800134658813 40.0 2 -0.020517397671937943
-2.7402591705322266 -1.6713488101959229 0.28081580996513367 29.0 10 -0.020515093579888344
-2.769434690475464 -1.6884814500808716 -0.5137308239936829 40.0 3 -0.020512791350483894
-2.7782669067382812 -1.6932002305984497 0.3994877338409424 55.0 11 -0.020510487258434296
-2.7226181030273438 -1.6586339473724365 -0.3914443552494049 38.0 4 -0.020508183166384697
-2.7632763385772705 -1.6834032535552979 0.5124793648719788 51.0 12 -0.0205058790743351
-2.399385452270508 -1.4611440896987915 -0.24577918648719788 7.0 5 -0.0205035749822855
-2.775411367416382 -1.6894677877426147 0.6315777897834778 52.0 13 -0.0205012708902359
-2.639511823654175 -1.60611093044281 -0.1619274616241455 6.0 6 -0.020498966798186302
-2.79876708984375 -1.702345609664917 0.7562854886054993 55.0 14 -0.020496662706136703
-2.706226348876953 -1.6460578441619873 -0.05528922379016876 34.0 7 -0.020494358614087105
-2.7896621227264404 -1.6961416006088257 0.8748083710670471 56.0 15 -0.020492054522037506
-1.772689938545227 -1.0744249820709229 -0.5554257035255432 1.0 0 -0.020471317693591118
-2.6130428314208984 -1.5837616920471191 0.0533345565199852 11.0 8 -0.02046901360154152
-1.9733803272247314 -1.1955928802490234 -0.5326840877532959 1.0 1 -0.02046671137213707
-2.285817861557007 -1.384340524673462 0.14005103707313538 5.0 9 -0.02046440728008747
-2.75601863861084 -1.6684467792510986 -0.6262351274490356 38.0 2 -0.020462103188037872
-2.7188029289245605 -1.645269751548767 0.278026819229126 11.0 10 -0.020459799095988274
-2.7598087787628174 -1.6700841188430786 -0.5109150409698486 41.0 3 -0.020457495003938675
-2.7838664054870605 -1.6839778423309326 0.3994877338409424 51.0 11 -0.020455190911889076
-2.7315008640289307 -1.6516505479812622 -0.39193183183670044 38.0 4 -0.020452886819839478
-2.7911126613616943 -1.6870315074920654 0.5165466666221619 56.0 12 -0.02045058272778988
-2.395944595336914 -1.4476087093353271 -0.24490763247013092 7.0 5 -0.02044827863574028
-2.8112452030181885 -1.698529601097107 0.6384469270706177 58.0 13 -0.02044597454369068
-2.6567909717559814 -1.6045769453048706 -0.1626601666212082 7.0 6 -0.020443670451641083
-2.8310885429382324 -1.709171175956726 0.7634838819503784 61.0 14 -0.020441366359591484
-2.7170920372009277 -1.6397016048431396 -0.05539394170045853 32.0 7 -0.020439062267541885
-2.80218243598938 -1.6903847455978394 0.8768789768218994 54.0 15 -0.020436758175492287
-1.8060402870178223 -1.0864657163619995 -0.5647432208061218 1.0 0 -0.020416023209691048
-2.433473587036133 -1.463335394859314 0.04956483468413353 8.0 8 -0.02041371911764145
-1.9775416851043701 -1.188697099685669 -0.5326840877532959 1.0 1 -0.02041141502559185
-2.2837884426116943 -1.3722383975982666 0.13963234424591064 3.0 9 -0.02040911093354225
-2.7564878463745117 -1.6562647819519043 -0.6250903010368347 36.0 2 -0.020406806841492653
-2.616640567779541 -1.5716155767440796 0.26704519987106323 25.0 10 -0.020404502749443054
-2.752073287963867 -1.652305006980896 -0.5084120631217957 39.0 3 -0.020402198657393456
-2.806748628616333 -1.6844651699066162 0.40192511677742004 55.0 11 -0.020399894565343857
-2.733844757080078 -1.640063762664795 -0.3914443552494049 38.0 4 -0.020397590473294258
-2.8274788856506348 -1.6955641508102417 0.5221782922744751 62.0 12 -0.02039528638124466
-2.4109840393066406 -1.4458032846450806 -0.2459534853696823 7.0 5 -0.02039298228919506
-2.823892831802368 -1.6927436590194702 0.6399734020233154 60.0 13 -0.020390678197145462
-2.6332509517669678 -1.5778414011001587 -0.16088074445724487 5.0 6 -0.020388374105095863
-2.837038040161133 -1.6992777585983276 0.7634838819503784 57.0 14 -0.020386070013046265
-2.7485342025756836 -1.645615577697754 -0.055917512625455856 38.0 7 -0.020383765920996666
-2.796462297439575 -1.6736483573913574 0.8732554912567139 52.0 15 -0.020381461828947067
-1.809821605682373 -1.0801552534103394 -0.5647432208061218 1.0 0 -0.020360726863145828
-2.3372459411621094 -1.394384741783142 0.0475054495036602 21.0 8 -0.02035842277109623
-1.9816793203353882 -1.1817864179611206 -0.5326840877532959 1.0 1 -0.02035611867904663
-2.267977237701416 -1.351986289024353 0.13837628066539764 8.0 9 -0.020353814586997032
-2.76225209236145 -1.6466333866119385 -0.6250903010368347 40.0 2 -0.020351510494947433
-2.842902183532715 -1.6940380334854126 0.2895313799381256 49.0 10 -0.020349206402897835
-2.759521245956421 -1.643699288368225 -0.5087249279022217 41.0 3 -0.020346902310848236
-2.8330790996551514 -1.6868449449539185 0.4048500061035156 61.0 11 -0.020344598218798637
-2.722494602203369 -1.6203583478927612 -0.38900697231292725 41.0 4 -0.02034229412674904
-2.8435661792755127 -1.6917439699172974 0.524055540561676 57.0 12 -0.02033999003469944
-2.4091670513153076 -1.433303713798523 -0.24525626003742218 7.0 5 -0.02033768594264984
-2.836534023284912 -1.6868901252746582 0.6414998769760132 52.0 13 -0.020335381850600243
-2.5958220958709717 -1.5431253910064697 -0.1582639515399933 3.0 6 -0.020333077758550644
-2.829550266265869 -1.681400179862976 0.7598847150802612 52.0 14 -0.020330773666501045
-2.805609941482544 -1.6658493280410767 0.8742908239364624 51.0 15 -0.020326167345046997
-1.8335286378860474 -1.0856423377990723 -0.5709548592567444 1.0 0 -0.02030543051660061
