# .PCD v0.7 - Point Cloud Data file format
VERSION 0.7
FIELDS x y z intensity ring time
SIZE 4 4 4 4 4 4
TYPE F F F F F F
COUNT 1 1 1 1 1 1
WIDTH 539
HEIGHT 1
VIEWPOINT 0 0 0 1 0 0 0
POINTS 539
DATA ascii
-2.2815778255462646 -1.9555491209030151 -0.6937490701675415 3.0 1 -0.0307545755058527
-2.6663386821746826 -2.2845208644866943 0.1840132474899292 1.0 9 -0.0307522714138031
-2.264625310897827 -1.9403326511383057 -0.5796777606010437 10.0 2 -0.030749967321753502
-2.7147104740142822 -2.3251454830169678 0.3127147853374481 11.0 10 -0.030747663229703903
-1.566542387008667 -1.341267466545105 -0.3266351819038391 1.0 3 -0.030745359137654305
-2.704068660736084 -2.314394235610962 0.4370235204696655 35.0 11 -0.030743055045604706
-2.6826303005218506 -2.294424295425415 0.5590968132019043 23.0 12 -0.03073844686150551
-1.4944374561309814 -1.278175950050354 -0.17204543948173523 0.0 5 -0.03073614276945591
-2.6934258937835693 -2.302842855453491 0.688820481300354 57.0 13 -0.03073383867740631
-2.3518073558807373 -2.010054111480713 -0.16213680803775787 1.0 6 -0.030731534585356712
-2.678755521774292 -2.2886829376220703 0.8134230971336365 9.0 14 -0.030729230493307114
-2.265665054321289 -1.9350606203079224 -0.05200817435979843 1.0 7 -0.030726926401257515
-2.656332015991211 -2.267921209335327 0.935889720916748 45.0 15 -0.030724622309207916
-1.7075313329696655 -1.4542512893676758 -0.6009778380393982 1.0 0 -0.030703887343406677
-2.302199125289917 -1.9600181579589844 0.05277607962489128 7.0 8 -0.03070158325135708
-2.282454013824463 -1.9425207376480103 -0.6919494867324829 13.0 1 -0.03069927915930748
-2.648435592651367 -2.2531988620758057 0.1822338104248047 3.0 9 -0.03069697506725788
-2.2639074325561523 -1.9260555505752563 -0.5777696371078491 11.0 2 -0.030694670975208282
-2.728881359100342 -2.3208184242248535 0.31341204047203064 11.0 10 -0.030692366883158684
-1.5712147951126099 -1.335790991783142 -0.3266351819038391 1.0 3 -0.030690062791109085
-2.701542377471924 -2.295943021774292 0.43531733751296997 30.0 11 -0.030687758699059486
-2.692129373550415 -2.2863242626190186 0.5594097375869751 21.0 12 -0.03068315051496029
-1.4988902807235718 -1.2729512453079224 -0.17204543948173523 0.0 5 -0.03068084642291069
-2.684983968734741 -2.2794508934020996 0.6846227049827576 46.0 13 -0.03067854233086109
-2.383174180984497 -2.022510051727295 -0.1638115644454956 1.0 6 -0.030676238238811493
-2.6733546257019043 -2.2679715156555176 0.8093739748001099 8.0 14 -0.030673934146761894
-2.2297027111053467 -1.8909251689910889 -0.05103083327412605 1.0 7 -0.030671630054712296
-2.6598117351531982 -2.254887342453003 0.93433678150177 42.0 15 -0.030669325962662697
-2.322770833969116 -1.963588833808899 0.05309021845459938 4.0 8 -0.03064628690481186
-2.2877323627471924 -1.9332839250564575 -0.6914995908737183 19.0 1 -0.03064398281276226
-2.6410274505615234 -2.231051445007324 0.18118709325790405 70.0 9 -0.030641678720712662
-2.2691173553466797 -1.9168742895126343 -0.5773880481719971 15.0 2 -0.030639374628663063
-2.7323992252349854 -2.307422161102295 0.31288909912109375 10.0 10 -0.030637070536613464
-1.5456790924072266 -1.3048137426376343 -0.32037782669067383 1.0 3 -0.030634766444563866
-2.7019548416137695 -2.280097484588623 0.43409866094589233 24.0 11 -0.030632462352514267
-2.6955628395080566 -2.2730932235717773 0.5584710836410522 16.0 12 -0.03062785416841507
-1.4941855669021606 -1.260005235671997 -0.17099957168102264 0.0 5 -0.03062555007636547
-2.694425582885742 -2.271329879760742 0.6850043535232544 42.0 13 -0.030623245984315872
-2.5429491996765137 -2.1428802013397217 -0.17427875101566315 1.0 6 -0.030620943754911423
-2.6678411960601807 -2.247326612472534 0.8053248524665833 8.0 14 -0.030618639662861824
-2.2056970596313477 -1.8573700189590454 -0.05033273994922638 1.0 7 -0.030616335570812225
-2.6617555618286133 -2.240612030029297 0.9322662353515625 44.0 15 -0.030614031478762627
-2.329610586166382 -1.9554693698883057 0.05309021845459938 5.0 8 -0.03059099055826664
-2.2855098247528076 -1.917770504951477 -0.6888001561164856 21.0 1 -0.03058868646621704
-2.6549201011657715 -2.2269532680511475 0.18160578608512878 6.0 9 -0.030586382374167442
-2.265265464782715 -1.9001100063323975 -0.5747166872024536 16.0 2 -0.030584078282117844
-2.731276512145996 -2.290189027786255 0.31184324622154236 8.0 10 -0.030581774190068245
-1.5805020332336426 -1.32478928565979 -0.3266351819038391 1.0 3 -0.030579470098018646
-2.7053325176239014 -2.26682710647583 0.43336743116378784 17.0 11 -0.030577166005969048
-2.6943933963775635 -2.25606107711792 0.5565938949584961 16.0 12 -0.030572559684515
-1.5016298294067383 -1.2573399543762207 -0.1713481843471527 0.0 5 -0.0305702555924654
-2.6978213787078857 -2.2581303119659424 0.6838594675064087 39.0 13 -0.030567951500415802
-2.479952573776245 -2.075032949447632 -0.1694638431072235 1.0 6 -0.030565647408366203
-2.6726796627044678 -2.2355003356933594 0.804425060749054 8.0 14 -0.030563343316316605
-2.196826219558716 -1.8368324041366577 -0.04998369142413139 1.0 7 -0.030561039224267006
-2.659184694290161 -2.2226345539093018 0.928642749786377 40.0 15 -0.030558735132217407
-2.290339469909668 -1.9089162349700928 0.05204307660460472 5.0 8 -0.03053569421172142
-2.287698745727539 -1.9060388803482056 -0.6874504685401917 25.0 1 -0.03053339011967182
-2.6534688472747803 -2.210003614425659 0.18097776174545288 6.0 9 -0.030531086027622223
-2.27339243888855 -1.893447995185852 -0.5750983357429504 23.0 2 -0.030528783798217773
-2.7254738807678223 -2.2691681385040283 0.3102744519710541 7.0 10 -0.030526477843523026
-1.585116982460022 -1.3192641735076904 -0.3266351819038391 1.0 3 -0.030524175614118576
-2.711702346801758 -2.256101131439209 0.4331236779689789 16.0 11 -0.030521871522068977
-2.691619634628296 -2.2378017902374268 0.5544037818908691 15.0 12 -0.03051726333796978
-1.5060096979141235 -1.252090573310852 -0.1713481843471527 0.0 5 -0.03051495924592018
-2.707197666168213 -2.2499537467956543 0.6842411160469055 35.0 13 -0.030512655153870583
-2.4626002311706543 -2.045943021774292 -0.16778908669948578 1.0 6 -0.030510351061820984
-2.6864633560180664 -2.231137275695801 0.8062246441841125 8.0 14 -0.030508046969771385
-2.170915126800537 -1.8023279905319214 -0.04925068840384483 2.0 7 -0.030505742877721786
-2.660980224609375 -2.208404302597046 0.9265722036361694 40.0 15 -0.030503438785672188
-2.2908267974853516 -1.8958100080490112 0.051903460174798965 5.0 8 -0.030483802780508995
-2.295839309692383 -1.8992840051651 -0.6879003643989563 30.0 1 -0.030481498688459396
-2.6488544940948486 -2.190544366836548 0.18014037609100342 2.0 9 -0.030479194596409798
-2.2709109783172607 -1.877993106842041 -0.5728086233139038 27.0 2 -0.0304768905043602
-2.7103443145751953 -2.240598440170288 0.307659775018692 7.0 10 -0.0304745864123106
-1.5897120237350464 -1.3137234449386597 -0.3266351819038391 1.0 3 -0.030472282320261
-2.716500759124756 -2.2440924644470215 0.43263620138168335 12.0 11 -0.030469978228211403
-2.6872270107269287 -2.2183327674865723 0.5519008636474609 13.0 12 -0.030465370044112206
-1.5042250156402588 -1.2417527437210083 -0.17065094411373138 0.0 5 -0.030463065952062607
-2.698378086090088 -2.226745367050171 0.6800432801246643 30.0 13 -0.030460763722658157
-2.468186616897583 -2.0360634326934814 -0.1676844209432602 1.0 6 -0.03045845963060856
-2.6927311420440674 -2.2205071449279785 0.8057747483253479 6.0 14 -0.03045615553855896
-2.155590772628784 -1.7769321203231812 -0.04876202344894409 2.0 7 -0.03045385144650936
-2.6597273349761963 -2.1917307376861572 0.9234663844108582 40.0 15 -0.030451547354459763
-2.3097901344299316 -1.8979589939117432 0.052182696759700775 3.0 8 -0.030428506433963776
-2.2919139862060547 -1.8826000690460205 -0.684751033782959 32.0 1 -0.030426202341914177
-2.653397798538208 -2.1787497997283936 0.17993104457855225 2.0 9 -0.030423898249864578
-2.283521890640259 -1.8750382661819458 -0.5743350982666016 31.0 2 -0.03042159415781498
-2.725848436355591 -2.2374448776245117 0.3085313141345978 6.0 10 -0.03041929006576538
-1.5942882299423218 -1.308166265487671 -0.3266351819038391 1.0 3 -0.030416985973715782
-2.713573932647705 -2.225783586502075 0.4309300482273102 11.0 11 -0.030414683744311333
-2.693427324295044 -2.207686424255371 0.5515879988670349 12.0 12 -0.030410075560212135
-1.5147143602371216 -1.2415461540222168 -0.1713481843471527 0.0 5 -0.030407771468162537
-2.6955044269561768 -2.2086026668548584 0.6773719787597656 27.0 13 -0.030405467376112938
-2.4706432819366455 -2.0236387252807617 -0.16737040877342224 1.0 6 -0.03040316328406334
-2.6899116039276123 -2.202451467514038 0.8026254177093506 8.0 14 -0.03040085919201374
-2.1695175170898438 -1.7757296562194824 -0.048936549574136734 2.0 7 -0.030398555099964142
-2.6688570976257324 -2.183656692504883 0.9239840507507324 41.0 15 -0.030396251007914543
-2.3040058612823486 -1.8797714710235596 0.051903460174798965 2.0 8 -0.030373210087418556
-2.286390781402588 -1.864734411239624 -0.681151807308197 36.0 1 -0.030370905995368958
-2.6563422679901123 -2.1656887531280518 0.1796170175075531 3.0 9 -0.030368603765964508
-2.294617176055908 -1.87077796459198 -0.5754799246788025 37.0 2 -0.03036629967391491
-2.7212865352630615 -2.217846632003784 0.3071368336677551 6.0 10 -0.03036399558186531
-2.7105517387390137 -2.2075235843658447 0.4292238652706146 9.0 11 -0.030359387397766113
-2.70877742767334 -2.204505443572998 0.553152322769165 13.0 12 -0.030354779213666916
-1.4945262670516968 -1.215868353843689 -0.1685592085123062 0.0 5 -0.030352475121617317
-2.695582866668701 -2.1929850578308105 0.6754639148712158 24.0 13 -0.03035017102956772
-2.4683945178985596 -2.007441759109497 -0.16674236953258514 2.0 6 -0.03034786693751812
-2.6779260635375977 -2.177067518234253 0.7967766523361206 8.0 14 -0.03034556284546852
-2.181910276412964 -1.7731902599334717 -0.04907616600394249 1.0 7 -0.030343258753418922
-2.6764633655548096 -2.1743273735046387 0.9239840507507324 41.0 15 -0.030340954661369324
-2.2654922008514404 -1.8352144956588745 0.0508912168443203 2.0 8 -0.030317915603518486
-2.2913711071014404 -1.8555163145065308 -0.6807019710540771 41.0 1 -0.030315611511468887
-2.671647787094116 -2.162686347961426 0.18014037609100342 3.0 9 -0.03031330741941929
-2.2816193103790283 -1.8463000059127808 -0.570518970489502 35.0 2 -0.03031100332736969
-2.729397773742676 -2.207857131958008 0.3071368336677551 6.0 10 -0.03030869923532009
-2.7166976928710938 -2.196800470352173 0.42898014187812805 8.0 11 -0.030304091051220894
-2.6995551586151123 -2.181379556655884 0.549710750579834 12.0 12 -0.030299482867121696
-1.4987610578536987 -1.2106443643569946 -0.1685592085123062 0.0 5 -0.030297178775072098
-2.705129623413086 -2.184323787689209 0.6758455038070679 17.0 13 -0.0302948746830225
-2.481952667236328 -2.0033984184265137 -0.16716106235980988 3.0 6 -0.0302925705909729
-2.681337356567383 -2.163567543029785 0.7954270243644714 9.0 14 -0.0302902664989233
-2.1694111824035645 -1.7504949569702148 -0.048657309263944626 1.0 7 -0.030287962406873703
-2.673511266708374 -2.1564812660217285 0.9203605651855469 41.0 15 -0.030285658314824104
-2.239476203918457 -1.800585389137268 0.05015821382403374 4.0 8 -0.030262619256973267
-2.2905619144439697 -1.841001272201538 -0.6784523725509644 45.0 1 -0.030260315164923668
-2.6698403358459473 -2.1458401679992676 0.17951233685016632 4.0 9 -0.03025801107287407
-2.272745132446289 -1.826027750968933 -0.5667027235031128 38.0 2 -0.03025570698082447
-2.718446731567383 -2.183345079421997 0.30504509806632996 6.0 10 -0.030253402888774872
-2.721635341644287 -2.184342861175537 0.4284926652908325 5.0 11 -0.030248794704675674
-2.694826602935791 -2.1620543003082275 0.5472078323364258 12.0 12 -0.030244186520576477
-1.5029782056808472 -1.2054049968719482 -0.1685592085123062 0.0 5 -0.03024188242852688
-2.703547716140747 -2.167499542236328 0.6735557913780212 16.0 13 -0.03023957833647728
-2.482696056365967 -1.9897270202636719 -0.16674236953258514 2.0 6 -0.03023727424442768
-2.6827902793884277 -2.149319887161255 0.7936273813247681 9.0 14 -0.030234970152378082
-2.1723875999450684 -1.7404104471206665 -0.04858750104904175 4.0 7 -0.030232666060328484
-2.6719751358032227 -2.13988995552063 0.9172547459602356 38.0 15 -0.030230361968278885
-2.25168514251709 -1.798140525817871 0.05029783770442009 3.0 8 -0.030207322910428047
-2.3012232780456543 -1.8370424509048462 -0.6798021197319031 48.0 1 -0.03020501881837845
-2.674192428588867 -2.1340150833129883 0.17930300533771515 4.0 9 -0.03020271472632885
-2.282174587249756 -1.8205324411392212 -0.5674660205841064 42.0 2 -0.03020041063427925
-2.719820499420166 -2.1688737869262695 0.30434784293174744 7.0 10 -0.030198106542229652
-2.7242069244384766 -2.171593189239502 0.427761435508728 4.0 11 -0.030193498358130455
-2.6992669105529785 -2.1501729488372803 0.5465821027755737 12.0 12 -0.030188890174031258
-1.5071767568588257 -1.2001513242721558 -0.1685592085123062 0.0 5 -0.03018658608198166
-2.706112861633301 -2.154853343963623 0.6724109649658203 13.0 13 -0.03018428198993206
-2.492405891418457 -1.9839706420898438 -0.1669517159461975 2.0 6 -0.03018197976052761
-2.694477081298828 -2.144052505493164 0.794977068901062 11.0 14 -0.030179675668478012
-2.172189474105835 -1.7278374433517456 -0.048447877168655396 9.0 7 -0.030177371576428413
-2.6673312187194824 -2.12093186378479 0.9131135940551758 40.0 15 -0.030175067484378815
-2.348830223083496 -1.8623274564743042 0.05232231318950653 4.0 8 -0.030152026563882828
-2.2938766479492188 -1.8181051015853882 -0.6757529973983765 47.0 1 -0.03014972247183323
-2.6659703254699707 -2.112264633178711 0.17825628817081451 5.0 9 -0.03014741837978363
-2.2912769317626953 -1.8153928518295288 -0.5682291984558105 46.0 2 -0.03014511428773403
-2.730121612548828 -2.1623165607452393 0.3046964704990387 7.0 10 -0.030142810195684433
-2.722430944442749 -2.154679536819458 0.42629900574684143 4.0 11 -0.030138202011585236
-2.703658103942871 -2.1382861137390137 0.5459563732147217 12.0 12 -0.030133595690131187
-2.693596839904785 -2.129565954208374 0.6674498915672302 11.0 13 -0.03012898750603199
-2.4867806434631348 -1.9653512239456177 -0.16611434519290924 1.0 6 -0.03012668341398239
-2.6942999362945557 -2.1285929679870605 0.7927275896072388 12.0 14 -0.030124379321932793
-2.179776668548584 -1.7214843034744263 -0.04848278686404228 17.0 7 -0.030122075229883194
-2.677751064300537 -2.114001989364624 0.9141488671302795 43.0 15 -0.030119771137833595
-2.235900640487671 -1.7601131200790405 0.049669548869132996 2.0 8 -0.03009673021733761
-2.2925522327423096 -1.804060697555542 -0.6735035181045532 43.0 1 -0.03009442612528801
-2.6733272075653076 -2.1029458045959473 0.17825628817081451 5.0 9 -0.03009212203323841
-2.294513702392578 -1.8049559593200684 -0.5674660205841064 49.0 2 -0.030089817941188812
-2.7219910621643066 -2.14045786857605 0.3029533624649048 8.0 10 -0.030087515711784363
-2.714327096939087 -2.1328983306884766 0.42386162281036377 4.0 11 -0.030082907527685165
-2.7095513343811035 -2.1276161670684814 0.5456434488296509 13.0 12 -0.030078299343585968
-2.7071914672851562 -2.124999523162842 0.668976366519928 11.0 13 -0.03007369115948677
-2.4983396530151367 -1.960357427597046 -0.1664283573627472 1.0 6 -0.030071387067437172
-2.6848466396331787 -2.1059460639953613 0.7877786159515381 13.0 14 -0.030069082975387573
-2.1967880725860596 -1.7225022315979004 -0.048727117478847504 12.0 7 -0.030066778883337975
-2.679032802581787 -2.099874496459961 0.9120783805847168 46.0 15 -0.030064474791288376
-2.1601016521453857 -1.68826425075531 0.04785449802875519 6.0 8 -0.030041435733437538
-2.2942287921905518 -1.792447805404663 -0.6721537709236145 40.0 1 -0.03003913164138794
-2.6649110317230225 -2.0813076496124268 0.17720957100391388 6.0 9 -0.03003682754933834
-2.2899692058563232 -1.7884764671325684 -0.564794659614563 58.0 2 -0.030034523457288742
-2.7372984886169434 -2.1370737552642822 0.30382490158081055 8.0 10 -0.030032219365239143
-2.7280161380767822 -2.1282944679260254 0.42483654618263245 4.0 11 -0.030027611181139946
-2.7029409408569336 -2.1072144508361816 0.5428276658058167 13.0 12 -0.03002300299704075
-2.705301284790039 -2.1082956790924072 0.6666866540908813 8.0 13 -0.03001839481294155
-2.5351033210754395 -1.9749459028244019 -0.16841712594032288 2.0 6 -0.030016090720891953
-2.6875689029693604 -2.0929691791534424 0.7864289283752441 20.0 14 -0.030013786628842354
-2.2075209617614746 -1.7185086011886597 -0.04883183166384697 11.0 7 -0.030011482536792755
-2.681772232055664 -2.086951494216919 0.9105254411697388 50.0 15 -0.030009178444743156
-2.1786208152770996 -1.6905204057693481 0.048133738338947296 3.0 8 -0.02998613938689232
-2.3081705570220947 -1.7904003858566284 -0.6744033098220825 26.0 1 -0.02998383529484272
-2.6768946647644043 -2.07566499710083 0.17752358317375183 7.0 9 -0.02998153120279312
-2.2853376865386963 -1.7720515727996826 -0.5621232986450195 47.0 2 -0.029979227110743523
-2.730569362640381 -2.116520404815674 0.30225610733032227 10.0 10 -0.029976923018693924
-2.7291510105133057 -2.1138975620269775 0.42386162281036377 4.0 11 -0.029972314834594727
-2.710279941558838 -2.097766399383545 0.5428276658058167 18.0 12 -0.02996770665049553
-2.701775074005127 -2.0904297828674316 0.6640153527259827 7.0 13 -0.029963098466396332
-2.5640995502471924 -1.9831916093826294 -0.16988252103328705 3.0 6 -0.029960794374346733
-2.699483633041382 -2.087150812149048 0.7877786159515381 26.0 14 -0.029958490282297134
-2.1929376125335693 -1.6948949098587036 -0.04837806895375252 11.0 7 -0.029956186190247536
-2.679868459701538 -2.070490837097168 0.9074196219444275 49.0 15 -0.029953882098197937
-2.217775344848633 -1.7085332870483398 0.04886673763394356 7.0 8 -0.0299308430403471
-2.2758066654205322 -1.7526075839996338 -0.663155734539032 1.0 1 -0.0299285389482975
-2.673046112060547 -2.05777907371521 0.17679087817668915 7.0 9 -0.029926234856247902
-2.2840380668640137 -1.757676124572754 -0.5602152347564697 51.0 2 -0.029923930764198303
-2.7316250801086426 -2.1021156311035156 0.30155888199806213 11.0 10 -0.029921626672148705
-2.736513614654541 -2.1043572425842285 0.42386162281036377 4.0 11 -0.029917018488049507
-2.7160191535949707 -2.087090015411377 0.5425148010253906 18.0 12 -0.02991241030395031
-2.7063043117523193 -2.0781216621398926 0.6632521152496338 7.0 13 -0.029907802119851112
-2.546001672744751 -1.9543229341506958 -0.1682077795267105 3.0 6 -0.029905498027801514
-2.7113895416259766 -2.081275463104248 0.7891283631324768 34.0 14 -0.029903195798397064
-2.2004270553588867 -1.688447117805481 -0.048412974923849106 11.0 7 -0.029900891706347466
-2.684013605117798 -2.058772087097168 0.906384289264679 50.0 15 -0.029898587614297867
-2.2526166439056396 -1.7222559452056885 0.04949502646923065 7.0 8 -0.02987554669380188
-2.6329572200775146 -2.0115926265716553 0.17365071177482605 9.0 9 -0.029870938509702682
-2.3029465675354004 -1.7588263750076294 -0.5632681846618652 26.0 2 -0.029868634417653084
-2.728226661682129 -2.083624839782715 0.3003386855125427 12.0 10 -0.029866330325603485
-2.72684907913208 -2.081066131591797 0.42118048667907715 5.0 11 -0.029861722141504288
-2.726792335510254 -2.0795161724090576 0.5431405305862427 25.0 12 -0.02985711395740509
-2.701411008834839 -2.058668851852417 0.6601991653442383 7.0 13 -0.029852507635951042
-2.524550199508667 -1.9231919050216675 -0.1663236916065216 3.0 6 -0.029850203543901443
-2.7190001010894775 -2.0713231563568115 0.7891283631324768 41.0 14 -0.029847899451851845
-2.2002365589141846 -1.675525188446045 -0.04827335476875305 8.0 7 -0.029845595359802246
-2.6777071952819824 -2.0383894443511963 0.9017255902290344 53.0 15 -0.029843291267752647
-2.2413907051086426 -1.700692057609558 0.04911107197403908 13.0 8 -0.02982025034725666
-2.6001808643341064 -1.972214937210083 0.17103391885757446 11.0 9 -0.029815642163157463
-2.3153302669525146 -1.7555208206176758 -0.564794659614563 28.0 2 -0.029813338071107864
-2.7406086921691895 -2.0772218704223633 0.3008616268634796 20.0 10 -0.029811033979058266
-2.721799373626709 -2.061469078063965 0.41923055052757263 8.0 11 -0.029806427657604218
-2.719860076904297 -2.0592544078826904 0.5403247475624084 23.0 12 -0.02980181947350502
-2.703883647918701 -2.045672655105591 0.6590543389320374 7.0 13 -0.029797211289405823
-2.500980854034424 -1.8914777040481567 -0.16433492302894592 1.0 6 -0.029794907197356224
-2.7091164588928223 -2.048889398574829 0.7841793894767761 45.0 14 -0.029792603105306625
-2.19490647315979 -1.6593925952911377 -0.04802902415394783 12.0 7 -0.029790299013257027
-2.6848063468933105 -2.0290300846099854 0.9017255902290344 54.0 15 -0.029787994921207428
-2.2422268390655518 -1.6896394491195679 0.04900635778903961 12.0 8 -0.02976495400071144
-2.61149263381958 -1.9671865701675415 0.17134793102741241 10.0 9 -0.029760347679257393
-2.3321175575256348 -1.756100058555603 -0.5674660205841064 25.0 2 -0.029758043587207794
-2.737931251525879 -2.0609328746795654 0.29981574416160583 22.0 10 -0.029755739495158195
-2.7222750186920166 -2.047658681869507 0.41825562715530396 8.0 11 -0.029751131311058998
-2.72509503364563 -2.0490365028381348 0.5400118231773376 27.0 12 -0.0297465231269598
-2.7075133323669434 -2.0343363285064697 0.6582910418510437 7.0 13 -0.029741914942860603
-2.2900519371032715 -1.7200452089309692 -0.15009953081607819 1.0 6 -0.029739610850811005
-2.7190122604370117 -2.0422348976135254 0.7850792407989502 59.0 14 -0.029737306758761406
-2.1908020973205566 -1.6449013948440552 -0.0478195957839489 14.0 7 -0.029735002666711807
-2.6915199756622314 -2.020115613937378 0.9017255902290344 55.0 15 -0.02973269857466221
-2.2526209354400635 -1.6857891082763672 0.04911107197403908 14.0 8 -0.02970965951681137
-1.8475341796875 -1.3821322917938232 -0.5326840877532959 1.0 1 -0.029707355424761772
-2.6695265769958496 -1.9963346719741821 0.17469742894172668 6.0 9 -0.029705051332712173
-2.355222225189209 -1.761290431022644 -0.5716637372970581 27.0 2 -0.029702747240662575
-2.7399635314941406 -2.0482635498046875 0.29929283261299133 27.0 10 -0.029700443148612976
-2.7322306632995605 -2.040996551513672 0.4187431037425995 9.0 11 -0.02969583496451378
-2.7258989810943604 -2.0347847938537598 0.5387603640556335 36.0 12 -0.02969122678041458
-2.7221121788024902 -2.031217336654663 0.6601991653442383 7.0 13 -0.029686618596315384
-2.2733302116394043 -1.6957234144210815 -0.148634135723114 6.0 6 -0.029684314504265785
-2.724562406539917 -2.031566619873047 0.7846293449401855 67.0 14 -0.029682010412216187
-2.190117597579956 -1.6324630975723267 -0.047679975628852844 11.0 7 -0.029679706320166588
-2.686161756515503 -2.001474618911743 0.8975844979286194 55.0 15 -0.02967740222811699
-2.253675937652588 -1.6743378639221191 0.04900635778903961 14.0 8 -0.02965436317026615
-1.9305717945098877 -1.4337692260742188 -0.555179238319397 1.0 1 -0.029652059078216553
-2.687704563140869 -1.995337963104248 0.17543014883995056 7.0 9 -0.029649754986166954
-2.380272388458252 -1.767101764678955 -0.5762432217597961 30.0 2 -0.029647450894117355
-2.743896484375 -2.0363118648529053 0.2989441752433777 37.0 10 -0.029645146802067757
-2.7409329414367676 -2.0326292514801025 0.41898685693740845 12.0 11 -0.02964053861796856
-2.729810953140259 -2.022904872894287 0.5381346344947815 40.0 12 -0.029635930433869362
-2.711832046508789 -2.0088489055633545 0.6560013890266418 8.0 13 -0.029631322249770164
-2.2615795135498047 -1.6747031211853027 -0.1474827378988266 6.0 6 -0.029629018157720566
-2.7285046577453613 -2.0197248458862305 0.7837295532226562 72.0 14 -0.029626714065670967
-2.1845502853393555 -1.6164824962615967 -0.047435641288757324 9.0 7 -0.02962440997362137
-2.677600622177124 -1.9805976152420044 0.8924081325531006 54.0 15 -0.02962210774421692
-2.294912338256836 -1.6925735473632812 0.04977426677942276 26.0 8 -0.029599066823720932
-1.85713791847229 -1.3692008256912231 -0.5326840877532959 1.0 1 -0.029596762731671333
-2.6866142749786377 -1.980019211769104 0.17490679025650024 6.0 9 -0.029594458639621735
-2.4022305011749268 -1.7704298496246338 -0.5800594091415405 30.0 2 -0.029592154547572136
-2.742967367172241 -2.020812511444092 0.2980726361274719 41.0 10 -0.029589850455522537
-2.728828191757202 -2.0089266300201416 0.41606199741363525 15.0 11 -0.02958524227142334
-2.7304909229278564 -2.008681535720825 0.5368831753730774 43.0 12 -0.029580634087324142
-2.706174850463867 -1.990065574645996 0.6529484391212463 8.0 13 -0.029576027765870094
-2.260974645614624 -1.6620666980743408 -0.14706405997276306 11.0 6 -0.029573723673820496
-2.7135539054870605 -1.9940321445465088 0.7774308919906616 71.0 14 -0.029571419581770897
-2.204683780670166 -1.6195015907287598 -0.04774978384375572 10.0 7 -0.029569115489721298
-2.684497833251953 -1.9712388515472412 0.8924081325531006 55.0 15 -0.0295668113976717
-2.297579050064087 -1.6821902990341187 0.049704451113939285 41.0 8 -0.029543770477175713
-1.8619064092636108 -1.3627092838287354 -0.5326840877532959 1.0 1 -0.029541466385126114
-2.6806142330169678 -1.961194396018982 0.17406940460205078 6.0 9 -0.029539162293076515
-2.4210715293884277 -1.7713074684143066 -0.583112359046936 28.0 2 -0.029536858201026917
-2.750004291534424 -2.011225938796997 0.2980726361274719 45.0 10 -0.029534554108977318
-2.7230024337768555 -1.9900187253952026 0.41411206126213074 19.0 11 -0.02952994778752327
-2.73429536819458 -1.9968079328536987 0.5362574458122253 48.0 12 -0.029525339603424072
-2.719447612762451 -1.9852372407913208 0.6544748544692993 10.0 13 -0.029520731419324875
-2.269989013671875 -1.6565194129943848 -0.14727339148521423 20.0 6 -0.029518427327275276
-2.714200019836426 -1.9799546003341675 0.775631308555603 78.0 14 -0.029516123235225677
-2.220018148422241 -1.6188652515411377 -0.047959212213754654 12.0 7 -0.02951381914317608
-2.6866798400878906 -1.9584416151046753 0.8908551931381226 58.0 15 -0.02951151505112648
-2.2985846996307373 -1.67063307762146 0.04959974065423012 25.0 8 -0.029488474130630493
-1.8666518926620483 -1.3562017679214478 -0.5326840877532959 1.0 1 -0.029486170038580894
-2.6745150089263916 -1.9424364566802979 0.1732320338487625 6.0 9 -0.029483865946531296
-2.4351818561553955 -1.768614411354065 -0.5850204229354858 24.0 2 -0.029481563717126846
-2.7537841796875 -1.9992727041244507 0.29772400856018066 53.0 10 -0.029479259625077248
-2.7299318313598633 -1.9805021286010742 0.41411206126213074 23.0 11 -0.02947465144097805
-2.7332522869110107 -1.9814542531967163 0.5346930623054504 56.0 12 -0.029470043256878853
-2.726360321044922 -1.9757330417633057 0.6544748544692993 11.0 13 -0.029465435072779655
-2.2725231647491455 -1.646241545677185 -0.14706405997276306 16.0 6 -0.029463130980730057
-2.713202953338623 -1.9647533893585205 0.773381769657135 81.0 14 -0.029460826888680458
-2.272630453109741 -1.6451109647750854 -0.04897145554423332 17.0 7 -0.02945852279663086
-2.707584857940674 -1.9592446088790894 0.8955139517784119 72.0 15 -0.02945621870458126
-2.2816991806030273 -1.6462184190750122 0.04911107197403908 13.0 8 -0.029433179646730423
-1.871374249458313 -1.3496780395507812 -0.5326840877532959 1.0 1 -0.029430875554680824
-2.678039073944092 -1.9307527542114258 0.17302268743515015 6.0 9 -0.029428571462631226
-2.4926154613494873 -1.7964082956314087 -0.5972321629524231 1.0 2 -0.029426267370581627
-2.7465438842773438 -1.9786851406097412 0.2961552143096924 56.0 10 -0.029423963278532028
-2.736828565597534 -1.9709608554840088 0.41411206126213074 33.0 11 -0.02941935509443283
-2.727324962615967 -1.9626712799072266 0.5321901440620422 57.0 12 -0.029414746910333633
-2.730396270751953 -1.9634342193603516 0.6537116169929504 15.0 13 -0.029410138726234436
-2.2752978801727295 -1.6355702877044678 -0.1468547135591507 19.0 6 -0.029407834634184837
-2.7172210216522217 -1.9525213241577148 0.7724819779396057 81.0 14 -0.02940553054213524
-2.2799832820892334 -1.6383341550827026 -0.04900635778903961 20.0 7 -0.02940322645008564
-2.697148323059082 -1.937384009361267 0.8898199200630188 76.0 15 -0.02940092235803604
-2.230808734893799 -1.597102403640747 0.047889403998851776 25.0 8 -0.029377883300185204
-2.6850976943969727 -1.9209243059158325 0.17302268743515015 6.0 9 -0.029373275116086006
-2.7420895099639893 -1.9609731435775757 0.294935017824173 60.0 10 -0.02936866693198681
-2.7408037185668945 -1.9586080312728882 0.4136245846748352 41.0 11 -0.02936405874788761
-2.7328927516937256 -1.9515130519866943 0.5318772196769714 60.0 12 -0.029359450563788414
-2.724449872970581 -1.9447661638259888 0.6506586670875549 15.0 13 -0.029354842379689217
-2.2874960899353027 -1.6322582960128784 -0.14727339148521423 18.0 6 -0.029352538287639618
-2.7256064414978027 -1.9441561698913574 0.7729318737983704 83.0 14 -0.02935023419559002
-2.2762038707733154 -1.6230010986328125 -0.04879692941904068 20.0 7 -0.02934793010354042
-2.6979384422302246 -1.9230003356933594 0.8877493143081665 78.0 15 -0.029345626011490822
-1.670555830001831 -1.1876412630081177 -0.5492140650749207 1.0 0 -0.029324891045689583
-2.228219985961914 -1.583513855934143 0.04771488159894943 27.0 8 -0.029322586953639984
-2.691786766052246 -1.911539912223816 0.17302268743515015 6.0 9 -0.029317978769540787
-2.745668888092041 -1.949082851409912 0.2945863902568817 60.0 10 -0.02931337058544159
-2.736290454864502 -1.9409892559051514 0.41191840171813965 49.0 11 -0.029308762401342392
-2.7429115772247314 -1.9442462921142578 0.5325029492378235 63.0 12 -0.029304154217243195
-2.724813938140869 -1.9307048320770264 0.649132251739502 18.0 13 -0.029299546033143997
-2.2948102951049805 -1.6254174709320068 -0.147378072142601 13.0 6 -0.029297243803739548
-2.733966827392578 -1.9357563257217407 0.773381769657135 92.0 14 -0.02929493971168995
-2.2867515087127686 -1.6185117959976196 -0.048901643604040146 22.0 7 -0.02929263561964035
-2.7014803886413574 -1.9113394021987915 0.8867141008377075 78.0 15 -0.02929033152759075
-2.235367774963379 -1.5768786668777466 0.04774978384375572 31.0 8 -0.029267290607094765
-2.6984429359436035 -1.9021319150924683 0.17302268743515015 4.0 9 -0.029262682422995567
-2.7491986751556396 -1.9371907711029053 0.29423779249191284 63.0 10 -0.02925807423889637
-2.7414259910583496 -1.9302831888198853 0.4116746783256531 59.0 11 -0.029253466054797173
-2.7448346614837646 -1.9312505722045898 0.5315644145011902 62.0 12 -0.029248859733343124
-2.7202959060668945 -1.9132754802703857 0.6464609503746033 26.0 13 -0.029244251549243927
-2.3037378787994385 -1.6196945905685425 -0.14758741855621338 10.0 6 -0.02924194745719433
-2.7247631549835205 -1.9149963855743408 0.7688827514648438 86.0 14 -0.02923964336514473
-2.3054778575897217 -1.619715690612793 -0.049180880188941956 25.0 7 -0.02923733927309513
-2.701812267303467 -1.8974566459655762 0.8846435546875 78.0 15 -0.029235035181045532
-2.242496967315674 -1.5702131986618042 0.04778468981385231 38.0 8 -0.029211994260549545
-1.5709654092788696 -1.0995934009552002 -0.4427036941051483 0.0 1 -0.029209690168499947
-2.6919748783111572 -1.8835402727127075 0.17218531668186188 4.0 9 -0.029207386076450348
-2.759209156036377 -1.929866909980774 0.2945863902568817 68.0 10 -0.02920277789235115
-2.736758232116699 -1.91274094581604 0.4099684953689575 63.0 11 -0.029198171570897102
-2.595517873764038 -1.8133537769317627 -0.3887632191181183 1.0 4 -0.029195867478847504
-2.7353639602661133 -1.9103468656539917 0.5284357070922852 62.0 12 -0.029193563386797905
-2.3391215801239014 -1.6336156129837036 -0.24961404502391815 3.0 5 -0.029191259294748306
-2.730177879333496 -1.9060152769088745 0.6472241282463074 28.0 13 -0.029188955202698708
-2.324117660522461 -1.6219305992126465 -0.14852945506572723 9.0 6 -0.02918665111064911
-2.7170467376708984 -1.8954386711120605 0.7648336291313171 78.0 14 -0.02918434701859951
-2.3258800506591797 -1.6219526529312134 -0.04949502646923065 29.0 7 -0.02918204292654991
-2.708418846130371 -1.8880144357681274 0.8846435546875 76.0 15 -0.029179738834500313
-1.6829010248184204 -1.1700823307037354 -0.5492140650749207 1.0 0 -0.02916240692138672
-2.2545323371887207 -1.5669409036636353 0.047924306243658066 36.0 8 -0.02916010282933712
-1.574793815612793 -1.0941033363342285 -0.4427036941051483 0.0 1 -0.02915779873728752
-2.698532819747925 -1.874132752418518 0.17218531668186188 4.0 9 -0.029155494645237923
-1.604453206062317 -1.1142938137054443 -0.379709929227829 0.0 2 -0.029153190553188324
-2.761018753051758 -1.916814923286438 0.2940634489059448 77.0 10 -0.029150886461138725
-2.745048761367798 -1.9043083190917969 0.4102122485637665 67.0 11 -0.029146278277039528
-2.595306634902954 -1.7997578382492065 -0.3877882957458496 10.0 4 -0.02914397418498993
-2.73065185546875 -1.8929084539413452 0.5262455940246582 65.0 12 -0.02914167009294033
-2.359832286834717 -1.635244607925415 -0.2511828541755676 7.0 5 -0.029139366000890732
-2.7352004051208496 -1.8953558206558228 0.6468425393104553 31.0 13 -0.029137063771486282
-2.392155170440674 -1.65702486038208 -0.1525069922208786 2.0 6 -0.029134759679436684
-2.7252490520477295 -1.8870515823364258 0.7652835249900818 75.0 14 -0.029132455587387085
-2.329882860183716 -1.612686276435852 -0.049460120499134064 27.0 7 -0.029130151495337486
-2.705460786819458 -1.8719534873962402 0.881537675857544 76.0 15 -0.029127847403287888
-1.575865626335144 -1.087117314338684 -0.5129793882369995 0.0 0 -0.0291071105748415
-2.2830324172973633 -1.5749591588974 0.048412974923849106 35.0 8 -0.0291048064827919
-1.5786036252975464 -1.0885990858078003 -0.4427036941051483 0.0 1 -0.029102502390742302
-2.6984806060791016 -1.8601672649383545 0.17176662385463715 5.0 9 -0.029100198298692703
-2.758181095123291 -1.8999011516571045 0.29301759600639343 77.0 10 -0.029095590114593506
-2.606426239013672 -1.7946981191635132 -0.5012161135673523 3.0 3 -0.029093286022543907
-2.750044345855713 -1.893588662147522 0.4099684953689575 71.0 11 -0.029090983793139458
-2.626101016998291 -1.8075700998306274 -0.3914443552494049 18.0 4 -0.02908867970108986
-2.7372424602508545 -1.8833657503128052 0.5262455940246582 65.0 12 -0.02908637560904026
-2.3491101264953613 -1.6157063245773315 -0.24943974614143372 7.0 5 -0.02908407151699066
-2.727569103240967 -1.875307559967041 0.6434080004692078 36.0 13 -0.029081767424941063
-2.5002639293670654 -1.7183841466903687 -0.15899664163589478 2.0 6 -0.029079463332891464
-2.7305407524108887 -1.87594735622406 0.7648336291313171 71.0 14 -0.029077159240841866
-2.351979970932007 -1.615867018699646 -0.04980916902422905 22.0 7 -0.029074855148792267
-2.699239492416382 -1.8537483215332031 0.8773965835571289 76.0 15 -0.029072551056742668
-1.5924028158187866 -1.090341329574585 -0.5171204805374146 0.0 0 -0.02905181422829628
-2.320143222808838 -1.5880403518676758 0.04907616600394249 23.0 8 -0.02904951013624668
-1.6404825448989868 -1.1224207878112793 -0.45890021324157715 1.0 1 -0.029047206044197083
-2.7049574851989746 -1.8507362604141235 0.17176662385463715 5.0 9 -0.029044903814792633
-2.6494979858398438 -1.8121130466461182 -0.6239454746246338 1.0 2 -0.029042599722743034
-2.759861946105957 -1.8868882656097412 0.29249465465545654 75.0 10 -0.029040295630693436
-2.6257224082946777 -1.7945058345794678 -0.5037190318107605 21.0 3 -0.029037991538643837
-2.7422144412994385 -1.8734184503555298 0.4077748656272888 78.0 11 -0.02903568744659424
-2.6586203575134277 -1.816308856010437 -0.39534419775009155 18.0 4 -0.02903338335454464
-2.743799924850464 -1.873799443244934 0.5262455940246582 63.0 12 -0.02903107926249504
-2.3711907863616943 -1.6187299489974976 -0.2511828541755676 7.0 5 -0.029028775170445442
-2.727611780166626 -1.8613485097885132 0.6418814659118652 53.0 13 -0.029026471078395844
-2.5326461791992188 -1.727654218673706 -0.1606713980436325 3.0 6 -0.029024166986346245
-2.7367465496063232 -1.866882085800171 0.7648336291313171 72.0 14 -0.029021862894296646
-2.3410847187042236 -1.5963813066482544 -0.049460120499134064 19.0 7 -0.029019558802247047
-2.712078332901001 -1.848667860031128 0.8794671893119812 76.0 15 -0.02901725471019745
-1.6311570405960083 -1.1089497804641724 -0.5285084843635559 1.0 0 -0.02899651974439621
-2.292318344116211 -1.557857632637024 0.04837806895375252 19.0 8 -0.02899421565234661
-2.707775831222534 -1.8395113945007324 0.17155727744102478 6.0 9 -0.028989607468247414
-2.647372007369995 -1.7978020906448364 -0.6220373511314392 14.0 2 -0.028987303376197815
-2.7710494995117188 -1.8810827732086182 0.29301759600639343 77.0 10 -0.028984999284148216
-2.6594462394714355 -1.8046448230743408 -0.5090377926826477 24.0 3 -0.028982695192098618
-2.7451260089874268 -1.862086534500122 0.4072873890399933 81.0 11 -0.02898039110004902
-2.6679139137268066 -1.8097116947174072 -0.3958316743373871 18.0 4 -0.02897808700799942
-2.7532687187194824 -1.8669077157974243 0.526871383190155 63.0 12 -0.02897578291594982
-2.3765456676483154 -1.6108578443527222 -0.2511828541755676 7.0 5 -0.028973478823900223
-2.7353944778442383 -1.8533951044082642 0.6422631144523621 56.0 13 -0.028971174731850624
-2.5267856121063232 -1.7114057540893555 -0.15993870794773102 2.0 6 -0.028968870639801025
-2.731627941131592 -1.8501466512680054 0.7616842985153198 70.0 14 -0.028966566547751427
-2.394386053085327 -1.6211212873458862 -0.050472360104322433 26.0 7 -0.028964262455701828
-2.714994192123413 -1.8374983072280884 0.8784318566322327 74.0 15 -0.02896195836365223
-1.6412304639816284 -1.1078578233718872 -0.5305790901184082 1.0 0 -0.02894122339785099
-2.3157055377960205 -1.562551498413086 0.04876202344894409 19.0 8 -0.02893891930580139
-2.700932025909424 -1.821116328239441 0.1707199066877365 5.0 9 -0.028934311121702194
-2.6728527545928955 -1.802183747291565 -0.6266167759895325 20.0 2 -0.028932007029652596
-2.7772719860076904 -1.8718831539154053 0.29301759600639343 77.0 10 -0.028929702937602997
-2.6932663917541504 -1.814579725265503 -0.5143565535545349 25.0 3 -0.028927398845553398
-2.7496392726898193 -1.8518640995025635 0.4070436358451843 82.0 11 -0.0289250947535038
-2.698915481567383 -1.8170164823532104 -0.3994877338409424 28.0 4 -0.0289227906614542
-2.7499358654022217 -1.850667953491211 0.5249941349029541 65.0 12 -0.028920486569404602
-2.375262975692749 -1.5985183715820312 -0.2504855990409851 7.0 5 -0.028918182477355003
-2.743154525756836 -1.8454097509384155 0.6426447629928589 60.0 13 -0.028915878385305405
-2.539076328277588 -1.7074753046035767 -0.16035738587379456 3.0 6 -0.028913574293255806
-2.7251312732696533 -1.8319026231765747 0.7580850720405579 70.0 14 -0.028911270201206207
-2.4149675369262695 -1.6227916479110718 -0.05078650265932083 24.0 7 -0.02890896610915661
-2.716580867767334 -1.8247785568237305 0.8768789768218994 70.0 15 -0.02890666201710701
-1.7028661966323853 -1.1408308744430542 -0.5492140650749207 1.0 0 -0.02888592705130577
-2.3410842418670654 -1.5678106546401978 0.049180880188941956 13.0 8 -0.028883622959256172
-1.9173372983932495 -1.283545732498169 -0.5326840877532959 1.0 1 -0.028881318867206573
-2.7006330490112305 -1.8072341680526733 0.17030121386051178 6.0 9 -0.028879014775156975
-2.697075128555298 -1.8048533201217651 -0.6308146119117737 27.0 2 -0.028876710683107376
-2.770540952682495 -1.8533148765563965 0.2916231155395508 80.0 10 -0.028874406591057777
-2.7258570194244385 -1.822736382484436 -0.5193625092506409 51.0 3 -0.02887210249900818
-2.757737159729004 -1.8433579206466675 0.4072873890399933 81.0 11 -0.02886979840695858
-2.743204116821289 -1.8329501152038574 -0.4050937294960022 50.0 4 -0.02886749431490898
-2.7481653690338135 -1.835572361946106 0.523429811000824 67.0 12 -0.028865190222859383
-2.3808279037475586 -1.5902178287506104 -0.2504855990409851 7.0 5 -0.028862886130809784
-2.752845287322998 -1.8380025625228882 0.6434080004692078 62.0 13 -0.028860582038760185
-2.5284087657928467 -1.6875144243240356 -0.15931066870689392 7.0 6 -0.028858279809355736
-2.734750986099243 -1.82454252243042 0.7589848637580872 70.0 14 -0.028855975717306137
-2.3939993381500244 -1.5965989828109741 -0.05022802576422691 13.0 7 -0.02885367162525654
-2.713289499282837 -1.8088549375534058 0.8737731575965881 67.0 15 -0.02885136753320694
-2.368192434310913 -1.5740193128585815 0.04963464289903641 14.0 8 -0.028828326612710953
-2.6736505031585693 -1.7756959199905396 0.1682077795267105 6.0 9 -0.028823718428611755
-2.73116135597229 -1.8138916492462158 -0.6373021006584167 60.0 2 -0.028821414336562157
-2.768693685531616 -1.8381232023239136 0.29075154662132263 75.0 10 -0.028819110244512558
-2.7420785427093506 -1.8197641372680664 -0.521239697933197 50.0 3 -0.02881680615246296
-2.7658092975616455 -1.8348169326782227 0.40753111243247986 82.0 11 -0.02881450206041336
-2.7429678440093994 -1.818975567817688 -0.40411877632141113 47.0 4 -0.02881219983100891
-2.746323585510254 -1.8205111026763916 0.5218654274940491 70.0 12 -0.028809895738959312
-2.3764004707336426 -1.5752925872802734 -0.24943974614143372 7.0 5 -0.028807591646909714
-2.7445154190063477 -1.81862211227417 0.6399734020233154 65.0 13 -0.028805287554860115
-2.5509345531463623 -1.6897082328796387 -0.16035738587379456 5.0 6 -0.028802983462810516
-2.741103172302246 -1.8149853944778442 0.7589848637580872 70.0 14 -0.028800679370760918
-2.3845503330230713 -1.5782992839813232 -0.049913883209228516 12.0 7 -0.02879837527871132
-2.7083089351654053 -1.7919116020202637 0.8701496720314026 64.0 15 -0.02879607118666172
-2.4220807552337646 -1.5976747274398804 0.050646886229515076 13.0 8 -0.028773030266165733
-1.9246248006820679 -1.2690563201904297 -0.532234251499176 1.0 1 -0.028770726174116135
-2.6664912700653076 -1.7575595378875732 0.16737040877342224 6.0 9 -0.028768422082066536
-2.742393732070923 -1.807589054107666 -0.6384469270706177 42.0 2 -0.028766117990016937
-2.7750930786132812 -1.8284473419189453 0.29075154662132263 75.0 10 -0.028763815760612488
-2.7401652336120605 -1.80474853515625 -0.5196753740310669 49.0 3 -0.02876151166856289
-2.7622487545013428 -1.8186023235321045 0.40606871247291565 75.0 11 -0.02875920757651329
-2.744325876235962 -1.806115746498108 -0.40338757634162903 43.0 4 -0.02875690348446369
-2.762563705444336 -1.8174266815185547 0.5237426161766052 68.0 12 -0.028754599392414093
-2.38521409034729 -1.5691771507263184 -0.24978835880756378 7.0 5 -0.028752295300364494
-2.7459254264831543 -1.8057951927185059 0.6388285160064697 63.0 13 -0.028749991208314896
-2.536790132522583 -1.6676279306411743 -0.15910132229328156 2.0 6 -0.028747687116265297
-2.753937005996704 -1.8096860647201538 0.7607845067977905 63.0 14 -0.028745383024215698
-2.311490774154663 -1.5183660984039307 -0.04827335476875305 12.0 7 -0.0287430789321661
-2.7177772521972656 -1.7845675945281982 0.8711849451065063 66.0 15 -0.0287407748401165
-2.3623926639556885 -1.5464955568313599 0.04928559437394142 13.0 8 -0.028717735782265663
-2.7060387134552 -1.770107626914978 0.1694638431072235 6.0 9 -0.028713127598166466
-2.7519729137420654 -1.800154685974121 -0.6392101645469666 40.0 2 -0.028710823506116867
-2.776456117630005 -1.8154782056808472 0.29022860527038574 63.0 10 -0.02870851941406727
-2.7447948455810547 -1.7940917015075684 -0.5193625092506409 46.0 3 -0.02870621532201767
-2.7569475173950195 -1.801348328590393 0.4043624997138977 71.0 11 -0.02870391122996807
-2.7339937686920166 -1.7856700420379639 -0.40095019340515137 41.0 4 -0.028701607137918472
-2.7622745037078857 -1.8034535646438599 0.5224911570549011 63.0 12 -0.028699303045868874
-2.390676498413086 -1.5608420372009277 -0.24978835880756378 7.0 5 -0.028696998953819275
-2.7439918518066406 -1.7908339500427246 0.6369204521179199 67.0 13 -0.028694694861769676
-2.554305076599121 -1.666401743888855 -0.15983402729034424 3.0 6 -0.028692390769720078
-2.742281436920166 -1.7883532047271729 0.7558355927467346 63.0 14 -0.02869008667767048
-2.3352041244506836 -1.5223007202148438 -0.048657309263944626 21.0 7 -0.02868778258562088
-2.7239904403686523 -1.775069236755371 0.8711849451065063 66.0 15 -0.02868547849357128
-2.3811914920806885 -1.5469554662704468 0.04956483468413353 12.0 8 -0.028662439435720444
-2.725602865219116 -1.7693510055541992 0.17030121386051178 7.0 9 -0.028657831251621246
-2.7417726516723633 -1.7798477411270142 -0.6353939771652222 36.0 2 -0.028655527159571648
-2.7794337272644043 -1.8036062717437744 0.28988000750541687 63.0 10 -0.02865322306752205
-2.7493836879730225 -1.7834244966506958 -0.5190495848655701 42.0 3 -0.02865091897547245
-2.763218641281128 -1.791713833808899 0.4043624997138977 73.0 11 -0.02864861488342285
-2.7335472106933594 -1.7717968225479126 -0.3999752104282379 41.0 4 -0.028646310791373253
-2.7619216442108154 -1.7895039319992065 0.521239697933197 65.0 12 -0.028644006699323654
-2.386077880859375 -1.5459872484207153 -0.24874247610569 7.0 5 -0.028641702607274055
-2.7502262592315674 -1.7812446355819702 0.6369204521179199 66.0 13 -0.028639398515224457
-2.5534002780914307 -1.653133749961853 -0.1594153493642807 2.0 6 -0.028637094423174858
-2.74687123298645 -1.777711272239685 0.75538569688797 66.0 14 -0.02863479033112526
-2.340503692626953 -1.5141398906707764 -0.048657309263944626 26.0 7 -0.02863248623907566
-2.7269251346588135 -1.7634522914886475 0.8701496720314026 63.0 15 -0.028630182147026062
-2.3697705268859863 -1.5277981758117676 0.049215786159038544 9.0 8 -0.028607143089175224
-2.74015736579895 -1.7652348279953003 0.1708245724439621 7.0 9 -0.028602534905076027
-2.74167537689209 -1.7655349969863892 -0.6338675618171692 34.0 2 -0.028600230813026428
-2.7790119647979736 -1.7895783185958862 0.28918275237083435 63.0 10 -0.02859792672097683
-2.752269983291626 -1.7716779708862305 -0.518423855304718 39.0 3 -0.02859562262892723
-2.769455671310425 -1.7820580005645752 0.4043624997138977 68.0 11 -0.028593318536877632
-2.739715099334717 -1.7622441053390503 -0.3999752104282379 41.0 4 -0.028591014444828033
-2.7565205097198486 -1.7723735570907593 0.5190495848655701 67.0 12 -0.028588710352778435
-2.388376235961914 -1.5350769758224487 -0.24839386343955994 7.0 5 -0.028586406260728836
-2.760039806365967 -1.7732751369476318 0.6376836895942688 66.0 13 -0.028584102168679237
-2.606497049331665 -1.6739839315414429 -0.16234615445137024 5.0 6 -0.02858179807662964
-2.744861364364624 -1.7628463506698608 0.753136157989502 67.0 14 -0.02857949584722519
-2.3676509857177734 -1.5200049877166748 -0.04911107197403908 24.0 7 -0.02857719175517559
-2.720057249069214 -1.7455756664276123 0.8660085797309875 64.0 15 -0.028574887663125992
-2.38883113861084 -1.5277217626571655 0.04949502646923065 7.0 8 -0.028551846742630005
-2.7516582012176514 -1.7584055662155151 0.17113859951496124 9.0 9 -0.028547238558530807
-2.751436471939087 -1.7575886249542236 -0.6346307396888733 34.0 2 -0.02854493446648121
-2.775477886199951 -1.7729461193084717 0.28813689947128296 63.0 10 -0.02854263037443161
-2.7470908164978027 -1.7541368007659912 -0.5162338018417358 40.0 3 -0.02854032628238201
-2.7759690284729004 -1.7718948125839233 0.4043624997138977 70.0 11 -0.028538022190332413
-2.7461555004119873 -1.7521913051605225 -0.3999752104282379 38.0 4 -0.028535718098282814
-2.7563364505767822 -1.758009433746338 0.517798125743866 63.0 12 -0.028533414006233215
-2.3872666358947754 -1.5220283269882202 -0.2476966232061386 7.0 5 -0.028531111776828766
-2.756586790084839 -1.7568168640136719 0.6353939771652222 66.0 13 -0.028528807684779167
-2.63956618309021 -1.6815893650054932 -0.16402089595794678 6.0 6 -0.02852650359272957
-2.757878303527832 -1.7569624185562134 0.7549358010292053 63.0 14 -0.02852419950067997
-2.482842445373535 -1.5811361074447632 -0.05137988552451134 20.0 7 -0.02852189540863037
-2.7182888984680176 -1.730406641960144 0.8634203672409058 56.0 15 -0.028519591316580772
-2.510927200317383 -1.5928678512573242 0.051903460174798965 20.0 8 -0.028496550396084785
-1.9469106197357178 -1.2345943450927734 -0.532234251499176 1.0 1 -0.028494246304035187
-2.7611522674560547 -1.7509294748306274 0.17134793102741241 9.0 9 -0.028491942211985588
