# .PCD v0.7 - Point Cloud Data file format
VERSION 0.7
FIELDS x y z intensity ring time
SIZE 4 4 4 4 4 4
TYPE F F F F F F
COUNT 1 1 1 1 1 1
WIDTH 533
HEIGHT 1
VIEWPOINT 0 0 0 1 0 0 0
POINTS 533
DATA ascii
1.1900324821472168 -0.03926951810717583 -0.2748901844024658 87.0 1 -0.09065451472997665
0.6607293486595154 -0.021918652579188347 0.0346464067697525 7.0 9 -0.0906522125005722
1.1360927820205688 -0.03788658231496811 -0.22095683217048645 87.0 2 -0.09064991027116776
0.6690670847892761 -0.022429049015045166 0.05856866016983986 57.0 10 -0.0906476080417633
0.6574311256408691 -0.022038979455828667 -0.10418536514043808 74.0 3 -0.09064529836177826
0.6646286845207214 -0.0223963912576437 0.08165246248245239 100.0 11 -0.09064299613237381
0.6487531661987305 -0.021974781528115273 -0.07970255613327026 75.0 4 -0.09064069390296936
0.6613679528236389 -0.02251764014363289 0.10481110215187073 61.0 12 -0.09063839167356491
0.6332091689109802 -0.021669557318091393 -0.055431053042411804 12.0 5 -0.09063608199357986
3.702493667602539 -0.12670600414276123 0.7201131582260132 8.0 13 -0.09063377976417542
0.672678530216217 -0.023137813434004784 -0.035274438560009 100.0 6 -0.09063147753477097
3.6789722442626953 -0.12718679010868073 0.8498651385307312 94.0 14 -0.09062917530536652
0.6375181674957275 -0.022151220589876175 -0.011134634725749493 7.0 7 -0.09062687307596207
3.670213222503662 -0.12816666066646576 0.9840300679206848 113.0 15 -0.09062456339597702
1.1737993955612183 -0.04242585599422455 -0.3147239685058594 81.0 0 -0.09060382843017578
0.6554679870605469 -0.023805812001228333 0.011448778212070465 100.0 8 -0.09060152620077133
1.193783164024353 -0.043565407395362854 -0.2757900059223175 85.0 1 -0.09059922397136688
0.6626446843147278 -0.024298077449202538 0.034751079976558685 6.0 9 -0.09059691429138184
1.1379228830337524 -0.04172573611140251 -0.2213384509086609 80.0 2 -0.09059461206197739
0.6590338349342346 -0.0242808535695076 0.057697102427482605 86.0 10 -0.09059230983257294
0.635636031627655 -0.023529892787337303 -0.10074380785226822 45.0 3 -0.09059000760316849
0.6744650602340698 -0.025085141882300377 0.08287115395069122 100.0 11 -0.09058769792318344
0.6605746746063232 -0.02468397282063961 -0.08116498589515686 54.0 4 -0.09058539569377899
0.6731292605400085 -0.025270752608776093 0.10668832063674927 51.0 12 -0.09058309346437454
0.668971598148346 -0.025114666670560837 -0.05856866016983986 10.0 5 -0.09058079123497009
3.6765244007110596 -0.13866740465164185 0.7151521444320679 16.0 13 -0.09057848900556564
0.6805769801139832 -0.025788260623812675 -0.035693127661943436 100.0 6 -0.0905761793255806
3.6843481063842773 -0.14025041460990906 0.8512148261070251 91.0 14 -0.09057387709617615
0.6394352316856384 -0.024452857673168182 -0.01116954069584608 5.0 7 -0.0905715748667717
3.6736042499542236 -0.1411256343126297 0.9850653409957886 113.0 15 -0.09056927263736725
1.179435133934021 -0.04675247147679329 -0.316276878118515 89.0 0 -0.09054853022098541
0.6393960118293762 -0.025457248091697693 0.01116954069584608 100.0 8 -0.09054622799158096
1.1936237812042236 -0.04773222282528877 -0.2757900059223175 87.0 1 -0.09054392576217651
0.6665471792221069 -0.02677129954099655 0.03496042266488075 6.0 9 -0.09054162353277206
1.1358085870742798 -0.04561878740787506 -0.22095683217048645 73.0 2 -0.09053932130336761
0.6629264950752258 -0.026741767302155495 0.05804572254419327 84.0 10 -0.09053701162338257
0.6335762143135071 -0.025668567046523094 -0.1004309356212616 28.0 3 -0.09053470939397812
0.662472665309906 -0.02695508673787117 0.08140873163938522 100.0 11 -0.09053240716457367
0.6644514203071594 -0.027151761576533318 -0.08165246248245239 38.0 4 -0.09053010493516922
3.6711108684539795 -0.15065596997737885 0.5819362998008728 33.0 12 -0.09052779525518417
0.6668891310691833 -0.027367964386940002 -0.05839434638619423 21.0 5 -0.09052549302577972
3.660325288772583 -0.15085327625274658 0.7120991945266724 33.0 13 -0.09052319079637527
0.6625228524208069 -0.02742043510079384 -0.034751079976558685 100.0 6 -0.09052088856697083
3.6935713291168213 -0.15351495146751404 0.8534643650054932 94.0 14 -0.09051857888698578
0.6433418989181519 -0.026851532980799675 -0.011239349842071533 7.0 7 -0.09051627665758133
3.6730892658233643 -0.15394802391529083 0.9850653409957886 111.0 15 -0.09051397442817688
1.1773346662521362 -0.05078592896461487 -0.31575924158096313 89.0 0 -0.09049323946237564
0.6432989239692688 -0.027862058952450752 0.011239349842071533 100.0 8 -0.09049093723297119
1.1895560026168823 -0.05172912776470184 -0.2748901844024658 85.0 1 -0.09048862755298615
0.6624589562416077 -0.028923582285642624 0.034751079976558685 6.0 9 -0.0904863253235817
1.1160285472869873 -0.04872685670852661 -0.21714064478874207 63.0 2 -0.09048402309417725
0.6747720241546631 -0.029579179361462593 0.05909159407019615 100.0 10 -0.0904817208647728
0.6374296545982361 -0.028053712099790573 -0.10105667263269424 21.0 3 -0.09047941118478775
0.6504756212234497 -0.02874162420630455 0.07994629442691803 100.0 11 -0.0904771089553833
0.6484874486923218 -0.028767179697752 -0.07970255613327026 43.0 4 -0.09047480672597885
3.6784563064575195 -0.16382116079330444 0.5831877589225769 43.0 12 -0.0904725044965744
0.6767416000366211 -0.03013889119029045 -0.059265900403261185 54.0 5 -0.09047019481658936
3.6715445518493652 -0.16415543854236603 0.714388906955719 55.0 13 -0.0904678925871849
0.6504516005516052 -0.02919556386768818 -0.03412304446101189 100.0 6 -0.09046559035778046
3.6813323497772217 -0.16588066518306732 0.8507649302482605 94.0 14 -0.09046328812837601
0.6652183532714844 -0.030091045424342155 -0.011623302474617958 7.0 7 -0.09046097844839096
3.6879682540893555 -0.16746965050697327 0.9892064332962036 113.0 15 -0.09045867621898651
1.1848692893981934 -0.055255256593227386 -0.31782978773117065 90.0 0 -0.09043794125318527
0.6491901874542236 -0.030387919396162033 0.011344064027071 100.0 8 -0.09043563902378082
1.1932615041732788 -0.05606406182050705 -0.2757900059223175 81.0 1 -0.09043333679437637
0.6663440465927124 -0.031423985958099365 0.03496042266488075 6.0 9 -0.09043102711439133
1.149189829826355 -0.05419442057609558 -0.22362814843654633 60.0 2 -0.09042872488498688
0.6826253533363342 -0.032311201095581055 0.059788838028907776 100.0 10 -0.09042642265558243
0.6432473063468933 -0.030559811741113663 -0.10199528187513351 10.0 3 -0.09042412042617798
0.6583026647567749 -0.0313902273774147 0.0809212476015091 100.0 11 -0.09042181074619293
0.6503658890724182 -0.031125543639063835 -0.07994629442691803 48.0 4 -0.09041950851678848
3.6699697971343994 -0.17628128826618195 0.5819362998008728 43.0 12 -0.09041720628738403
0.6965333223342896 -0.033456895500421524 -0.06100901961326599 100.0 5 -0.09041490405797958
3.6768319606781006 -0.17725412547588348 0.7155337929725647 71.0 13 -0.09041259437799454
0.6583254337310791 -0.03185196965932846 -0.03454173356294632 72.0 6 -0.09041029214859009
3.6787843704223633 -0.1786353886127472 0.8503150343894958 91.0 14 -0.09040798991918564
0.6571199893951416 -0.03202356770634651 -0.011483684182167053 20.0 7 -0.09040568768978119
3.691220283508301 -0.18053078651428223 0.9902417063713074 108.0 15 -0.09040337800979614
1.1808104515075684 -0.059197429567575455 -0.3167945444583893 87.0 0 -0.0903826430439949
0.6590660810470581 -0.033156201243400574 0.011518588289618492 100.0 8 -0.09038034081459045
1.1950047016143799 -0.06032722443342209 -0.27623990178108215 75.0 1 -0.090378038585186
0.6662302613258362 -0.033749770373106 0.03496042266488075 6.0 9 -0.09037573635578156
1.1431114673614502 -0.057907529175281525 -0.222483292222023 63.0 2 -0.09037342667579651
0.6705694198608398 -0.0340869165956974 0.05874297022819519 100.0 10 -0.09037112444639206
0.6470823287963867 -0.03300623223185539 -0.10262101888656616 6.0 3 -0.09036882221698761
0.6661191582679749 -0.03409381955862045 0.08189620822668076 26.0 11 -0.09036651998758316
0.6443058848381042 -0.033090103417634964 -0.07921507954597473 56.0 4 -0.09036421030759811
3.665386199951172 -0.18888746201992035 0.581310510635376 48.0 12 -0.09036190807819366
0.6506479978561401 -0.03352968767285347 -0.05699985474348068 100.0 5 -0.09035960584878922
3.68011212348938 -0.19029033184051514 0.7162970304489136 85.0 13 -0.09035730361938477
0.6502318978309631 -0.03373582288622856 -0.03412304446101189 15.0 6 -0.09035499393939972
3.687869071960449 -0.1919822096824646 0.8525645732879639 94.0 14 -0.09035269170999527
0.6729799509048462 -0.035151608288288116 -0.011762921698391438 52.0 7 -0.09035038948059082
3.67899227142334 -0.19280783832073212 0.9871358871459961 113.0 15 -0.09034808725118637
1.1767382621765137 -0.06311193853616714 -0.31575924158096313 85.0 0 -0.09032735228538513
0.6449686288833618 -0.034704457968473434 0.011274254880845547 100.0 8 -0.09032504260540009
1.2103540897369385 -0.06533857434988022 -0.2798391282558441 77.0 1 -0.09032274037599564
0.6700970530509949 -0.03629115968942642 0.03516976535320282 8.0 9 -0.09032043814659119
1.1252589225769043 -0.06094184145331383 -0.21904872357845306 80.0 2 -0.09031813591718674
0.6684569716453552 -0.036319341510534286 0.05856866016983986 100.0 10 -0.09031582623720169
0.6311836242675781 -0.034404657781124115 -0.10011807084083557 7.0 3 -0.09031352400779724
0.6858173608779907 -0.03750269487500191 0.08433359116315842 100.0 11 -0.09031122177839279
0.6620254516601562 -0.03631756827235222 -0.08140873163938522 61.0 4 -0.09030891954898834
3.670621871948242 -0.20200654864311218 0.5822491645812988 47.0 12 -0.0903066098690033
0.6465482711791992 -0.03558170422911644 -0.05665123090147972 100.0 5 -0.09030430763959885
3.6813857555389404 -0.20324338972568512 0.7166786193847656 92.0 13 -0.0903020054101944
0.6640695929527283 -0.036778468638658524 -0.03485574945807457 12.0 6 -0.09029970318078995
3.691067695617676 -0.20507028698921204 0.8534643650054932 100.0 14 -0.0902974009513855
0.6788429617881775 -0.03783436119556427 -0.011867635883390903 97.0 7 -0.09029509127140045
3.682154417037964 -0.20586438477039337 0.9881711006164551 113.0 15 -0.090292789041996
1.1822969913482666 -0.06754972040653229 -0.3173121511936188 76.0 0 -0.09027205407619476
0.6528292298316956 -0.03741326555609703 0.011413874104619026 75.0 8 -0.09026975184679031
1.2140097618103027 -0.06978677213191986 -0.2807389199733734 84.0 1 -0.09026744216680527
0.6779420375823975 -0.03908989205956459 0.035588450729846954 17.0 9 -0.09026513993740082
1.1505193710327148 -0.06633852422237396 -0.22400976717472076 87.0 2 -0.09026283770799637
0.6762822866439819 -0.03911262005567551 0.059265900403261185 100.0 10 -0.09026053547859192
0.6231713891029358 -0.036150094121694565 -0.09886659681797028 7.0 3 -0.09025822579860687
0.6579378247261047 -0.038282107561826706 0.0809212476015091 100.0 11 -0.09025592356920242
0.67576664686203 -0.03943781927227974 -0.08311489969491959 56.0 4 -0.09025362133979797
3.6738383769989014 -0.21504902839660645 0.5828748941421509 51.0 12 -0.09025131911039352
0.6484090685844421 -0.03795478492975235 -0.05682554095983505 100.0 5 -0.09024901688098907
3.672814130783081 -0.21563231945037842 0.7151521444320679 93.0 13 -0.09024670720100403
0.6579557657241821 -0.038744065910577774 -0.03454173356294632 10.0 6 -0.09024440497159958
3.6961658000946045 -0.21829795837402344 0.8548140525817871 91.0 14 -0.09024210274219513
0.6866915225982666 -0.040676720440387726 -0.012007256038486958 100.0 7 -0.09023980051279068
3.681413412094116 -0.21871624886989594 0.9881711006164551 115.0 15 -0.09023749083280563
1.1936237812042236 -0.07237786799669266 -0.32041797041893005 69.0 0 -0.0902167558670044
0.6666667461395264 -0.04054150730371475 0.011658207513391972 18.0 8 -0.09021445363759995
1.2157038450241089 -0.07414265722036362 -0.28118881583213806 96.0 1 -0.0902121514081955
0.6817885637283325 -0.04169997572898865 0.03579779714345932 54.0 9 -0.09020984917879105
1.156159520149231 -0.07071375101804733 -0.22515462338924408 80.0 2 -0.090207539498806
0.6582438945770264 -0.0403752364218235 0.057697102427482605 92.0 10 -0.09020523726940155
0.6545878052711487 -0.04026566073298454 -0.10387250036001205 6.0 3 -0.0902029350399971
0.6597815752029419 -0.04070072993636131 0.08116498589515686 100.0 11 -0.09020063281059265
0.6538305878639221 -0.040448177605867386 -0.08043377101421356 73.0 4 -0.0901983231306076
3.6829233169555664 -0.2284833788871765 0.584439218044281 63.0 12 -0.09019602090120316
0.6582155227661133 -0.04083476588129997 -0.057697102427482605 100.0 5 -0.0901937186717987
3.6837961673736572 -0.22918295860290527 0.7174418568611145 90.0 13 -0.09019141644239426
0.6538297533988953 -0.040791790932416916 -0.03433239087462425 7.0 6 -0.09018910676240921
3.6914913654327393 -0.23095528781414032 0.8539142608642578 97.0 14 -0.09018680453300476
0.6785622835159302 -0.042572617530822754 -0.011867635883390903 100.0 7 -0.09018450230360031
3.6921958923339844 -0.2322932481765747 0.9912769794464111 108.0 15 -0.09018220007419586
1.2087870836257935 -0.07753320038318634 -0.3245590925216675 64.0 0 -0.09016146510839462
0.6685166954994202 -0.04299670457839966 0.011693112552165985 12.0 8 -0.09015915542840958
1.215437650680542 -0.07838580757379532 -0.28118881583213806 92.0 1 -0.09015685319900513
0.6756595969200134 -0.0436929427087307 0.03548378124833107 86.0 9 -0.09015455096960068
1.1363141536712646 -0.07348213344812393 -0.2213384509086609 80.0 2 -0.09015224874019623
0.6978631615638733 -0.04525109753012657 0.06118332967162132 99.0 10 -0.09014993906021118
0.6445872187614441 -0.041909538209438324 -0.10230815410614014 6.0 3 -0.09014763683080673
0.6635972261428833 -0.043261829763650894 0.08165246248245239 100.0 11 -0.09014533460140228
0.6576470732688904 -0.04298919439315796 -0.0809212476015091 67.0 4 -0.09014303237199783
3.6781609058380127 -0.2410794198513031 0.583813488483429 78.0 12 -0.09014072269201279
0.666021466255188 -0.04365335404872894 -0.05839434638619423 100.0 5 -0.09013842046260834
3.690809726715088 -0.24255536496639252 0.7189683318138123 93.0 13 -0.09013611823320389
0.6516904830932617 -0.04294252023100853 -0.03422771766781807 7.0 6 -0.09013381600379944
3.6906626224517822 -0.24383960664272308 0.8539142608642578 97.0 14 -0.09013150632381439
0.6724236011505127 -0.04454444721341133 -0.011762921698391438 100.0 7 -0.09012920409440994
3.699073314666748 -0.2456921935081482 0.9933475852012634 108.0 15 -0.0901269018650055
1.1969444751739502 -0.08096986263990402 -0.3214532732963562 67.0 0 -0.09010616689920425
0.6723527908325195 -0.045600634068250656 0.011762921698391438 11.0 8 -0.0901038646697998
1.2229336500167847 -0.08315681666135788 -0.28298842906951904 92.0 1 -0.09010155498981476
0.6675324440002441 -0.04550779610872269 0.03506509214639664 70.0 9 -0.09009925276041031
1.053784966468811 -0.07183985412120819 -0.20531049370765686 70.0 2 -0.09009695053100586
0.6658968925476074 -0.045513056218624115 0.05839434638619423 39.0 10 -0.09009464830160141
0.6523200869560242 -0.04469948634505272 -0.10355963557958603 13.0 3 -0.09009233862161636
0.6733443140983582 -0.04625822603702545 0.08287115395069122 100.0 11 -0.09009003639221191
0.657492995262146 -0.04528454691171646 -0.0809212476015091 73.0 4 -0.09008773416280746
3.671384811401367 -0.25350889563560486 0.5828748941421509 91.0 12 -0.09008543193340302
0.6539390683174133 -0.045154448598623276 -0.057348478585481644 100.0 5 -0.09008312225341797
3.6938576698303223 -0.25570836663246155 0.7197315692901611 90.0 13 -0.09008082002401352
0.6694688200950623 -0.04646158590912819 -0.03516976535320282 9.0 6 -0.09007851779460907
3.6936769485473633 -0.256991446018219 0.8548140525817871 97.0 14 -0.09007621556520462
0.6662794947624207 -0.04647394269704819 -0.011658207513391972 100.0 7 -0.09007391333580017
3.6904842853546143 -0.25806379318237305 0.9912769794464111 111.0 15 -0.09007160365581512
1.198581337928772 -0.08528459817171097 -0.3219709098339081 74.0 0 -0.08997011184692383
0.6602218151092529 -0.047093648463487625 0.011553493328392506 12.0 8 -0.08996780961751938
1.226523518562317 -0.08770312368869781 -0.2838882505893707 99.0 1 -0.08996550738811493
0.6653856635093689 -0.047578707337379456 0.03496042266488075 68.0 9 -0.08996319770812988
1.0613607168197632 -0.07607927918434143 -0.20683696866035461 58.0 2 -0.08996089547872543
0.6379122734069824 -0.04583802819252014 0.0559539832174778 21.0 10 -0.08995859324932098
0.6541302800178528 -0.04711815342307091 -0.10387250036001205 30.0 3 -0.08995629101991653
0.6771385669708252 -0.048894282430410385 0.08335863798856735 100.0 11 -0.08995398133993149
0.6672305464744568 -0.04829591140151024 -0.08213994652032852 73.0 4 -0.08995167911052704
3.6685538291931152 -0.26553964614868164 0.5825620293617249 43.0 12 -0.08994937688112259
0.6557645797729492 -0.0475810281932354 -0.057522788643836975 86.0 5 -0.08994707465171814
3.6929423809051514 -0.26860079169273376 0.7197315692901611 90.0 13 -0.0899447649717331
0.6653185486793518 -0.04850771650671959 -0.03496042266488075 7.0 6 -0.08994246274232864
3.700531482696533 -0.2704513669013977 0.8566136360168457 97.0 14 -0.0899401605129242
0.6780879497528076 -0.04955769330263138 -0.011867635883390903 100.0 7 -0.08993785828351974
3.6857550144195557 -0.27001819014549255 0.9902417063713074 113.0 15 -0.0899355486035347
1.2136883735656738 -0.09061863273382187 -0.3261120319366455 78.0 0 -0.08991481363773346
0.6600620150566101 -0.04928275942802429 0.011553493328392506 12.0 8 -0.08991251140832901
1.2223392724990845 -0.09147906303405762 -0.28298842906951904 92.0 1 -0.08991020917892456
0.6751738786697388 -0.050648074597120285 0.03548378124833107 76.0 9 -0.08990790694952011
0.963202178478241 -0.0724235400557518 -0.18775606155395508 64.0 2 -0.08990559726953506
0.6417219042778015 -0.04836395010352135 0.05630260705947876 13.0 10 -0.08990329504013062
0.6657892465591431 -0.05017780512571335 -0.1057497188448906 84.0 3 -0.08990099281072617
0.6730138659477234 -0.05084042251110077 0.08287115395069122 100.0 11 -0.08989869058132172
0.66904616355896 -0.05065814405679703 -0.08238368481397629 68.0 4 -0.08989638090133667
0.6734743714332581 -0.051229868084192276 -0.05909159407019615 100.0 5 -0.08989177644252777
3.6842010021209717 -0.2802498936653137 0.7182050943374634 93.0 13 -0.08988947421312332
0.6691370606422424 -0.0510174036026001 -0.03516976535320282 7.0 6 -0.08988716453313828
3.711272954940796 -0.2836122512817383 0.8593130707740784 97.0 14 -0.08988486230373383
0.6799046397209167 -0.05207708477973938 -0.011902541853487492 100.0 7 -0.08988256007432938
3.696347236633301 -0.2837694585323334 0.9933475852012634 111.0 15 -0.08988025784492493
1.2172331809997559 -0.0949433222413063 -0.3271472752094269 85.0 0 -0.08985952287912369
0.6758348345756531 -0.05283330753445625 0.011832731775939465 8.0 8 -0.08985721319913864
1.2220125198364258 -0.0957452803850174 -0.28298842906951904 92.0 1 -0.08985491096973419
0.6590639352798462 -0.05175371468067169 0.0346464067697525 73.0 9 -0.08985260874032974
0.9257693886756897 -0.07269705832004547 -0.18050532042980194 70.0 2 -0.08985030651092529
0.6634067296981812 -0.05221124738454819 0.0582200363278389 13.0 10 -0.08984799683094025
0.6734869480133057 -0.05312284827232361 -0.10700118541717529 100.0 3 -0.0898456946015358
0.6570008993148804 -0.051937855780124664 0.0809212476015091 100.0 11 -0.08984339237213135
0.6589707136154175 -0.05220930278301239 -0.08116498589515686 56.0 4 -0.0898410901427269
0.6633701324462891 -0.052674371749162674 -0.0582200363278389 94.0 5 -0.0898364782333374
3.691028594970703 -0.2937314510345459 0.7197315692901611 93.0 13 -0.08983417600393295
0.6709458231925964 -0.0535116009414196 -0.035274438560009 16.0 6 -0.0898318737745285
3.704432725906372 -0.2960994243621826 0.8579633831977844 100.0 14 -0.08982957154512405
0.6837053894996643 -0.05476943403482437 -0.011972350999712944 100.0 7 -0.08982726186513901
3.6991851329803467 -0.2969795763492584 0.9943828582763672 111.0 15 -0.08982495963573456
1.2245961427688599 -0.09981947392225266 -0.3292178511619568 89.0 0 -0.08980422466993332
0.6676740050315857 -0.05454085394740105 0.011693112552165985 12.0 8 -0.08980192244052887
1.219728708267212 -0.09985131025314331 -0.2825385332107544 94.0 1 -0.08979961276054382
0.6588792204856873 -0.05405396595597267 0.0346464067697525 70.0 9 -0.08979731053113937
0.833545982837677 -0.06838349997997284 -0.16256926953792572 106.0 2 -0.08979500830173492
0.641377866268158 -0.05273085832595825 0.05630260705947876 13.0 10 -0.08979270607233047
0.6752662062644958 -0.055635642260313034 -0.10731405764818192 100.0 3 -0.08979039639234543
0.6607723832130432 -0.054557591676712036 0.08140873163938522 100.0 11 -0.08978809416294098
0.6647195219993591 -0.05500030517578125 -0.08189620822668076 19.0 4 -0.08978579193353653
0.6731100678443909 -0.05581284314393997 -0.05909159407019615 65.0 5 -0.08978118747472763
3.7017199993133545 -0.30758920311927795 0.7220212817192078 90.0 13 -0.08977887779474258
0.6846874952316284 -0.05701347067952156 -0.03600713983178139 28.0 6 -0.08977657556533813
3.7053186893463135 -0.3091906011104584 0.8584132790565491 100.0 14 -0.08977427333593369
0.6715535521507263 -0.056155867874622345 -0.011762921698391438 100.0 7 -0.08977197110652924
3.709676504135132 -0.31085824966430664 0.9974886178970337 106.0 15 -0.08976966142654419
1.2165406942367554 -0.1034388318657875 -0.3271472752094269 90.0 0 -0.08974892646074295
0.6634945869445801 -0.05653160810470581 0.011623302474617958 12.0 8 -0.0897466242313385
1.2271393537521362 -0.10477147251367569 -0.2843381464481354 94.0 1 -0.08974432200193405
0.6606765389442444 -0.056523799896240234 0.034751079976558685 66.0 9 -0.089742012321949
0.819609522819519 -0.07012122124433517 -0.15989795327186584 100.0 2 -0.08973971009254456
0.6749366521835327 -0.057862479239702225 0.059265900403261185 12.0 10 -0.0897374078631401
0.6691635251045227 -0.0574851930141449 -0.10637544840574265 100.0 3 -0.08973510563373566
0.6744223237037659 -0.05805554240942001 0.08311489969491959 100.0 11 -0.08973280340433121
0.6665012240409851 -0.05749087035655975 -0.08213994652032852 14.0 4 -0.08973049372434616
1.2162481546401978 -0.10512464493513107 0.19335302710533142 0.0 12 -0.08972819149494171
0.6610012054443359 -0.05713267624378204 -0.05804572254419327 63.0 5 -0.08972588926553726
3.7123591899871826 -0.3215251564979553 0.7243109941482544 90.0 13 -0.08972358703613281
0.6944332122802734 -0.06026654690504074 -0.036530498415231705 58.0 6 -0.08972127735614777
3.704216718673706 -0.3221226930618286 0.8584132790565491 97.0 14 -0.08971897512674332
0.6673691272735596 -0.05815250426530838 -0.011693112552165985 100.0 7 -0.08971667289733887
3.7008707523345947 -0.32313334941864014 0.9954180717468262 111.0 15 -0.08971437066793442
1.216172218322754 -0.10768472403287888 -0.3271472752094269 89.0 0 -0.08969362825155258
0.6891875863075256 -0.0611446388065815 0.01207706518471241 17.0 8 -0.08969132602214813
1.2306482791900635 -0.10939944535493851 -0.2852379381656647 94.0 1 -0.08968902379274368
0.6664433479309082 -0.05936123803257942 0.03506509214639664 70.0 9 -0.08968672156333923
0.8056711554527283 -0.07176249474287033 -0.15722662210464478 89.0 2 -0.08968441933393478
0.6568701267242432 -0.05862409621477127 0.057697102427482605 13.0 10 -0.08968210965394974
0.6689587831497192 -0.05982065945863724 -0.10637544840574265 100.0 3 -0.08967980742454529
0.6880558133125305 -0.061649441719055176 0.08482106775045395 100.0 11 -0.08967750519514084
0.6821136474609375 -0.06123703345656395 -0.08408986032009125 12.0 4 -0.08967520296573639
1.2080039978027344 -0.10866159945726395 0.19210153818130493 0.0 12 -0.08967289328575134
0.6568290591239929 -0.05908266454935074 -0.057697102427482605 86.0 5 -0.0896705910563469
3.6994822025299072 -0.3334243893623352 0.7220212817192078 90.0 13 -0.08966828882694244
0.6922294497489929 -0.06251057982444763 -0.03642582893371582 100.0 6 -0.089665986597538
3.7108330726623535 -0.33575329184532166 0.8602128624916077 97.0 14 -0.08966367691755295
0.6492382884025574 -0.058856815099716187 -0.011378969065845013 65.0 7 -0.0896613746881485
3.6958725452423096 -0.3357003629207611 0.9943828582763672 111.0 15 -0.08965907245874405
1.2234838008880615 -0.11263769865036011 -0.3292178511619568 92.0 0 -0.08963833749294281
0.6770224571228027 -0.06244795396924019 0.011867635883390903 28.0 8 -0.08963603526353836
1.2166756391525269 -0.11243923753499985 -0.28208863735198975 90.0 1 -0.08963372558355331
0.6702095866203308 -0.06205548346042633 0.035274438560009 70.0 9 -0.08963142335414886
0.789776623249054 -0.07312633097171783 -0.15417367219924927 100.0 2 -0.08962912112474442
0.6447582244873047 -0.05981241166591644 0.05665123090147972 13.0 10 -0.08962681889533997
0.6726796627044678 -0.06252101808786392 -0.10700118541717529 100.0 3 -0.08962450921535492
0.6621413230895996 -0.06165812164545059 0.08165246248245239 100.0 11 -0.08962220698595047
0.6838722229003906 -0.0638020783662796 -0.08433359116315842 10.0 4 -0.08961990475654602
1.227285385131836 -0.1147160604596138 0.19523023068904877 0.0 12 -0.08961760252714157
0.664553701877594 -0.062116753309965134 -0.05839434638619423 68.0 5 -0.08961529284715652
3.6963412761688232 -0.3461529016494751 0.7216396331787109 85.0 13 -0.08961299061775208
0.6780873537063599 -0.06362053006887436 -0.035693127661943436 100.0 6 -0.08961068838834763
3.7251598834991455 -0.35016342997550964 0.8638120889663696 100.0 14 -0.08960838615894318
0.6669468879699707 -0.06281016021966934 -0.011693112552165985 19.0 7 -0.08960607647895813
3.70237135887146 -0.34932518005371094 0.9964533448219299 108.0 15 -0.08960377424955368
1.2288525104522705 -0.11745923012495041 -0.3307707607746124 94.0 0 -0.08958303928375244
0.6668474078178406 -0.06385771930217743 0.011693112552165985 63.0 8 -0.08958073705434799
1.2123960256576538 -0.11631334573030472 -0.28118881583213806 87.0 1 -0.08957843482494354
0.6680007576942444 -0.06420349329710007 0.03516976535320282 64.0 9 -0.0895761251449585
0.8051505088806152 -0.07738535106182098 -0.15722662210464478 80.0 2 -0.08957382291555405
0.68619304895401 -0.06607287377119064 0.06031177192926407 12.0 10 -0.0895715206861496
0.6704910397529602 -0.06467905640602112 -0.10668832063674927 100.0 3 -0.08956921845674515
0.6658738851547241 -0.06435096263885498 0.08213994652032852 100.0 11 -0.0895669087767601
0.6698143482208252 -0.06484977155923843 -0.08262742310762405 12.0 4 -0.08956460654735565
1.2190128564834595 -0.11823657900094986 0.19397875666618347 0.0 12 -0.0895623043179512
0.6702821254730225 -0.06501314789056778 -0.05891728401184082 94.0 5 -0.08956000208854675
3.704880952835083 -0.3600027859210968 0.7235477566719055 59.0 13 -0.0895576924085617
0.6699097156524658 -0.06521306931972504 -0.035274438560009 100.0 6 -0.08955539017915726
3.7103381156921387 -0.36184051632881165 0.8606628179550171 94.0 14 -0.08955308794975281
0.6627431511878967 -0.06474897265434265 -0.011623302474617958 15.0 7 -0.08955078572034836
3.712665557861328 -0.36337584257125854 0.999559223651886 106.0 15 -0.08954848349094391
1.2342021465301514 -0.12231958657503128 -0.33232367038726807 92.0 0 -0.08952774107456207
0.6785598993301392 -0.0673704743385315 0.011902541853487492 100.0 8 -0.08952543884515762
1.2158610820770264 -0.12093043327331543 -0.28208863735198975 89.0 1 -0.08952313661575317
0.6637977957725525 -0.06613882631063461 0.03496042266488075 51.0 9 -0.08952083438634872
0.773618221282959 -0.07708100229501724 -0.15112073719501495 100.0 2 -0.08951852470636368
0.6681153774261475 -0.06668677926063538 0.05874297022819519 25.0 10 -0.08951622247695923
0.6702612042427063 -0.06701911240816116 -0.10668832063674927 100.0 3 -0.08951392024755478
0.6695956587791443 -0.06707059592008591 0.08262742310762405 100.0 11 -0.08951161801815033
0.6715590357780457 -0.06738565862178802 -0.08287115395069122 10.0 4 -0.08950930833816528
1.1753524541854858 -0.11814454197883606 0.18709564208984375 0.0 12 -0.08950700610876083
0.6779806613922119 -0.06814952939748764 -0.059614524245262146 100.0 5 -0.08950470387935638
3.7094616889953613 -0.37352314591407776 0.7246925830841064 12.0 13 -0.08950240164995193
0.6696779727935791 -0.06755109131336212 -0.035274438560009 100.0 6 -0.08950009942054749
3.705174684524536 -0.37439799308776855 0.8597630262374878 94.0 14 -0.08949778974056244
0.6485863924026489 -0.0656522735953331 -0.011378969065845013 10.0 7 -0.08949548751115799
3.719062089920044 -0.3771127760410309 1.0016297101974487 104.0 15 -0.08949318528175354
1.222237229347229 -0.12544357776641846 -0.3292178511619568 90.0 0 -0.0894724503159523
0.6624069213867188 -0.06810257583856583 0.011623302474617958 100.0 8 -0.08947014063596725
1.2193084955215454 -0.12557311356067657 -0.28298842906951904 89.0 1 -0.0894678384065628
0.6794565320014954 -0.07009515166282654 0.03579779714345932 9.0 9 -0.08946553617715836
0.6817514300346375 -0.07045215368270874 0.05996314808726311 61.0 10 -0.08946092426776886
0.677882730960846 -0.07017194479703903 -0.10793979465961456 100.0 3 -0.08945862203836441
0.6792299151420593 -0.07043121755123138 0.08384611457586288 100.0 11 -0.08945631980895996
0.6713197827339172 -0.06972941756248474 -0.08287115395069122 10.0 4 -0.08945401757955551
1.206369161605835 -0.12551738321781158 0.19210153818130493 0.0 12 -0.08945171535015106
0.6658485531806946 -0.06927860528230667 -0.05856866016983986 100.0 5 -0.08944940567016602
3.712040662765503 -0.38687634468078613 0.7254558801651001 1.0 13 -0.08944710344076157
0.6773839592933655 -0.07071783393621445 -0.035693127661943436 100.0 6 -0.08944480121135712
3.719350814819336 -0.3889506459236145 0.8633622527122498 100.0 14 -0.08944249898195267
0.6523309350013733 -0.06833253055810928 -0.011448778212070465 10.0 7 -0.08944018930196762
3.70619535446167 -0.3888828456401825 0.9985239505767822 108.0 15 -0.08943788707256317
1.2217918634414673 -0.12970922887325287 -0.3292178511619568 92.0 0 -0.08941715210676193
0.6542113423347473 -0.06956857442855835 0.011483684182167053 100.0 8 -0.08941484987735748
1.2266138792037964 -0.13065415620803833 -0.2847880423069 89.0 1 -0.08941254019737244
0.6772343516349792 -0.07213638722896576 0.035693127661943436 7.0 9 -0.08941023796796799
0.7437785267829895 -0.07935570180416107 -0.14539645612239838 96.0 2 -0.08940793573856354
0.6715957522392273 -0.07177288830280304 0.05909159407019615 100.0 10 -0.08940563350915909
0.669776976108551 -0.07169674336910248 -0.10668832063674927 100.0 3 -0.08940333127975464
0.6750323176383972 -0.07237847149372101 0.08335863798856735 100.0 11 -0.08940102159976959
0.6750323176383972 -0.07237847149372101 -0.08335863798856735 10.0 4 -0.08939871937036514
1.2039822340011597 -0.12930622696876526 0.1917886734008789 2.0 12 -0.0893964171409607
0.6675835847854614 -0.07181551307439804 -0.05874297022819519 100.0 5 -0.08939411491155624
0.687061607837677 -0.07415349036455154 -0.03621648624539375 87.0 6 -0.08938950300216675
3.7180402278900146 -0.40128234028816223 0.8633622527122498 94.0 14 -0.0893872007727623
0.656076967716217 -0.07092521339654922 -0.011518588289618492 10.0 7 -0.08938489854335785
3.704885482788086 -0.40117090940475464 0.9985239505767822 106.0 15 -0.0893825888633728
1.2213549613952637 -0.13376012444496155 -0.3292178511619568 92.0 0 -0.08936185389757156
0.6500014662742615 -0.07130154222249985 0.011413874104619026 100.0 8 -0.08935955166816711
1.2222996950149536 -0.13429538905620575 -0.2838882505893707 89.0 1 -0.08935724943876266
0.6769914031028748 -0.07438177615404129 0.035693127661943436 7.0 9 -0.08935494720935822
0.7591230869293213 -0.08353976905345917 -0.14844940602779388 117.0 2 -0.08935263752937317
0.6832364797592163 -0.07530930638313293 0.06013746187090874 100.0 10 -0.08935033529996872
0.6499011516571045 -0.07174975425004959 -0.10355963557958603 67.0 3 -0.08934803307056427
0.6767617464065552 -0.07483474910259247 0.08360237628221512 100.0 11 -0.08934573084115982
0.6807078719139099 -0.07527109980583191 -0.08408986032009125 14.0 4 -0.08934342116117477
1.2074735164642334 -0.13373295962810516 0.19241440296173096 3.0 12 -0.08934111893177032
0.6752627491950989 -0.07490760087966919 -0.05944021791219711 100.0 5 -0.08933881670236588
1.2585545778274536 -0.13983511924743652 0.2461436241865158 0.0 13 -0.08933651447296143
0.6669619083404541 -0.07422246783971786 -0.03516976535320282 90.0 6 -0.08933420479297638
3.7224996089935303 -0.41425615549087524 0.8647118806838989 97.0 14 -0.08933190256357193
0.6439138054847717 -0.07177134603261948 -0.011309158988296986 7.0 7 -0.08932960033416748
3.7150542736053467 -0.41474056243896484 1.0016297101974487 106.0 15 -0.08932729810476303
1.2285833358764648 -0.13867627084255219 -0.3312883973121643 90.0 0 -0.08930656313896179
0.6577096581459045 -0.07435519248247147 0.011553493328392506 100.0 8 -0.08930425345897675
1.2063566446304321 -0.13659392297267914 -0.28028902411460876 87.0 1 -0.0893019512295723
0.6548977494239807 -0.07426884025335312 0.03454173356294632 7.0 9 -0.08929964900016785
0.6768969893455505 -0.07688332349061966 -0.13242144882678986 100.0 2 -0.0892973467707634
0.6810033321380615 -0.07734972983598709 0.05996314808726311 100.0 10 -0.08929503709077835
0.6535850167274475 -0.07435104995965958 -0.10418536514043808 27.0 3 -0.0892927348613739
0.6725651621818542 -0.07662911713123322 0.08311489969491959 100.0 11 -0.08929043263196945
0.6725518107414246 -0.07674650102853775 -0.08311489969491959 35.0 4 -0.089288130402565
1.2168123722076416 -0.13906852900981903 0.19397875666618347 4.0 12 -0.08928582072257996
0.6710382103919983 -0.07681108266115189 -0.05909159407019615 100.0 5 -0.0892835184931755
1.2444053888320923 -0.1426621973514557 0.24347227811813354 2.0 13 -0.08928121626377106
0.6666987538337708 -0.07655014097690582 -0.03516976535320282 90.0 6 -0.08927891403436661
3.7152228355407715 -0.4265807271003723 0.8633622527122498 100.0 14 -0.08927660435438156
0.6476325988769531 -0.07447549700737 -0.011378969065845013 10.0 7 -0.08927430212497711
3.7174224853515625 -0.4281480312347412 1.0026650428771973 104.0 15 -0.08927199989557266
1.2319045066833496 -0.14362575113773346 -0.33232367038726807 90.0 0 -0.08925126492977142
0.6574326753616333 -0.07676531374454498 0.011553493328392506 100.0 8 -0.08924896270036697
1.2174612283706665 -0.14237260818481445 -0.28298842906951904 83.0 1 -0.08924665302038193
0.6585885286331177 -0.07713332027196884 0.034751079976558685 7.0 9 -0.08924435079097748
0.707808792591095 -0.08302319049835205 -0.13852733373641968 64.0 2 -0.08924204856157303
0.6886305212974548 -0.08077365159988403 0.06066039577126503 100.0 10 -0.08923974633216858
0.6513462662696838 -0.07651559263467789 -0.10387250036001205 10.0 3 -0.08923743665218353
0.6742512583732605 -0.07932563126087189 0.08335863798856735 100.0 11 -0.08923513442277908
0.6762089133262634 -0.0796755999326706 -0.08360237628221512 75.0 4 -0.08923283219337463
1.2025622129440308 -0.1419069766998291 0.1917886734008789 4.0 12 -0.08923052996397018
0.6786666512489319 -0.08020538836717606 -0.059788838028907776 100.0 5 -0.08922822028398514
1.2341259717941284 -0.14606843888759613 0.24156419932842255 2.0 13 -0.08922591805458069
0.6703804731369019 -0.07946339249610901 -0.035379111766815186 95.0 6 -0.08922361582517624
3.71943998336792 -0.44088295102119446 0.8647118806838989 97.0 14 -0.08922131359577179
0.6572840809822083 -0.07802735269069672 -0.011553493328392506 12.0 7 -0.08921901136636734
3.7273383140563965 -0.44313862919807434 1.0057708024978638 106.0 15 -0.0892167016863823
1.2198617458343506 -0.14675545692443848 -0.3292178511619568 87.0 0 -0.08919596672058105
0.6650881767272949 -0.08013119548559189 0.011693112552165985 100.0 8 -0.0891936644911766
1.2208006381988525 -0.14730073511600494 -0.2838882505893707 85.0 1 -0.08919136226177216
0.6682296395301819 -0.08062800765037537 0.035274438560009 7.0 9 -0.08918905258178711
0.652940571308136 -0.07889886200428009 -0.1278420239686966 100.0 2 -0.08918675035238266
0.6823959946632385 -0.08257898688316345 0.06013746187090874 100.0 10 -0.08918444812297821
0.6608665585517883 -0.08009067922830582 -0.10543683916330338 6.0 3 -0.08918214589357376
0.6680441498756409 -0.08107884973287582 0.08262742310762405 100.0 11 -0.08917983621358871
0.6700147986412048 -0.08131801337003708 -0.08287115395069122 98.0 4 -0.08917753398418427
1.1981375217437744 -0.14562715590000153 0.19116292893886566 6.0 12 -0.08917523175477982
0.6724491119384766 -0.08185166120529175 -0.059265900403261185 100.0 5 -0.08917292952537537
1.2375061511993408 -0.1508505493402481 0.24232745170593262 1.0 13 -0.08917062729597092
0.6720815300941467 -0.08204499632120132 -0.03548378124833107 73.0 6 -0.08916831761598587
3.725615978240967 -0.45480814576148987 0.8665115237236023 97.0 14 -0.08916601538658142
0.6530378460884094 -0.07983589917421341 -0.011483684182167053 12.0 7 -0.08916371315717697
3.721933603286743 -0.45567724108695984 1.0047355890274048 104.0 15 -0.08916141092777252
1.2232028245925903 -0.15127407014369965 -0.33025309443473816 89.0 0 -0.08914066851139069
0.6568807363510132 -0.08135315775871277 0.011553493328392506 100.0 8 -0.08913836628198624
1.228041172027588 -0.1523076742887497 -0.2856878638267517 83.0 1 -0.08913606405258179
0.6719227433204651 -0.08333514630794525 0.03548378124833107 7.0 9 -0.08913376182317734
0.6741064786911011 -0.0837254524230957 -0.13203983008861542 100.0 2 -0.08913145959377289
0.6722325682640076 -0.08361184597015381 0.059265900403261185 100.0 10 -0.08912914991378784
0.6390348076820374 -0.07959599047899246 -0.10199528187513351 6.0 3 -0.08912684768438339
0.6736810207366943 -0.08403081446886063 0.08335863798856735 100.0 11 -0.08912454545497894
0.6677716374397278 -0.08329371362924576 -0.08262742310762405 100.0 4 -0.0891222432255745
1.193727731704712 -0.1491098254919052 0.1905371993780136 4.0 12 -0.08911993354558945
0.6583351492881775 -0.08235004544258118 -0.05804572254419327 41.0 5 -0.089117631316185
1.2311550378799438 -0.15422138571739197 0.2411825805902481 1.0 13 -0.08911532908678055
0.6678422689437866 -0.08377605676651001 -0.035274438560009 49.0 6 -0.0891130268573761
3.727954149246216 -0.4676453173160553 0.8674113154411316 97.0 14 -0.08911071717739105
0.6646741032600403 -0.08349646627902985 -0.011693112552165985 21.0 7 -0.0891084149479866
3.7204020023345947 -0.4680171608924866 1.0047355890274048 111.0 15 -0.08910611271858215
1.2265273332595825 -0.155816450715065 -0.3312883973121643 90.0 0 -0.08908537775278091
0.6605746746063232 -0.0840357095003128 0.011623302474617958 100.0 8 -0.08908307552337646
1.219796895980835 -0.15539412200450897 -0.2838882505893707 83.0 1 -0.08908076584339142
0.6716277599334717 -0.08568008989095688 0.03548378124833107 8.0 9 -0.08907846361398697
0.6699301600456238 -0.0854635238647461 -0.13127659261226654 100.0 2 -0.08907616138458252
0.695667564868927 -0.08887025713920593 0.06135764345526695 100.0 10 -0.08907385915517807
0.636807918548584 -0.0814640149474144 -0.10168241709470749 7.0 3 -0.08907154947519302
0.6655227541923523 -0.08525542169809341 0.08238368481397629 100.0 11 -0.08906924724578857
0.6714146733283997 -0.08612930774688721 -0.08311489969491959 100.0 4 -0.08906694501638412
1.1873221397399902 -0.15252076089382172 0.18959859013557434 3.0 12 -0.08906464278697968
0.6639869213104248 -0.08529428392648697 -0.05856866016983986 29.0 5 -0.08906233310699463
1.2170064449310303 -0.1565498411655426 0.23851124942302704 2.0 13 -0.08906003087759018
0.6893506050109863 -0.08879704773426056 -0.03642582893371582 63.0 6 -0.08905772864818573
3.7378957271575928 -0.4821512997150421 0.8701107501983643 97.0 14 -0.08905542641878128
0.6901605129241943 -0.08914628624916077 -0.012146875262260437 56.0 7 -0.08905311673879623
3.718745470046997 -0.4810008704662323 1.0047355890274048 106.0 15 -0.08905081450939178
1.2298071384429932 -0.16059719026088715 -0.33232367038726807 89.0 0 -0.08903007954359055
0.6582944989204407 -0.08608175069093704 0.01158839836716652 100.0 8 -0.0890277773141861
1.2076534032821655 -0.15813295543193817 -0.28118881583213806 83.0 1 -0.08902547508478165
0.6733049154281616 -0.08828363567590714 0.035588450729846954 9.0 9 -0.0890231654047966
0.6735209822654724 -0.08831196278333664 -0.13203983008861542 100.0 2 -0.08902086317539215
0.6755987405776978 -0.08870436251163483 0.059614524245262146 100.0 10 -0.0890185609459877
0.6502293348312378 -0.08548886328935623 -0.10387250036001205 6.0 3 -0.08901625871658325
0.6632529497146606 -0.08731891214847565 0.08213994652032852 100.0 11 -0.0890139490365982
0.6691418886184692 -0.0882130041718483 -0.08287115395069122 100.0 4 -0.08901164680719376
1.1965744495391846 -0.15795695781707764 0.19116292893886566 4.0 12 -0.0890093445777893
0.6617099046707153 -0.0873507559299469 -0.05839434638619423 21.0 5 -0.08900704234838486
1.2164524793624878 -0.16079702973365784 0.23851124942302704 5.0 13 -0.08900473266839981
0.6613166332244873 -0.08753371983766556 -0.03496042266488075 54.0 6 -0.08900243043899536
3.7245986461639404 -0.49365973472595215 0.8674113154411316 91.0 14 -0.08900012820959091
0.687862753868103 -0.09129176288843155 -0.012111969292163849 87.0 7 -0.08899782598018646
3.72853422164917 -0.49550577998161316 1.0078414678573608 108.0 15 -0.08899551630020142
1.2330684661865234 -0.16540271043777466 -0.3333589434623718 89.0 0 -0.08897478133440018
0.661953866481781 -0.0889115110039711 0.011658207513391972 90.0 8 -0.08897247910499573
1.2148195505142212 -0.1633865237236023 -0.28298842906951904 85.0 1 -0.08897017687559128
0.6670544743537903 -0.08983366191387177 0.035274438560009 16.0 9 -0.08896787464618683
0.6654258370399475 -0.08961432427167892 -0.13051335513591766 100.0 2 -0.08896556496620178
0.6871321201324463 -0.09265968203544617 0.06066039577126503 100.0 10 -0.08896326273679733
0.6577574610710144 -0.08881539851427078 -0.10512397438287735 6.0 3 -0.08896096050739288
0.6688456535339355 -0.09043148905038834 0.08287115395069122 100.0 11 -0.08895865827798843
0.6589941382408142 -0.08921662718057632 -0.08165246248245239 100.0 4 -0.08895634859800339
1.1901435852050781 -0.1613367646932602 0.19022433459758759 7.0 12 -0.08895404636859894
0.6771795749664307 -0.09191935509443283 -0.059788838028907776 21.0 5 -0.08895174413919449
1.2275563478469849 -0.1666266769170761 0.24080097675323486 6.0 13 -0.08894944190979004
0.6709023714065552 -0.0911865308880806 -0.03548378124833107 64.0 6 -0.08894713222980499
3.730576276779175 -0.5077091455459595 0.8692108988761902 100.0 14 -0.08894483000040054
0.689521312713623 -0.09396230429410934 -0.012146875262260437 100.0 7 -0.0889425277709961
3.7306101322174072 -0.5090401768684387 1.0088766813278198 108.0 15 -0.08894022554159164
1.2247989177703857 -0.1688656061887741 -0.3312883973121643 89.0 0 -0.0889194905757904
0.6675823330879211 -0.09204097837209702 0.011762921698391438 23.0 8 -0.08891718089580536
1.214241862297058 -0.1676260381937027 -0.28298842906951904 89.0 1 -0.08891487866640091
0.6786075234413147 -0.09380244463682175 0.0359024703502655 49.0 9 -0.08891257643699646
0.6631482243537903 -0.09178348630666733 -0.13013173639774323 100.0 2 -0.08891027420759201
0.6927084922790527 -0.09599801152944565 0.06118332967162132 100.0 10 -0.08890796452760696
0.6535142064094543 -0.09068258851766586 -0.1044982373714447 6.0 3 -0.08890566229820251
0.6724584102630615 -0.09331130981445312 0.08335863798856735 100.0 11 -0.08890336006879807
0.6626111268997192 -0.09206277132034302 -0.08213994652032852 99.0 4 -0.08890105783939362
1.189573049545288 -0.16549015045166016 0.19022433459758759 8.0 12 -0.08889874815940857
0.6709345579147339 -0.09345795214176178 -0.059265900403261185 14.0 5 -0.08889644593000412
1.2288817167282104 -0.17139595746994019 0.2411825805902481 6.0 13 -0.08889414370059967
0.6745197772979736 -0.09419738501310349 -0.035693127661943436 73.0 6 -0.08889184147119522
3.732550621032715 -0.5219187140464783 0.8701107501983643 100.0 14 -0.08888953924179077
0.6674043536186218 -0.09332247078418732 -0.011762921698391438 99.0 7 -0.08888722956180573
3.7288105487823486 -0.5220593214035034 1.0088766813278198 106.0 15 -0.08888492733240128
1.2165508270263672 -0.17205782234668732 -0.3292178511619568 87.0 0 -0.08886419236660004
0.6573407649993896 -0.09308528155088425 0.01158839836716652 18.0 8 -0.08886189013719559
1.2251960039138794 -0.17371676862239838 -0.2856878638267517 85.0 1 -0.08885958045721054
0.6861688494682312 -0.09741193801164627 0.03632115572690964 86.0 9 -0.08885727822780609
0.6628237962722778 -0.09409775584936142 -0.13013173639774323 49.0 2 -0.08885497599840164
0.664753258228302 -0.09449003636837006 0.05874297022819519 100.0 10 -0.08885267376899719
0.6551493406295776 -0.09324155747890472 -0.10481110215187073 6.0 3 -0.08885036408901215
0.6897990703582764 -0.09829577803611755 0.08555228263139725 100.0 11 -0.0888480618596077
0.6701300144195557 -0.09561228007078171 -0.08311489969491959 100.0 4 -0.08884575963020325
1.1830918788909912 -0.1690109670162201 0.18928572535514832 6.0 12 -0.0888434574007988
0.6587701439857483 -0.09410881996154785 -0.0582200363278389 14.0 5 -0.08884115517139435
1.208841323852539 -0.17290470004081726 0.23736640810966492 5.0 13 -0.0888388454914093
0.6979118585586548 -0.09994902461767197 -0.03694918751716614 78.0 6 -0.08883654326200485
3.7422800064086914 -0.5366041660308838 0.8728101253509521 100.0 14 -0.0888342410326004
0.6690372824668884 -0.09605218470096588 -0.011797827668488026 95.0 7 -0.08883193880319595
3.7230474948883057 -0.5351727604866028 1.0078414678573608 108.0 15 -0.08882962912321091
1.2197664976119995 -0.17685772478580475 -0.33025309443473816 87.0 0 -0.08880889415740967
0.658990740776062 -0.0956665575504303 0.011623302474617958 15.0 8 -0.08880659192800522
1.2130112648010254 -0.17631059885025024 -0.28298842906951904 85.0 1 -0.08880428969860077
0.6700131297111511 -0.09750550240278244 0.03548378124833107 76.0 9 -0.08880198746919632
0.664434015750885 -0.09669359028339386 -0.13051335513591766 100.0 2 -0.08879967778921127
0.6663910150527954 -0.09709716588258743 0.05891728401184082 44.0 10 -0.08879737555980682
0.668502688407898 -0.09752398729324341 -0.10700118541717529 21.0 3 -0.08879507333040237
0.6619522571563721 -0.09668637812137604 0.08213994652032852 100.0 11 -0.08879277110099792
0.671756386756897 -0.09823813289403915 -0.08335863798856735 100.0 4 -0.08879046142101288
1.1883584260940552 -0.17399825155735016 0.19022433459758759 3.0 12 -0.08878815919160843
0.6604089736938477 -0.0966964140534401 -0.05839434638619423 21.0 5 -0.08878585696220398
1.196575403213501 -0.17541471123695374 0.23507671058177948 3.0 13 -0.08878355473279953
0.6797739267349243 -0.09977419674396515 -0.03600713983178139 87.0 6 -0.08878124505281448
3.748096466064453 -0.5507972240447998 0.8746097683906555 100.0 14 -0.08877894282341003
0.6726546883583069 -0.09896913915872574 -0.011867635883390903 83.0 7 -0.08877664059400558
3.7249794006347656 -0.5487285256385803 1.0088766813278198 113.0 15 -0.08877433836460114
1.222963571548462 -0.18168219923973083 -0.3312883973121643 87.0 0 -0.0887536033987999
0.6626086831092834 -0.09855466336011887 0.011693112552165985 15.0 8 -0.08875129371881485
1.208533525466919 -0.1799696832895279 -0.28208863735198975 81.0 1 -0.0887489914894104
0.6657178401947021 -0.09925463050603867 0.035274438560009 73.0 9 -0.08874668926000595
0.6738014221191406 -0.10045984387397766 -0.13242144882678986 100.0 2 -0.0887443870306015
0.6759007573127747 -0.10089344531297684 0.059788838028907776 18.0 10 -0.08874207735061646
0.670111894607544 -0.10014888644218445 -0.10731405764818192 53.0 3 -0.088739775121212
0.6616107225418091 -0.09899643808603287 0.08213994652032852 27.0 11 -0.08873747289180756
0.6772989630699158 -0.10146471112966537 -0.08408986032009125 99.0 4 -0.0887351706624031
1.1975114345550537 -0.17961034178733826 0.1917886734008789 1.0 12 -0.08873286098241806
0.6738598346710205 -0.10106976330280304 -0.059614524245262146 14.0 5 -0.08873055875301361
1.2017802000045776 -0.18046507239341736 0.2362215518951416 2.0 13 -0.08872825652360916
