# .PCD v0.7 - Point Cloud Data file format
VERSION 0.7
FIELDS x y z intensity ring time
SIZE 4 4 4 4 4 4
TYPE F F F F F F
COUNT 1 1 1 1 1 1
WIDTH 537
HEIGHT 1
VIEWPOINT 0 0 0 1 0 0 0
POINTS 537
DATA ascii
0.9962688088417053 0.28680500388145447 -0.2393479347229004 40.0 1 -0.013526703231036663
1.1017398834228516 0.3169597089290619 0.06008167937397957 49.0 9 -0.013524399138987064
0.9924190640449524 0.2855091691017151 -0.2007310688495636 61.0 2 -0.013522095046937466
1.1374053955078125 0.32700538635253906 0.10354102402925491 42.0 10 -0.013519790954887867
1.0005457401275635 0.2874690294265747 -0.16488194465637207 55.0 3 -0.013517486862838268
3.00510311126709 0.8628352880477905 0.38388845324516296 68.0 11 -0.01351518277078867
1.0246483087539673 0.294006884098053 -0.1308876872062683 41.0 4 -0.013512878678739071
3.041964054107666 0.8722696900367737 0.5012161135673523 66.0 12 -0.013510574586689472
1.0399577617645264 0.2982032895088196 -0.09465114027261734 53.0 5 -0.013508270494639874
3.036658525466919 0.8701748847961426 0.6140233874320984 60.0 13 -0.01350596733391285
1.0522042512893677 0.3013174533843994 -0.0573602132499218 45.0 6 -0.01350366324186325
3.0388660430908203 0.8696597218513489 0.7297412753105164 65.0 14 -0.013501359149813652
1.0785870552062988 0.3084653317928314 -0.01958160102367401 56.0 7 -0.013499055057764053
3.0388355255126953 0.8685035705566406 0.8468559384346008 72.0 15 -0.013496750965714455
1.2579513788223267 0.35786256194114685 -0.35044100880622864 51.0 0 -0.013476015068590641
1.0752233266830444 0.3056766390800476 0.019511790946125984 54.0 8 -0.013473710976541042
0.9972638487815857 0.28332582116127014 -0.2393479347229004 45.0 1 -0.013471406884491444
1.0951542854309082 0.3109302818775177 0.05966299772262573 44.0 9 -0.013469102792441845
0.982077956199646 0.2788262665271759 -0.19844137132167816 63.0 2 -0.013466798700392246
1.1327897310256958 0.32140129804611206 0.10301808267831802 41.0 10 -0.013464494608342648
1.0034433603286743 0.28451377153396606 -0.1651948094367981 58.0 3 -0.013462190516293049
3.0195560455322266 0.855587899684906 0.38535091280937195 72.0 11 -0.013459887355566025
1.0142085552215576 0.28718316555023193 -0.1294252574443817 41.0 4 -0.013457583263516426
3.0183796882629395 0.8541165590286255 0.4968359172344208 60.0 12 -0.013455279171466827
1.0429093837738037 0.29511404037475586 -0.09482544660568237 50.0 5 -0.013452975079417229
3.0434558391571045 0.8606387376785278 0.6147866249084473 60.0 13 -0.01345067098736763
1.068625569343567 0.3019876182079315 -0.058197591453790665 52.0 6 -0.013448366895318031
3.038132429122925 0.857988178730011 0.7288414835929871 65.0 14 -0.013446062803268433
1.0719590187072754 0.30252617597579956 -0.019441980868577957 50.0 7 -0.013443758711218834
3.049286365509033 0.8599874973297119 0.8489265441894531 70.0 15 -0.013441454619169235
1.253612995147705 0.3519026041030884 -0.3488880693912506 53.0 0 -0.013420718722045422
1.091686725616455 0.3062426447868347 0.019791029393672943 54.0 8 -0.013418414629995823
0.9982468485832214 0.2798427641391754 -0.2393479347229004 47.0 1 -0.013416110537946224
1.117388367652893 0.3130318522453308 0.06081438809633255 43.0 9 -0.0134138073772192
0.9773738384246826 0.2738073468208313 -0.19729651510715485 60.0 2 -0.013411503285169601
1.137742042541504 0.3185197412967682 0.10336671024560928 39.0 10 -0.013409199193120003
1.008235216140747 0.2820735573768616 -0.16582055389881134 58.0 3 -0.013406895101070404
3.0244359970092773 0.8455761075019836 0.38559460639953613 66.0 11 -0.013404591009020805
1.0190285444259644 0.28470972180366516 -0.12991273403167725 43.0 4 -0.013402286916971207
3.0251481533050537 0.844636857509613 0.4974616467952728 78.0 12 -0.013399982824921608
1.0420143604278564 0.2909357249736786 -0.09465114027261734 53.0 5 -0.01339767873287201
3.052114725112915 0.851591944694519 0.6159314513206482 60.0 13 -0.01339537464082241
1.0562059879302979 0.29450076818466187 -0.05746488645672798 51.0 6 -0.013393070548772812
3.0429861545562744 0.8479001522064209 0.7292913794517517 67.0 14 -0.013390766456723213
1.0787876844406128 0.30039143562316895 -0.019546695053577423 44.0 7 -0.013388463295996189
3.0373802185058594 0.8451957106590271 0.8447853922843933 72.0 15 -0.01338615920394659
1.2529720067977905 0.34700921177864075 -0.3483704626560211 51.0 0 -0.013365423306822777
1.0908218622207642 0.30189692974090576 0.019756125286221504 60.0 8 -0.013363119214773178
0.9973393082618713 0.275837242603302 -0.23889803886413574 49.0 1 -0.01336081512272358
1.1223243474960327 0.31019389629364014 0.06102372705936432 42.0 9 -0.01335851103067398
0.9858928322792053 0.27248623967170715 -0.1988229900598526 60.0 2 -0.013356206938624382
1.136926293373108 0.31401610374450684 0.10319239646196365 42.0 10 -0.013353902846574783
0.9977887272834778 0.27539873123168945 -0.163943350315094 53.0 3 -0.013351598754525185
3.029282808303833 0.8355422616004944 0.3858383595943451 70.0 11 -0.013349294662475586
1.0276708602905273 0.2832610309123993 -0.1308876872062683 44.0 4 -0.013346990570425987
3.0395052433013916 0.8372185826301575 0.49933886528015137 72.0 12 -0.013344686478376389
1.0353401899337769 0.285180002450943 -0.09395389258861542 51.0 5 -0.01334238238632679
3.0399255752563477 0.8367652893066406 0.6128785014152527 62.0 13 -0.013340079225599766
1.0649306774139404 0.2929306924343109 -0.057883575558662415 49.0 6 -0.013337775133550167
3.049685478210449 0.8383052349090576 0.730191171169281 67.0 14 -0.013335471041500568
1.0991125106811523 0.3019210398197174 -0.01989574357867241 39.0 7 -0.01333316694945097
3.0403120517730713 0.8345873355865479 0.8447853922843933 72.0 15 -0.013330862857401371
1.2523123025894165 0.34212398529052734 -0.34785282611846924 53.0 0 -0.013286828994750977
1.0918688774108887 0.2980876564979553 0.019756125286221504 60.0 8 -0.013284524902701378
0.9907760620117188 0.27030229568481445 -0.23709842562675476 48.0 1 -0.01328222081065178
1.1330349445343018 0.30890077352523804 0.061547089368104935 47.0 9 -0.01327991671860218
0.9830498695373535 0.2680101692676544 -0.19805975258350372 60.0 2 -0.013277612626552582
1.1418601274490356 0.311093270778656 0.10354102402925491 44.0 10 -0.013275308534502983
0.9911198616027832 0.2698386311531067 -0.1626918613910675 46.0 3 -0.013273005373775959
3.02068829536438 0.8218352794647217 0.3843759298324585 68.0 11 -0.01327070128172636
1.040146827697754 0.2827971577644348 -0.1323501169681549 43.0 4 -0.013268397189676762
3.0385963916778564 0.8255684971809387 0.4987131357192993 68.0 12 -0.013266093097627163
1.0440200567245483 0.28365400433540344 -0.09465114027261734 55.0 5 -0.013263789005577564
3.0466175079345703 0.8271768689155579 0.6136417388916016 60.0 13 -0.013261484913527966
1.0775119066238403 0.2923497259616852 -0.058511603623628616 42.0 6 -0.013259180821478367
3.0563549995422363 0.8286753296852112 0.7310910224914551 68.0 14 -0.013256876729428768
1.0962995290756226 0.29703637957572937 -0.019825933501124382 47.0 7 -0.01325457263737917
3.046936273574829 0.8249799609184265 0.8458206653594971 69.0 15 -0.01325226854532957
1.2572293281555176 0.33875593543052673 -0.3488880693912506 50.0 0 -0.013231532648205757
1.1006265878677368 0.29635390639305115 0.01989574357867241 62.0 8 -0.013229228556156158
0.9804226160049438 0.2638043761253357 -0.23439902067184448 49.0 1 -0.013226925395429134
1.1263912916183472 0.30286967754364014 0.0611284039914608 50.0 9 -0.013224621303379536
0.9896670579910278 0.2661065459251404 -0.19920459389686584 57.0 2 -0.013222317211329937
1.139090895652771 0.3060712218284607 0.10319239646196365 44.0 10 -0.013220013119280338
0.9958714246749878 0.2674016058444977 -0.16331759095191956 45.0 3 -0.01321770902723074
3.017786979675293 0.8097435235977173 0.3836447298526764 55.0 11 -0.013215404935181141
1.0372928380966187 0.27813613414764404 -0.13186264038085938 43.0 4 -0.013213100843131542
3.045275926589966 0.8159785270690918 0.49933886528015137 61.0 12 -0.013210796751081944
1.045003890991211 0.2800077199935913 -0.09465114027261734 55.0 5 -0.013208492659032345
3.0513827800750732 0.8170456886291504 0.6140233874320984 56.0 13 -0.013206188566982746
1.1113253831863403 0.2973633408546448 -0.06029102951288223 42.0 6 -0.013203885406255722
3.046050548553467 0.8144770264625549 0.727941632270813 60.0 14 -0.013201581314206123
1.12051260471344 0.29940250515937805 -0.020244792103767395 49.0 7 -0.013199277222156525
3.049797296524048 0.8143398761749268 0.8458206653594971 70.0 15 -0.013196973130106926
1.2378666400909424 0.3289080262184143 -0.34319406747817993 47.0 0 -0.013176237232983112
1.103587031364441 0.2930230498313904 0.019930649548768997 56.0 8 -0.013173933140933514
0.9813374876976013 0.26038065552711487 -0.23439902067184448 45.0 1 -0.013171629048883915
1.1197195053100586 0.29688817262649536 0.060709718614816666 47.0 9 -0.013169324956834316
0.9811015129089355 0.2601342797279358 -0.19729651510715485 51.0 2 -0.013167020864784718
1.155559778213501 0.30617523193359375 0.1045868918299675 48.0 10 -0.013164716772735119
1.008255958557129 0.2669580280780792 -0.1651948094367981 45.0 3 -0.01316241268068552
3.0244333744049072 0.8002191781997681 0.3841322064399719 48.0 11 -0.013160108588635921
1.0382574796676636 0.274513304233551 -0.13186264038085938 43.0 4 -0.013157805427908897
3.0328261852264404 0.8013087511062622 0.4968359172344208 78.0 12 -0.013155501335859299
1.0536798238754272 0.2783947288990021 -0.09534838795661926 51.0 5 -0.0131531972438097
3.0523180961608887 0.8058873414993286 0.6136417388916016 60.0 13 -0.013150893151760101
1.1200814247131348 0.29552003741264343 -0.060709718614816666 52.0 6 -0.013148589059710503
3.0582962036132812 0.8063254952430725 0.730191171169281 77.0 14 -0.013146284967660904
1.1099486351013184 0.2924322783946991 -0.020035361871123314 45.0 7 -0.013143980875611305
3.052621364593506 0.8036882877349854 0.8458206653594971 72.0 15 -0.013141676783561707
1.197893738746643 0.31381475925445557 -0.3318060338497162 40.0 0 -0.013120940886437893
1.1084721088409424 0.29018208384513855 0.020000457763671875 55.0 8 -0.013118636794388294
0.9860110282897949 0.2579396665096283 -0.23529881238937378 48.0 1 -0.013116332702338696
1.132343053817749 0.29600828886032104 0.06133774667978287 43.0 9 -0.013114028610289097
0.9858026504516602 0.2577008306980133 -0.19805975258350372 55.0 2 -0.013111725449562073
1.158549189567566 0.3026435077190399 0.10476119816303253 49.0 10 -0.013109421357512474
0.9996252059936523 0.2609420120716095 -0.16363045573234558 37.0 3 -0.013107117265462875
3.031049966812134 0.7906582951545715 0.38461968302726746 11.0 11 -0.013104813173413277
1.0507348775863647 0.27389198541641235 -0.13332508504390717 41.0 4 -0.013102509081363678
3.039428234100342 0.7917123436927795 0.4974616467952728 72.0 12 -0.01310020498931408
1.0488611459732056 0.27320805191993713 -0.09482544660568237 43.0 5 -0.01309790089726448
3.055112838745117 0.7952269911766052 0.6136417388916016 61.0 13 -0.013095596805214882
1.138502597808838 0.2961336076259613 -0.061651766300201416 53.0 6 -0.013093292713165283
3.0441179275512695 0.7912322878837585 0.7261420488357544 66.0 14 -0.013090988621115685
1.1032209396362305 0.28654494881629944 -0.01989574357867241 54.0 7 -0.013088684529066086
3.0460586547851562 0.7906017303466797 0.8432324528694153 74.0 15 -0.013086381368339062
1.1466079950332642 0.2961064279079437 -0.3173121511936188 26.0 0 -0.013065644539892673
1.1056058406829834 0.28531143069267273 0.019930649548768997 57.0 8 -0.01306334137916565
0.9869053363800049 0.2544964849948883 -0.23529881238937378 49.0 1 -0.01306103728711605
1.144922137260437 0.2952447831630707 0.06196577474474907 40.0 9 -0.013058733195066452
0.9790914058685303 0.2522992491722107 -0.19653327763080597 51.0 2 -0.013056429103016853
1.1557397842407227 0.2976036071777344 0.10441257804632187 54.0 10 -0.013054125010967255
0.9641818404197693 0.24809792637825012 -0.15768595039844513 18.0 3 -0.013051820918917656
3.058784246444702 0.7865017056465149 0.3877882957458496 2.0 11 -0.013049516826868057
1.059327483177185 0.2723836898803711 -0.13430002331733704 29.0 4 -0.013047212734818459
3.0343844890594482 0.7796617746353149 0.4962101876735687 58.0 12 -0.01304490864276886
1.0884042978286743 0.27945464849472046 -0.09831167012453079 40.0 5 -0.013042604550719261
3.050262689590454 0.7826082706451416 0.6121153235435486 61.0 13 -0.013040301389992237
1.1530721187591553 0.2956295311450958 -0.0623844638466835 46.0 6 -0.013037997297942638
3.058051586151123 0.7840362787246704 0.7288414835929871 65.0 14 -0.01303569320589304
1.1041650772094727 0.28288519382476807 -0.01989574357867241 54.0 7 -0.013033389113843441
3.0449202060699463 0.779538631439209 0.8421972393989563 74.0 15 -0.013031085021793842
1.063340187072754 0.270844429731369 -0.2940184473991394 23.0 0 -0.013010349124670029
1.1123595237731934 0.2831234633922577 0.020035361871123314 62.0 8 -0.01300804503262043
0.9764121770858765 0.24834051728248596 -0.2325994074344635 49.0 1 -0.013005740940570831
1.1594443321228027 0.2948928773403168 0.06269848346710205 39.0 9 -0.013003436848521233
0.9932419657707214 0.25243595242500305 -0.19920459389686584 53.0 2 -0.013001132756471634
1.1644445657730103 0.2957313358783722 0.10510982573032379 54.0 10 -0.012998828664422035
0.6280152797698975 0.1593792885541916 -0.10262101888656616 70.0 3 -0.012996524572372437
1.185296893119812 0.3005868196487427 0.15014305710792542 4.0 11 -0.012994221411645412
1.0121203660964966 0.25666990876197815 -0.12820656597614288 17.0 4 -0.012991917319595814
3.038867950439453 0.7700809836387634 0.49652308225631714 67.0 12 -0.012989613227546215
1.124090552330017 0.2846481204032898 -0.10144928097724915 39.0 5 -0.012987309135496616
3.0452282428741455 0.770561695098877 0.610588788986206 62.0 13 -0.012985005043447018
1.1327465772628784 0.2864187955856323 -0.06123307719826698 38.0 6 -0.012982700951397419
3.0492987632751465 0.7710254788398743 0.7261420488357544 66.0 14 -0.01298039685934782
1.114790916442871 0.28167110681533813 -0.020070267841219902 52.0 7 -0.012978092767298222
3.0493619441986084 0.7699090838432312 0.8427148461341858 72.0 15 -0.012975788675248623
1.0286331176757812 0.2583750784397125 -0.2841833233833313 28.0 0 -0.01295505277812481
1.1132923364639282 0.27943289279937744 0.020035361871123314 63.0 8 -0.01295274868607521
0.9772303700447083 0.2451009750366211 -0.2325994074344635 49.0 1 -0.012950444594025612
1.154654622077942 0.28938689827919006 0.0623844638466835 41.0 9 -0.012948141433298588
0.988360583782196 0.2477092295885086 -0.19805975258350372 51.0 2 -0.012945837341248989
1.1712169647216797 0.29332002997398376 0.10563275218009949 52.0 10 -0.01294353324919939
0.6074613332748413 0.15202049911022186 -0.0991794615983963 100.0 3 -0.012941229157149792
1.1862871646881104 0.2966548204421997 0.15014305710792542 7.0 11 -0.012938925065100193
0.614354133605957 0.15351729094982147 -0.07775264233350754 45.0 4 -0.012936620973050594
3.058785915374756 0.7637763023376465 0.49933886528015137 72.0 12 -0.012934316881000996
1.1308767795562744 0.28216931223869324 -0.10197222232818604 19.0 5 -0.012932012788951397
3.051576614379883 0.7614103555679321 0.6113520860671997 62.0 13 -0.012929708696901798
1.1259385347366333 0.2807278335094452 -0.06081438809633255 37.0 6 -0.0129274046048522
3.0462985038757324 0.7589640021324158 0.7247923612594604 63.0 14 -0.012925101444125175
1.123529076576233 0.27971118688583374 -0.020209887996315956 56.0 7 -0.012922797352075577
3.057655096054077 0.7606584429740906 0.844267725944519 74.0 15 -0.012920493260025978
1.0220717191696167 0.25274839997291565 -0.2821127772331238 34.0 0 -0.012899757362902164
1.1181432008743286 0.2765059471130371 0.02010517194867134 60.0 8 -0.012897453270852566
0.9742963314056396 0.24075308442115784 -0.2316996157169342 49.0 1 -0.012895149178802967
1.1537188291549683 0.2848755419254303 0.06227979436516762 44.0 9 -0.012892845086753368
0.9702008366584778 0.23938225209712982 -0.19424356520175934 47.0 2 -0.01289054099470377
1.1664807796478271 0.2875947654247284 0.10510982573032379 49.0 10 -0.012888236902654171
0.5907522439956665 0.14554007351398468 -0.09636364877223969 97.0 3 -0.012885932810604572
1.189242959022522 0.2929866313934326 0.150386780500412 10.0 11 -0.012883628718554974
0.5840454697608948 0.1437799483537674 -0.07385282218456268 82.0 4 -0.012881324626505375
3.0403332710266113 0.7479031682014465 0.4958972930908203 76.0 12 -0.01287902146577835
0.8397009372711182 0.20640578866004944 -0.07565118372440338 16.0 5 -0.012876717373728752
3.0581600666046143 0.7511564493179321 0.6121153235435486 62.0 13 -0.012874413281679153
1.1269598007202148 0.2765994369983673 -0.06081438809633255 22.0 6 -0.012872109189629555
3.0471675395965576 0.7473286986351013 0.7243424654006958 65.0 14 -0.012869805097579956
1.1167300939559937 0.27388206124305725 -0.020070267841219902 56.0 7 -0.012867501005530357
3.058415412902832 0.7495214939117432 0.8437501192092896 72.0 15 -0.012865196913480759
0.9910393357276917 0.24140630662441254 -0.27331289649009705 37.0 0 -0.012844461016356945
1.1230353116989136 0.27335092425346375 0.020174982026219368 50.0 8 -0.012842156924307346
0.9827463030815125 0.2390228807926178 -0.23349922895431519 49.0 1 -0.012839852832257748
1.1547061204910278 0.28084683418273926 0.06227979436516762 43.0 9 -0.012837548740208149
0.976753830909729 0.2373848408460617 -0.19538842141628265 53.0 2 -0.01283524464815855
1.1636053323745728 0.28258055448532104 0.10476119816303253 48.0 10 -0.012832940556108952
0.6046943068504333 0.14673803746700287 -0.09855373203754425 100.0 3 -0.012830637395381927
1.1883796453475952 0.2881583571434021 0.15014305710792542 17.0 11 -0.012828333303332329
0.5903564095497131 0.143040269613266 -0.07458404451608658 96.0 4 -0.01282602921128273
3.039086103439331 0.7363547086715698 0.49527156352996826 65.0 12 -0.012823725119233131
0.6080430746078491 0.1472136229276657 -0.05473380535840988 56.0 5 -0.012821421027183533
3.0569469928741455 0.7395542860031128 0.6113520860671997 62.0 13 -0.012819116935133934
0.8192455172538757 0.19804483652114868 -0.04417155310511589 15.0 6 -0.012816812843084335
3.0535457134246826 0.7376033663749695 0.7252422571182251 65.0 14 -0.012814508751034737
1.1060163974761963 0.26716527342796326 -0.01986083760857582 42.0 7 -0.012812204658985138
3.0591349601745605 0.7383883595466614 0.8432324528694153 74.0 15 -0.01280990056693554
0.9918758869171143 0.23794569075107574 -0.27331289649009705 43.0 0 -0.012789164669811726
1.1453253030776978 0.27475735545158386 0.020558936521410942 44.0 8 -0.012786860577762127
0.9816384315490723 0.23530858755111694 -0.23304930329322815 51.0 1 -0.012784557417035103
1.1615065336227417 0.2782098650932312 0.06259381026029587 41.0 9 -0.012782253324985504
0.9794856309890747 0.23443105816841125 -0.1957700401544571 55.0 2 -0.012779949232935905
1.1645845174789429 0.2785179018974304 0.10476119816303253 48.0 10 -0.012777645140886307
0.5936503410339355 0.1419753134250641 -0.09667651355266571 100.0 3 -0.012775341048836708
1.1912593841552734 0.28467699885368347 0.150386780500412 22.0 11 -0.01277303695678711
0.592758297920227 0.1415429711341858 -0.07482778280973434 100.0 4 -0.01277073286473751
3.053166627883911 0.7284932732582092 0.4971488118171692 37.0 12 -0.012768428772687912
0.5930488109588623 0.1413935422897339 -0.053339313715696335 100.0 5 -0.012766124680638313
3.05556321144104 0.7285014986991882 0.610588788986206 63.0 13 -0.012763820588588715
0.6275520324707031 0.14950399100780487 -0.033809032291173935 65.0 6 -0.01276151742786169
3.057870864868164 0.7279237508773804 0.7256921529769897 67.0 14 -0.012759213335812092
1.0991605520248413 0.2614516317844391 -0.019721219316124916 14.0 7 -0.012756909243762493
3.050416946411133 0.725024402141571 0.840126633644104 74.0 15 -0.012754605151712894
0.9907796382904053 0.23421050608158112 -0.27279528975486755 45.0 0 -0.01273386925458908
1.154062032699585 0.27259621024131775 0.020698554813861847 25.0 8 -0.012731565162539482
0.971074104309082 0.22919446229934692 -0.23034989833831787 51.0 1 -0.012729261070489883
1.1760295629501343 0.27756837010383606 0.06332651525735855 30.0 9 -0.012726956978440285
0.9783470034599304 0.23073077201843262 -0.19538842141628265 49.0 2 -0.012724652886390686
1.1655017137527466 0.2746541500091553 0.10476119816303253 48.0 10 -0.012722348794341087
0.5941423177719116 0.13990207016468048 -0.09667651355266571 100.0 3 -0.012720044702291489
1.1806516647338867 0.2777893543243408 0.1489243507385254 25.0 11 -0.01271774061024189
0.5971136093139648 0.14038173854351044 -0.07531525939702988 100.0 4 -0.012715436518192291
3.0478734970092773 0.7165568470954895 0.4958972930908203 7.0 12 -0.012713133357465267
0.601272702217102 0.14124882221221924 -0.05403655767440796 100.0 5 -0.012710829265415668
3.06382155418396 0.7191777229309082 0.6117336750030518 57.0 13 -0.01270852517336607
0.6183475852012634 0.14503227174282074 -0.03328566998243332 100.0 6 -0.012706221081316471
3.064188003540039 0.7181353569030762 0.7265920042991638 68.0 14 -0.012703916989266872
0.6113393902778625 0.14327596127986908 -0.010960111394524574 39.0 7 -0.012701612897217274
3.052804708480835 0.7149040102958679 0.840126633644104 74.0 15 -0.012699308805167675
0.9878278970718384 0.2298751175403595 -0.2717600166797638 45.0 0 -0.012678572908043861
0.9017643928527832 0.20984746515750885 0.016160929575562477 13.0 8 -0.012676268815994263
0.9642364382743835 0.2242073267698288 -0.2285502851009369 53.0 1 -0.012673964723944664
1.161427617073059 0.2698458135128021 0.062489137053489685 12.0 9 -0.012671660631895065
0.9791464805603027 0.2273140400648117 -0.19538842141628265 49.0 2 -0.012669356539845467
1.1703351736068726 0.27148425579071045 0.10510982573032379 43.0 10 -0.012667053379118443
0.5907544493675232 0.13703812658786774 -0.09605076909065247 100.0 3 -0.012664749287068844
1.1893017292022705 0.275665819644928 0.14989930391311646 28.0 11 -0.012662445195019245
0.5937080383300781 0.13750489056110382 -0.07482778280973434 100.0 4 -0.012660141102969646
3.0426583290100098 0.7041310667991638 0.4946458339691162 1.0 12 -0.012657837010920048
0.5998209118843079 0.13870039582252502 -0.05386224761605263 100.0 5 -0.012655532918870449
3.064276695251465 0.7085721492767334 0.6113520860671997 16.0 13 -0.01265322882682085
0.599365234375 0.13848453760147095 -0.032238952815532684 96.0 6 -0.012650924734771252
3.05895733833313 0.7062158584594727 0.7247923612594604 67.0 14 -0.012648620642721653
0.6176813840866089 0.1424897313117981 -0.01106482557952404 100.0 7 -0.012646317481994629
3.0628111362457275 0.7059796452522278 0.8421972393989563 74.0 15 -0.01264401338994503
0.9885848760604858 0.22659781575202942 -0.2717600166797638 47.0 0 -0.012623276561498642
0.6062091588973999 0.1388404816389084 0.010855397209525108 42.0 8 -0.012620973400771618
0.9707120656967163 0.22214452922344208 -0.22990000247955322 56.0 1 -0.01261866930872202
0.6074658632278442 0.13890516757965088 0.03265763819217682 11.0 9 -0.01261636521667242
0.9760671257972717 0.2231907695531845 -0.19462519884109497 45.0 2 -0.012614061124622822
1.1867676973342896 0.2711522877216339 0.10650431364774704 39.0 10 -0.012611757032573223
0.5950808525085449 0.13585461676120758 -0.09667651355266571 97.0 3 -0.012609452940523624
1.1844507455825806 0.27018794417381287 0.14916808903217316 26.0 11 -0.012607148848474026
0.5883780717849731 0.13410833477973938 -0.07409656792879105 100.0 4 -0.012604844756424427
0.5905643701553345 0.1344982534646988 -0.052990689873695374 100.0 5 -0.01260023657232523
3.076303005218506 0.7000488042831421 0.6132601499557495 3.0 13 -0.012597933411598206
0.6037400364875793 0.137277290225029 -0.03244829550385475 86.0 6 -0.012595629319548607
3.053802728652954 0.6938075423240662 0.7229927778244019 67.0 14 -0.012593325227499008
0.6006243228912354 0.1363483965396881 -0.010750683024525642 88.0 7 -0.01259102113544941
3.0727927684783936 0.6969941258430481 0.844267725944519 74.0 15 -0.01258871704339981
0.9818317294120789 0.221445694565773 -0.2696894705295563 47.0 0 -0.012567981146275997
0.6105916500091553 0.13760295510292053 0.010925207287073135 100.0 8 -0.012565677054226398
0.9733827710151672 0.2191825956106186 -0.23034989833831787 52.0 1 -0.0125633729621768
0.6118441820144653 0.13766053318977356 0.032866984605789185 54.0 9 -0.012561068870127201
0.9883326292037964 0.22236771881580353 -0.1969148963689804 49.0 2 -0.012558764778077602
1.166324257850647 0.2622012794017792 0.1045868918299675 17.0 10 -0.012556460686028004
0.5974788069725037 0.13420933485031128 -0.09698937833309174 94.0 3 -0.012554156593978405
1.1853866577148438 0.2660515010356903 0.14916808903217316 26.0 11 -0.012551853433251381
0.600464403629303 0.13466013967990875 -0.07555899769067764 100.0 4 -0.012549549341201782
0.5949186682701111 0.1333070993423462 -0.053339313715696335 100.0 5 -0.012544941157102585
3.113213062286377 0.6970263123512268 0.6201292872428894 1.0 13 -0.012542637065052986
0.6178590655326843 0.1382213532924652 -0.033180996775627136 100.0 6 -0.012540332973003387
3.0619115829467773 0.6844180822372437 0.7243424654006958 66.0 14 -0.012538028880953789
0.5893869996070862 0.13163554668426514 -0.010541253723204136 85.0 7 -0.01253572478890419
3.063894033432007 0.683739960193634 0.8411619663238525 76.0 15 -0.012533420696854591
0.9750548005104065 0.2163430005311966 -0.26761889457702637 47.0 0 -0.012512684799730778
0.5876407623291016 0.13027682900428772 0.010506349615752697 84.0 8 -0.012510380707681179
0.9836549758911133 0.21789146959781647 -0.2325994074344635 56.0 1 -0.01250807661563158
0.6045206785202026 0.13379766047000885 0.03244829550385475 70.0 9 -0.012505773454904556
0.9968087077140808 0.22043971717357635 -0.19844137132167816 49.0 2 -0.012503469362854958
0.6069608926773071 0.13422663509845734 0.05438518151640892 58.0 10 -0.012501165270805359
0.5940859317779541 0.13127094507217407 -0.09636364877223969 97.0 3 -0.01249886117875576
1.1688624620437622 0.2580607235431671 0.14697444438934326 12.0 11 -0.012496557086706161
0.5970538854598999 0.13170790672302246 -0.07507152855396271 100.0 4 -0.012494252994656563
0.6095871925354004 0.1343611478805542 0.09886659681797028 2.0 12 -0.012491948902606964
0.5973489880561829 0.13155436515808105 -0.053513623774051666 100.0 5 -0.012489644810557365
3.1886069774627686 0.7016445994377136 0.6346307396888733 1.0 13 -0.012487340718507767
0.612509548664093 0.13466905057430267 -0.032866984605789185 100.0 6 -0.012485036626458168
3.062378406524658 0.6733079552650452 0.7238925695419312 67.0 14 -0.01248273253440857
0.6054677963256836 0.13301004469394684 -0.01082049123942852 94.0 7 -0.012480429373681545
3.054940700531006 0.6705549359321594 0.8380560874938965 76.0 15 -0.012478125281631947
0.9777286648750305 0.2131795436143875 -0.26813653111457825 48.0 0 -0.012457389384508133
0.5783448219299316 0.1259939819574356 0.01033182442188263 100.0 8 -0.012455085292458534
0.9749262928962708 0.21221160888671875 -0.23034989833831787 53.0 1 -0.012452781200408936
0.5991520881652832 0.1303078532218933 0.0321342796087265 55.0 9 -0.012450477108359337
1.014876127243042 0.2205369919538498 -0.2018759399652481 51.0 2 -0.012448173016309738
0.6093957424163818 0.13242432475090027 0.05455949530005455 94.0 10 -0.01244586892426014
0.5945631265640259 0.12909218668937683 -0.09636364877223969 100.0 3 -0.01244356483221054
0.6033298373222351 0.13088569045066833 0.07580273598432541 56.0 11 -0.012441260740160942
0.6014126539230347 0.13035985827445984 -0.07555899769067764 100.0 4 -0.012438956648111343
0.6235898733139038 0.1350526660680771 0.10105667263269424 15.0 12 -0.012436652556061745
0.5978270769119263 0.1293642222881317 -0.053513623774051666 100.0 5 -0.01243434939533472
3.191157102584839 0.6899537444114685 0.6346307396888733 1.0 13 -0.012432045303285122
0.6090946197509766 0.13157956302165985 -0.03265763819217682 91.0 6 -0.012429741211235523
3.0686354637145996 0.6629014015197754 0.7247923612594604 68.0 14 -0.012427437119185925
0.6039966344833374 0.1303679496049881 -0.010785587131977081 85.0 7 -0.012425133027136326
3.0687084197998047 0.6617977619171143 0.8411619663238525 76.0 15 -0.012422828935086727
0.9841704964637756 0.2108081877231598 -0.2696894705295563 51.0 0 -0.012402093037962914
0.5924906730651855 0.1268029659986496 0.010576157830655575 100.0 8 -0.012399788945913315
0.9718862175941467 0.20782214403152466 -0.22945010662078857 52.0 1 -0.012397484853863716
0.587884783744812 0.1257096379995346 0.0315062515437603 55.0 9 -0.012395180761814117
1.0156399011611938 0.2169927954673767 -0.2018759399652481 47.0 2 -0.012392876669764519
0.6059799790382385 0.12935814261436462 0.05421087145805359 100.0 10 -0.01239057257771492
0.5969641804695129 0.12732432782649994 -0.09667651355266571 100.0 3 -0.012388269416987896
0.5921565294265747 0.12619087100028992 0.07434030622243881 100.0 11 -0.012385965324938297
0.5980032682418823 0.1273280382156372 -0.07507152855396271 100.0 4 -0.012383661232888699
0.6317856907844543 0.13452106714248657 0.10230815410614014 47.0 12 -0.0123813571408391
0.5943774580955505 0.12644730508327484 -0.053164999932050705 100.0 5 -0.012379053048789501
0.6145128011703491 0.13061878085136414 0.12211776524782181 9.0 13 -0.012376748956739902
0.5978280305862427 0.1269635707139969 -0.03202961012721062 100.0 6 -0.012374444864690304
3.0634191036224365 0.6500325798988342 0.7229927778244019 46.0 14 -0.012372140772640705
0.6044479608535767 0.12825892865657806 -0.010785587131977081 90.0 7 -0.012369836680591106
3.0672202110290527 0.6502797603607178 0.840126633644104 76.0 15 -0.012367532588541508
0.9867907166481018 0.2077697366476059 -0.27020707726478577 50.0 0 -0.012346796691417694
0.5987783074378967 0.12607336044311523 0.010680872946977615 100.0 8 -0.012344492599368095
0.9763839840888977 0.20540064573287964 -0.23034989833831787 53.0 1 -0.012342188507318497
0.5824563503265381 0.12242414802312851 0.03119223192334175 57.0 9 -0.012339885346591473
1.0183124542236328 0.21384994685649872 -0.20225754380226135 53.0 2 -0.012337581254541874
0.6083778142929077 0.12765106558799744 0.05438518151640892 100.0 10 -0.012335277162492275
0.5954498648643494 0.1249384954571724 -0.09636364877223969 100.0 3 -0.012332973070442677
0.6003432273864746 0.12585556507110596 0.07531525939702988 100.0 11 -0.012330668978393078
0.5945363640785217 0.12453019618988037 -0.07458404451608658 100.0 4 -0.01232836488634348
0.6187170743942261 0.12948231399059296 0.10011807084083557 90.0 12 -0.01232606079429388
0.6201680302619934 0.12967269122600555 -0.055431053042411804 100.0 5 -0.012323756702244282
0.6072558164596558 0.12697283923625946 0.12059129029512405 27.0 13 -0.012321452610194683
0.6099761128425598 0.12743082642555237 -0.03265763819217682 89.0 6 -0.012319149449467659
0.593146562576294 0.12369859963655472 -0.010576157830655575 71.0 7 -0.012314541265368462
3.078927516937256 0.6415401697158813 0.8427148461341858 72.0 15 -0.012312237173318863
0.9761239886283875 0.20214594900608063 -0.2671012580394745 48.0 0 -0.01229150127619505
0.5933400988578796 0.12276678532361984 0.010576157830655575 100.0 8 -0.01228919718414545
0.9809117913246155 0.20277993381023407 -0.23124969005584717 53.0 1 -0.012286893092095852
0.588726818561554 0.12170511484146118 0.0315062515437603 55.0 9 -0.012284589000046253
1.0324745178222656 0.21325191855430603 -0.20492886006832123 51.0 2 -0.012282284907996655
0.6048951745033264 0.12482739984989166 0.05403655767440796 100.0 10 -0.012279980815947056
0.6016863584518433 0.12405575066804886 -0.09730225056409836 97.0 3 -0.012277676723897457
0.6085559725761414 0.12536169588565826 0.07629022002220154 100.0 11 -0.012275372631847858
0.5949674844741821 0.1224539503455162 -0.07458404451608658 100.0 4 -0.012273069471120834
0.601729691028595 0.12384572625160217 0.09730225056409836 85.0 12 -0.012270765379071236
0.6030306816101074 0.1240038052201271 -0.05386224761605263 100.0 5 -0.012268461287021637
0.6134645342826843 0.1260380744934082 0.12173613905906677 54.0 13 -0.012266157194972038
0.6104172468185425 0.12530067563056946 -0.03265763819217682 100.0 6 -0.01226385310292244
0.6013891696929932 0.12333810329437256 -0.010715777985751629 93.0 7 -0.012259244918823242
3.0677900314331055 0.6286125779151917 0.8390913605690002 74.0 15 -0.012256940826773643
0.9730374813079834 0.1979668289422989 -0.2660659849643707 50.0 0 -0.01223620492964983
0.5917844176292419 0.12039996683597565 0.010541253723204136 100.0 8 -0.012233900837600231
0.9892176389694214 0.20107893645763397 -0.23304930329322815 52.0 1 -0.012231596745550632
0.5930625796318054 0.12044446170330048 0.03171559050679207 53.0 9 -0.012229292653501034
1.071693778038025 0.2174544334411621 -0.21256123483181 51.0 2 -0.01222698949277401
0.6014218926429749 0.12192358076572418 0.053687937557697296 100.0 10 -0.012224685400724411
0.5924144387245178 0.12009754031896591 -0.09573790431022644 100.0 3 -0.012222381308674812
0.6031315326690674 0.12216058373451233 0.07555899769067764 100.0 11 -0.012220077216625214
0.6070441603660583 0.12284278124570847 -0.07604647427797318 100.0 4 -0.012217773124575615
0.6099031567573547 0.12331022322177887 0.09855373203754425 85.0 12 -0.012215469032526016
0.5917421579360962 0.11953123658895493 -0.052816376090049744 100.0 5 -0.012213164940476418
0.6196523308753967 0.1251690685749054 0.12288100272417068 72.0 13 -0.012210860848426819
0.6186605095863342 0.12485635280609131 -0.03307632729411125 100.0 6 -0.01220855675637722
0.6116175651550293 0.1232127994298935 -0.010890301316976547 84.0 7 -0.012203948572278023
3.0661780834198 0.6171370148658752 0.8380560874938965 76.0 15 -0.012201644480228424
0.9812660217285156 0.19625425338745117 -0.26813653111457825 53.0 0 -0.012180909514427185
0.5961229205131531 0.11911732703447342 0.010611063800752163 100.0 8 -0.012178605422377586
0.982269287109375 0.19609884917736053 -0.23124969005584717 52.0 1 -0.012176301330327988
0.6013141870498657 0.11993608623743057 0.0321342796087265 55.0 9 -0.012173997238278389
1.1494221687316895 0.22925984859466553 -0.22782593965530396 51.0 2 -0.01217169314622879
0.6037768721580505 0.12031802535057068 0.05386224761605263 100.0 10 -0.012169389054179192
0.585080623626709 0.11648616194725037 -0.09448643028736115 97.0 3 -0.012167084962129593
0.5996604561805725 0.11927982419729233 0.07507152855396271 100.0 11 -0.012164780870079994
0.6113632321357727 0.12149703502655029 -0.07653395086526871 100.0 4 -0.012162476778030396
0.6161424517631531 0.1223350316286087 0.09949233382940292 87.0 12 -0.012160172685980797
0.599952220916748 0.11912047117948532 -0.053513623774051666 100.0 5 -0.012157868593931198
0.5989024639129639 0.11880311369895935 0.11868320405483246 71.0 13 -0.0121555645018816
0.6132150888442993 0.12153135985136032 -0.032762311398983 81.0 6 -0.012153261341154575
1.114478349685669 0.22067314386367798 0.26229292154312134 0.0 14 -0.012150957249104977
0.6140056848526001 0.12146501988172531 -0.010925207287073135 99.0 7 -0.012148653157055378
3.072103977203369 0.6071785688400269 0.8390913605690002 74.0 15 -0.01214634906500578
0.9800494909286499 0.19245575368404388 -0.26761889457702637 51.0 0 -0.012125613167881966
0.5926105380058289 0.11626560986042023 0.010541253723204136 100.0 8 -0.012123309075832367
0.9810354709625244 0.19229377806186676 -0.23079979419708252 56.0 1 -0.012121004983782768
0.5899689793586731 0.11553351581096649 0.0315062515437603 55.0 9 -0.01211870089173317
1.2253550291061401 0.23996105790138245 -0.24270905554294586 57.0 2 -0.01211639679968357
0.6139697432518005 0.12012232095003128 0.05473380535840988 100.0 10 -0.012114092707633972
0.5893611311912537 0.11520089209079742 -0.09511216729879379 90.0 3 -0.012111788615584373
0.5922799706459045 0.11566411703824997 0.07409656792879105 100.0 11 -0.012109484523534775
0.5961968302726746 0.11632101237773895 -0.07458404451608658 98.0 4 -0.01210718136280775
0.6165657043457031 0.12018339335918427 0.09949233382940292 74.0 12 -0.012104877270758152
0.6023199558258057 0.11740655452013016 -0.053687937557697296 99.0 5 -0.012102573178708553
0.6205110549926758 0.12084002792835236 0.12288100272417068 90.0 13 -0.012100269086658955
0.599912166595459 0.11671987920999527 -0.03202961012721062 88.0 6 -0.012097964994609356
1.0903737545013428 0.21194738149642944 0.25644421577453613 2.0 14 -0.012095660902559757
0.6026477217674255 0.11703380942344666 -0.010715777985751629 71.0 7 -0.012093356810510159
3.0836870670318604 0.5982916951179504 0.841679573059082 57.0 15 -0.01209105271846056
0.9826121926307678 0.18939940631389618 -0.26813653111457825 53.0 0 -0.012070316821336746
0.5969400405883789 0.11495241522789001 0.010611063800752163 100.0 8 -0.012068012729287148
0.9893553256988525 0.1903410404920578 -0.2325994074344635 60.0 1 -0.012065708637237549
0.5825232267379761 0.1119655966758728 0.031087562441825867 61.0 9 -0.01206340454518795
1.2358250617980957 0.23753541707992554 -0.24461714923381805 61.0 2 -0.012061101384460926
0.6124287843704224 0.11760255694389343 0.05455949530005455 94.0 10 -0.012058797292411327
0.6013995409011841 0.11537613719701767 -0.09698937833309174 90.0 3 -0.012056493200361729
0.5965793132781982 0.11434343457221985 0.07458404451608658 100.0 11 -0.01205418910831213
0.6121966242790222 0.11722566932439804 -0.07653395086526871 86.0 4 -0.012051885016262531
0.6111608743667603 0.11691707372665405 0.09855373203754425 90.0 12 -0.012049580924212933
0.6242520213127136 0.11942145228385925 -0.05560535937547684 100.0 5 -0.012047276832163334
0.6228574514389038 0.11904197931289673 0.12326261401176453 76.0 13 -0.012044972740113735
0.612086832523346 0.11687245965003967 -0.03265763819217682 100.0 6 -0.012042668648064137
1.077707290649414 0.2055840939283371 0.2532949149608612 6.0 14 -0.012040365487337112
0.6030526161193848 0.11492930352687836 -0.010715777985751629 100.0 7 -0.012038061395287514
3.08575701713562 0.5875231027603149 0.841679573059082 21.0 15 -0.012035757303237915
0.9756744503974915 0.18453244864940643 -0.2660659849643707 53.0 0 -0.012015020474791527
0.5973376631736755 0.11286812275648117 0.010611063800752163 100.0 8 -0.012012717314064503
0.9938435554504395 0.18760907649993896 -0.23349922895431519 59.0 1 -0.012010413222014904
0.5966491103172302 0.11252235621213913 0.03182026371359825 62.0 9 -0.012008109129965305
1.2385759353637695 0.23358364403247833 -0.2449987530708313 65.0 2 -0.012005805037915707
0.6010878682136536 0.11325081437826157 0.053513623774051666 100.0 10 -0.012003500945866108
0.6017987132072449 0.11327599734067917 -0.09698937833309174 90.0 3 -0.01200119685381651
0.6125819683074951 0.11519502848386765 0.07653395086526871 100.0 11 -0.01199889276176691
0.6067492365837097 0.11398855596780777 -0.07580273598432541 52.0 4 -0.011996588669717312
0.6037994027137756 0.11332529038190842 0.09730225056409836 85.0 12 -0.011994285508990288
0.6031249761581421 0.11319870501756668 -0.053687937557697296 100.0 5 -0.011991981416940689
0.6251987814903259 0.11722872406244278 0.12364423274993896 83.0 13 -0.01198967732489109
0.6124910116195679 0.11473529785871506 -0.03265763819217682 100.0 6 -0.011987373232841492
1.0822492837905884 0.20253759622573853 0.2541947066783905 7.0 14 -0.011985069140791893
0.5955875515937805 0.11135367304086685 -0.010576157830655575 74.0 7 -0.011982765048742294
3.0706980228424072 0.5735566020011902 0.8370208144187927 6.0 15 -0.011980460956692696
0.9762810468673706 0.1812957227230072 -0.2660659849643707 53.0 0 -0.01195073127746582
0.5977086424827576 0.11088678240776062 0.010611063800752163 100.0 8 -0.011948427185416222
1.0021246671676636 0.18573305010795593 -0.23529881238937378 60.0 1 -0.011946123093366623
0.6088021993637085 0.11272505670785904 0.03244829550385475 55.0 9 -0.011943819001317024
1.2509262561798096 0.2316199392080307 -0.24728846549987793 61.0 2 -0.011941514909267426
0.6034191846847534 0.11161944270133972 0.053687937557697296 100.0 10 -0.011939210817217827
0.6060559749603271 0.11199779063463211 -0.09761511534452438 87.0 3 -0.011936907656490803
0.601248025894165 0.11100077629089355 0.07507152855396271 100.0 11 -0.011934603564441204
0.5973629951477051 0.1101757362484932 -0.07458404451608658 16.0 4 -0.011932299472391605
0.6061145067214966 0.11168047040700912 0.09761511534452438 83.0 12 -0.011929995380342007
0.5858623385429382 0.10794887691736221 -0.05211913585662842 100.0 5 -0.011927691288292408
0.6159300804138184 0.11337760090827942 0.12173613905906677 54.0 13 -0.01192538719624281
0.6148324608802795 0.11306492984294891 -0.032762311398983 84.0 6 -0.01192308310419321
1.0752485990524292 0.1975388526916504 0.2523951232433319 6.0 14 -0.011920779012143612
0.6097214818000793 0.11190474033355713 -0.01082049123942852 84.0 7 -0.011918474920094013
3.0820839405059814 0.5651132464408875 0.8396090269088745 1.0 15 -0.011916170828044415
0.973106861114502 0.17719434201717377 -0.26503071188926697 53.0 0 -0.011895434930920601
0.5902224183082581 0.10736797004938126 0.010471443645656109 100.0 8 -0.011893130838871002
0.9989322423934937 0.1815371960401535 -0.23439902067184448 52.0 1 -0.011890827678143978
0.6032966375350952 0.1095287874341011 0.0321342796087265 52.0 9 -0.01188852358609438
1.2536590099334717 0.22760237753391266 -0.24767009913921356 65.0 2 -0.01188621949404478
0.6057656407356262 0.10986783355474472 0.05386224761605263 100.0 10 -0.011883915401995182
0.5967245697975159 0.10812077671289444 -0.09605076909065247 90.0 3 -0.011881611309945583
0.6016318202018738 0.10890118777751923 0.07507152855396271 100.0 11 -0.011879307217895985
0.6309519410133362 0.11409469693899155 -0.0787276029586792 9.0 4 -0.011877003125846386
0.6201080083847046 0.11202234774827957 0.09980519860982895 85.0 12 -0.011874699033796787
0.6038814783096313 0.10909102857112885 -0.053687937557697296 100.0 5 -0.011872394941747189
0.6182540655136108 0.11157572269439697 0.12211776524782181 54.0 13 -0.01187009084969759
0.6230856776237488 0.11233538389205933 -0.033180996775627136 100.0 6 -0.011867787688970566
1.0720956325531006 0.19309420883655548 0.2514953017234802 7.0 14 -0.011865483596920967
0.6101083755493164 0.1097758561372757 -0.01082049123942852 84.0 7 -0.011863179504871368
1.1142083406448364 0.20027704536914825 0.30333593487739563 0.0 15 -0.01186087541282177
0.9813266396522522 0.17515447735786438 -0.2671012580394745 53.0 0 -0.011840139515697956
0.5984681844711304 0.10671129077672958 0.010611063800752163 100.0 8 -0.011837835423648357
0.9918856620788574 0.17668190598487854 -0.2325994074344635 41.0 1 -0.011835531331598759
0.5977761745452881 0.10637262463569641 0.03182026371359825 50.0 9 -0.01183322723954916
1.250579833984375 0.22253724932670593 -0.2469068467617035 57.0 2 -0.011830923147499561
0.6139919757843018 0.10914763808250427 0.05455949530005455 100.0 10 -0.011828619055449963
0.6068230867385864 0.10776399075984955 -0.09761511534452438 94.0 3 -0.011826314963400364
0.6000537276268005 0.10645352303981781 0.07482778280973434 100.0 11 -0.011824010871350765
0.639164924621582 0.1132773756980896 -0.07970255613327026 5.0 4 -0.011821707710623741
0.6224404573440552 0.11020130664110184 0.10011807084083557 78.0 12 -0.011819403618574142
0.6101442575454712 0.10802429169416428 -0.05421087145805359 100.0 5 -0.011817099526524544
0.626372754573822 0.11078446358442307 0.12364423274993896 52.0 13 -0.011814795434474945
0.6156068444252014 0.10876983404159546 -0.032762311398983 84.0 6 -0.011812491342425346
1.0516533851623535 0.1856244057416916 0.24654637277126312 8.0 14 -0.011810187250375748
0.6144264936447144 0.1083398386836052 -0.010890301316976547 70.0 7 -0.011807883158326149
1.0920698642730713 0.19236516952514648 0.2971242666244507 2.0 15 -0.01180557906627655
0.9819320440292358 0.17172814905643463 -0.2671012580394745 50.0 0 -0.011784843169152737
0.5909576416015625 0.1032448261976242 0.010471443645656109 97.0 8 -0.011782539077103138
1.0097739696502686 0.1762336641550064 -0.2366485297679901 24.0 1 -0.01178023498505354
0.5961762070655823 0.10394241660833359 0.03171559050679207 52.0 9 -0.01177793089300394
1.2494150400161743 0.21783362329006195 -0.24652522802352905 61.0 2 -0.011775627732276917
0.6222205758094788 0.10837101936340332 0.055256739258766174 100.0 10 -0.011773323640227318
0.6071955561637878 0.10564496368169785 -0.09761511534452438 87.0 3 -0.011771019548177719
0.6023773550987244 0.10469864308834076 0.07507152855396271 100.0 11 -0.01176871545612812
0.6102190017700195 0.10595157742500305 -0.07604647427797318 6.0 4 -0.011766411364078522
0.6130897998809814 0.10633981227874756 0.09855373203754425 90.0 12 -0.011764107272028923
0.6222960948944092 0.10793662816286087 -0.055256739258766174 100.0 5 -0.011761803179979324
0.6267555952072144 0.1085977628827095 0.12364423274993896 52.0 13 -0.011759499087929726
0.608110785484314 0.10525757819414139 -0.03234362602233887 68.0 6 -0.011757194995880127
1.0388531684875488 0.17962782084941864 0.2433970421552658 9.0 14 -0.011754890903830528
0.5931252241134644 0.10245081037282944 -0.010506349615752697 44.0 7 -0.01175258681178093
1.0698901414871216 0.18460984528064728 0.2909126281738281 5.0 15 -0.011750283651053905
0.9787172079086304 0.16764691472053528 -0.2660659849643707 50.0 0 -0.011729546822607517
0.5972274541854858 0.10219360142946243 0.010576157830655575 94.0 8 -0.011727243661880493
1.0737719535827637 0.18354330956935883 -0.2514953017234802 43.0 1 -0.011724939569830894
0.5984863638877869 0.1023012176156044 0.03182026371359825 50.0 9 -0.011722635477781296
1.2501678466796875 0.2134706974029541 -0.24652522802352905 59.0 2 -0.011720331385731697
0.6108109951019287 0.10418818891048431 0.05421087145805359 100.0 10 -0.011718027293682098
0.6114552021026611 0.10418856143951416 -0.09824085235595703 90.0 3 -0.0117157232016325
0.6125239729881287 0.10426066815853119 0.07629022002220154 100.0 11 -0.011713419109582901
0.6281981468200684 0.10681553184986115 -0.07824012637138367 5.0 4 -0.011711115017533302
0.6095442175865173 0.10364371538162231 0.097927987575531 85.0 12 -0.011708810925483704
0.6010622978210449 0.10209385305643082 -0.053339313715696335 86.0 5 -0.011706506833434105
0.6310020685195923 0.10706600546836853 0.12440747022628784 48.0 13 -0.01170420367270708
0.6163512468338013 0.10446914285421371 -0.032762311398983 60.0 6 -0.011701899580657482
1.0394737720489502 0.1760006695985794 0.2433970421552658 9.0 14 -0.011699595488607883
0.575717031955719 0.0974787250161171 -0.010192206129431725 17.0 7 -0.011697291396558285
1.0552581548690796 0.178483784198761 0.2867715060710907 7.0 15 -0.011694987304508686
0.9697701930999756 0.16263218224048615 -0.26347780227661133 45.0 0 -0.011674251407384872
0.6074239015579224 0.10186606645584106 0.010750683024525642 97.0 8 -0.011671947315335274
1.1935360431671143 0.19994397461414337 -0.27938923239707947 54.0 1 -0.011669643223285675
0.6067193150520325 0.10152989625930786 0.032238952815532684 49.0 9 -0.011667339131236076
1.247032642364502 0.20845837891101837 -0.24576200544834137 59.0 2 -0.011665035039186478
0.6072405576705933 0.10139954090118408 0.05386224761605263 100.0 10 -0.011662730947136879
0.5981585383415222 0.09988299012184143 -0.09605076909065247 90.0 3 -0.01166042685508728
0.6167824268341064 0.10288193076848984 0.07677769660949707 100.0 11 -0.011658123694360256
0.6285488605499268 0.10473219305276871 -0.07824012637138367 5.0 4 -0.011655819602310658
0.6196450591087341 0.10313744843006134 0.09949233382940292 78.0 12 -0.011653515510261059
0.5974841713905334 0.09934139996767044 -0.052990689873695374 100.0 5 -0.01165121141821146
0.6313537359237671 0.10497275739908218 0.12440747022628784 48.0 13 -0.011648907326161861
0.6206347942352295 0.10307926684617996 -0.03297165781259537 60.0 6 -0.011646603234112263
1.04966402053833 0.17414765059947968 0.24564655125141144 8.0 14 -0.011644299142062664
0.5878905057907104 0.097430020570755 -0.010401634499430656 8.0 7 -0.011641995050013065
1.0558747053146362 0.1747988760471344 0.2867715060710907 7.0 15 -0.011639690957963467
