# .PCD v0.7 - Point Cloud Data file format
VERSION 0.7
FIELDS x y z intensity ring time
SIZE 4 4 4 4 4 4
TYPE F F F F F F
COUNT 1 1 1 1 1 1
WIDTH 541
HEIGHT 1
VIEWPOINT 0 0 0 1 0 0 0
POINTS 541
DATA ascii
0.5642118453979492 -2.2086586952209473 0.6108129620552063 9.0 15 -0.0718865841627121
0.32548731565475464 -1.2806719541549683 -0.3540644645690918 9.0 0 -0.07186584919691086
0.552776038646698 -2.176561117172241 0.03919810429215431 58.0 8 -0.07186354696750641
0.3777351975440979 -1.4884239435195923 -0.3545228838920593 17.0 1 -0.07186124473810196
0.5596900582313538 -2.2070136070251465 0.11932599544525146 28.0 9 -0.07185893505811691
0.4676367938518524 -1.8440220355987549 -0.3697878420352936 6.0 2 -0.07185663282871246
0.5623459815979004 -2.219111919403076 0.20028388500213623 20.0 10 -0.07185433059930801
0.57558673620224 -2.2730281352996826 -0.3713754713535309 100.0 3 -0.07185202836990356
0.555618941783905 -2.195784330368042 0.27810585498809814 14.0 11 -0.07184971868991852
0.5751872062683105 -2.2747867107391357 -0.28809913992881775 100.0 4 -0.07184741646051407
0.5632667541503906 -2.2292797565460205 0.36417946219444275 10.0 12 -0.07184511423110962
0.546642541885376 -2.163485050201416 -0.19522884488105774 88.0 5 -0.07184281200170517
0.5599038004875183 -2.2176005840301514 0.44458499550819397 9.0 13 -0.07184050232172012
0.5535731911659241 -2.1941394805908203 -0.11859328299760818 68.0 6 -0.07183820009231567
0.5597602725028992 -2.2202961444854736 0.5286350250244141 8.0 14 -0.07183589786291122
0.5515274405479431 -2.189253091812134 -0.03940753638744354 100.0 7 -0.07183359563350677
0.5569705963134766 -2.2124881744384766 0.6113306283950806 9.0 15 -0.07183128595352173
0.3191375732421875 -1.2743042707443237 -0.3519938886165619 8.0 0 -0.07181055098772049
0.5480880737304688 -2.1901168823242188 0.03940753638744354 58.0 8 -0.07180824875831604
0.37868303060531616 -1.514310359954834 -0.3603716194629669 12.0 1 -0.07180594652891159
0.5500458478927612 -2.2012031078338623 0.11890730261802673 28.0 9 -0.07180364429950714
0.4578653872013092 -1.8323103189468384 -0.3671165406703949 6.0 2 -0.0718013346195221
0.5555619597434998 -2.2249274253845215 0.2006325125694275 22.0 10 -0.07179903239011765
0.5681270360946655 -2.276940107345581 -0.3716883361339569 100.0 3 -0.0717967301607132
0.5503519177436829 -2.207340955734253 0.27932456135749817 13.0 11 -0.07179442793130875
0.566283643245697 -2.272928476333618 -0.2876116633415222 100.0 4 -0.0717921182513237
0.5511866211891174 -2.2139806747436523 0.3613636791706085 11.0 12 -0.07178981602191925
0.5410125255584717 -2.1731138229370117 -0.19592611491680145 91.0 5 -0.0717875137925148
0.5502638220787048 -2.211920738220215 0.44305849075317383 9.0 13 -0.07178521156311035
0.5483196973800659 -2.205749988555908 -0.1191166415810585 69.0 6 -0.0717829018831253
0.5482481718063354 -2.207106351852417 0.5250357985496521 8.0 14 -0.07178059965372086
0.5419553518295288 -2.183401584625244 -0.03926791250705719 100.0 7 -0.0717782974243164
0.5506389141082764 -2.220043659210205 0.6128835082054138 8.0 15 -0.07177599519491196
0.31468746066093445 -1.275410532951355 -0.3519938886165619 8.0 0 -0.07175526022911072
0.5409181118011475 -2.193957805633545 0.03944243863224983 64.0 8 -0.07175295054912567
0.3729287385940552 -1.513730764389038 -0.3599216938018799 10.0 1 -0.07175064831972122
0.5423590540885925 -2.2031095027923584 0.11890730261802673 30.0 9 -0.07174834609031677
0.4533439874649048 -1.8415225744247437 -0.36864298582077026 5.0 2 -0.07174604386091232
0.5454121828079224 -2.217179775238037 0.19976095855236053 23.0 10 -0.07174373418092728
0.5611188411712646 -2.2827460765838623 -0.37231406569480896 100.0 3 -0.07174143195152283
0.5450113415718079 -2.2188875675201416 0.2805432379245758 14.0 11 -0.07173912972211838
0.559292197227478 -2.2787468433380127 -0.28809913992881775 100.0 4 -0.07173682749271393
0.5420433878898621 -2.2101356983184814 0.36042505502700806 11.0 12 -0.07173451781272888
0.531525194644928 -2.1672487258911133 -0.19522884488105774 88.0 5 -0.07173221558332443
0.544408917427063 -2.2214553356170654 0.44458499550819397 9.0 13 -0.07172991335391998
0.5420421957969666 -2.213469982147217 -0.11943066120147705 68.0 6 -0.07172761112451553
0.5405405759811401 -2.2090067863464355 0.5250357985496521 8.0 14 -0.07172530889511108
0.5348054766654968 -2.187222719192505 -0.03930281847715378 100.0 7 -0.07172299921512604
0.5405938625335693 -2.212569236755371 0.610295295715332 9.0 15 -0.07172069698572159
0.3074962794780731 -1.2652379274368286 -0.3488880693912506 9.0 0 -0.07169996201992035
0.5290095210075378 -2.1783440113067627 0.039128296077251434 61.0 8 -0.0716976597905159
0.36764252185821533 -1.5150232315063477 -0.3599216938018799 8.0 1 -0.07169535011053085
0.5365480780601501 -2.2127535343170166 0.11932599544525146 30.0 9 -0.0716930478811264
0.4455251395702362 -1.8373701572418213 -0.36749815940856934 6.0 2 -0.07169074565172195
0.5376696586608887 -2.2190699577331543 0.19976095855236053 23.0 10 -0.0716884434223175
0.550822913646698 -2.2750911712646484 -0.37074974179267883 100.0 3 -0.07168613374233246
0.5358619093894958 -2.2149882316589355 0.2798120379447937 15.0 11 -0.07168383151292801
0.5513346791267395 -2.2806851863861084 -0.28809913992881775 100.0 4 -0.07168152928352356
0.5375722050666809 -2.2254550457000732 0.3626151382923126 11.0 12 -0.07167922705411911
0.5211502313613892 -2.157470703125 -0.19418299198150635 94.0 5 -0.07167692482471466
0.534808337688446 -2.2157082557678223 0.44305849075317383 9.0 13 -0.07167461514472961
0.5338444113731384 -2.213407278060913 -0.11932599544525146 69.0 6 -0.07167231291532516
0.5373920798301697 -2.229825019836426 0.5295348167419434 8.0 14 -0.07167001068592072
0.5248264670372009 -2.1793556213378906 -0.039128296077251434 100.0 7 -0.07166770845651627
0.5306073427200317 -2.2050514221191406 0.607707142829895 8.0 15 -0.07166539877653122
0.30307772755622864 -1.2663036584854126 -0.3488880693912506 8.0 0 -0.07164466381072998
0.5209375619888306 -2.178232192993164 0.039093390107154846 64.0 8 -0.07164236158132553
0.3596341907978058 -1.50492525100708 -0.3572222888469696 7.0 1 -0.07164005935192108
0.5311402082443237 -2.2243263721466064 0.11984935402870178 38.0 9 -0.07163775712251663
0.43500491976737976 -1.8217278718948364 -0.3640635907649994 6.0 2 -0.07163544744253159
0.5289954543113708 -2.217057228088379 0.19941233098506927 23.0 10 -0.07163314521312714
0.5424197912216187 -2.275078296661377 -0.3704368472099304 100.0 3 -0.07163084298372269
0.5249068140983582 -2.2033278942108154 0.27810585498809814 14.0 11 -0.07162854075431824
0.5442895889282227 -2.2864580154418945 -0.2885866165161133 100.0 4 -0.07162623107433319
0.5270578861236572 -2.215787410736084 0.3607378900051117 11.0 12 -0.07162392884492874
0.5145381093025208 -2.1631534099578857 -0.1945316195487976 91.0 5 -0.07162162661552429
0.5261630415916443 -2.2137415409088135 0.44229528307914734 9.0 13 -0.07161932438611984
0.5247300863265991 -2.20942759513855 -0.11901197582483292 73.0 6 -0.0716170147061348
0.5287052989006042 -2.2278952598571777 0.5286350250244141 8.0 14 -0.07161471247673035
0.5190616250038147 -2.1889572143554688 -0.03926791250705719 100.0 7 -0.0716124102473259
0.5246886014938354 -2.214409589767456 0.6097776889801025 8.0 15 -0.07161010801792145
0.29865577816963196 -1.2673537731170654 -0.3488880693912506 8.0 0 -0.07158937305212021
0.5151639580726624 -2.187823534011841 0.0392330102622509 66.0 8 -0.07158706337213516
0.35259366035461426 -1.4985835552215576 -0.3554226756095886 7.0 1 -0.07158476114273071
0.5201731324195862 -2.2125566005706787 0.1191166415810585 36.0 9 -0.07158245891332626
0.435383141040802 -1.8519024848937988 -0.3697878420352936 6.0 2 -0.07158015668392181
0.523531436920166 -2.228588342666626 0.20028388500213623 24.0 10 -0.07157784700393677
0.5335721373558044 -2.2731118202209473 -0.36981111764907837 100.0 3 -0.07157554477453232
0.5153996348381042 -2.197416305541992 0.27713093161582947 14.0 11 -0.07157324254512787
0.5335872769355774 -2.276747941970825 -0.2871242165565491 100.0 4 -0.07157094031572342
0.520220935344696 -2.2214605808258057 0.3613636791706085 11.0 12 -0.07156863063573837
0.5088011622428894 -2.1726958751678467 -0.19522884488105774 98.0 5 -0.07156632840633392
0.5175374746322632 -2.2117416858673096 0.44153204560279846 9.0 13 -0.07156402617692947
0.5161052942276001 -2.2073562145233154 -0.11880263686180115 75.0 6 -0.07156172394752502
0.5191521048545837 -2.2221362590789795 0.5268353819847107 9.0 14 -0.07155941426753998
0.513690173625946 -2.2004923820495605 -0.03944243863224983 100.0 7 -0.07155711203813553
0.5173947215080261 -2.218108892440796 0.610295295715332 9.0 15 -0.07155480980873108
0.29510313272476196 -1.2721525430679321 -0.34992337226867676 9.0 0 -0.07153407484292984
0.5093302130699158 -2.1974005699157715 0.039372626692056656 68.0 8 -0.07153177261352539
0.3473604619503021 -1.499805212020874 -0.3554226756095886 7.0 1 -0.07152946293354034
0.5101947784423828 -2.20462965965271 0.11859328299760818 40.0 9 -0.0715271607041359
0.42271891236305237 -1.826633095741272 -0.36444520950317383 6.0 2 -0.07152485847473145
0.5148515105247498 -2.226519823074341 0.19993527233600616 25.0 10 -0.071522556245327
0.5283026695251465 -2.286508560180664 -0.3716883361339569 100.0 3 -0.07152024656534195
0.5090654492378235 -2.2050046920776367 0.2778621315956116 15.0 11 -0.0715179443359375
0.5247443914413452 -2.2747278213500977 -0.28663671016693115 100.0 4 -0.07151564210653305
0.5115759372711182 -2.2194130420684814 0.3607378900051117 11.0 12 -0.0715133398771286
0.5025565028190613 -2.1802830696105957 -0.19575178623199463 98.0 5 -0.07151103019714355
0.5115766525268555 -2.2211873531341553 0.44305849075317383 9.0 13 -0.0715087279677391
0.5083969831466675 -2.209144353866577 -0.11880263686180115 75.0 6 -0.07150642573833466
0.5096453428268433 -2.2163383960723877 0.5250357985496521 8.0 14 -0.0715041235089302
0.502871572971344 -2.188629627227783 -0.03919810429215431 100.0 7 -0.07150182127952576
0.5105134844779968 -2.2236673831939697 0.6113306283950806 9.0 15 -0.07149951159954071
0.2880808115005493 -1.2618744373321533 -0.3468175232410431 10.0 0 -0.07146358489990234
0.5025461316108704 -2.20306396484375 0.03944243863224983 68.0 8 -0.0714612826704979
0.34298914670944214 -1.5048086643218994 -0.3563224971294403 7.0 1 -0.07145898044109344
0.5024963021278381 -2.206397294998169 0.11859328299760818 40.0 9 -0.0714566707611084
0.40413355827331543 -1.7744989395141602 -0.35375988483428955 8.0 2 -0.07145436853170395
0.5053079128265381 -2.2205324172973633 0.19923801720142365 25.0 10 -0.0714520663022995
0.5203179717063904 -2.2883386611938477 -0.3716883361339569 100.0 3 -0.07144976407289505
0.5040042996406555 -2.2183825969696045 0.27932456135749817 16.0 11 -0.07144745439291
0.5176795721054077 -2.2804176807403564 -0.2871242165565491 100.0 4 -0.07144515216350555
0.5007668137550354 -2.207700252532959 0.3585478365421295 12.0 12 -0.0714428499341011
0.4922983646392822 -2.170366048812866 -0.19470593333244324 100.0 5 -0.07144054770469666
0.506424069404602 -2.234447479248047 0.44534823298454285 9.0 13 -0.07143823802471161
0.5015647411346436 -2.21480131149292 -0.11901197582483292 75.0 6 -0.07143593579530716
0.5027658343315125 -2.22190523147583 0.5259355902671814 8.0 14 -0.07143363356590271
0.49522894620895386 -2.190371513366699 -0.03919810429215431 100.0 7 -0.07143133133649826
0.5010454058647156 -2.21789813041687 0.6092600226402283 9.0 15 -0.07142902165651321
0.2828276455402374 -1.259102463722229 -0.34578225016593933 9.0 0 -0.07140828669071198
0.49134954810142517 -2.1891961097717285 0.03916320204734802 69.0 8 -0.07140598446130753
0.33858710527420044 -1.5097997188568115 -0.3572222888469696 7.0 1 -0.07140368223190308
0.49741193652153015 -2.2198314666748047 0.11922132223844528 43.0 9 -0.07140138000249863
0.40523475408554077 -1.8084664344787598 -0.360247403383255 10.0 2 -0.07139907032251358
0.4966830611228943 -2.2183942794799805 0.19888940453529358 25.0 10 -0.07139676809310913
0.5101706981658936 -2.2805025577545166 -0.3701240122318268 100.0 3 -0.07139446586370468
0.49495822191238403 -2.2143166065216064 0.2785933315753937 16.0 11 -0.07139216363430023
0.5105818510055542 -2.286085605621338 -0.2876116633415222 100.0 4 -0.07138985395431519
0.4973600208759308 -2.2287142276763916 0.36167651414871216 12.0 12 -0.07138755172491074
0.4829837679862976 -2.164293050765991 -0.19400867819786072 100.0 5 -0.07138524949550629
0.49434831738471985 -2.2170398235321045 0.44153204560279846 9.0 13 -0.07138294726610184
0.4946994185447693 -2.220437526702881 -0.11922132223844528 73.0 6 -0.07138063758611679
0.4967009127140045 -2.231255531311035 0.5277352333068848 8.0 14 -0.07137833535671234
0.48584312200546265 -2.184279203414917 -0.039058487862348557 100.0 7 -0.07137603312730789
0.4907856583595276 -2.2083182334899902 0.606154203414917 9.0 15 -0.07137373089790344
0.27759701013565063 -1.2563095092773438 -0.34474697709083557 9.0 0 -0.0713529959321022
0.48284274339675903 -2.1869921684265137 0.039093390107154846 74.0 8 -0.07135068625211716
0.329117089509964 -1.4919425249099731 -0.35272327065467834 8.0 1 -0.07134838402271271
0.4896176755428314 -2.2195181846618652 0.1191166415810585 44.0 9 -0.07134608179330826
0.4022999405860901 -1.8252078294754028 -0.3633003234863281 10.0 2 -0.07134377956390381
0.4906504154205322 -2.2278976440429688 0.1995866596698761 30.0 10 -0.07134146988391876
0.5009335279464722 -2.276481866836548 -0.3691853880882263 100.0 3 -0.07133916765451431
0.48594725131988525 -2.210214853286743 0.2778621315956116 15.0 11 -0.07133686542510986
0.5034505724906921 -2.291731119155884 -0.28809913992881775 100.0 4 -0.07133456319570541
0.49081429839134216 -2.234210252761841 0.3623022735118866 14.0 12 -0.07133225351572037
0.47542598843574524 -2.1659655570983887 -0.19400867819786072 98.0 5 -0.07132995128631592
0.4840831458568573 -2.2072458267211914 0.43924233317375183 9.0 13 -0.07132764905691147
0.4865180552005768 -2.2201998233795166 -0.1191166415810585 90.0 6 -0.07132534682750702
0.4884921908378601 -2.231072187423706 0.5272852778434753 9.0 14 -0.07132304459810257
0.4790247082710266 -2.1878316402435303 -0.039093390107154846 100.0 7 -0.07132073491811752
0.4884144365787506 -2.2325804233551025 0.6123659014701843 9.0 15 -0.07131843268871307
0.274850994348526 -1.264822006225586 -0.3468175232410431 9.0 0 -0.07129769772291183
0.4747384488582611 -2.184673309326172 0.03902358189225197 72.0 8 -0.07129539549350739
0.32416775822639465 -1.493025779724121 -0.35272327065467834 8.0 1 -0.07129308581352234
0.4793264865875244 -2.209502935409546 0.1184886172413826 45.0 9 -0.07129078358411789
0.39842185378074646 -1.8381133079528809 -0.36559006571769714 9.0 2 -0.07128848135471344
0.4824488162994385 -2.227649450302124 0.19941233098506927 28.0 10 -0.07128617912530899
0.4921272099018097 -2.272338390350342 -0.36824676394462585 66.0 3 -0.07128386944532394
0.47609612345695496 -2.2001729011535645 0.276399701833725 16.0 11 -0.0712815672159195
0.4941703975200653 -2.2856273651123047 -0.2871242165565491 100.0 4 -0.07127926498651505
0.4825952649116516 -2.2339789867401123 0.36198940873146057 13.0 12 -0.0712769627571106
0.4695438742637634 -2.1754021644592285 -0.19470593333244324 100.0 5 -0.07127466052770615
0.47924619913101196 -2.220353364944458 0.44153204560279846 9.0 13 -0.0712723508477211
0.47452133893966675 -2.2003250122070312 -0.11796525865793228 84.0 6 -0.07127004861831665
0.4806806743144989 -2.2307746410369873 0.5268353819847107 8.0 14 -0.0712677463889122
0.4705433249473572 -2.1855807304382324 -0.03902358189225197 100.0 7 -0.07126544415950775
0.4773678481578827 -2.219162702560425 0.6082248091697693 9.0 15 -0.0712631344795227
0.27227097749710083 -1.2732830047607422 -0.3488880693912506 9.0 0 -0.07124239951372147
0.46878108382225037 -2.1941394805908203 0.03916320204734802 84.0 8 -0.07124009728431702
0.32058143615722656 -1.5017714500427246 -0.3545228838920593 7.0 1 -0.07123779505491257
0.47119423747062683 -2.2092089653015137 0.11838394403457642 47.0 9 -0.07123548537492752
0.39027655124664307 -1.8298239707946777 -0.36368197202682495 6.0 2 -0.07123318314552307
0.4763047397136688 -2.2350831031799316 0.19993527233600616 29.0 10 -0.07123088091611862
0.4792559742927551 -2.2508578300476074 -0.36449235677719116 35.0 3 -0.07122857868671417
0.46965256333351135 -2.207646131515503 0.27713093161582947 16.0 11 -0.07122627645730972
0.4849505126476288 -2.281513214111328 -0.2863929867744446 100.0 4 -0.07122396677732468
0.47274261713027954 -2.2259886264801025 0.36042505502700806 14.0 12 -0.07122166454792023
0.4623275399208069 -2.1769473552703857 -0.19470593333244324 100.0 5 -0.07121936231851578
0.4727155566215515 -2.227774143218994 0.4426769018173218 10.0 13 -0.07121706008911133
0.46766626834869385 -2.2058756351470947 -0.11817460507154465 84.0 6 -0.07121475040912628
0.4700639843940735 -2.2190937995910645 0.5236860513687134 9.0 14 -0.07121244817972183
0.46291154623031616 -2.1872098445892334 -0.03902358189225197 100.0 7 -0.07121014595031738
0.47041812539100647 -2.224595546722412 0.6092600226402283 9.0 15 -0.07120784372091293
0.2654406428337097 -1.2628823518753052 -0.34578225016593933 10.0 0 -0.0711871013045311
0.4619408845901489 -2.199676275253296 0.0392330102622509 79.0 8 -0.07118479907512665
0.3145369291305542 -1.4990668296813965 -0.35362306237220764 7.0 1 -0.0711824968457222
0.46388956904411316 -2.2127952575683594 0.1184886172413826 49.0 9 -0.07118019461631775
0.38106709718704224 -1.8177247047424316 -0.3610106408596039 6.0 2 -0.0711778923869133
0.46482399106025696 -2.2191812992095947 0.1983664631843567 28.0 10 -0.07117558270692825
0.4734191298484802 -2.2621841430664062 -0.3660567104816437 66.0 3 -0.0711732804775238
0.4660063683986664 -2.2287027835845947 0.27956831455230713 18.0 11 -0.07117097824811935
0.47779566049575806 -2.2870781421661377 -0.2868804633617401 100.0 4 -0.0711686760187149
0.46416234970092773 -2.2237579822540283 0.359799325466156 14.0 12 -0.07116636633872986
0.45391151309013367 -2.174647092819214 -0.19435729086399078 100.0 5 -0.07116406410932541
0.4669399857521057 -2.2390201091766357 0.44458499550819397 10.0 13 -0.07116176187992096
0.45996367931365967 -2.2074944972991943 -0.11817460507154465 86.0 6 -0.07115945965051651
0.4639039933681488 -2.2283525466918945 0.5254856944084167 9.0 14 -0.07115714997053146
0.4540519416332245 -2.182939052581787 -0.038918863981962204 100.0 7 -0.07115484774112701
0.4610779285430908 -2.218658447265625 0.6071895360946655 9.0 15 -0.07115254551172256
0.2602490484714508 -1.2600175142288208 -0.34474697709083557 10.0 0 -0.07113181054592133
0.4510267674922943 -2.18560791015625 0.03895376995205879 81.0 8 -0.07112950831651688
0.3108762800693512 -1.507789969444275 -0.3554226756095886 7.0 1 -0.07112719863653183
0.4569684863090515 -2.218313455581665 0.11869796365499496 49.0 9 -0.07112489640712738
0.37630411982536316 -1.8267353773117065 -0.36253711581230164 6.0 2 -0.07112259417772293
0.45707497000694275 -2.220790386199951 0.1983664631843567 28.0 10 -0.07112029194831848
0.46631547808647156 -2.267692804336548 -0.3666824400424957 62.0 3 -0.07111798226833344
0.4578242897987366 -2.2283711433410645 0.27932456135749817 17.0 11 -0.07111568003892899
0.4714059829711914 -2.2965104579925537 -0.2878554165363312 100.0 4 -0.07111337780952454
0.4575876295566559 -2.2311697006225586 0.3607378900051117 15.0 12 -0.07111107558012009
0.4443381726741791 -2.1684889793395996 -0.19366006553173065 100.0 5 -0.07110876590013504
0.4563630223274231 -2.2271735668182373 0.4419136643409729 10.0 13 -0.07110646367073059
0.452254980802536 -2.2090866565704346 -0.11817460507154465 88.0 6 -0.07110416144132614
0.45690372586250305 -2.233776569366455 0.526385486125946 9.0 14 -0.07110185921192169
0.4464295208454132 -2.1845107078552246 -0.038918863981962204 100.0 7 -0.07109954953193665
0.452557235956192 -2.216468572616577 0.606154203414917 9.0 15 -0.0710972473025322
0.2571643888950348 -1.2685362100601196 -0.3468175232410431 9.0 0 -0.07107651233673096
0.44259992241859436 -2.1832494735717773 0.038883961737155914 86.0 8 -0.07107421010732651
0.3025165796279907 -1.4935864210128784 -0.35182347893714905 8.0 1 -0.07107190787792206
0.45041096210479736 -2.2257678508758545 0.11901197582483292 52.0 9 -0.07106959819793701
0.3676609396934509 -1.8184807300567627 -0.36062902212142944 6.0 2 -0.07106729596853256
0.4497210383415222 -2.2263567447662354 0.19871510565280914 34.0 10 -0.07106499373912811
0.4537024199962616 -2.248086929321289 -0.3632408678531647 55.0 3 -0.07106269150972366
0.4480797052383423 -2.220226526260376 0.27810585498809814 19.0 11 -0.07106038182973862
0.4633867144584656 -2.2981419563293457 -0.2878554165363312 100.0 4 -0.07105807960033417
0.45018666982650757 -2.234689950942993 0.3610507845878601 15.0 12 -0.07105577737092972
0.4383387267589569 -2.1778392791748047 -0.19435729086399078 100.0 5 -0.07105347514152527
0.4474228024482727 -2.2249815464019775 0.44115039706230164 11.0 13 -0.07105116546154022
0.4433686137199402 -2.206813097000122 -0.11796525865793228 97.0 6 -0.07104886323213577
0.44948017597198486 -2.239257574081421 0.5272852778434753 9.0 14 -0.07104656100273132
0.43919461965560913 -2.188016176223755 -0.03895376995205879 100.0 7 -0.07104425877332687
0.4463372528553009 -2.225611448287964 0.6082248091697693 9.0 15 -0.07104195654392242
0.2527349293231964 -1.2694261074066162 -0.3468175232410431 9.0 0 -0.07102121412754059
0.43459513783454895 -2.18485689163208 0.038883961737155914 91.0 8 -0.07101891189813614
0.29704025387763977 -1.494685173034668 -0.35182347893714905 7.0 1 -0.07101660966873169
0.4395243227481842 -2.2116546630859375 0.11817460507154465 53.0 9 -0.07101430743932724
0.3632228970527649 -1.8293813467025757 -0.36253711581230164 5.0 2 -0.0710119977593422
0.4419470429420471 -2.2279129028320312 0.19871510565280914 34.0 10 -0.07100969552993774
0.44930824637413025 -2.2670962810516357 -0.3660567104816437 82.0 3 -0.0710073933005333
0.4387824237346649 -2.2160120010375977 0.27737462520599365 19.0 11 -0.07100509107112885
0.4534197449684143 -2.2920353412628174 -0.2868804633617401 100.0 4 -0.0710027813911438
0.44315028190612793 -2.2401232719421387 0.36167651414871216 15.0 12 -0.07100047916173935
0.42996105551719666 -2.1754472255706787 -0.19400867819786072 100.0 5 -0.0709981769323349
0.4396533668041229 -2.226529836654663 0.44115039706230164 10.0 13 -0.07099587470293045
0.4352760910987854 -2.206387996673584 -0.1178605854511261 100.0 6 -0.070993572473526
0.44090747833251953 -2.2369890213012695 0.526385486125946 9.0 14 -0.07099126279354095
0.43387478590011597 -2.201307773590088 -0.03916320204734802 100.0 7 -0.0709889605641365
0.43856561183929443 -2.227155923843384 0.6082248091697693 9.0 15 -0.07098665833473206
0.2483023852109909 -1.2703006267547607 -0.3468175232410431 9.0 0 -0.07096592336893082
0.42773130536079407 -2.188248634338379 0.038918863981962204 97.0 8 -0.07096361368894577
0.2920820116996765 -1.495661973953247 -0.35182347893714905 7.0 1 -0.07096131145954132
0.4310365617275238 -2.2092549800872803 0.11796525865793228 55.0 9 -0.07095900923013687
0.3530787527561188 -1.8113683462142944 -0.35872092843055725 6.0 2 -0.07095670700073242
0.4356907904148102 -2.237264633178711 0.19941233098506927 34.0 10 -0.07095439732074738
0.44669678807258606 -2.2937803268432617 -0.3701240122318268 100.0 3 -0.07095209509134293
0.431431382894516 -2.2174549102783203 0.27737462520599365 20.0 11 -0.07094979286193848
0.44430115818977356 -2.2857320308685303 -0.28590551018714905 100.0 4 -0.07094749063253403
0.43344515562057495 -2.2319610118865967 0.36011216044425964 16.0 12 -0.07094518840312958
0.4238828420639038 -2.184758424758911 -0.19470593333244324 100.0 5 -0.07094287872314453
0.4337635040283203 -2.235684871673584 0.4426769018173218 11.0 13 -0.07094057649374008
0.4294772148132324 -2.2156622409820557 -0.11827926337718964 100.0 6 -0.07093827426433563
0.4305228590965271 -2.2231333255767822 0.5227862596511841 9.0 14 -0.07093597203493118
0.42504873871803284 -2.1969187259674072 -0.039058487862348557 100.0 7 -0.07093366235494614
0.4315218925476074 -2.232466697692871 0.6092600226402283 9.0 15 -0.07093136012554169
0.24190263450145721 -1.2597339153289795 -0.3437117040157318 10.0 0 -0.07091062515974045
0.4215970039367676 -2.1975839138031006 0.039058487862348557 100.0 8 -0.070908322930336
0.2875930070877075 -1.500500202178955 -0.35272327065467834 7.0 1 -0.07090601325035095
0.42444923520088196 -2.2166309356689453 0.11827926337718964 62.0 9 -0.0709037110209465
0.3478086590766907 -1.8163855075836182 -0.35948416590690613 5.0 2 -0.07090140879154205
0.4275205433368683 -2.234783411026001 0.1990637183189392 37.0 10 -0.0708991065621376
0.440912127494812 -2.306966781616211 -0.37200120091438293 100.0 3 -0.07089680433273315
0.42517784237861633 -2.2267470359802246 0.2783496081829071 20.0 11 -0.07089449465274811
0.4378078281879425 -2.2950685024261475 -0.2868804633617401 100.0 4 -0.07089219242334366
0.426391065120697 -2.2373411655426025 0.3607378900051117 16.0 12 -0.07088989019393921
0.4143904745578766 -2.176438808441162 -0.19383437931537628 100.0 5 -0.07088758796453476
0.42595651745796204 -2.237185478210449 0.4426769018173218 11.0 13 -0.07088527828454971
0.42398005723953247 -2.2289204597473145 -0.11890730261802673 100.0 6 -0.07088297605514526
0.4256708025932312 -2.239938259124756 0.526385486125946 9.0 14 -0.07088067382574081
0.41775012016296387 -2.2003538608551025 -0.039093390107154846 100.0 7 -0.07087837159633636
0.422286719083786 -2.226367473602295 0.6071895360946655 9.0 15 -0.07087606191635132
0.23728381097316742 -1.2606121301651 -0.3437117040157318 10.0 0 -0.07085532695055008
0.41207411885261536 -2.189216375350952 0.038883961737155914 100.0 8 -0.07085302472114563
0.2823536694049835 -1.5014948844909668 -0.35272327065467834 7.0 1 -0.07085072249174118
0.4167088270187378 -2.2180991172790527 0.11827926337718964 61.0 9 -0.07084842026233673
0.34187325835227966 -1.8215073347091675 -0.360247403383255 6.0 2 -0.07084611058235168
0.41528794169425964 -2.214794158935547 0.19714628159999847 38.0 10 -0.07084380835294724
0.42845284938812256 -2.287209987640381 -0.36855965852737427 100.0 3 -0.07084150612354279
0.41740211844444275 -2.228217601776123 0.2783496081829071 22.0 11 -0.07083920389413834
0.43052414059638977 -2.300485372543335 -0.28736793994903564 100.0 4 -0.07083689421415329
0.4193046987056732 -2.242699384689331 0.3613636791706085 19.0 12 -0.07083459198474884
0.40569350123405457 -2.171996593475342 -0.1933114379644394 100.0 5 -0.07083228975534439
0.41559338569641113 -2.227151870727539 0.44038718938827515 11.0 13 -0.07082998752593994
0.4128795266151428 -2.214751958847046 -0.11806992441415787 100.0 6 -0.0708276778459549
0.41745811700820923 -2.241483449935913 0.526385486125946 9.0 14 -0.07082537561655045
0.412263959646225 -2.2135939598083496 -0.03930281847715378 100.0 7 -0.070823073387146
0.413099080324173 -2.2202305793762207 0.6051189303398132 9.0 15 -0.07082077115774155
0.23358343541622162 -1.2652320861816406 -0.34474697709083557 9.0 0 -0.07080003619194031
0.4025965929031372 -2.1828455924987793 0.03874434158205986 100.0 8 -0.07079772651195526
0.2768484950065613 -1.5025197267532349 -0.35272327065467834 7.0 1 -0.07079542428255081
0.4096877872943878 -2.223468542098999 0.1184886172413826 64.0 9 -0.07079312205314636
0.33444657921791077 -1.8168970346450806 -0.3591025471687317 6.0 2 -0.07079081982374191
0.4097161591053009 -2.227987766265869 0.19819216430187225 39.0 10 -0.07078851014375687
0.41975274682044983 -2.2848057746887207 -0.36793389916419983 100.0 3 -0.07078620791435242
0.40708234906196594 -2.218017578125 0.2768871784210205 23.0 11 -0.07078390568494797
0.4224475622177124 -2.3040006160736084 -0.2876116633415222 100.0 4 -0.07078160345554352
0.4111173748970032 -2.242206335067749 0.3610507845878601 18.0 12 -0.07077929377555847
0.3981095254421234 -2.1733994483947754 -0.1933114379644394 100.0 5 -0.07077699154615402
0.407109797000885 -2.224726676940918 0.43962395191192627 11.0 13 -0.07077468931674957
0.403709352016449 -2.2083208560943604 -0.11765124648809433 100.0 6 -0.07077238708734512
0.40963128209114075 -2.242927074432373 0.526385486125946 9.0 14 -0.07077007740736008
0.4002232849597931 -2.1914138793945312 -0.038883961737155914 100.0 7 -0.07076777517795563
0.4046529531478882 -2.21785831451416 0.6040836572647095 9.0 15 -0.07076547294855118
0.22847731411457062 -1.2622379064559937 -0.3437117040157318 9.0 0 -0.07074473798274994
0.396424263715744 -2.1900718212127686 0.038849055767059326 100.0 8 -0.07074243575334549
0.2690902352333069 -1.4880883693695068 -0.3491240441799164 7.0 1 -0.07074012607336044
0.3997937738895416 -2.213092565536499 0.1178605854511261 68.0 9 -0.070737823843956
0.3312404155731201 -1.8354418277740479 -0.36253711581230164 5.0 2 -0.07073552161455154
0.40122970938682556 -2.225482940673828 0.197843536734581 42.0 10 -0.0707332193851471
0.41322511434555054 -2.2920172214508057 -0.3688724935054779 100.0 3 -0.07073090970516205
0.3976135551929474 -2.2076332569122314 0.2754247188568115 24.0 11 -0.0707286074757576
0.4130473732948303 -2.2956199645996094 -0.2863929867744446 100.0 4 -0.07072630524635315
0.40468618273735046 -2.2514047622680664 0.3623022735118866 18.0 12 -0.0707240030169487
0.3922808766365051 -2.1845808029174805 -0.19418299198150635 100.0 5 -0.07072169333696365
0.4011179208755493 -2.2337937355041504 0.44115039706230164 12.0 13 -0.0707193911075592
0.39603129029273987 -2.20768141746521 -0.11754656583070755 100.0 6 -0.07071708887815475
0.40150389075279236 -2.2404367923736572 0.5254856944084167 9.0 14 -0.0707147866487503
0.39503809809684753 -2.206576347351074 -0.039128296077251434 100.0 7 -0.07071248441934586
0.3975888788700104 -2.2230606079101562 0.6051189303398132 10.0 15 -0.07071017473936081
0.22631698846817017 -1.2744011878967285 -0.3468175232410431 9.0 0 -0.07068943977355957
0.3898252248764038 -2.1973490715026855 0.03895376995205879 100.0 8 -0.07068713754415512
0.26457446813583374 -1.4928562641143799 -0.35002386569976807 7.0 1 -0.07068483531475067
0.3910212516784668 -2.2085742950439453 0.11754656583070755 73.0 9 -0.07068252563476562
0.32104480266571045 -1.8133318424224854 -0.3579576909542084 5.0 2 -0.07068022340536118
0.3945414423942566 -2.230725049972534 0.19819216430187225 42.0 10 -0.07067792117595673
0.40556561946868896 -2.295391082763672 -0.3691853880882263 100.0 3 -0.07067561894655228
0.38990527391433716 -2.209007740020752 0.2754247188568115 24.0 11 -0.07067330926656723
0.40365275740623474 -2.2892279624938965 -0.28541800379753113 100.0 4 -0.07067100703716278
0.39442598819732666 -2.2391855716705322 0.36011216044425964 19.0 12 -0.07066870480775833
0.38430777192115784 -2.183974504470825 -0.19400867819786072 100.0 5 -0.07066640257835388
0.3939988315105438 -2.2390475273132324 0.4419136643409729 12.0 13 -0.07066410034894943
0.389360249042511 -2.214951753616333 -0.1178605854511261 100.0 6 -0.07066179066896439
0.3913211226463318 -2.228388786315918 0.5223363637924194 10.0 14 -0.07065948843955994
0.3876790702342987 -2.209911346435547 -0.03916320204734802 100.0 7 -0.07065718621015549
0.39216071367263794 -2.2377548217773438 0.6087424159049988 10.0 15 -0.07065488398075104
0.2183365672826767 -1.2561888694763184 -0.3416411578655243 9.0 0 -0.0706341415643692
0.3831798732280731 -2.2046070098876953 0.039058487862348557 100.0 8 -0.07063183933496475
0.25802814960479736 -1.4860907793045044 -0.3482242524623871 7.0 1 -0.0706295371055603
0.38433369994163513 -2.215829610824585 0.1178605854511261 87.0 9 -0.07062723487615585
0.3140612542629242 -1.8125619888305664 -0.35757607221603394 6.0 2 -0.0706249326467514
0.3853433132171631 -2.226266384124756 0.19766922295093536 43.0 10 -0.07062262296676636
0.3974866569042206 -2.2988085746765137 -0.36949828267097473 100.0 3 -0.07062032073736191
0.38388335704803467 -2.2201356887817383 0.27664345502853394 24.0 11 -0.07061801850795746
0.3970108926296234 -2.298447608947754 -0.2863929867744446 100.0 4 -0.07061571627855301
0.38425612449645996 -2.2269225120544434 0.35792210698127747 19.0 12 -0.07061340659856796
0.37702032923698425 -2.1872663497924805 -0.19418299198150635 100.0 5 -0.07061110436916351
0.3861227333545685 -2.2424113750457764 0.44229528307914734 12.0 13 -0.07060880213975906
0.38259369134902954 -2.2242374420166016 -0.11827926337718964 100.0 6 -0.07060649991035461
0.3851311206817627 -2.2413318157196045 0.5250357985496521 10.0 14 -0.07060419023036957
0.37928497791290283 -2.2073092460632324 -0.039093390107154846 100.0 7 -0.07060188800096512
0.38304001092910767 -2.2314939498901367 0.6066718697547913 10.0 15 -0.07059958577156067
0.21265360713005066 -1.2493255138397217 -0.3395705819129944 9.0 0 -0.07057885080575943
0.37275055050849915 -2.192196846008301 0.038814153522253036 100.0 8 -0.07057654857635498
0.2538849115371704 -1.4947113990783691 -0.35002386569976807 7.0 1 -0.07057423889636993
0.37793415784835815 -2.225033760070801 0.11827926337718964 84.0 9 -0.07057193666696548
0.3041198253631592 -1.7923557758331299 -0.3533782958984375 6.0 2 -0.07056963443756104
0.3775700628757477 -2.227598190307617 0.19766922295093536 44.0 10 -0.07056733220815659
0.3887999951839447 -2.2962865829467773 -0.3688724935054779 100.0 3 -0.07056502252817154
0.37640535831451416 -2.225442409515381 0.27713093161582947 24.0 11 -0.07056272029876709
0.3885842263698578 -2.299887180328369 -0.2863929867744446 100.0 4 -0.07056041806936264
0.3774678409099579 -2.23409366607666 0.35886070132255554 19.0 12 -0.07055811583995819
0.36772510409355164 -2.178745985031128 -0.1933114379644394 100.0 5 -0.07055580615997314
0.3779664933681488 -2.241809606552124 0.4419136643409729 12.0 13 -0.0705535039305687
0.37714946269989014 -2.2393460273742676 -0.11901197582483292 100.0 6 -0.07055120170116425
0.377305269241333 -2.2426624298095703 0.5250357985496521 12.0 14 -0.0705488994717598
0.3699191212654114 -2.1987600326538086 -0.038918863981962204 100.0 7 -0.07054658979177475
0.3746079206466675 -2.2290072441101074 0.6056365966796875 10.0 15 -0.0705442875623703
0.20956139266490936 -1.2576825618743896 -0.3416411578655243 9.0 0 -0.07052355259656906
0.3648214638233185 -2.1894757747650146 0.03874434158205986 100.0 8 -0.07052125036716461
0.24732719361782074 -1.4859336614608765 -0.34777435660362244 7.0 1 -0.07051894813776016
0.37082043290138245 -2.2302801609039307 0.1184886172413826 93.0 9 -0.07051663845777512
0.2994697690010071 -1.8030900955200195 -0.3552863597869873 5.0 2 -0.07051433622837067
0.37011778354644775 -2.230868101119995 0.197843536734581 46.0 10 -0.07051203399896622
0.38021308183670044 -2.291717052459717 -0.36793389916419983 100.0 3 -0.07050973176956177
0.3690236508846283 -2.2266783714294434 0.27713093161582947 26.0 11 -0.07050742208957672
0.3816037178039551 -2.3050801753997803 -0.2868804633617401 100.0 4 -0.07050511986017227
0.3709559142589569 -2.2431931495666504 0.36011216044425964 19.0 12 -0.07050281763076782
0.3601178228855133 -2.180016279220581 -0.1933114379644394 100.0 5 -0.07050051540136337
0.36829063296318054 -2.2294914722442627 0.43924233317375183 13.0 13 -0.07049820572137833
0.36516866087913513 -2.212995767593384 -0.11754656583070755 100.0 6 -0.07049590349197388
0.3717677891254425 -2.2554380893707275 0.5277352333068848 11.0 14 -0.07049360126256943
0.36386609077453613 -2.2099034786224365 -0.039093390107154846 100.0 7 -0.07049129903316498
0.3649437427520752 -2.2188639640808105 0.6025307774543762 11.0 15 -0.07048898935317993
0.20538970828056335 -1.2583706378936768 -0.3416411578655243 8.0 0 -0.07046825438737869
0.35814180970191956 -2.1966569423675537 0.038849055767059326 100.0 8 -0.07046595215797424
0.24182552099227905 -1.484864354133606 -0.3473244309425354 7.0 1 -0.0704636499285698
0.36110904812812805 -2.2197327613830566 0.1178605854511261 93.0 9 -0.07046134769916534
0.293489009141922 -1.8040732145309448 -0.3552863597869873 5.0 2 -0.0704590380191803
0.3620789349079132 -2.228149890899658 0.19749490916728973 47.0 10 -0.07045673578977585
0.3715783655643463 -2.289130449295044 -0.3673081696033478 100.0 3 -0.0704544335603714
0.35934242606163025 -2.216195821762085 0.2756684720516205 26.0 11 -0.07045213133096695
0.3722856044769287 -2.2985599040985107 -0.28590551018714905 100.0 4 -0.0704498216509819
0.3628081977367401 -2.2425243854522705 0.359799325466156 20.0 12 -0.07044751942157745
0.3538411557674408 -2.187098979949951 -0.19383437931537628 100.0 5 -0.070445217192173
0.3605056703090668 -2.2307634353637695 0.43924233317375183 12.0 13 -0.07044291496276855
0.35775992274284363 -2.21622896194458 -0.11765124648809433 100.0 6 -0.07044060528278351
0.36048033833503723 -2.2355594635009766 0.5227862596511841 12.0 14 -0.07043830305337906
0.35710376501083374 -2.217082977294922 -0.03919810429215431 100.0 7 -0.07043600082397461
0.3590373694896698 -2.2315683364868164 0.6056365966796875 11.0 15 -0.07043369859457016
0.20160481333732605 -1.2628953456878662 -0.34267643094062805 9.0 0 -0.07041296362876892
0.3507870137691498 -2.1998684406280518 0.038883961737155914 100.0 8 -0.07041065394878387
0.23725411295890808 -1.4895485639572144 -0.3482242524623871 7.0 1 -0.07040835171937943
0.35273057222366333 -2.2170348167419434 0.11765124648809433 100.0 9 -0.07040604948997498
0.28533869981765747 -1.7934534549713135 -0.35299667716026306 6.0 2 -0.07040374726057053
0.35523709654808044 -2.2353031635284424 0.19801783561706543 51.0 10 -0.07040143758058548
0.36513423919677734 -2.30016827583313 -0.3688724935054779 100.0 3 -0.07039913535118103
0.3525368869304657 -2.223318576812744 0.276399701833725 28.0 11 -0.07039683312177658
0.363638699054718 -2.295924186706543 -0.28541800379753113 100.0 4 -0.07039453089237213
0.35466963052749634 -2.241825819015503 0.3594864308834076 19.0 12 -0.07039222121238708
0.3474501073360443 -2.1961922645568848 -0.1945316195487976 100.0 5 -0.07038991898298264
0.3551684021949768 -2.2475218772888184 0.44229528307914734 15.0 13 -0.07038761675357819
0.35064467787742615 -2.221409797668457 -0.1178605854511261 100.0 6 -0.07038531452417374
0.35328125953674316 -2.2406539916992188 0.5236860513687134 12.0 14 -0.07038301229476929
0.34780728816986084 -2.2084391117095947 -0.03902358189225197 100.0 7 -0.07038070261478424
0.35184618830680847 -2.2366247177124023 0.6066718697547913 12.0 15 -0.07037840038537979
0.19659961760044098 -1.259773850440979 -0.3416411578655243 10.0 0 -0.07035766541957855
0.34402981400489807 -2.2070071697235107 0.03898867964744568 100.0 8 -0.0703553631901741
0.23265255987644196 -1.4942187070846558 -0.3491240441799164 7.0 1 -0.07035305351018906
0.344375878572464 -2.2143056392669678 0.11744190007448196 100.0 9 -0.0703507512807846
0.2796802222728729 -1.7983183860778809 -0.35375988483428955 6.0 2 -0.07034844905138016
0.3462090790271759 -2.228654384613037 0.1973206102848053 55.0 10 -0.07034614682197571
0.35679975152015686 -2.2994771003723145 -0.36855965852737427 100.0 3 -0.07034383714199066
0.34629425406455994 -2.234344005584717 0.2776183784008026 30.0 11 -0.07034153491258621
0.3571408987045288 -2.30698823928833 -0.28663671016693115 100.0 4 -0.07033923268318176
0.34563425183296204 -2.235241651535034 0.3582349717617035 22.0 12 -0.07033693045377731
0.3381815552711487 -2.189574956893921 -0.19383437931537628 100.0 5 -0.07033462822437286
0.34851959347724915 -2.256509304046631 0.4438217580318451 14.0 13 -0.07033231854438782
0.3407566249370575 -2.2088029384613037 -0.11712788045406342 100.0 6 -0.07033001631498337
0.34516119956970215 -2.239947557449341 0.5232362151145935 13.0 14 -0.07032771408557892
0.33827102184295654 -2.1977813243865967 -0.038814153522253036 100.0 7 -0.07032541185617447
0.3428625464439392 -2.2302017211914062 0.6046013236045837 11.0 15 -0.07032310217618942
0.1913992315530777 -1.2566663026809692 -0.34060588479042053 10.0 0 -0.07030236721038818
0.3348182737827301 -2.198309898376465 0.038814153522253036 100.0 8 -0.07030006498098373
0.22743546962738037 -1.4950217008590698 -0.3491240441799164 7.0 1 -0.07029776275157928
0.3381445109844208 -2.2253670692443848 0.11796525865793228 100.0 9 -0.07029546052217484
0.2707304060459137 -1.783803105354309 -0.35070693492889404 5.0 2 -0.07029315084218979
0.3371424674987793 -2.223998546600342 0.1967976689338684 53.0 10 -0.07029084861278534
0.3474821150302887 -2.294909954071045 -0.3676210343837738 100.0 3 -0.07028854638338089
0.3378981649875641 -2.2316136360168457 0.27713093161582947 32.0 11 -0.07028624415397644
0.3484918177127838 -2.304295063018799 -0.2861492335796356 100.0 4 -0.0702839344739914
0.33960017561912537 -2.2481539249420166 0.36011216044425964 23.0 12 -0.07028163224458694
0.32905012369155884 -2.180891275405884 -0.19296279549598694 100.0 5 -0.0702793300151825
0.338198721408844 -2.2441816329956055 0.44115039706230164 16.0 13 -0.07027702778577805
0.3338480293750763 -2.2179367542266846 -0.11754656583070755 100.0 6 -0.070274718105793
0.33694902062416077 -2.2411975860595703 0.5232362151145935 13.0 14 -0.07027241587638855
0.33089447021484375 -2.2009260654449463 -0.038849055767059326 100.0 7 -0.0702701136469841
0.33421486616134644 -2.2256534099578857 0.6030483841896057 12.0 15 -0.07026781141757965
0.1870114505290985 -1.2573267221450806 -0.34060588479042053 9.0 0 -0.07024707645177841
0.32558366656303406 -2.19161057472229 0.03867453336715698 100.0 8 -0.07024476677179337
0.22023826837539673 -1.4842795133590698 -0.3464246392250061 7.0 1 -0.07024246454238892
0.33115702867507935 -2.234494209289551 0.11838394403457642 100.0 9 -0.07024016231298447
0.26622897386550903 -1.7963896989822388 -0.35299667716026306 5.0 2 -0.07023786008358002
0.32996031641960144 -2.2291038036346436 0.19714628159999847 56.0 10 -0.07023555040359497
0.33975836634635925 -2.298063039779663 -0.36793389916419983 87.0 3 -0.07023324817419052
0.3285568654537201 -2.2249817848205566 0.276155948638916 31.0 11 -0.07023094594478607
0.34062302112579346 -2.3094847202301025 -0.28663671016693115 100.0 4 -0.07022864371538162
0.3313579857349396 -2.2493834495544434 0.36011216044425964 23.0 12 -0.07022633403539658
0.32221490144729614 -2.189967632293701 -0.19366006553173065 100.0 5 -0.07022403180599213
0.32950589060783386 -2.2395215034484863 0.4400055408477783 18.0 13 -0.07022172957658768
0.32581329345703125 -2.2171130180358887 -0.11744190007448196 100.0 6 -0.07021942734718323
0.33082160353660583 -2.2539284229278564 0.5259355902671814 13.0 14 -0.07021711766719818
0.32398590445518494 -2.210038423538208 -0.03898867964744568 100.0 7 -0.07021481543779373
0.32717466354370117 -2.234509229660034 0.6051189303398132 12.0 15 -0.07021251320838928
0.18295623362064362 -1.2618274688720703 -0.3416411578655243 9.0 0 -0.07019177824258804
0.31850504875183105 -2.1966915130615234 0.03874434158205986 100.0 8 -0.0701894760131836
0.21338020265102386 -1.473467469215393 -0.3437252342700958 7.0 1 -0.07018716633319855
0.3216399550437927 -2.22377610206604 0.11775590479373932 100.0 9 -0.0701848641037941
0.26076582074165344 -1.8051255941390991 -0.3545231223106384 5.0 2 -0.07018256187438965
0.32264184951782227 -2.2362143993377686 0.19766922295093536 60.0 10 -0.0701802596449852
0.33161497116088867 -2.301248073577881 -0.36824676394462585 93.0 3 -0.07017794996500015
0.3185231387615204 -2.2103970050811768 0.2742060422897339 32.0 11 -0.0701756477355957
0.3319939970970154 -2.306730031967163 -0.2861492335796356 100.0 4 -0.07017334550619125
0.32378509640693665 -2.252481698989868 0.36042505502700806 24.0 12 -0.0701710432767868
0.3142850697040558 -2.1891067028045654 -0.19348573684692383 100.0 5 -0.07016873359680176
0.3218526840209961 -2.244601011276245 0.4407688081264496 17.0 13 -0.07016643136739731
0.31796830892562866 -2.220268964767456 -0.11754656583070755 100.0 6 -0.07016412913799286
0.32035088539123535 -2.2396929264068604 0.5223363637924194 12.0 14 -0.07016182690858841
0.3171185255050659 -2.2170944213867188 -0.039093390107154846 100.0 7 -0.07015952467918396
0.3193729817867279 -2.235637664794922 0.6051189303398132 12.0 15 -0.07015721499919891
0.17877097427845 -1.2624272108078003 -0.3416411578655243 10.0 0 -0.07016134262084961
0.3116755187511444 -2.2037298679351807 0.038849055767059326 100.0 8 -0.07015904039144516
0.208780437707901 -1.478062391281128 -0.3446250259876251 7.0 1 -0.07015673816204071
0.31286683678627014 -2.214942693710327 0.117232546210289 100.0 9 -0.07015442848205566
0.25203579664230347 -1.7865405082702637 -0.35070693492889404 5.0 2 -0.07015212625265121
0.31550267338752747 -2.2392449378967285 0.197843536734581 64.0 10 -0.07014982402324677
0.32315605878829956 -2.296466827392578 -0.3673081696033478 87.0 3 -0.07014752179384232
0.3127393126487732 -2.2252557277679443 0.27591222524642944 34.0 11 -0.07014521211385727
0.32228463888168335 -2.2960798740386963 -0.2846868336200714 100.0 4 -0.07014290988445282
0.3154902756214142 -2.2476742267608643 0.3594864308834076 23.0 12 -0.07014060765504837
0.30840712785720825 -2.200002431869507 -0.19435729086399078 100.0 5 -0.07013830542564392
0.31467968225479126 -2.2476003170013428 0.44115039706230164 16.0 13 -0.07013599574565887
0.30866771936416626 -2.207465171813965 -0.11681386828422546 100.0 6 -0.07013369351625443
0.3129222095012665 -2.2407429218292236 0.5223363637924194 13.0 14 -0.07013139128684998
0.30782878398895264 -2.204270362854004 -0.038849055767059326 100.0 7 -0.07012908905744553
0.31409233808517456 -2.251991033554077 0.6092600226402283 12.0 15 -0.07012677937746048
0.17172127962112427 -1.2439064979553223 -0.3364647626876831 10.0 0 -0.07010604441165924
0.30518630146980286 -2.2106940746307373 0.03895376995205879 100.0 8 -0.07010374218225479
0.20547474920749664 -1.4903295040130615 -0.3473244309425354 7.0 1 -0.07010143995285034
0.3056783974170685 -2.2199785709381104 0.11744190007448196 100.0 9 -0.07009913772344589
0.2431236207485199 -1.7679598331451416 -0.34689077734947205 5.0 2 -0.07009682804346085
0.3065996468067169 -2.2324368953704834 0.19714628159999847 64.0 10 -0.0700945258140564
0.31661394238471985 -2.305353879928589 -0.36855965852737427 83.0 3 -0.07009222358465195
0.3056282699108124 -2.2282471656799316 0.276155948638916 39.0 11 -0.0700899213552475
0.31520751118659973 -2.301069498062134 -0.28517428040504456 100.0 4 -0.07008761167526245
0.306303471326828 -2.23897647857666 0.35792210698127747 22.0 12 -0.070085309445858
0.29910752177238464 -2.1892213821411133 -0.1933114379644394 100.0 5 -0.07008300721645355
0.30855339765548706 -2.258357286453247 0.44305849075317383 18.0 13 -0.0700807049870491
0.30188602209091187 -2.2124345302581787 -0.11702320724725723 100.0 6 -0.07007839530706406
0.3057529628276825 -2.243699312210083 0.5227862596511841 13.0 14 -0.0700760930776596
0.3004021942615509 -2.207313299179077 -0.038883961737155914 100.0 7 -0.07007379084825516
0.30388814210891724 -2.2358458042144775 0.6046013236045837 12.0 15 -0.07007148861885071
0.16862671077251434 -1.2521274089813232 -0.338535338640213 9.0 0 -0.07005075365304947
0.2969347834587097 -2.20778226852417 0.038883961737155914 100.0 8 -0.07004844397306442
0.1997525840997696 -1.4871749877929688 -0.3464246392250061 7.0 1 -0.07004614174365997
0.2995205223560333 -2.2329089641571045 0.11806992441415787 100.0 9 -0.07004383951425552
0.2403915971517563 -1.7921062707901 -0.3514702022075653 5.0 2 -0.07004153728485107
0.29813694953918457 -2.2255425453186035 0.19644904136657715 66.0 10 -0.07003922760486603
0.3077792227268219 -2.3005712032318115 -0.3676210343837738 77.0 3 -0.07003692537546158
0.29916274547576904 -2.239138603210449 0.27737462520599365 40.0 11 -0.07003462314605713
0.308223158121109 -2.310026168823242 -0.2861492335796356 100.0 4 -0.07003232091665268
0.2990081310272217 -2.243947982788086 0.3585478365421295 22.0 12 -0.07003001123666763
0.29131996631622314 -2.186251163482666 -0.19296279549598694 100.0 5 -0.07002770900726318
0.29911476373672485 -2.247744083404541 0.4407688081264496 18.0 13 -0.07002540677785873
