# .PCD v0.7 - Point Cloud Data file format
VERSION 0.7
FIELDS x y z intensity ring time
SIZE 4 4 4 4 4 4
TYPE F F F F F F
COUNT 1 1 1 1 1 1
WIDTH 536
HEIGHT 1
VIEWPOINT 0 0 0 1 0 0 0
POINTS 536
DATA ascii
-1.6396474838256836 -0.018315725028514862 0.08593565225601196 21.0 9 -0.056824058294296265
-1.7570065259933472 -0.019320430234074593 -0.3415481150150299 0.0 2 -0.05682175233960152
-1.6296792030334473 -0.017635861411690712 0.14258678257465363 1.0 10 -0.05681945011019707
-1.7105761766433716 -0.018511302769184113 -0.2709445357322693 0.0 3 -0.05681714415550232
-1.6256985664367676 -0.017308644950389862 0.1996220052242279 2.0 11 -0.05681484192609787
-1.7289206981658936 -0.018105870112776756 -0.21229641139507294 6.0 4 -0.05681253597140312
-3.047844886779785 -0.03138686716556549 0.4827568233013153 2.0 12 -0.05681023374199867
-1.7432514429092407 -0.017647409811615944 -0.15252254903316498 1.0 5 -0.056807927787303925
-3.044851541519165 -0.030823862180113792 0.5918895602226257 1.0 13 -0.056805625557899475
-1.6856032609939575 -0.016769617795944214 -0.08834310621023178 8.0 6 -0.05680331960320473
-3.0223519802093506 -0.029541051015257835 0.6977982521057129 2.0 14 -0.05680101737380028
-1.681666374206543 -0.016143416985869408 -0.029354946687817574 4.0 7 -0.05679871141910553
-3.013554811477661 -0.028403103351593018 0.8075154423713684 6.0 15 -0.05679640918970108
-1.7598578929901123 -0.014436754398047924 -0.47156834602355957 1.0 0 -0.05677567422389984
-1.6636929512023926 -0.013357509858906269 0.029040804132819176 11.0 8 -0.05677336826920509
-1.7888884544372559 -0.014050033874809742 -0.4130101501941681 2.0 1 -0.056771066039800644
-1.6476901769638062 -0.012653479352593422 0.0863543376326561 29.0 9 -0.056768760085105896
-1.737428903579712 -0.013342630118131638 -0.3377319574356079 0.0 2 -0.05676645785570145
-1.6576213836669922 -0.012440832331776619 0.14502714574337006 4.0 10 -0.0567641519010067
-1.7343342304229736 -0.012713470496237278 -0.274698942899704 0.0 3 -0.05676184967160225
-1.643614411354065 -0.011761589907109737 0.2018156498670578 4.0 11 -0.0567595437169075
-1.7289732694625854 -0.012071064673364162 -0.21229641139507294 7.0 4 -0.05675724148750305
-3.0499110221862793 -0.020760342478752136 0.48306965827941895 2.0 12 -0.056754935532808304
-1.7193922996520996 -0.011703676544129848 -0.1504308134317398 1.0 5 -0.056752633303403854
-3.0547566413879395 -0.020260179415345192 0.5937976241111755 2.0 13 -0.056750327348709106
-1.6996320486068726 -0.010976302437484264 -0.08907580375671387 10.0 6 -0.05674802511930466
-3.030231237411499 -0.019039785489439964 0.6995978355407715 2.0 14 -0.05674571916460991
-1.6617159843444824 -0.010151006281375885 -0.029005900025367737 6.0 7 -0.05674341693520546
-3.025226593017578 -0.01795308291912079 0.8106213212013245 7.0 15 -0.05674111098051071
-1.7753520011901855 -0.008366397581994534 -0.4757094085216522 1.0 0 -0.05672037601470947
-1.6637294292449951 -0.007550009526312351 0.029040804132819176 14.0 8 -0.05671807378530502
-1.7908751964569092 -0.007814016193151474 -0.41346004605293274 3.0 1 -0.056715767830610275
-1.6517188549041748 -0.00691897002980113 0.08656367659568787 28.0 9 -0.056713465601205826
-1.7492443323135376 -0.00732749979943037 -0.34002164006233215 1.0 2 -0.05671115964651108
-1.6556622982025146 -0.006646533962339163 0.14485284686088562 5.0 10 -0.05670885741710663
-1.7501708269119263 -0.006720066070556641 -0.27720189094543457 1.0 3 -0.05670655146241188
-1.659525990486145 -0.006082787178456783 0.20376555621623993 6.0 11 -0.05670424923300743
-1.7369452714920044 -0.006063004024326801 -0.2132713794708252 8.0 4 -0.05670194327831268
-3.03218674659729 -0.010054999962449074 0.4802538752555847 3.0 12 -0.056699641048908234
-1.7114531993865967 -0.005675330758094788 -0.1497335582971573 2.0 5 -0.056697335094213486
-3.048919200897217 -0.00957910344004631 0.5926527976989746 2.0 13 -0.056695032864809036
-1.7116435766220093 -0.005078515969216824 -0.08970383554697037 12.0 6 -0.05669272691011429
-3.024433135986328 -0.008445779792964458 0.6982480883598328 3.0 14 -0.05669042468070984
-1.6717396974563599 -0.0043770014308393 -0.02918042242527008 7.0 7 -0.05668812245130539
-3.0136795043945312 -0.007363833952695131 0.8075154423713684 6.0 15 -0.05668581649661064
-1.7966207265853882 -0.0021951263770461082 -0.4814034700393677 4.0 0 -0.0566650815308094
-1.653747320175171 -0.0017315516015514731 0.028866279870271683 19.0 8 -0.056662775576114655
-1.8064815998077393 -0.0015766306314617395 -0.4170592725276947 6.0 1 -0.056660473346710205
-1.6637165546417236 -0.0011616746196523309 0.08719171583652496 35.0 9 -0.05665816739201546
-1.7453328371047974 -0.0012186623644083738 -0.33925843238830566 1.0 2 -0.05665586516261101
-1.661652684211731 -0.0008698416640982032 0.14537577331066132 7.0 10 -0.05665355920791626
-1.7541345357894897 -0.0006125364452600479 -0.277827650308609 1.0 3 -0.05665125697851181
-1.6615222692489624 -0.0002902237174566835 0.2040092945098877 8.0 11 -0.05664895102381706
-1.746881365776062 1.5271722020315792e-07 -0.21449007093906403 10.0 4 -0.05664664879441261
-3.0499818325042725 0.0005318296025507152 0.48306965827941895 3.0 12 -0.056644342839717865
-1.723417043685913 0.0003005146572832018 -0.15077944099903107 5.0 5 -0.056642040610313416
-3.0253748893737793 0.0010555346962064505 0.5880733728408813 2.0 13 -0.056639738380908966
-1.7236343622207642 0.000902589235920459 -0.09033186733722687 14.0 6 -0.05663743242621422
-3.0341877937316895 0.0021176771260797977 0.7004976272583008 2.0 14 -0.05663513019680977
-1.6677454710006714 0.0014554408844560385 -0.029110614210367203 9.0 7 -0.05663282424211502
-3.0194826126098633 0.003162069246172905 0.8090683817863464 7.0 15 -0.05663052201271057
-1.8004812002182007 0.00408465089276433 -0.48243871331214905 4.0 0 -0.056609783321619034
-1.6617419719696045 0.004060310311615467 0.029005900025367737 22.0 8 -0.056607481092214584
-1.8025786876678467 0.0047190235927701 -0.4161594808101654 6.0 1 -0.056605175137519836
-1.6796883344650269 0.004690050613135099 0.08802908658981323 40.0 9 -0.05660287290811539
-1.7708486318588257 0.004944589454680681 -0.344219446182251 4.0 2 -0.05660056695342064
-1.6536760330200195 0.0049064187332987785 0.14467853307724 7.0 10 -0.05659826472401619
-1.764002799987793 0.005541616585105658 -0.2793920040130615 3.0 3 -0.05659595876932144
-1.653572916984558 0.005483683198690414 0.20303435623645782 10.0 11 -0.05659365653991699
-1.7488558292388916 0.006104467902332544 -0.2147337943315506 13.0 4 -0.05659135431051254
-3.059838056564331 0.011214532889425755 0.48463401198387146 3.0 12 -0.056589048355817795
-1.7373520135879517 0.006367524154484272 -0.1519996076822281 6.0 5 -0.056586746126413345
-3.0410585403442383 0.011677171103656292 0.5911262631416321 2.0 13 -0.0565844401717186
-1.7136344909667969 0.006878742016851902 -0.08980850875377655 18.0 6 -0.05658213794231415
-3.040008068084717 0.012733527459204197 0.7018473148345947 2.0 14 -0.0565798319876194
-1.6937260627746582 0.007390426937490702 -0.029564376920461655 14.0 7 -0.05657752975821495
-3.0271804332733154 0.013736439868807793 0.811138927936554 7.0 15 -0.0565752238035202
-1.8043195009231567 0.010392210446298122 -0.4834739863872528 5.0 0 -0.056554488837718964
-1.6577184200286865 0.009837161749601364 0.02893608994781971 24.0 8 -0.056552182883024216
-1.8006023168563843 0.010999313555657864 -0.41570955514907837 8.0 1 -0.056549880653619766
-1.6776645183563232 0.010541127063333988 0.08792441338300705 40.0 9 -0.05654757469892502
-1.7747470140457153 0.011151117272675037 -0.34498268365859985 6.0 2 -0.05654527246952057
-1.663610577583313 0.010743171907961369 0.14555008709430695 10.0 10 -0.05654297024011612
-1.7521207332611084 0.011620544828474522 -0.2775147557258606 5.0 3 -0.05654066428542137
-1.651558518409729 0.011241836473345757 0.20279060304164886 12.0 11 -0.05653836205601692
-1.7547788619995117 0.012250700034201145 -0.2154650241136551 17.0 4 -0.056536056101322174
-3.061755657196045 0.02190951444208622 0.4849469065666199 5.0 12 -0.056533753871917725
-1.7532578706741333 0.01254608016461134 -0.15339410305023193 7.0 5 -0.05653144791722298
-3.0292201042175293 0.02220539003610611 0.5888366103172302 3.0 13 -0.05652914568781853
-1.7155972719192505 0.012875436805188656 -0.08991318196058273 25.0 6 -0.05652683973312378
-3.020458221435547 0.02319621667265892 0.6973482966423035 2.0 14 -0.05652453750371933
-1.7116867303848267 0.013443578034639359 -0.0298785213381052 17.0 7 -0.05652223154902458
-3.027114152908325 0.024303272366523743 0.811138927936554 7.0 15 -0.05651992931962013
-1.8158628940582275 0.016797667369246483 -0.4865798354148865 6.0 0 -0.05649919435381889
-1.6776700019836426 0.01581212878227234 0.029285138472914696 30.0 8 -0.056496888399124146
-1.8083475828170776 0.017359398305416107 -0.41750916838645935 9.0 1 -0.056494586169719696
-1.6696288585662842 0.016319170594215393 0.08750572800636292 43.0 9 -0.05649228021502495
-1.7825499773025513 0.01742287538945675 -0.3465091586112976 8.0 2 -0.0564899779856205
-1.671532154083252 0.016629520803689957 0.14624732732772827 15.0 10 -0.05648767203092575
-1.7777479887008667 0.017996514216065407 -0.2815820574760437 6.0 3 -0.0564853698015213
-1.6574642658233643 0.017068151384592056 0.20352181792259216 15.0 11 -0.05648306384682655
-1.754725456237793 0.018375994637608528 -0.2154650241136551 21.0 4 -0.056480761617422104
-3.0537595748901367 0.03251286968588829 0.48369544744491577 6.0 12 -0.056478455662727356
-1.751211166381836 0.018644852563738823 -0.1532198041677475 9.0 5 -0.056476153433322906
-3.048755645751953 0.03299172967672348 0.5926527976989746 3.0 13 -0.05647384747862816
-1.727524757385254 0.018995720893144608 -0.09054121375083923 26.0 6 -0.05647154524922371
-3.02815318107605 0.03382587060332298 0.6991478800773621 5.0 14 -0.05646923929452896
-1.7076300382614136 0.019373076036572456 -0.029808709397912025 23.0 7 -0.05646693706512451
-3.030874490737915 0.03491431474685669 0.8121742010116577 7.0 15 -0.056464631110429764
-1.8119298219680786 0.02308693528175354 -0.4855445325374603 9.0 0 -0.056443896144628525
-1.6856027841567993 0.0217711441218853 0.02942475862801075 32.0 8 -0.056441593915224075
-1.818018913269043 0.023799194023013115 -0.419758677482605 11.0 1 -0.05643928796052933
-1.6795470714569092 0.02227966859936714 0.08802908658981323 44.0 9 -0.05643698573112488
-1.772662878036499 0.023514874279499054 -0.3446010649204254 9.0 2 -0.05643467977643013
-1.671463966369629 0.022463804110884666 0.14624732732772827 20.0 10 -0.05643237754702568
-1.7855751514434814 0.024309517815709114 -0.2828335464000702 8.0 3 -0.05643007159233093
-1.6613643169403076 0.022908464074134827 0.2040092945098877 17.0 11 -0.05642776936292648
-1.7645751237869263 0.02463964931666851 -0.21668371558189392 23.0 4 -0.056425463408231735
-3.0536274909973145 0.04317236319184303 0.48369544744491577 6.0 12 -0.056423161178827286
-1.7531275749206543 0.02478582039475441 -0.15339410305023193 12.0 5 -0.05642085522413254
-3.064326524734497 0.04385852813720703 0.5957057476043701 3.0 13 -0.05641855299472809
-1.7314419746398926 0.02508370392024517 -0.0907505601644516 29.0 6 -0.05641624704003334
-3.0241198539733887 0.04433884099125862 0.6982480883598328 7.0 14 -0.05641394481062889
-1.7135504484176636 0.02542274072766304 -0.02991342544555664 27.0 7 -0.05641163885593414
-3.017212390899658 0.04529094323515892 0.8085507154464722 8.0 15 -0.056409336626529694
-1.8079750537872314 0.02934851683676243 -0.48450928926467896 11.0 0 -0.056388601660728455
-1.6835170984268188 0.027622507885098457 0.02938985452055931 38.0 8 -0.05638629570603371
-1.8237701654434204 0.03024210035800934 -0.4211083948612213 14.0 1 -0.05638399347662926
-1.6914410591125488 0.02834266796708107 0.08865711838006973 45.0 9 -0.05638168752193451
-1.7863106727600098 0.029932353645563126 -0.3472723960876465 12.0 2 -0.05637938529253006
-1.6873122453689575 0.028568442910909653 0.14764182269573212 28.0 10 -0.05637707933783531
-1.7696787118911743 0.030271954834461212 -0.2803305983543396 8.0 3 -0.05637477710843086
-1.6632591485977173 0.028741516172885895 0.20425304770469666 20.0 11 -0.056372471153736115
-1.7724175453186035 0.030937641859054565 -0.21765866875648499 24.0 4 -0.056370168924331665
-3.0613582134246826 0.053970616310834885 0.4849469065666199 6.0 12 -0.05636786296963692
-1.7430700063705444 0.03072967939078808 -0.15252254903316498 16.0 5 -0.05636556074023247
-3.0680806636810303 0.054624009877443314 0.5964689254760742 3.0 13 -0.05636325478553772
-1.7373347282409668 0.031235165894031525 -0.09106457233428955 30.0 6 -0.05636095255613327
-3.045379161834717 0.05528388172388077 0.7031970620155334 7.0 14 -0.05635865032672882
-1.7194494009017944 0.03151397407054901 -0.030018137767910957 30.0 7 -0.05635634437203407
-3.017035961151123 0.05582278594374657 0.8085507154464722 8.0 15 -0.05635404214262962
-1.8233133554458618 0.03596418350934982 -0.488650381565094 15.0 0 -0.056333303451538086
-1.6774123907089233 0.03337959945201874 0.029285138472914696 42.0 8 -0.056331001222133636
-1.81391179561615 0.03641212359070778 -0.4188588857650757 18.0 1 -0.05632869526743889
-1.7013161182403564 0.03444893658161163 0.08918047696352005 46.0 9 -0.05632639303803444
-1.7979726791381836 0.036406077444553375 -0.3495621085166931 17.0 2 -0.05632408708333969
-1.6872020959854126 0.034458134323358536 0.14764182269573212 27.0 10 -0.05632178485393524
-1.7912869453430176 0.036896202713251114 -0.28377217054367065 11.0 3 -0.056319478899240494
-1.669102668762207 0.034671321511268616 0.20498424768447876 27.0 11 -0.056317176669836044
-1.7742834091186523 0.03716596961021423 -0.21790240705013275 26.0 4 -0.056314870715141296
-3.0670762062072754 0.06478091329336166 0.48588550090789795 7.0 12 -0.05631256848573685
-1.754903793334961 0.037066008895635605 -0.15356841683387756 21.0 5 -0.0563102662563324
-3.050205707550049 0.0649578869342804 0.5930343866348267 5.0 13 -0.05630796030163765
-1.7372150421142578 0.03729945793747902 -0.09106457233428955 34.0 6 -0.0563056580722332
-3.0607540607452393 0.06625062972307205 0.7067962884902954 7.0 14 -0.05630335211753845
-1.723327398300171 0.03760307654738426 -0.030087949708104134 33.0 7 -0.056301049888134
-3.026479721069336 0.0665663555264473 0.811138927936554 8.0 15 -0.056298743933439255
-1.8328334093093872 0.04255320131778717 -0.4912385642528534 21.0 0 -0.056278008967638016
-1.68928062915802 0.03951488435268402 0.029494566842913628 42.0 8 -0.05627570301294327
-1.8176698684692383 0.04283551126718521 -0.419758677482605 21.0 1 -0.05627340078353882
-1.7011854648590088 0.04038788378238678 0.08918047696352005 45.0 9 -0.05627109482884407
-1.8135360479354858 0.043055202811956406 -0.35261502861976624 20.0 2 -0.05626879259943962
-1.691055178642273 0.040442273020744324 0.14799045026302338 30.0 10 -0.05626649037003517
-1.7950966358184814 0.04324393346905708 -0.2843979001045227 15.0 3 -0.056264184415340424
-1.670956015586853 0.040545567870140076 0.20522800087928772 30.0 11 -0.056261882185935974
-1.7701737880706787 0.04326177388429642 -0.21741491556167603 29.0 4 -0.056259576231241226
-3.058932065963745 0.07529226690530777 0.48463401198387146 7.0 12 -0.05625727400183678
-1.7607390880584717 0.04333866760134697 -0.15409135818481445 24.0 5 -0.05625496804714203
-3.0440726280212402 0.0754588320851326 0.5918895602226257 3.0 13 -0.05625266581773758
-1.7370742559432983 0.043362874537706375 -0.09106457233428955 42.0 6 -0.05625035986304283
-3.039074659347534 0.07639636844396591 0.7018473148345947 7.0 14 -0.05624805763363838
-1.7291828393936157 0.043770235031843185 -0.0301926638931036 43.0 7 -0.056245751678943634
-3.037816286087036 0.0774250328540802 0.8142447471618652 7.0 15 -0.056243449449539185
-1.8519853353500366 0.04946614429354668 -0.4964149594306946 28.0 0 -0.05622271075844765
-1.699127197265625 0.04568008705973625 0.02966909110546112 44.0 8 -0.0562204085290432
-1.8253014087677002 0.04939143359661102 -0.42155829071998596 25.0 1 -0.05621810629963875
-1.7050350904464722 0.04613710567355156 0.08938982337713242 46.0 9 -0.056215800344944
-1.8172998428344727 0.04949187487363815 -0.3533782958984375 25.0 2 -0.05621349811553955
-1.700861930847168 0.04661789536476135 0.14886200428009033 34.0 10 -0.0562111921608448
-1.8067824840545654 0.04983700439333916 -0.28627508878707886 18.0 3 -0.05620888993144035
-1.6807258129119873 0.04665309563279152 0.20644669234752655 36.0 11 -0.056206583976745605
-1.7700120210647583 0.049440618604421616 -0.21741491556167603 29.0 4 -0.056204281747341156
-3.0705132484436035 0.08576669543981552 0.48651123046875 7.0 12 -0.05620197579264641
-1.762568712234497 0.04954097792506218 -0.1542656570672989 25.0 5 -0.05619967356324196
-3.065377712249756 0.08669404685497284 0.5960873365402222 6.0 13 -0.05619736760854721
-1.754880428314209 0.04993748664855957 -0.0920066237449646 41.0 6 -0.05619506537914276
-3.036841630935669 0.08694856613874435 0.7013974189758301 7.0 14 -0.05619275942444801
-1.7290282249450684 0.04950423911213875 -0.0301926638931036 43.0 7 -0.056190457195043564
-3.0394740104675293 0.08755410462617874 0.8147624135017395 8.0 15 -0.056188151240348816
-1.844077467918396 0.0556972436606884 -0.4943443834781647 24.0 0 -0.05616741627454758
-1.7149567604064941 0.05179737135767937 0.02994832955300808 47.0 8 -0.05616511404514313
-1.8485018014907837 0.05615377426147461 -0.4269571304321289 27.0 1 -0.05616280809044838
-1.7128490209579468 0.05233212560415268 0.08980850875377655 46.0 9 -0.05616050586104393
-1.8210406303405762 0.05595577880740166 -0.354141503572464 27.0 2 -0.05615819990634918
-1.7086546421051025 0.05280093476176262 0.14955924451351166 40.0 10 -0.05615589767694473
-1.8303006887435913 0.05656004697084427 -0.29002952575683594 22.0 3 -0.056153591722249985
-1.694450855255127 0.05265801027417183 0.2081528604030609 36.0 11 -0.056151289492845535
-1.7777748107910156 0.055558014661073685 -0.21838988363742828 28.0 4 -0.05614898353815079
-3.062297821044922 0.09623689204454422 0.4852597713470459 8.0 12 -0.05614668130874634
-1.7643764019012451 0.055755745619535446 -0.15443997085094452 29.0 5 -0.05614437535405159
-3.072922468185425 0.09710688143968582 0.5976138114929199 6.0 13 -0.05614207312464714
-1.768678903579712 0.05620069429278374 -0.09273932129144669 43.0 6 -0.05613976716995239
-3.04237961769104 0.09720543026924133 0.702747106552124 7.0 14 -0.05613746494054794
-1.7268460988998413 0.055474795401096344 -0.03015775792300701 41.0 7 -0.056135158985853195
-3.02370285987854 0.097664475440979 0.8106213212013245 8.0 15 -0.056132856756448746
-1.847744107246399 0.061941638588905334 -0.49537965655326843 24.0 0 -0.05611212179064751
-1.7067712545394897 0.05751403421163559 0.029808709397912025 51.0 8 -0.05610981583595276
-1.8599802255630493 0.06300178170204163 -0.4296565353870392 30.0 1 -0.05610751360654831
-1.7246325016021729 0.05871858075261116 0.09043654054403305 47.0 9 -0.05610520765185356
-1.8385039567947388 0.06259556859731674 -0.35757607221603394 28.0 2 -0.05610290542244911
-1.6985139846801758 0.05812609940767288 0.1486876904964447 42.0 10 -0.056100599467754364
-1.8241692781448364 0.06274497509002686 -0.28909093141555786 27.0 3 -0.056098297238349915
-1.708144187927246 0.05905257910490036 0.20985902845859528 41.0 11 -0.05609599128365517
-1.7934412956237793 0.06231477111577988 -0.2203397899866104 30.0 4 -0.05609368905425072
-3.0658915042877197 0.10706295073032379 0.48588550090789795 7.0 12 -0.05609138309955597
-1.7621798515319824 0.06184440106153488 -0.1542656570672989 30.0 5 -0.05608908087015152
-3.076488733291626 0.10797059535980225 0.5983770489692688 6.0 13 -0.05608677491545677
-1.7724639177322388 0.06251504272222519 -0.09294866770505905 42.0 6 -0.05608447268605232
-3.049812078475952 0.10810093581676483 0.7045467495918274 7.0 14 -0.056082166731357574
-1.7386325597763062 0.06192942336201668 -0.030367188155651093 44.0 7 -0.056079864501953125
-3.027204751968384 0.10835758596658707 0.8116565346717834 8.0 15 -0.056077562272548676
-1.8590878248214722 0.06914394348859787 -0.4984855055809021 20.0 0 -0.05605682358145714
-1.7105567455291748 0.0636197105050087 0.0298785213381052 47.0 8 -0.05605452135205269
-1.851959466934204 0.06920292228460312 -0.4278569221496582 33.0 1 -0.05605221539735794
-1.7363922595977783 0.06518793851137161 0.09106457233428955 47.0 9 -0.05604991316795349
-1.8480716943740845 0.06970316916704178 -0.35948416590690613 29.0 2 -0.05604760721325874
-1.710235357284546 0.06480374187231064 0.1497335582971573 44.0 10 -0.056045304983854294
-1.8318229913711548 0.06973106414079666 -0.29034239053726196 30.0 3 -0.056042999029159546
-1.6940419673919678 0.06448622047901154 0.2081528604030609 42.0 11 -0.056040696799755096
-1.8110655546188354 0.06925743818283081 -0.2225334346294403 33.0 4 -0.05603839084506035
-3.0654990673065186 0.11776433885097504 0.48588550090789795 8.0 12 -0.0560360886156559
-1.7798713445663452 0.06868670135736465 -0.15583446621894836 35.0 5 -0.05603378266096115
-3.056454658508301 0.11848604679107666 0.5945608615875244 6.0 13 -0.0560314804315567
-1.7682313919067383 0.06885562837123871 -0.09273932129144669 42.0 6 -0.05602917820215225
-3.055237054824829 0.11950615048408508 0.7058964967727661 7.0 14 -0.056026872247457504
-1.7424020767211914 0.06815437227487564 -0.03043699637055397 44.0 7 -0.056024570018053055
-3.0364599227905273 0.1193031519651413 0.8142447471618652 9.0 15 -0.05602226406335831
-1.8723468780517578 0.07618321478366852 -0.5021089315414429 14.0 0 -0.05600152909755707
-1.7223001718521118 0.0703791007399559 0.030087949708104134 50.0 8 -0.05599922314286232
-1.8497462272644043 0.07590991258621216 -0.42740702629089355 36.0 1 -0.05599692091345787
-1.7281594276428223 0.07122274488210678 0.09064588695764542 46.0 9 -0.05599461495876312
-1.8537018299102783 0.07639673352241516 -0.36062902212142944 28.0 2 -0.05599231272935867
-1.7119892835617065 0.07085561752319336 0.14990787208080292 45.0 10 -0.055990006774663925
-1.8394631147384644 0.07645263522863388 -0.29159387946128845 31.0 3 -0.055987704545259476
-1.7056944370269775 0.07119148224592209 0.20961527526378632 42.0 11 -0.055985402315855026
-1.8107995986938477 0.07589489221572876 -0.2225334346294403 31.0 4 -0.05598309636116028
-3.0768883228302 0.12949685752391815 0.4877626895904541 7.0 12 -0.05598079413175583
-1.781611442565918 0.07498259842395782 -0.156008780002594 31.0 5 -0.05597848817706108
-3.0520994663238525 0.12898790836334229 0.5937976241111755 6.0 13 -0.05597618594765663
-1.7639893293380737 0.0748581737279892 -0.09252998232841492 42.0 6 -0.055973879992961884
-3.0548014640808105 0.130171000957489 0.7058964967727661 7.0 14 -0.055971577763557434
-1.7541277408599854 0.07505305856466293 -0.030646424740552902 45.0 7 -0.055969271808862686
-3.0398623943328857 0.13059669733047485 0.815280020236969 9.0 15 -0.05596696957945824
-1.8875093460083008 0.08340073376893997 -0.5062500834465027 5.0 0 -0.0559462308883667
-1.7360280752182007 0.07701059430837631 0.030332282185554504 52.0 8 -0.05594392865896225
-1.8689380884170532 0.0832337811589241 -0.4319060444831848 36.0 1 -0.0559416264295578
-1.7298954725265503 0.07734397053718567 0.0907505601644516 48.0 9 -0.05593932047486305
-1.853423833847046 0.08286695182323456 -0.36062902212142944 32.0 2 -0.0559370182454586
-1.7316354513168335 0.0777241662144661 0.15165099501609802 45.0 10 -0.055934712290763855
-1.854972004890442 0.08358494192361832 -0.29409682750701904 31.0 3 -0.055932410061359406
-1.70741868019104 0.07723478227853775 0.20985902845859528 45.0 11 -0.05593010410666466
-1.8125066757202148 0.08230496197938919 -0.22277717292308807 30.0 4 -0.05592780187726021
-3.0685243606567383 0.13987742364406586 0.48651123046875 7.0 12 -0.05592549592256546
-1.7952711582183838 0.08183670789003372 -0.1572289615869522 32.0 5 -0.05592319369316101
-3.071242570877075 0.14053845405578613 0.5976138114929199 5.0 13 -0.05592088773846626
-1.7876591682434082 0.0821145623922348 -0.09378603845834732 42.0 6 -0.05591858550906181
-3.0504350662231445 0.14065328240394592 0.704996645450592 7.0 14 -0.055916279554367065
-1.7538551092147827 0.08117569237947464 -0.030646424740552902 45.0 7 -0.055913977324962616
-3.049036979675293 0.1416553556919098 0.817868173122406 8.0 15 -0.05591167137026787
-1.8544024229049683 0.08842424303293228 -0.49745020270347595 0.0 0 -0.05589093640446663
-1.7417410612106323 0.0833568200469017 0.03043699637055397 51.0 8 -0.05588863417506218
-1.8764221668243408 0.09013111889362335 -0.4337056577205658 36.0 1 -0.05588632822036743
-1.7415846586227417 0.08395863324403763 0.0913785845041275 48.0 9 -0.05588402599096298
-1.857045292854309 0.0895247831940651 -0.3613922595977783 32.0 2 -0.055881720036268234
-1.7273733615875244 0.08357571065425873 0.15130236744880676 45.0 10 -0.055879417806863785
-1.8625611066818237 0.09044278413057327 -0.29534831643104553 33.0 3 -0.05587711185216904
-1.723000407218933 0.0839669480919838 0.2118089348077774 45.0 11 -0.05587480962276459
-1.8260873556137085 0.08931057900190353 -0.22448335587978363 31.0 4 -0.05587250366806984
-3.073936700820923 0.15087834000587463 0.48744985461235046 8.0 12 -0.05587020143866539
-1.7949745655059814 0.08810291439294815 -0.1572289615869522 34.0 5 -0.05586789548397064
-3.094263792037964 0.15241739153862 0.6021932363510132 6.0 13 -0.05586559325456619
-1.7993305921554565 0.08894629776477814 -0.09441407769918442 42.0 6 -0.055863287299871445
-3.0538182258605957 0.15149365365505219 0.7058964967727661 7.0 14 -0.055860985070466995
-1.753561019897461 0.08729735016822815 -0.030646424740552902 44.0 7 -0.05585867911577225
-3.0446648597717285 0.1521049290895462 0.816832959651947 8.0 15 -0.0558563768863678
-1.7414393424987793 0.0894365906715393 0.03043699637055397 50.0 8 -0.05583333596587181
-1.8936115503311157 0.09758272767066956 -0.4377547800540924 33.0 1 -0.05583103373646736
-1.7512538433074951 0.09055311977863312 0.09190194308757782 47.0 9 -0.055828727781772614
-1.8645639419555664 0.09641210734844208 -0.3629187345504761 32.0 2 -0.055826425552368164
-1.733040452003479 0.08991502225399017 0.15182530879974365 49.0 10 -0.055824119597673416
-1.868152141571045 0.09725146740674973 -0.2962869107723236 34.0 3 -0.05582181736826897
-1.7326089143753052 0.09049861133098602 0.21302762627601624 43.0 11 -0.05581951141357422
-1.8416234254837036 0.09651544690132141 -0.22643324732780457 36.0 4 -0.05581720918416977
-3.0674731731414795 0.16129636764526367 0.48651123046875 7.0 12 -0.05581490322947502
-1.804604172706604 0.09489116817712784 -0.15810051560401917 36.0 5 -0.05581260100007057
-3.062344551086426 0.16156189143657684 0.5960873365402222 6.0 13 -0.055810295045375824
-1.8109759092330933 0.0958600789308548 -0.09504210948944092 45.0 6 -0.055807992815971375
-3.0552165508270264 0.16225595772266388 0.706346333026886 7.0 14 -0.05580568686127663
-1.7672237157821655 0.09416273236274719 -0.030890759080648422 47.0 7 -0.05580338463187218
-3.0286827087402344 0.16190694272518158 0.8126918077468872 8.0 15 -0.05580107867717743
-1.7451099157333374 0.09573350846767426 0.030506806448101997 48.0 8 -0.05584581941366196
-1.8932594060897827 0.10419212281703949 -0.4377547800540924 50.0 1 -0.05584351345896721
-1.7629094123840332 0.09701854735612869 0.09252998232841492 47.0 9 -0.05584121122956276
-1.8838187456130981 0.10400234907865524 -0.36673489212989807 54.0 2 -0.05583890527486801
-1.7386839389801025 0.09629406780004501 0.15234823524951935 45.0 10 -0.05583660304546356
-1.877663016319275 0.10431990027427673 -0.2978512644767761 36.0 3 -0.055834297090768814
-1.7322824001312256 0.09654644876718521 0.21302762627601624 44.0 11 -0.055831994861364365
-1.8610953092575073 0.10405148565769196 -0.22887064516544342 31.0 4 -0.05582968890666962
-3.076782703399658 0.17201903462409973 0.4880755841732025 8.0 12 -0.05582738667726517
-1.820176124572754 0.10208196938037872 -0.15949499607086182 36.0 5 -0.05582508072257042
-3.0617618560791016 0.17225128412246704 0.5960873365402222 8.0 13 -0.05582277849316597
-1.8066420555114746 0.10195595771074295 -0.09483276307582855 43.0 6 -0.05582047253847122
-3.048794746398926 0.17258860170841217 0.704996645450592 8.0 14 -0.05581817030906677
-1.7808772325515747 0.10081331431865692 -0.031135093420743942 43.0 7 -0.055815864354372025
-3.0493454933166504 0.17315439879894257 0.8183858394622803 9.0 15 -0.055813562124967575
-1.7527681589126587 0.1019846647977829 0.030646424740552902 50.0 8 -0.05579052120447159
-1.8909580707550049 0.11035636067390442 -0.43730488419532776 37.0 1 -0.05578821897506714
-1.7625600099563599 0.10317171365022659 0.09252998232841492 46.0 9 -0.05578591302037239
-1.8971635103225708 0.11138343065977097 -0.36940622329711914 33.0 2 -0.05578361079096794
-1.750270962715149 0.10306539386510849 0.15339410305023193 45.0 10 -0.05578130483627319
-1.8812507390975952 0.11077819764614105 -0.2984769940376282 52.0 3 -0.055779002606868744
-1.7378976345062256 0.10264114290475845 0.21375884115695953 45.0 11 -0.055776696652173996
-1.8587583303451538 0.11010520905256271 -0.22862690687179565 42.0 4 -0.055774394422769547
-3.0761635303497314 0.18275731801986694 0.4880755841732025 8.0 12 -0.0557720884680748
-1.8198086023330688 0.1084350049495697 -0.15949499607086182 36.0 5 -0.05576978623867035
-3.0670530796051025 0.18275323510169983 0.5972321629524231 7.0 13 -0.0557674802839756
-1.8023066520690918 0.10770821571350098 -0.09462341666221619 43.0 6 -0.05576517805457115
-3.026808023452759 0.18141545355319977 0.7000477313995361 8.0 14 -0.055762872099876404
-1.7904947996139526 0.10762953758239746 -0.031309615820646286 47.0 7 -0.055760569870471954
-3.0217254161834717 0.1821700632572174 0.811138927936554 13.0 15 -0.055758263915777206
-1.7723605632781982 0.10933363437652588 0.030995475128293037 51.0 8 -0.05573522672057152
-1.7661759853363037 0.10957137495279312 0.09273932129144669 45.0 9 -0.05573061853647232
-2.0182719230651855 0.12521108984947205 -0.39306655526161194 16.0 2 -0.05572831258177757
-1.7578736543655396 0.1093638613820076 0.15409135818481445 45.0 10 -0.05572601035237312
-1.8788809776306152 0.11722135543823242 -0.29816412925720215 28.0 3 -0.055723704397678375
-1.7533785104751587 0.10969900339841843 0.21570876240730286 45.0 11 -0.055721402168273926
-1.8662875890731812 0.11708962917327881 -0.22960186004638672 52.0 4 -0.05571909621357918
-3.0459346771240234 0.19163359701633453 0.48338255286216736 15.0 12 -0.05571679398417473
-1.8373351097106934 0.11559510231018066 -0.1610638052225113 32.0 5 -0.05571448802947998
-3.021331310272217 0.19061578810214996 0.5884549617767334 15.0 13 -0.05571218580007553
-1.8158726692199707 0.11488114297389984 -0.09535612165927887 44.0 6 -0.05570987984538078
-3.012542247772217 0.19111628830432892 0.6968984007835388 43.0 14 -0.055707577615976334
-1.7861168384552002 0.11362501233816147 -0.031239807605743408 44.0 7 -0.055705275386571884
-2.976728677749634 0.18988747894763947 0.7992331981658936 53.0 15 -0.055702969431877136
-1.7799499034881592 0.11604005843400955 0.031135093420743942 51.0 8 -0.05567992851138115
-2.9966135025024414 0.19588233530521393 -0.6932992339134216 4.0 1 -0.0556776262819767
-1.7717617750167847 0.11612731218338013 0.09305334091186523 45.0 9 -0.05567532032728195
-2.962085247039795 0.19414517283439636 -0.577006459236145 10.0 2 -0.0556730180978775
-1.7614574432373047 0.1157606765627861 0.15443997085094452 45.0 10 -0.055670712143182755
-1.766850233078003 0.11673448234796524 0.21741491556167603 48.0 11 -0.05566610395908356
-1.8876558542251587 0.12504689395427704 -0.23228299617767334 7.0 4 -0.05566380172967911
-2.9959716796875 0.19899262487888336 0.47556084394454956 60.0 12 -0.05566149950027466
-1.8587887287139893 0.12346086651086807 -0.16298124194145203 49.0 5 -0.05565919354557991
-3.0030174255371094 0.1999863237142563 0.5850204229354858 65.0 13 -0.05565689131617546
-1.831403136253357 0.12228356301784515 -0.09619349241256714 44.0 6 -0.05565458536148071
-3.0040793418884277 0.20111098885536194 0.6950988173484802 75.0 14 -0.05565228313207626
-1.789699912071228 0.12012649327516556 -0.031309615820646286 44.0 7 -0.055649977177381516
-2.9683377742767334 0.19975826144218445 0.7971627116203308 49.0 15 -0.055647674947977066
-2.9507453441619873 0.20219650864601135 -0.7925038933753967 14.0 0 -0.05562693625688553
-1.7715541124343872 0.12170396000146866 0.030995475128293037 48.0 8 -0.05562463402748108
-2.9978554248809814 0.20647597312927246 -0.6937490701675415 101.0 1 -0.05562232807278633
-1.7852931022644043 0.12327434122562408 0.09378603845834732 45.0 9 -0.05562002584338188
-2.9731409549713135 0.205295130610466 -0.5792961716651917 100.0 2 -0.055617719888687134
-1.7570674419403076 0.12163305282592773 0.15409135818481445 45.0 10 -0.055615417659282684
-1.770392656326294 0.12317685037851334 0.21790240705013275 50.0 11 -0.05561080947518349
-3.008046865463257 0.2098153829574585 -0.3702390789985657 123.0 4 -0.05560850724577904
-3.020876169204712 0.2112400233745575 0.47962814569473267 100.0 12 -0.05560620129108429
-1.8563588857650757 0.12980912625789642 -0.1628069132566452 30.0 5 -0.05560389906167984
-3.00817608833313 0.21087953448295593 0.5861652493476868 90.0 13 -0.05560159310698509
-1.8588579893112183 0.13063590228557587 -0.0976589024066925 54.0 6 -0.05559929087758064
-2.983920097351074 0.21022579073905945 0.690599799156189 60.0 14 -0.055596984922885895
-1.805227518081665 0.12750011682510376 -0.031588856130838394 42.0 7 -0.055594682693481445
-2.9442412853240967 0.2120783030986786 -0.7909510731697083 12.0 0 -0.05557164177298546
-1.7751073837280273 0.12817516922950745 0.031065283343195915 48.0 8 -0.05556933581829071
-3.0010037422180176 0.21722064912319183 -0.6946488618850708 100.0 1 -0.05556703358888626
-1.7948119640350342 0.1302281618118286 0.09430939704179764 45.0 9 -0.05556473135948181
-3.0037357807159424 0.2179453819990158 -0.5854020118713379 100.0 2 -0.055562425404787064
-1.772529125213623 0.12892191112041473 0.1554858386516571 45.0 10 -0.055560123175382614
-2.9670417308807373 0.21632404625415802 -0.47118064761161804 1.0 3 -0.055557817220687866
-1.7758913040161133 0.1297900378704071 0.21863360702991486 51.0 11 -0.05555551499128342
-2.9835386276245117 0.21857376396656036 -0.36731424927711487 56.0 4 -0.05555320903658867
-3.012239933013916 0.2212049514055252 0.4783766567707062 87.0 12 -0.05555090680718422
-2.987842321395874 0.21993756294250488 0.5823490619659424 71.0 13 -0.05554629862308502
-1.8364803791046143 0.13550709187984467 -0.09650751203298569 40.0 6 -0.055543992668390274
-3.012319326400757 0.2227964997291565 0.6973482966423035 73.0 14 -0.055541690438985825
-1.8306964635849 0.135722815990448 -0.032042618840932846 55.0 7 -0.05553938448429108
-2.976503610610962 0.2211921513080597 0.7997508645057678 36.0 15 -0.05553708225488663
-2.893397569656372 0.21857088804244995 -0.7774924635887146 9.0 0 -0.05551634728908539
-1.800571084022522 0.1363338679075241 0.031519047915935516 45.0 8 -0.05551404133439064
-2.9943978786468506 0.22725245356559753 -0.6932992339134216 36.0 1 -0.05551173910498619
-1.794346570968628 0.136492058634758 0.09430939704179764 48.0 9 -0.05550943315029144
-2.971635341644287 0.2260458618402481 -0.5792961716651917 27.0 2 -0.05550713092088699
-1.783988118171692 0.13601768016815186 0.15653172135353088 47.0 10 -0.055504824966192245
-2.956420421600342 0.22592714428901672 -0.4696163237094879 9.0 3 -0.055502522736787796
-1.7754274606704712 0.13598789274692535 0.21863360702991486 47.0 11 -0.05550021678209305
-2.9491100311279297 0.22640389204025269 -0.36317068338394165 24.0 4 -0.0554979145526886
-3.0114493370056152 0.23171837627887726 0.4783766567707062 87.0 12 -0.05549560859799385
-2.9559378623962402 0.2274470031261444 -0.2593754827976227 21.0 5 -0.0554933063685894
-2.9968433380126953 0.23111990094184875 0.5842571258544922 73.0 13 -0.05549100041389465
-2.3577215671539307 0.18224461376667023 -0.12393154948949814 37.0 6 -0.055488698184490204
-2.999865770339966 0.23240703344345093 0.6946488618850708 81.0 14 -0.055486392229795456
-1.8242303133010864 0.14164792001247406 -0.03193790465593338 41.0 7 -0.055484090000391006
-2.973787307739258 0.23143091797828674 0.7992331981658936 80.0 15 -0.05548178404569626
-2.838693141937256 0.2244066745042801 -0.7629985809326172 20.0 0 -0.05546104907989502
-1.806064486503601 0.1430920511484146 0.031623758375644684 48.0 8 -0.05545874685049057
-2.9663896560668945 0.23554331064224243 -0.687000572681427 18.0 1 -0.05545644089579582
-1.8018230199813843 0.14338889718055725 0.09472808986902237 44.0 9 -0.05545413866639137
-2.929729700088501 0.23314760625362396 -0.571282148361206 14.0 2 -0.055451832711696625
-1.8013771772384644 0.14366979897022247 0.15810051560401917 58.0 10 -0.055449530482292175
-2.9339542388916016 0.23451367020606995 -0.46617478132247925 13.0 3 -0.05544722452759743
-1.7927507162094116 0.14361155033111572 0.22082726657390594 15.0 11 -0.05544492229819298
-2.8988332748413086 0.23272545635700226 -0.3570772111415863 15.0 4 -0.05544261634349823
-3.0047152042388916 0.2417529672384262 0.4774380326271057 85.0 12 -0.05544031411409378
-2.9114348888397217 0.2342478185892105 -0.2555406391620636 13.0 5 -0.05543800815939903
-3.0018889904022217 0.24205361306667328 0.5854020118713379 75.0 13 -0.05543570592999458
-2.4048497676849365 0.1943345069885254 -0.12644368410110474 37.0 6 -0.055433399975299835
-2.9932093620300293 0.24240459501743317 0.6932992339134216 83.0 14 -0.055431097745895386
-2.3359622955322266 0.18958845734596252 -0.040908440947532654 13.0 7 -0.055428795516490936
-2.9845142364501953 0.24274973571300507 0.8023390769958496 69.0 15 -0.05542648956179619
-2.8340420722961426 0.23399701714515686 -0.7619633078575134 34.0 0 -0.05540575459599495
-1.8493975400924683 0.15302284061908722 0.03239166736602783 8.0 8 -0.0554034486413002
-2.9267077445983887 0.24267596006393433 -0.6780025362968445 14.0 1 -0.05540114641189575
-2.895637273788452 0.24060916900634766 -0.564794659614563 13.0 2 -0.055396538227796555
-1.826676368713379 0.15210583806037903 0.16036656498908997 20.0 10 -0.05539423227310181
-2.9094951152801514 0.2427825629711151 -0.4624203145503998 14.0 3 -0.05539193004369736
-2.862396717071533 0.23985852301120758 -0.3526898920536041 12.0 4 -0.05538732185959816
-3.001884698867798 0.2520754337310791 0.4771251976490021 61.0 12 -0.05538501590490341
-2.8470661640167236 0.2390749603509903 -0.24996265769004822 12.0 5 -0.05538271367549896
-3.0205893516540527 0.2541769742965698 0.5892181992530823 45.0 13 -0.05538041144609451
-2.424058675765991 0.2044055163860321 -0.12749040126800537 38.0 6 -0.055378105491399765
-3.013704776763916 0.2546570599079132 0.6982480883598328 27.0 14 -0.055375803261995316
-2.510632038116455 0.2125888615846634 -0.04398006573319435 17.0 7 -0.05537349730730057
-3.0048232078552246 0.2549622058868408 0.8080331087112427 36.0 15 -0.05537119507789612
-2.835132598876953 0.24405331909656525 -0.7624809145927429 13.0 0 -0.05535045638680458
-2.6298327445983887 0.22684311866760254 0.04607435315847397 55.0 8 -0.05534815415740013
-2.877305269241333 0.24869610369205475 -0.666754961013794 11.0 1 -0.05534584820270538
-2.9867048263549805 0.25867632031440735 0.15711255371570587 3.0 9 -0.055343545973300934
-2.847837448120117 0.2466491162776947 -0.5556358098983765 13.0 2 -0.055341240018606186
-2.8259758949279785 0.24575020372867584 -0.4492798447608948 13.0 3 -0.05533663183450699
-3.045502185821533 0.2653752863407135 0.37535759806632996 32.0 11 -0.05533432960510254
-2.8200130462646484 0.24622277915477753 -0.34757140278816223 12.0 4 -0.05533202737569809
-3.034440040588379 0.26547929644584656 0.4824439287185669 30.0 12 -0.05532972142100334
-2.802548885345459 0.24519143998622894 -0.24612781405448914 12.0 5 -0.05532741919159889
-3.0314183235168457 0.2657473385334015 0.5915079116821289 27.0 13 -0.055325113236904144
-2.4292993545532227 0.21339018642902374 -0.12780441343784332 32.0 6 -0.055322811007499695
-3.0419161319732666 0.2677382826805115 0.704996645450592 28.0 14 -0.05532050505280495
-2.4879629611968994 0.21941834688186646 -0.04359611123800278 18.0 7 -0.0553182028234005
-3.007763385772705 0.26579031348228455 0.8090683817863464 30.0 15 -0.05531589686870575
-2.805401563644409 0.2513623535633087 -0.7547163367271423 6.0 0 -0.05529516190290451
-2.579232931137085 0.23155152797698975 0.04520173370838165 55.0 8 -0.05529285594820976
-2.8104288578033447 0.25280168652534485 -0.6514583230018616 11.0 1 -0.05529055371880531
-3.035513401031494 0.273582398891449 0.15972934663295746 3.0 9 -0.055288247764110565
-2.7961204051971436 0.25200656056404114 -0.5457137823104858 12.0 2 -0.055285945534706116
-2.7324020862579346 0.2467445582151413 0.24002692103385925 1.0 10 -0.055283643305301666
-2.7739500999450684 0.2509845495223999 -0.44114524126052856 13.0 3 -0.05528133735060692
-3.0544421672821045 0.27690064907073975 0.37657630443573 26.0 11 -0.05527903512120247
-2.7716894149780273 0.25175604224205017 -0.34172165393829346 11.0 4 -0.05527672916650772
-3.0571017265319824 0.278217613697052 0.486198365688324 30.0 12 -0.05527442693710327
-2.7540552616119385 0.25063827633857727 -0.2419443279504776 12.0 5 -0.055272120982408524
-3.026561975479126 0.2759708762168884 0.59074467420578 23.0 13 -0.055269818753004074
-2.434506416320801 0.2224145084619522 -0.12811844050884247 41.0 6 -0.055267512798309326
-3.050665855407715 0.27924245595932007 0.7072461247444153 23.0 14 -0.05526521056890488
-2.4652769565582275 0.22609278559684753 -0.0432121567428112 17.0 7 -0.05526290461421013
-3.010664701461792 0.2766413390636444 0.8101036548614502 15.0 15 -0.05526060238480568
-2.7429537773132324 0.25542178750038147 -0.7381519675254822 9.0 0 -0.05523986741900444
-2.594337224960327 0.24203941226005554 0.04548097401857376 56.0 8 -0.05523756146430969
-2.7396790981292725 0.2560814619064331 -0.6352618336677551 10.0 1 -0.05523525923490524
-3.022608995437622 0.28305941820144653 0.15910132229328156 3.0 9 -0.055232953280210495
-2.7307186126708984 0.25572463870048523 -0.5331203937530518 11.0 2 -0.055230651050806046
-2.7077198028564453 0.25404760241508484 0.2379351705312729 1.0 10 -0.0552283450961113
-2.7219226360321045 0.255859375 -0.43301063776016235 11.0 3 -0.05522604286670685
-3.053457021713257 0.2875610291957855 0.37657630443573 15.0 11 -0.0552237369120121
-2.7115042209625244 0.2558348774909973 -0.3344095051288605 11.0 4 -0.05522143468260765
-3.0502123832702637 0.2883296012878418 0.4852597713470459 10.0 12 -0.0552191287279129
-2.6996078491210938 0.2551877796649933 -0.23723793029785156 12.0 5 -0.05521682649850845
-3.052943229675293 0.28912535309791565 0.5960873365402222 5.0 13 -0.055214520543813705
-2.4317269325256348 0.23072199523448944 -0.1280137598514557 43.0 6 -0.055212218314409256
-3.098172664642334 0.29449987411499023 0.7184937596321106 1.0 14 -0.05520991235971451
-2.454519510269165 0.2337496131658554 -0.04303763434290886 15.0 7 -0.05520761013031006
-3.080836296081543 0.2939370274543762 0.8292562961578369 1.0 15 -0.05520530417561531
-2.7074334621429443 0.2616494297981262 -0.7288345098495483 9.0 0 -0.05518456920981407
-2.6213419437408447 0.25379183888435364 0.0459696389734745 61.0 8 -0.05518226698040962
-2.6922171115875244 0.2611280381679535 -0.6244641542434692 9.0 1 -0.055179961025714874
-3.0394933223724365 0.29534712433815 0.1600433737039566 2.0 9 -0.055177658796310425
-2.679003953933716 0.260318398475647 -0.5231983065605164 11.0 2 -0.05517535284161568
-2.667156219482422 0.2596370577812195 0.23444893956184387 1.0 10 -0.05517305061221123
-2.677759885787964 0.2611410319805145 -0.426127552986145 11.0 3 -0.05517074465751648
-3.165048837661743 0.30922016501426697 0.39046943187713623 1.0 11 -0.05516844242811203
-2.657252311706543 0.26007741689682007 -0.3278285562992096 11.0 4 -0.05516613647341728
-2.663008689880371 0.2611100673675537 -0.2341003119945526 12.0 5 -0.055161528289318085
-2.4587342739105225 0.2419472634792328 -0.12947916984558105 24.0 6 -0.05515692010521889
-2.483538866043091 0.24526341259479523 -0.04356120526790619 22.0 7 -0.05515231192111969
-9.67769718170166 0.9574325084686279 2.605790376663208 0.0 15 -0.05515000969171524
-2.648836612701416 0.2653229534626007 -0.7133052945137024 9.0 0 -0.055129274725914
-2.6563880443573 0.267015278339386 -0.6163659691810608 10.0 1 -0.055124666541814804
-3.0384440422058105 0.3059552013874054 0.1600433737039566 2.0 9 -0.055122360587120056
-2.6155710220336914 0.26337411999702454 -0.5109865069389343 11.0 2 -0.05512005835771561
-2.6067638397216797 0.26294687390327454 0.22921960055828094 1.0 10 -0.05511775240302086
-2.6296632289886475 0.2657197415828705 -0.41861867904663086 12.0 3 -0.05511545017361641
-2.6207785606384277 0.26574674248695374 -0.3234412670135498 11.0 4 -0.05511084198951721
-2.6065797805786133 0.2647665739059448 -0.22921960055828094 12.0 5 -0.055106233805418015
-2.4697961807250977 0.2517435848712921 -0.13010719418525696 24.0 6 -0.05510162562131882
-2.540357828140259 0.25983181595802307 -0.04457344859838486 23.0 7 -0.05509701743721962
-9.65507698059082 0.9892392158508301 2.600613832473755 0.0 15 -0.05509471520781517
-2.6017770767211914 0.2697855830192566 -0.7008820176124573 10.0 0 -0.05507397651672363
-2.9079103469848633 0.3020416498184204 0.05103083327412605 6.0 8 -0.05507167428731918
-2.6050446033477783 0.27104347944259644 -0.6046684980392456 10.0 1 -0.055069368332624435
-3.0433170795440674 0.31718066334724426 0.16035738587379456 2.0 9 -0.055067066103219986
-2.5677714347839355 0.2676183581352234 -0.5018276572227478 12.0 2 -0.05506476014852524
-2.574124336242676 0.2687339782714844 0.22643060982227325 1.0 10 -0.05506245791912079
-2.5796031951904297 0.26976168155670166 -0.41079697012901306 12.0 3 -0.05506015196442604
-2.590221405029297 0.2717854976654053 -0.3197851777076721 13.0 4 -0.05505554378032684
-2.5679914951324463 0.2699066996574402 -0.22590766847133636 12.0 5 -0.055050939321517944
-2.4808199405670166 0.26161953806877136 -0.13073523342609406 28.0 6 -0.05504633113741875
-9.757617950439453 1.0307321548461914 2.2652573585510254 1.0 14 -0.055044025182724
-2.5533554553985596 0.2701706886291504 -0.04481777921319008 18.0 7 -0.05504172295331955
-9.670777320861816 1.0249745845794678 2.605790376663208 0.0 15 -0.0550394169986248
-2.5624029636383057 0.2747461795806885 -0.6905292868614197 9.0 0 -0.05501868203282356
-2.7537424564361572 0.29574811458587646 0.04834316670894623 3.0 8 -0.055016376078128815
-2.5575809478759766 0.27513277530670166 -0.5938708186149597 10.0 1 -0.055014073848724365
-3.038219928741455 0.32737332582473755 0.1601480394601822 2.0 9 -0.05501176789402962
-2.531686544418335 0.2727935016155243 -0.4949585497379303 11.0 2 -0.05500946566462517
-2.5058207511901855 0.27044883370399475 0.220504030585289 1.0 10 -0.05500716343522072
-2.5393669605255127 0.27451837062835693 -0.4045395851135254 12.0 3 -0.05500485748052597
-2.545839548110962 0.27611714601516724 -0.31442293524742126 13.0 4 -0.05500024929642677
-2.517515182495117 0.27348968386650085 -0.2215498834848404 11.0 5 -0.054995641112327576
-2.4560656547546387 0.2676815390586853 -0.12947916984558105 28.0 6 -0.05499103292822838
-9.753960609436035 1.0647865533828735 2.2652573585510254 1.0 14 -0.05498873069882393
-2.516615629196167 0.2751690447330475 -0.04418949410319328 18.0 7 -0.05498642474412918
-9.63641357421875 1.0553584098815918 2.597507953643799 0.0 15 -0.05498412251472473
-2.5230259895324707 0.27943581342697144 -0.6801764369010925 9.0 0 -0.054963383823633194
-2.6175429821014404 0.2903670072555542 0.0459696389734745 3.0 8 -0.054961081594228745
-2.5101213455200195 0.27889347076416016 -0.5830731391906738 11.0 1 -0.054958779364824295
-3.009268283843994 0.3348841965198517 0.15868262946605682 2.0 9 -0.05495647341012955
-2.5053529739379883 0.2788063585758209 -0.4899975061416626 12.0 2 -0.0549541711807251
-2.4890201091766357 0.27742913365364075 0.21910953521728516 1.0 10 -0.05495186522603035
