# .PCD v0.7 - Point Cloud Data file format
VERSION 0.7
FIELDS x y z intensity ring time
SIZE 4 4 4 4 4 4
TYPE F F F F F F
COUNT 1 1 1 1 1 1
WIDTH 546
HEIGHT 1
VIEWPOINT 0 0 0 1 0 0 0
POINTS 546
DATA ascii
-3.113600015640259 6.383829116821289 0.8720970749855042 75.0 11 -0.012335437349975109
-1.0708423852920532 2.196523666381836 -0.30004236102104187 1.0 4 -0.01233313325792551
-3.1160495281219482 6.39450740814209 1.1266411542892456 60.0 12 -0.012330829165875912
-3.109570026397705 6.384047985076904 1.3803123235702515 90.0 13 -0.012326220981776714
-3.103132724761963 6.376476287841797 1.6371939182281494 100.0 14 -0.012321613729000092
-3.095996618270874 6.367460250854492 1.8971437215805054 42.0 15 -0.012317005544900894
-1.4568947553634644 3.005695343017578 -0.8949962854385376 5.0 0 -0.01229626964777708
-1.6460925340652466 3.399048089981079 -0.8719103336334229 3.0 1 -0.012291661463677883
-3.0761945247650146 6.354920387268066 0.3700152337551117 18.0 9 -0.012289357371628284
-1.0709542036056519 2.2124183177948 -0.47778576612472534 75.0 2 -0.012287053279578686
-3.1022989749908447 6.411701679229736 0.6231635808944702 85.0 10 -0.012284749187529087
-1.1008715629577637 2.2762482166290283 -0.4004722833633423 1.0 3 -0.012282445095479488
-3.089570999145508 6.39108419418335 0.871609628200531 73.0 11 -0.01228014100342989
-1.0614407062530518 2.19667387008667 -0.29955488443374634 1.0 4 -0.012277837842702866
-3.086834669113159 6.391116142272949 1.1241382360458374 60.0 12 -0.012275533750653267
-3.0855612754821777 6.391326904296875 1.3795491456985474 92.0 13 -0.01227092556655407
-1.0563727617263794 2.18911075592041 -0.1273857206106186 1.0 6 -0.01226862147450447
-3.0732345581054688 6.37147331237793 1.633144736289978 100.0 14 -0.012266317382454872
-1.039527416229248 2.1561245918273926 -0.04178106039762497 1.0 7 -0.012264013290405273
-3.073749542236328 6.37822961807251 1.8971437215805054 45.0 15 -0.012261709198355675
-1.4433605670928955 3.0057902336120605 -0.8934433460235596 5.0 0 -0.012240973301231861
-1.6333750486373901 3.4030160903930664 -0.8714604377746582 3.0 1 -0.012236365117132664
-3.060905933380127 6.380025386810303 0.37085261940956116 23.0 9 -0.012234061025083065
-1.057745099067688 2.205706834793091 -0.4754960536956787 75.0 2 -0.012231757864356041
-3.0744736194610596 6.4140448570251465 0.6222919821739197 90.0 10 -0.012229453772306442
-1.0865470170974731 2.2677969932556152 -0.39828217029571533 2.0 3 -0.012227149680256844
-3.067244529724121 6.401829242706299 0.871609628200531 71.0 11 -0.012224845588207245
-1.0486222505569458 2.1896228790283203 -0.29809242486953735 1.0 4 -0.012222541496157646
-3.0593905448913574 6.3911614418029785 1.1222609281539917 60.0 12 -0.012220237404108047
-2.9246649742126465 6.112453937530518 -0.5928333401679993 1.0 5 -0.012217933312058449
-3.0621166229248047 6.402592658996582 1.3795491456985474 92.0 13 -0.01221562922000885
-1.051788330078125 2.2001752853393555 -0.12780441343784332 1.0 6 -0.012213325127959251
-3.048182249069214 6.379177570343018 1.6322449445724487 100.0 14 -0.012211021035909653
-2.333843946456909 4.884223937988281 -0.09448732435703278 1.0 7 -0.012208716943860054
-3.041473627090454 6.368002414703369 1.8909319639205933 46.0 15 -0.012206412851810455
-1.4336903095245361 3.012554168701172 -0.8939610123634338 5.0 0 -0.012185677886009216
-1.632605791091919 3.433619499206543 -0.8777590990066528 3.0 1 -0.012181069701910019
-3.0591983795166016 6.433961868286133 0.37336474657058716 42.0 9 -0.01217876560986042
-1.0517240762710571 2.2129323482513428 -0.4762592613697052 64.0 2 -0.012176461517810822
-3.0477893352508545 6.415740013122559 0.6214204430580139 93.0 10 -0.012174157425761223
-1.0930278301239014 2.3019118309020996 -0.4036009609699249 2.0 3 -0.012171853333711624
-3.044609308242798 6.414822101593018 0.8718533515930176 76.0 11 -0.012169549241662025
-1.0545907020568848 2.221963882446289 -0.301992267370224 1.0 4 -0.012167245149612427
-3.0362143516540527 6.400017738342285 1.1219481229782104 61.0 12 -0.012164941057562828
-1.0815914869308472 2.2809078693389893 -0.22085265815258026 1.0 5 -0.01216263696551323
-3.0347015857696533 6.402598857879639 1.377259373664856 90.0 13 -0.01216033287346363
-1.050942301750183 2.218273162841797 -0.12864179909229279 1.0 6 -0.012158029712736607
-3.0286781787872314 6.392773151397705 1.633144736289978 100.0 14 -0.012155725620687008
-2.3116443157196045 4.881497859954834 -0.09427790343761444 1.0 7 -0.01215342152863741
-3.0150954723358154 6.36984920501709 1.8883438110351562 46.0 15 -0.01215111743658781
-1.4261647462844849 3.022533655166626 -0.8955139517784119 6.0 0 -0.012130381539463997
-1.0082552433013916 2.1378064155578613 0.04125748947262764 1.0 8 -0.012128077447414398
-1.6153945922851562 3.426675319671631 -0.8746097683906555 3.0 1 -0.0121257733553648
-3.035292148590088 6.438650131225586 0.373050719499588 45.0 9 -0.0121234692633152
-1.039359450340271 2.20575213432312 -0.47396957874298096 46.0 2 -0.012121165171265602
-3.021404981613159 6.41499662399292 0.6203745603561401 91.0 10 -0.012118861079216003
-1.0710853338241577 2.2751405239105225 -0.39828217029571533 2.0 3 -0.012116556987166405
-3.013179063796997 6.403328895568848 0.8689284920692444 78.0 11 -0.012114252895116806
-1.0607404708862305 2.2541873455047607 -0.30589208006858826 1.0 4 -0.012111949734389782
-3.012453317642212 6.404687404632568 1.1210094690322876 60.0 12 -0.012109645642340183
-1.0740221738815308 2.2844817638397217 -0.22085265815258026 1.0 5 -0.012107341550290585
-3.0067741870880127 6.398411273956299 1.3742064237594604 90.0 13 -0.012105037458240986
-1.0333912372589111 2.200052499771118 -0.1273857206106186 1.0 6 -0.012102733366191387
-3.0066351890563965 6.401017189025879 1.6326948404312134 100.0 14 -0.012100429274141788
-1.0325678586959839 2.199296712875366 -0.042409345507621765 1.0 7 -0.01209812518209219
-2.990671396255493 6.3728179931640625 1.8862733840942383 46.0 15 -0.012095821090042591
-1.4169529676437378 3.028995990753174 -0.8960315585136414 5.0 0 -0.012075085192918777
-1.0011608600616455 2.1411378383636475 0.04125748947262764 1.0 8 -0.012072781100869179
-1.6106224060058594 3.4461374282836914 -0.8782089948654175 3.0 1 -0.01207047700881958
-3.00462007522583 6.428777694702148 0.3718993365764618 12.0 9 -0.012068172916769981
-1.0303776264190674 2.2056286334991455 -0.4732063114643097 24.0 2 -0.012065869756042957
-2.998427629470825 6.421370506286621 0.6200259327888489 95.0 10 -0.012063565663993359
-1.059356927871704 2.2697298526763916 -0.3967178463935852 1.0 3 -0.01206126157194376
-2.9860548973083496 6.400692462921143 0.8672223091125488 69.0 11 -0.012058957479894161
-1.0868300199508667 2.329650640487671 -0.3156416416168213 1.0 4 -0.012056653387844563
-2.9903616905212402 6.412852764129639 1.1206966638565063 61.0 12 -0.012054349295794964
-1.0664401054382324 2.2880311012268066 -0.22085265815258026 1.0 5 -0.012052045203745365
-2.982225179672241 6.401228427886963 1.3726799488067627 90.0 13 -0.012049741111695766
-2.842191696166992 6.103442192077637 -0.3528490364551544 1.0 6 -0.012047437019646168
-2.974695920944214 6.3879876136779785 1.626846194267273 100.0 14 -0.012045133858919144
-2.9171628952026367 6.267296314239502 -0.12066594511270523 1.0 7 -0.012042829766869545
-2.9695262908935547 6.3826985359191895 1.8862733840942383 46.0 15 -0.012040525674819946
-1.4085253477096558 3.0371835231781006 -0.8970668315887451 5.0 0 -0.012019788846373558
-0.9940544962882996 2.14444637298584 0.04125748947262764 1.0 8 -0.012017485685646534
-1.6057404279708862 3.465604305267334 -0.8818081617355347 3.0 1 -0.012015181593596935
-1.0197571516036987 2.2019078731536865 -0.4716798663139343 13.0 2 -0.012010573409497738
-2.978792428970337 6.434894561767578 0.6203745603561401 91.0 10 -0.01200826931744814
-1.0468478202819824 2.2624738216400146 -0.39484065771102905 2.0 3 -0.01200596522539854
-2.9631447792053223 6.406956672668457 0.8667348623275757 78.0 11 -0.012003661133348942
-2.96079158782959 6.4048027992248535 1.117568016052246 61.0 12 -0.011999053880572319
-2.843928337097168 6.154822826385498 -0.5931819677352905 1.0 5 -0.01199674978852272
-2.960979700088501 6.411083221435547 1.3726799488067627 90.0 13 -0.011994445696473122
-2.8169147968292236 6.101953029632568 -0.3522210419178009 1.0 6 -0.011992141604423523
-2.947779893875122 6.385430812835693 1.6236968040466309 100.0 14 -0.011989837512373924
-1.0095804929733276 2.187939405441284 -0.04206030070781708 1.0 7 -0.011987533420324326
-2.945105791091919 6.385493755340576 1.8842027187347412 47.0 15 -0.011985229328274727
-1.3957706689834595 3.0388150215148926 -0.8960315585136414 5.0 0 -0.011986970901489258
-0.986188530921936 2.1480751037597656 0.04125748947262764 1.0 8 -0.011984666809439659
-1.5824623107910156 3.4484410285949707 -0.8759595155715942 3.0 1 -0.01198236271739006
-1.0002200603485107 2.180647850036621 -0.4663371741771698 2.0 2 -0.011977754533290863
-2.946885347366333 6.427657127380371 0.6186314821243286 91.0 10 -0.011975450441241264
-1.0550075769424438 2.302211046218872 -0.40109801292419434 2.0 3 -0.01197314728051424
-2.9371604919433594 6.412360668182373 0.8660036325454712 63.0 11 -0.011970843188464642
-1.040382742881775 2.2723910808563232 -0.3068670332431793 1.0 4 -0.011968539096415043
-2.9328908920288086 6.408938407897949 1.1163164377212524 65.0 12 -0.011966235004365444
-1.037176489830017 2.266433000564575 -0.21806366741657257 1.0 5 -0.011963930912315845
-2.93746018409729 6.421893119812012 1.3726799488067627 92.0 13 -0.011961626820266247
-2.797854423522949 6.119502067565918 -0.35263970494270325 1.0 6 -0.011959322728216648
-2.922431707382202 6.394929885864258 1.6232469081878662 100.0 14 -0.01195701863616705
-2.853961706161499 6.247994422912598 -0.11989803612232208 1.0 7 -0.01195471454411745
-2.91575288772583 6.3862104415893555 1.8810968399047852 46.0 15 -0.011952410452067852
-1.3867557048797607 3.047184944152832 -0.8970668315887451 5.0 0 -0.011931674554944038
-0.9687478542327881 2.129662036895752 0.040838632732629776 1.0 8 -0.01192937046289444
-1.5744473934173584 3.4628140926361084 -0.8782089948654175 3.0 1 -0.011927067302167416
-0.9726095795631409 2.1401329040527344 0.12319885194301605 1.0 9 -0.011924763210117817
-0.9901658892631531 2.1787641048431396 -0.46519237756729126 1.0 2 -0.011922459118068218
-2.9186606407165527 6.425206661224365 0.6174112558364868 49.0 10 -0.01192015502601862
-1.040431022644043 2.2914907932281494 -0.39859506487846375 1.0 3 -0.01191785093396902
-2.915580987930298 6.424380779266357 0.8662473559379578 75.0 11 -0.011915546841919422
-2.9088683128356934 6.415539741516113 1.1156907081604004 65.0 12 -0.011910938657820225
-1.0095123052597046 2.226490020751953 -0.21388019621372223 1.0 5 -0.011908634565770626
-2.9053022861480713 6.410648822784424 1.368100643157959 95.0 13 -0.011906330473721027
-2.7698814868927 6.1146769523620605 -0.3518023192882538 1.0 6 -0.011904027312994003
-2.900089740753174 6.405092716217041 1.6232469081878662 100.0 14 -0.011901723220944405
-0.9803230166435242 2.1661322116851807 -0.04150182008743286 1.0 7 -0.011899419128894806
-2.8886642456054688 6.385789394378662 1.8779910802841187 46.0 15 -0.011897115036845207
-1.3761112689971924 3.052006721496582 -0.8970668315887451 5.0 0 -0.011876379139721394
-0.961308479309082 2.133030414581299 0.040838632732629776 1.0 8 -0.011874075047671795
-1.5583490133285522 3.459404706954956 -0.8759595155715942 3.0 1 -0.011871770955622196
-0.9200339317321777 2.0433506965637207 0.11744190007448196 2.0 9 -0.011869466863572598
-0.9761067032814026 2.1678855419158936 -0.46213942766189575 1.0 2 -0.011867162771522999
-1.018649935722351 2.2644829750061035 -0.39327630400657654 2.0 3 -0.011862554587423801
-2.8874409198760986 6.421844959259033 0.8645411729812622 65.0 11 -0.011860250495374203
-1.0244930982589722 2.2795989513397217 -0.3068670332431793 1.0 4 -0.011857947334647179
-2.886457681655884 6.42565393447876 1.1156907081604004 65.0 12 -0.01185564324259758
-1.0131644010543823 2.255444049835205 -0.21632054448127747 1.0 5 -0.011853339150547981
-2.8780837059020996 6.41000509262085 1.3658108711242676 97.0 13 -0.011851035058498383
-2.7403411865234375 6.106087684631348 -0.35075560212135315 1.0 6 -0.011848730966448784
-2.875319480895996 6.409843444824219 1.6218972206115723 100.0 14 -0.011846426874399185
-2.829911231994629 6.311557769775391 -0.12073574960231781 1.0 7 -0.011844122782349586
-2.864773988723755 6.392309188842773 1.8769557476043701 47.0 15 -0.011841818690299988
-1.3646607398986816 3.0550284385681152 -0.8965492248535156 4.0 0 -0.011821082793176174
-0.950596272945404 2.1290688514709473 0.04069900885224342 1.0 8 -0.011818778701126575
-1.5510280132293701 3.47550106048584 -0.8786588907241821 3.0 1 -0.011816474609076977
-0.9096406102180481 2.0392537117004395 0.11702320724725723 6.0 9 -0.011814170517027378
-0.9589354395866394 2.149764060974121 -0.4575599730014801 1.0 2 -0.011811867356300354
-1.0083262920379639 2.2626123428344727 -0.3923376798629761 2.0 3 -0.011807259172201157
-2.8561203479766846 6.4119391441345215 0.8618600964546204 67.0 11 -0.011804955080151558
-0.9648547768592834 2.1670992374420166 -0.2912677526473999 1.0 4 -0.01180265098810196
-2.864008665084839 6.435690879821777 1.1156907081604004 65.0 12 -0.01180034689605236
-2.730712652206421 6.136162757873535 -0.5876039862632751 1.0 5 -0.011798042804002762
-2.8524978160858154 6.412837982177734 1.3642843961715698 100.0 13 -0.011795738711953163
-0.972872257232666 2.1881895065307617 -0.1255016326904297 1.0 6 -0.011793434619903564
-2.8473892211914062 6.407374858856201 1.6187479496002197 100.0 14 -0.011791130527853966
-2.8013665676116943 6.3067779541015625 -0.1204565092921257 1.0 7 -0.011788826435804367
-2.842444658279419 6.40226936340332 1.8769557476043701 46.0 15 -0.011786523275077343
-1.3539890050888062 3.0597729682922363 -0.8965492248535156 5.0 0 -0.011765786446630955
-0.9350693225860596 2.114086389541626 0.040349964052438736 1.0 8 -0.01176348328590393
-1.5444034337997437 3.4933700561523438 -0.8818081617355347 3.0 1 -0.011761179193854332
-0.8992881178855896 2.035109043121338 0.1166045218706131 9.0 9 -0.011758875101804733
-0.9546000957489014 2.160281181335449 -0.45908647775650024 1.0 2 -0.011756571009755135
-0.9377949237823486 2.123253107070923 0.20307287573814392 1.0 10 -0.011754266917705536
-1.0139849185943604 2.2968387603759766 -0.3976564407348633 2.0 3 -0.011751962825655937
-2.8337221145629883 6.421869277954102 0.8618600964546204 63.0 11 -0.011749658733606339
-2.8327622413635254 6.425765514373779 1.1122491359710693 67.0 12 -0.011745050549507141
-1.0182899236679077 2.3098628520965576 -0.22085265815258026 1.0 5 -0.011742746457457542
-2.8300936222076416 6.422756671905518 1.3642843961715698 100.0 13 -0.011740443296730518
-0.9716688394546509 2.2061944007873535 -0.12633900344371796 1.0 6 -0.01173813920468092
-2.818725824356079 6.403005599975586 1.615148663520813 100.0 14 -0.011735835112631321
-2.7680580615997314 6.290894031524658 -0.11996784806251526 1.0 7 -0.011733531020581722
-2.816969633102417 6.405078411102295 1.8748853206634521 46.0 15 -0.011731226928532124
-1.346401572227478 3.0715582370758057 -0.8986197710037231 5.0 0 -0.01171049103140831
-0.9228686690330505 2.1063482761383057 0.040140535682439804 1.0 8 -0.011708186939358711
-1.534545660018921 3.5040946006774902 -0.8831579089164734 3.0 1 -0.011705882847309113
-0.8905764818191528 2.034576654434204 0.11639518290758133 8.0 9 -0.011703578755259514
-0.951776385307312 2.174391508102417 -0.4613761901855469 1.0 2 -0.011701274663209915
-0.9144048690795898 2.0900070667266846 0.1995866596698761 1.0 10 -0.011698970571160316
-1.013085126876831 2.316653251647949 -0.4004722833633423 2.0 3 -0.011696666479110718
-2.8104918003082275 6.429903030395508 0.861616313457489 73.0 11 -0.011694363318383694
-2.807154417037964 6.428373336791992 1.1109976768493652 67.0 12 -0.011689755134284496
-1.0102213621139526 2.3134031295776367 -0.22085265815258026 1.0 5 -0.011687451042234898
-2.804516553878784 6.425397872924805 1.362757921218872 100.0 13 -0.011685146950185299
-0.9575721025466919 2.194927930831909 -0.1255016326904297 1.0 6 -0.0116828428581357
-2.7947986125946045 6.409234046936035 1.6142488718032837 100.0 14 -0.011680538766086102
-2.73649525642395 6.278519630432129 -0.1195489838719368 1.0 7 -0.011678234674036503
-2.789963483810425 6.4042463302612305 1.871779441833496 47.0 15 -0.011675930581986904
-1.338749885559082 3.083327293395996 -0.9006903171539307 6.0 0 -0.01165519468486309
-0.907550036907196 2.091212749481201 0.03979148715734482 1.0 8 -0.011652890592813492
-1.5269569158554077 3.5201568603515625 -0.885857343673706 3.0 1 -0.011650586500763893
-0.8866474032402039 2.0450024604797363 0.11681386828422546 8.0 9 -0.011648283340036869
-0.9363712668418884 2.1596877574920654 -0.4575599730014801 1.0 2 -0.01164597924798727
-0.8960130214691162 2.0675923824310303 0.19714628159999847 1.0 10 -0.011643675155937672
-0.9869332909584045 2.27848482131958 -0.39327630400657654 2.0 3 -0.011641371063888073
-2.785665273666382 6.434208393096924 0.8608850836753845 75.0 11 -0.011639066971838474
-0.9815275073051453 2.2681753635406494 -0.3034546673297882 1.0 4 -0.011636762879788876
-2.782343864440918 6.432693958282471 1.1100590229034424 69.0 12 -0.011634458787739277
-0.9531000852584839 2.203538417816162 -0.21004533767700195 1.0 5 -0.011632154695689678
-2.7805140018463135 6.431543827056885 1.361994743347168 100.0 13 -0.01162985060364008
-0.9499050378799438 2.1982569694519043 -0.1255016326904297 1.0 6 -0.01162754651159048
-2.7731831073760986 6.42073917388916 1.6146987676620483 100.0 14 -0.011625243350863457
-2.7304155826568604 6.324751377105713 -0.12024708092212677 1.0 7 -0.011622939258813858
-2.759939193725586 6.396207809448242 1.8666030168533325 47.0 15 -0.01162063516676426
-1.3256900310516357 3.0826573371887207 -0.8991374373435974 5.0 0 -0.011599899269640446
-0.8939276933670044 2.0796704292297363 0.03951225057244301 1.0 8 -0.011597595177590847
-1.5054280757904053 3.5039803981781006 -0.8804585337638855 4.0 1 -0.011595291085541248
-0.8802921175956726 2.049920082092285 0.11691854149103165 2.0 9 -0.01159298699349165
-0.9257287383079529 2.1557273864746094 -0.45603352785110474 1.0 2 -0.011590682901442051
-0.8840757012367249 2.0597221851348877 0.1961004137992859 1.0 10 -0.011588378809392452
-0.9828673601150513 2.2909932136535645 -0.39484065771102905 2.0 3 -0.011586074717342854
-2.7600607872009277 6.4365949630737305 0.8599101305007935 75.0 11 -0.011583770625293255
-0.9814247488975525 2.2898333072662354 -0.30589208006858826 1.0 4 -0.011581466533243656
-2.7575371265411377 6.436920642852783 1.109120488166809 67.0 12 -0.011579163372516632
-0.9783537983894348 2.2837717533111572 -0.21736642718315125 1.0 5 -0.011576859280467033
-2.7487716674804688 6.419554233551025 1.3574153184890747 100.0 13 -0.011574555188417435
-0.9375102519989014 2.190542697906494 -0.12487360835075378 1.0 6 -0.011572251096367836
-2.749985456466675 6.428589344024658 1.6142488718032837 100.0 14 -0.011569947004318237
-2.6894516944885254 6.290116310119629 -0.11940936744213104 1.0 7 -0.011567642912268639
-2.740630626678467 6.412909507751465 1.86867356300354 47.0 15 -0.01156533882021904
-1.3149206638336182 3.087266206741333 -0.8991374373435974 5.0 0 -0.011544602923095226
-0.8976280093193054 2.108536958694458 0.04000091552734375 1.0 8 -0.011542298831045628
-1.493951439857483 3.5110065937042236 -0.8809083700180054 4.0 1 -0.011539994738996029
-0.8739123344421387 2.0548183917999268 0.11702320724725723 2.0 9 -0.01153769064694643
-0.9205027222633362 2.164365768432617 -0.45717838406562805 2.0 2 -0.011535386554896832
-0.8784389495849609 2.0664632320404053 0.19644904136657715 1.0 10 -0.011533082462847233
-0.9756371974945068 2.2962279319763184 -0.3951534926891327 2.0 3 -0.011530779302120209
-2.730590581893921 6.429746627807617 0.8577165007591248 76.0 11 -0.01152847521007061
-0.9501559734344482 2.238426685333252 -0.2985799014568329 1.0 4 -0.011526171118021011
-2.7373671531677246 6.451961994171143 1.1100590229034424 69.0 12 -0.011523867025971413
-0.9859397411346436 2.323855400085449 -0.22085265815258026 1.0 5 -0.011521562933921814
-2.7248146533966064 6.425494194030762 1.356652021408081 100.0 13 -0.011519258841872215
-0.9345351457595825 2.2048349380493164 -0.1255016326904297 1.0 6 -0.011516954749822617
-2.7214486598968506 6.423794269561768 1.6106497049331665 100.0 14 -0.011514650657773018
-2.6596827507019043 6.281051158905029 -0.11906032264232635 1.0 7 -0.01151234656572342
-2.7152178287506104 6.415319919586182 1.8666030168533325 47.0 15 -0.01151004247367382
-1.3056381940841675 3.0953969955444336 -0.9001726508140564 5.0 0 -0.011489306576550007
-0.8848249316215515 2.0987589359283447 0.03975658118724823 2.0 8 -0.011487002484500408
-1.4710930585861206 3.491058349609375 -0.8746097683906555 3.0 1 -0.011484699323773384
-0.8613080382347107 2.0449717044830322 0.11629050970077515 2.0 9 -0.011482395231723785
-0.9091323018074036 2.1585190296173096 -0.45527029037475586 3.0 2 -0.011480091139674187
-0.8758580088615417 2.0805349349975586 0.19749490916728973 1.0 10 -0.011477787047624588
-0.9699147939682007 2.305081605911255 -0.39609211683273315 2.0 3 -0.01147548295557499
-2.710440158843994 6.444727897644043 0.8584477305412292 71.0 11 -0.01147317886352539
-0.9315664768218994 2.2161102294921875 -0.29516759514808655 1.0 4 -0.011470874771475792
-2.704883098602295 6.437802314758301 1.1059917211532593 67.0 12 -0.011468570679426193
-0.9778224229812622 2.327282667160034 -0.22085265815258026 1.0 5 -0.011466266587376595
-2.7023673057556152 6.434967517852783 1.356652021408081 100.0 13 -0.011463962495326996
-0.9268325567245483 2.2080838680267334 -0.1255016326904297 1.0 6 -0.011461659334599972
-2.6944868564605713 6.42247200012207 1.607950210571289 100.0 14 -0.011459355242550373
-2.654752492904663 6.330868244171143 -0.1198282241821289 1.0 7 -0.011457051150500774
-2.691312551498413 6.421195983886719 1.865567684173584 47.0 15 -0.011454747058451176
-1.2978028059005737 3.1070663928985596 -0.9022431969642639 6.0 0 -0.011434011161327362
-0.8805745244026184 2.1092162132263184 0.039896201342344284 2.0 8 -0.011431707069277763
-1.4701539278030396 3.523149251937866 -0.8813583254814148 1.0 1 -0.011429402977228165
-0.8518574833869934 2.042435884475708 0.1159764900803566 2.0 9 -0.011427098885178566
-0.9046143889427185 2.1689271926879883 -0.4567967355251312 3.0 2 -0.011424794793128967
-0.8578578233718872 2.057833433151245 0.1950545459985733 1.0 10 -0.011422490701079369
-0.9709792137145996 2.3303346633911133 -0.39984655380249023 2.0 3 -0.01142018660902977
-2.68487286567688 6.446820259094238 0.8574727773666382 75.0 11 -0.011417882516980171
-0.9238256812095642 2.219348192214966 -0.29516759514808655 1.0 4 -0.011415578424930573
-2.677839994430542 6.436262607574463 1.1041146516799927 63.0 12 -0.011413275264203548
-0.9314248561859131 2.2387053966522217 -0.21213705837726593 1.0 5 -0.01141097117215395
-2.678382396697998 6.440735340118408 1.355888843536377 100.0 13 -0.011408667080104351
-0.9191197156906128 2.211305618286133 -0.1255016326904297 1.0 6 -0.011406362988054752
-2.672797679901123 6.433638572692871 1.6084002256393433 100.0 14 -0.011404058896005154
-0.8979958891868591 2.1626133918762207 -0.040873534977436066 1.0 7 -0.011401754803955555
-2.662959337234497 6.416276931762695 1.8614267110824585 47.0 15 -0.011399450711905956
-1.2839964628219604 3.1044366359710693 -0.9001726508140564 6.0 0 -0.011378714814782143
-0.8701512813568115 2.1048851013183594 0.03975658118724823 2.0 8 -0.011376410722732544
-1.4742196798324585 3.5678822994232178 -0.8912561535835266 1.0 1 -0.011374106630682945
-0.8500598669052124 2.058318853378296 0.11670918762683868 2.0 9 -0.011371802538633347
-0.8962889313697815 2.170257091522217 -0.4564151465892792 3.0 2 -0.011369498446583748
-0.856751561164856 2.0755484104156494 0.19644904136657715 1.0 10 -0.011367195285856724
-0.9583179950714111 2.322753429412842 -0.3979693353176117 2.0 3 -0.011364891193807125
-2.661597490310669 6.454317569732666 0.8572290539741516 76.0 11 -0.011362587101757526
-0.9160735011100769 2.2225594520568848 -0.29516759514808655 1.0 4 -0.011360283009707928
-2.6576125621795654 6.451050281524658 1.105053186416626 69.0 12 -0.011357978917658329
-0.9236040711402893 2.241943120956421 -0.21213705837726593 1.0 5 -0.01135567482560873
-2.651400089263916 6.439152717590332 1.3535990715026855 100.0 13 -0.011353370733559132
-0.9205173254013062 2.236663818359375 -0.1267576962709427 1.0 6 -0.011351066641509533
-2.6480979919433594 6.437523365020752 1.6070505380630493 100.0 14 -0.011348762549459934
-0.8843587040901184 2.1509389877319336 -0.040594298392534256 1.0 7 -0.01134645938873291
-2.636141300201416 6.414811134338379 1.8583208322525024 47.0 15 -0.011344155296683311
-1.2775440216064453 3.119626760482788 -0.9032785296440125 5.0 0 -0.011323418468236923
-0.8597690463066101 2.1005067825317383 0.039616964757442474 2.0 8 -0.0113211153075099
-1.4514250755310059 3.5477559566497803 -0.884957492351532 2.0 1 -0.0113188112154603
-0.8402040004730225 2.0537326335906982 0.11629050970077515 2.0 9 -0.011316507123410702
-0.885735034942627 2.1661038398742676 -0.4548886716365814 4.0 2 -0.011314203031361103
-0.8540233969688416 2.089592456817627 0.19749490916728973 1.0 10 -0.011311898939311504
-0.9487107396125793 2.3224270343780518 -0.39734360575675964 2.0 3 -0.011309594847261906
-2.6330466270446777 6.448866844177246 0.8552790880203247 76.0 11 -0.011307290755212307
-0.9083091616630554 2.2257437705993652 -0.29516759514808655 1.0 4 -0.011304986663162708
-2.634714126586914 6.456170082092285 1.104427456855774 69.0 12 -0.01130268257111311
-0.9217929840087891 2.2599120140075684 -0.21353155374526978 1.0 5 -0.011300378479063511
-2.622976064682007 6.433825492858887 1.3505462408065796 97.0 13 -0.011298075318336487
-0.8991374373435974 2.206570863723755 -0.12487360835075378 1.0 6 -0.011295771226286888
-2.625612258911133 6.446727275848389 1.6070505380630493 100.0 14 -0.01129346713423729
-2.586405038833618 6.350461006164551 -0.11968860030174255 1.0 7 -0.01129116304218769
-2.610482692718506 6.412783145904541 1.8552149534225464 47.0 15 -0.011288858950138092
-0.8452844619750977 2.0848147869110107 0.03926791250705719 2.0 8 -0.01126581896096468
-1.4396530389785767 3.552549362182617 -0.884957492351532 3.0 1 -0.011263514868915081
-0.8315309286117554 2.052950382232666 0.11608116328716278 1.0 9 -0.011261210776865482
-0.8825893402099609 2.180100917816162 -0.45717838406562805 4.0 2 -0.011258906684815884
-0.8392512798309326 2.0740914344787598 0.19575178623199463 1.0 10 -0.011256602592766285
-0.9380406737327576 2.318235397338867 -0.39609211683273315 2.0 3 -0.011254298500716686
-2.6101598739624023 6.453882217407227 0.8547916412353516 80.0 11 -0.011251995339989662
-0.9053874015808105 2.239785671234131 -0.29662999510765076 1.0 4 -0.011249691247940063
-2.610682964324951 6.461663722991943 1.1038017272949219 69.0 12 -0.011247387155890465
-0.9198675155639648 2.277895212173462 -0.21492604911327362 1.0 5 -0.011245083063840866
-2.6016275882720947 6.442487716674805 1.3505462408065796 100.0 13 -0.011242778971791267
-0.891815721988678 2.2095401287078857 -0.12487360835075378 1.0 6 -0.011240474879741669
-2.599846601486206 6.444554805755615 1.6043510437011719 100.0 14 -0.01123817078769207
-2.550762891769409 6.326066970825195 -0.11906032264232635 1.0 7 -0.011235866695642471
-2.5909717082977295 6.429022789001465 1.857285499572754 47.0 15 -0.011233562603592873
-0.8387473821640015 2.0896084308624268 0.03930281847715378 2.0 8 -0.01121052261441946
-0.8377391695976257 2.0892088413238525 0.11796525865793228 1.0 9 -0.011205915361642838
-0.8680475950241089 2.1647937297821045 -0.45336219668388367 5.0 2 -0.011203611269593239
-0.8294042944908142 2.069465160369873 0.1950545459985733 1.0 10 -0.01120130717754364
-0.9248003363609314 2.3086600303649902 -0.3939020335674286 2.0 3 -0.011199003085494041
-2.584662675857544 6.455583572387695 0.8538166880607605 76.0 11 -0.011196698993444443
-0.8931390047073364 2.231874465942383 -0.29516759514808655 2.0 4 -0.011194394901394844
-2.580040693283081 6.450563430786133 1.1003601551055908 63.0 12 -0.011192090809345245
-0.907472550868988 2.2699925899505615 -0.21388019621372223 1.0 5 -0.011189786717295647
-2.5776638984680176 6.447884559631348 1.349782943725586 97.0 13 -0.011187482625246048
-0.8752041459083557 2.1903839111328125 -0.12361754477024078 1.0 6 -0.01118517853319645
-2.5715510845184326 6.439113140106201 1.6007517576217651 100.0 14 -0.01118287444114685
-2.533111333847046 6.346075534820557 -0.11926974356174469 1.0 7 -0.011180571280419827
-2.5656495094299316 6.430851459503174 1.8552149534225464 47.0 15 -0.011178267188370228
-0.9708777070045471 2.4434306621551514 -0.704505443572998 1.0 0 -0.011157531291246414
-0.82554030418396 2.0776565074920654 0.03902358189225197 3.0 8 -0.011155227199196815
-0.8230732679367065 2.073556661605835 0.11691854149103165 1.0 9 -0.011150619015097618
-0.8615558743476868 2.1716103553771973 -0.45412543416023254 5.0 2 -0.01114831492304802
-0.8188755512237549 2.0650830268859863 0.19435729086399078 1.0 10 -0.01114601083099842
-0.9192442297935486 2.3193793296813965 -0.3951534926891327 2.0 3 -0.011143706738948822
-2.5591883659362793 6.457183361053467 0.8528417348861694 86.0 11 -0.011141402646899223
-0.8868044018745422 2.2386698722839355 -0.2956550419330597 2.0 4 -0.011139098554849625
-2.555327892303467 6.454019069671631 1.099421501159668 69.0 12 -0.011136794462800026
-2.46696400642395 6.234015464782715 -0.5865581631660461 1.0 5 -0.011134491302073002
-2.555459499359131 6.460939407348633 1.3505462408065796 100.0 13 -0.011132187210023403
-0.8803873658180237 2.2270095348358154 -0.1255016326904297 1.0 6 -0.011129883117973804
-2.5479347705841064 6.4484944343566895 1.6007517576217651 100.0 14 -0.011127579025924206
-2.500657558441162 6.3288421630859375 -0.11878107488155365 1.0 7 -0.011125274933874607
-2.537510395050049 6.4253926277160645 1.8510738611221313 47.0 15 -0.011122970841825008
-0.9510285258293152 2.4180400371551514 -0.696223258972168 28.0 0 -0.011102234944701195
-0.8201149702072144 2.0862514972686768 0.039128296077251434 3.0 8 -0.011099930852651596
-0.9584923386573792 2.4395132064819336 -0.6051183342933655 5.0 1 -0.011097626760601997
-0.8099876046180725 2.0615453720092773 0.11608116328716278 1.0 9 -0.011095322668552399
-0.8546873331069946 2.1764323711395264 -0.45450708270072937 6.0 2 -0.0110930185765028
-0.8145743012428284 2.075347423553467 0.1950545459985733 1.0 10 -0.011090714484453201
-0.9277342557907104 2.3648695945739746 -0.40234947204589844 2.0 3 -0.011088411323726177
-2.532604217529297 6.459128379821777 0.8518667817115784 86.0 11 -0.011086107231676579
-0.8727992177009583 2.227118968963623 -0.29370513558387756 2.0 4 -0.01108380313962698
-2.531343460083008 6.4592204093933105 1.098795771598816 69.0 12 -0.011081499047577381
-0.894509494304657 2.2836930751800537 -0.21457743644714355 1.0 5 -0.011079194955527782
-2.5271637439727783 6.455195903778076 1.3474931716918945 100.0 13 -0.011076890863478184
-0.8726087212562561 2.2300689220428467 -0.1255016326904297 1.0 6 -0.011074586771428585
-2.524698257446289 6.455534934997559 1.6003018617630005 100.0 14 -0.011072282679378986
-2.472722053527832 6.322634696960449 -0.11850184202194214 1.0 7 -0.011069978587329388
-2.512251377105713 6.42701530456543 1.8490034341812134 47.0 15 -0.011067674495279789
-0.9509925246238708 2.44294810295105 -0.7024349570274353 1.0 0 -0.011046938598155975
-0.8102900385856628 2.0815060138702393 0.03898867964744568 4.0 8 -0.011044634506106377
-0.9419173002243042 2.4208853244781494 -0.5997195243835449 7.0 1 -0.011042330414056778
-0.7977187633514404 2.051330089569092 0.1153484508395195 2.0 9 -0.011040027253329754
-0.8477966785430908 2.18123197555542 -0.4548886716365814 9.0 2 -0.011037723161280155
-0.798666775226593 2.0558922290802 0.19296279549598694 1.0 10 -0.011035419069230556
-0.9248946905136108 2.3808224201202393 -0.4045395851135254 2.0 3 -0.011033114977180958
-2.506861448287964 6.456387996673584 0.8504043221473694 84.0 11 -0.011030810885131359
-0.869717538356781 2.241105079650879 -0.29516759514808655 2.0 4 -0.01102850679308176
-2.5080652236938477 6.4661760330200195 1.0984829664230347 67.0 12 -0.011026202701032162
-0.8836522698402405 2.2793707847595215 -0.21388019621372223 1.0 5 -0.011023898608982563
-2.5014870166778564 6.45255708694458 1.3452035188674927 97.0 13 -0.011021594516932964
-0.8652081489562988 2.2329506874084473 -0.1255016326904297 1.0 6 -0.01101929135620594
-2.5039820671081543 6.465688705444336 1.6007517576217651 100.0 14 -0.011016987264156342
-2.4506382942199707 6.331226825714111 -0.11850184202194214 1.0 7 -0.011014683172106743
-2.4884088039398193 6.4321417808532715 1.8479681015014648 47.0 15 -0.011012379080057144
-0.8138033151626587 2.112311601638794 0.03951225057244301 6.0 8 -0.010989339090883732
-0.7970103025436401 2.07087779045105 0.11629050970077515 2.0 9 -0.010984730906784534
-0.8412643671035767 2.185863733291626 -0.45527029037475586 10.0 2 -0.010982426814734936
-0.7989984154701233 2.077125072479248 0.19470593333244324 2.0 10 -0.010980122722685337
-0.9087801575660706 2.3637547492980957 -0.40109801292419434 2.0 3 -0.010977818630635738
-2.4800384044647217 6.453980922698975 0.8489419221878052 86.0 11 -0.01097551453858614
-0.8561960458755493 2.229302167892456 -0.29321765899658203 2.0 4 -0.010973211377859116
-2.484769105911255 6.473048686981201 1.0981700420379639 65.0 12 -0.010970907285809517
-0.8860841393470764 2.3083295822143555 -0.21632054448127747 1.0 5 -0.010968603193759918
-2.478949546813965 6.461248874664307 1.3452035188674927 97.0 13 -0.01096629910171032
-0.8516880869865417 2.221038341522217 -0.12466426193714142 1.0 6 -0.01096399500966072
-2.474421739578247 6.456193447113037 1.5962527990341187 100.0 14 -0.010961690917611122
-2.4185099601745605 6.3135986328125 -0.1180131658911705 1.0 7 -0.010959386825561523
-2.4673240184783936 6.444396018981934 1.8490034341812134 47.0 15 -0.010957082733511925
-1.2008047103881836 3.1478939056396484 -0.9027608633041382 2.0 0 -0.010936346836388111
-0.8064244389533997 2.1151394844055176 0.03951225057244301 8.0 8 -0.010934042744338512
-0.786932647228241 2.0661814212799072 0.11587180942296982 2.0 9 -0.010929434560239315
-0.8322311043739319 2.185117721557617 -0.45450708270072937 11.0 2 -0.010927131399512291
-0.7874895930290222 2.0687291622161865 0.19366006553173065 1.0 10 -0.010924827307462692
-0.8920949101448059 2.344757318496704 -0.39734360575675964 2.0 3 -0.010922523215413094
-2.4560816287994385 6.458888530731201 0.848454475402832 86.0 11 -0.010920219123363495
-0.8498190641403198 2.2359886169433594 -0.29370513558387756 2.0 4 -0.010917915031313896
-2.4558467864990234 6.465062141418457 1.0953541994094849 67.0 12 -0.010915610939264297
-0.8667014837265015 2.2816076278686523 -0.21353155374526978 1.0 5 -0.010913306847214699
-2.4549851417541504 6.466192722320557 1.3444403409957886 100.0 13 -0.0109110027551651
-0.8552668690681458 2.253875255584717 -0.12633900344371796 1.0 6 -0.010908698663115501
-2.447725296020508 6.453858375549316 1.5935533046722412 100.0 14 -0.010906394571065903
-2.413466453552246 6.366879940032959 -0.11885089427232742 1.0 7 -0.010904090479016304
-2.444812297821045 6.452970027923584 1.8490034341812134 47.0 15 -0.010901786386966705
-1.1918565034866333 3.1574881076812744 -0.9043138027191162 5.0 0 -0.010881051421165466
-0.8004484176635742 2.121683359146118 0.039582058787345886 8.0 8 -0.010878747329115868
-0.7804204225540161 2.0707848072052 0.1159764900803566 2.0 9 -0.01087413914501667
-0.8218295574188232 2.1806607246398926 -0.45298057794570923 10.0 2 -0.010871835052967072
-0.7732409834861755 2.0528202056884766 0.19191694259643555 1.0 10 -0.010869530960917473
-0.8825131058692932 2.3441591262817383 -0.3967178463935852 1.0 3 -0.010867226868867874
-2.4349207878112793 6.471137523651123 0.8489419221878052 86.0 11 -0.010864922776818275
-0.8434067964553833 2.24265718460083 -0.2941926121711731 3.0 4 -0.010862618684768677
-2.431180953979492 6.468047618865967 1.0944156646728516 78.0 12 -0.010860314592719078
-0.8629384636878967 2.295809030532837 -0.21457743644714355 1.0 5 -0.01085801050066948
-2.4324004650115967 6.474722385406494 1.3444403409957886 97.0 13 -0.01085570640861988
-0.841778039932251 2.2418882846832275 -0.1255016326904297 1.0 6 -0.010853403247892857
-2.4244987964630127 6.460537910461426 1.5931034088134766 100.0 14 -0.010851099155843258
-0.8055034279823303 2.1475565433502197 -0.04003582149744034 1.0 7 -0.01084879506379366
-2.414133071899414 6.43975830078125 1.8427916765213013 47.0 15 -0.01084649097174406
-1.1821801662445068 3.165248394012451 -0.90534907579422 5.0 0 -0.010825755074620247
-0.7909389734268188 2.1188442707061768 0.03947734460234642 9.0 8 -0.010823450982570648
-1.3507968187332153 3.620574712753296 -0.8921559453010559 3.0 1 -0.01082114689052105
-0.7690006494522095 2.062267780303955 0.1153484508395195 4.0 9 -0.01081884279847145
-0.8176426887512207 2.192713737487793 -0.4548886716365814 12.0 2 -0.010816538706421852
-0.7730279564857483 2.074176549911499 0.19366006553173065 1.0 10 -0.010814234614372253
-0.8729454874992371 2.3435235023498535 -0.39609211683273315 1.0 3 -0.010811930522322655
-2.413700819015503 6.48331880569458 0.8494293689727783 86.0 11 -0.010809626430273056
-0.8383418321609497 2.2530298233032227 -0.29516759514808655 3.0 4 -0.010807323269546032
-2.405832290649414 6.469089031219482 1.0931642055511475 74.0 12 -0.010805019177496433
-0.8451957702636719 2.2726633548736572 -0.21213705837726593 1.0 5 -0.010802715085446835
-2.404310703277588 6.468451976776123 1.3413872718811035 100.0 13 -0.010800410993397236
-0.839510977268219 2.259791135787964 -0.12633900344371796 1.0 6 -0.010798106901347637
-2.401930570602417 6.4689621925354 1.5931034088134766 100.0 14 -0.010795802809298038
-0.8327880501747131 2.244093418121338 -0.04178106039762497 1.0 7 -0.01079349871724844
-2.389625072479248 6.442711353302002 1.8412387371063232 46.0 15 -0.010791194625198841
-1.1671056747436523 3.1584835052490234 -0.9022431969642639 6.0 0 -0.010770458728075027
-0.7800745964050293 2.112213134765625 0.03930281847715378 8.0 8 -0.010768154636025429
-1.3327528238296509 3.610642433166504 -0.888556718826294 3.0 1 -0.01076585054397583
-0.7659445405006409 2.0761826038360596 0.1159764900803566 6.0 9 -0.010763546451926231
-0.8093036413192749 2.1937127113342285 -0.45450708270072937 10.0 2 -0.010761243291199207
-0.7712975740432739 2.0918169021606445 0.1950545459985733 1.0 10 -0.010758939199149609
-0.8565634489059448 2.3243138790130615 -0.3923376798629761 1.0 3 -0.01075663510710001
-2.386939764022827 6.480527400970459 0.8479669690132141 84.0 11 -0.010754331015050411
-0.8304726481437683 2.2559423446655273 -0.29516759514808655 3.0 4 -0.010752026923000813
-2.3846020698547363 6.481154441833496 1.09378981590271 78.0 12 -0.010749722830951214
-0.8537693619728088 2.3204758167266846 -0.21632054448127747 1.0 5 -0.010747418738901615
-2.37629771232605 6.462063789367676 1.338334321975708 95.0 13 -0.010745114646852016
-0.8261061906814575 2.2477104663848877 -0.1255016326904297 1.0 6 -0.010742810554802418
-2.3800055980682373 6.479137420654297 1.5935533046722412 100.0 14 -0.010740507394075394
-0.8153015971183777 2.220705986022949 -0.04129239544272423 1.0 7 -0.010738203302025795
-2.3644607067108154 6.443758487701416 1.8391681909561157 46.0 15 -0.010735899209976196
-1.1129603385925293 3.0446012020111084 -0.8685967326164246 19.0 0 -0.010715162381529808
-0.776128351688385 2.124314069747925 0.03947734460234642 9.0 8 -0.010712859220802784
-1.1095876693725586 3.0386593341827393 -0.7468375563621521 27.0 1 -0.010710555128753185
-0.7525294423103333 2.061957836151123 0.11503444612026215 10.0 9 -0.010708251036703587
-0.8036599159240723 2.202057123184204 -0.4556518793106079 9.0 2 -0.010705946944653988
-0.7585296630859375 2.0795223712921143 0.19366006553173065 1.0 10 -0.01070364285260439
-0.8443846702575684 2.3161544799804688 -0.39046046137809753 2.0 3 -0.01070133876055479
-2.357506275177002 6.470169544219971 0.8455295562744141 82.0 11 -0.010699034668505192
-0.8144421577453613 2.2364442348480225 -0.29224270582199097 3.0 4 -0.010696730576455593
-2.362637996673584 6.491296291351318 1.0941027402877808 76.0 12 -0.010694427415728569
-0.8633809089660645 2.3721203804016113 -0.22085265815258026 1.0 5 -0.01069212332367897
-2.3550667762756348 6.474009990692139 1.3390976190567017 95.0 13 -0.010689819231629372
-0.8114312291145325 2.2318098545074463 -0.12445490807294846 1.0 6 -0.010687515139579773
-2.350054979324341 6.467257976531982 1.58860445022583 100.0 14 -0.010685211047530174
-0.7829698324203491 2.155874013900757 -0.04003582149744034 1.0 7 -0.010682906955480576
-2.34261417388916 6.4537882804870605 1.8396857976913452 46.0 15 -0.010680602863430977
-1.099445104598999 3.0371832847595215 -0.8654909133911133 36.0 0 -0.010693550109863281
-0.7674092650413513 2.121100902557373 0.039372626692056656 8.0 8 -0.010691246017813683
-1.1000350713729858 3.042130470275879 -0.7468375563621521 67.0 1 -0.010688941925764084
-0.7399387359619141 2.0474066734313965 0.1140923947095871 9.0 9 -0.010686637833714485
-0.7954038381576538 2.200878381729126 -0.4548886716365814 9.0 2 -0.010684333741664886
-0.7574071288108826 2.096886396408081 0.1950545459985733 1.0 10 -0.010682029649615288
-0.8558856844902039 2.3708198070526123 -0.3992207944393158 2.0 3 -0.010679726488888264
-2.3385169506073 6.481277942657471 0.846017062664032 86.0 11 -0.010677422396838665
-0.8114518523216248 2.2501962184906006 -0.29370513558387756 3.0 4 -0.010675118304789066
-2.3355369567871094 6.480103015899658 1.0909740924835205 76.0 12 -0.010672814212739468
-0.8289029002189636 2.2998464107513428 -0.21388019621372223 1.0 5 -0.010670510120689869
-2.3347177505493164 6.4813761711120605 1.3390976190567017 95.0 13 -0.01066820602864027
-0.8111806511878967 2.2531399726867676 -0.1255016326904297 1.0 6 -0.010665901936590672
-2.327087879180908 6.467274188995361 1.5868048667907715 100.0 14 -0.010663597844541073
-0.7761934995651245 2.158323049545288 -0.04003582149744034 1.0 7 -0.010661293752491474
-2.3223254680633545 6.461116313934326 1.8396857976913452 46.0 15 -0.010658989660441875
-1.0862324237823486 3.0337271690368652 -0.8634203672409058 19.0 0 -0.010638253763318062
-0.7620222568511963 2.1294150352478027 0.03947734460234642 5.0 8 -0.010635949671268463
-1.0887537002563477 3.044116497039795 -0.7463876008987427 56.0 1 -0.010633646510541439
-0.7408542037010193 2.0725457668304443 0.1153484508395195 5.0 9 -0.01063134241849184
-0.7824292182922363 2.188852071762085 -0.4518357217311859 9.0 2 -0.010629038326442242
-0.7500835061073303 2.099517345428467 0.1950545459985733 1.0 10 -0.010626734234392643
-0.8489338755607605 2.3775136470794678 -0.39984655380249023 2.0 3 -0.010624430142343044
-2.3158771991729736 6.489401817321777 0.846017062664032 84.0 11 -0.010622126050293446
-0.806260347366333 2.2604939937591553 -0.294680118560791 3.0 4 -0.010619821958243847
-2.311577320098877 6.484493732452393 1.0903483629226685 76.0 12 -0.010617517866194248
-0.7981240749359131 2.238917112350464 -0.20795360207557678 1.0 5 -0.01061521377414465
-2.312077522277832 6.4894866943359375 1.3390976190567017 92.0 13 -0.01061290968209505
-0.7885715961456299 2.2145638465881348 -0.12319885194301605 1.0 6 -0.010610606521368027
-2.3071136474609375 6.482700347900391 1.58860445022583 100.0 14 -0.010608302429318428
-0.7686542868614197 2.1610195636749268 -0.04003582149744034 1.0 7 -0.01060599833726883
-2.2971677780151367 6.4619035720825195 1.8376152515411377 46.0 15 -0.01060369424521923
-1.0730558633804321 3.0302164554595947 -0.8613498210906982 7.0 0 -0.010582958348095417
-0.7532496452331543 2.1282920837402344 0.03940753638744354 3.0 8 -0.010580654256045818
-1.0748710632324219 3.038712739944458 -0.7441381216049194 57.0 1 -0.01057835016399622
-0.7382756471633911 2.0883004665374756 0.11608116328716278 2.0 9 -0.010576046071946621
-0.7813282012939453 2.2100796699523926 -0.4556518793106079 9.0 2 -0.010573741979897022
-0.7427496314048767 2.1021230220794678 0.1950545459985733 1.0 10 -0.010571437887847424
-0.8439179062843323 2.3897759914398193 -0.40141090750694275 2.0 3 -0.010569133795797825
-2.290569305419922 6.489958763122559 0.8450421094894409 84.0 11 -0.010566829703748226
-0.7970434427261353 2.2595503330230713 -0.2941926121711731 3.0 4 -0.010564526543021202
-2.288926601409912 6.492523670196533 1.0903483629226685 76.0 12 -0.010562222450971603
-0.7982527613639832 2.264238119125366 -0.21004533767700195 1.0 5 -0.010559918358922005
-2.2868025302886963 6.490110874176025 1.337571144104004 92.0 13 -0.010557614266872406
-0.790123701095581 2.2436773777008057 -0.12466426193714142 1.0 6 -0.010555310174822807
-2.281881093978882 6.483362197875977 1.5868048667907715 100.0 14 -0.010553006082773209
-0.7849949598312378 2.2315993309020996 -0.04129239544272423 1.0 7 -0.01055070199072361
-2.270754337310791 6.458946704864502 1.8345094919204712 46.0 15 -0.010548397898674011
-1.0586415529251099 3.0230038166046143 -0.858244001865387 9.0 0 -0.010527662001550198
-0.7378892302513123 2.1082592010498047 0.03898867964744568 2.0 8 -0.010525357909500599
-1.061684250831604 3.035088300704956 -0.7423385381698608 61.0 1 -0.010523053817451
-0.7323002815246582 2.094635248184204 0.11629050970077515 2.0 9 -0.010520749725401402
-0.7710176110267639 2.205380439758301 -0.45412543416023254 9.0 2 -0.010518446564674377
-0.738036572933197 2.1122262477874756 0.19575178623199463 1.0 10 -0.010516142472624779
-0.8323150277137756 2.3833823204040527 -0.39984655380249023 1.0 3 -0.01051383838057518
-2.266594171524048 6.494164943695068 0.844554603099823 86.0 11 -0.010511534288525581
-0.7943823337554932 2.277313470840454 -0.2961425185203552 3.0 4 -0.010509230196475983
-2.262996196746826 6.491148471832275 1.0887839794158936 78.0 12 -0.010506926104426384
-0.7903435826301575 2.2670109272003174 -0.21004533767700195 1.0 5 -0.010504622012376785
-2.258967638015747 6.483222007751465 1.3345181941986084 97.0 13 -0.010502317920327187
-0.7704645395278931 2.212470769882202 -0.12278016656637192 1.0 6 -0.010500013828277588
-2.2598748207092285 6.493129253387451 1.5872547626495361 100.0 14 -0.01049770973622799
-0.7535497546195984 2.166332721710205 -0.04003582149744034 1.0 7 -0.01049540564417839
-2.2462897300720215 6.461360454559326 1.8329565525054932 46.0 15 -0.010493102483451366
-1.0518747568130493 3.0376338958740234 -0.8613498210906982 4.0 0 -0.010472365655004978
-0.7383740544319153 2.133498430252075 0.03940753638744354 3.0 8 -0.010470062494277954
-1.0447124242782593 3.0203592777252197 -0.7378395199775696 63.0 1 -0.010467758402228355
-0.7288990020751953 2.1085047721862793 0.11691854149103165 2.0 9 -0.010465454310178757
-0.7697285413742065 2.2266135215759277 -0.45794162154197693 7.0 2 -0.010463150218129158
-0.7293582558631897 2.111023187637329 0.19540317356586456 2.0 10 -0.01046084612607956
-0.8046472668647766 2.3302576541900635 -0.39046046137809753 1.0 3 -0.01045854203402996
-2.241319417953491 6.494532108306885 0.8435796499252319 84.0 11 -0.010456237941980362
-0.7799548506736755 2.2613065242767334 -0.29370513558387756 2.0 4 -0.010453933849930763
-2.240325450897217 6.499007701873779 1.0887839794158936 78.0 12 -0.010451629757881165
-0.7820298075675964 2.2698922157287598 -0.21004533767700195 1.0 5 -0.010449325665831566
-2.2337634563446045 6.483644008636475 1.3329917192459106 97.0 13 -0.010447022505104542
-0.7666376829147339 2.2264773845672607 -0.12340819090604782 1.0 6 -0.010444718413054943
-2.2321243286132812 6.486236095428467 1.583655595779419 100.0 14 -0.010442414321005344
-0.7785015106201172 2.2634987831115723 -0.04178106039762497 1.0 7 -0.010440110228955746
-2.223095178604126 6.467334747314453 1.8324389457702637 46.0 15 -0.010437806136906147
