# .PCD v0.7 - Point Cloud Data file format
VERSION 0.7
FIELDS x y z intensity ring time
SIZE 4 4 4 4 4 4
TYPE F F F F F F
COUNT 1 1 1 1 1 1
WIDTH 549
HEIGHT 1
VIEWPOINT 0 0 0 1 0 0 0
POINTS 549
DATA ascii
-3.3588247299194336 3.7553231716156006 1.3500001430511475 73.0 15 -0.022179342806339264
-2.1319921016693115 2.390373468399048 -0.858244001865387 6.0 0 -0.022158605977892876
-3.3662002086639404 3.774158477783203 0.0882742702960968 36.0 8 -0.022156301885843277
-2.4030981063842773 2.6952834129333496 -0.8336686491966248 1.0 1 -0.022153999656438828
-3.455134868621826 3.876594305038452 0.272146999835968 24.0 9 -0.02215169556438923
-1.5868103504180908 1.7809960842132568 -0.4636658728122711 2.0 2 -0.02214939147233963
-3.4254825115203857 3.8460285663604736 0.4505951702594757 43.0 10 -0.02214708738029003
-1.6081196069717407 1.8055481910705566 -0.38295161724090576 1.0 3 -0.022144783288240433
-3.4215087890625 3.8429155349731445 0.6317707300186157 61.0 11 -0.022142479196190834
-3.4113056659698486 3.83415150642395 0.8128335475921631 53.0 12 -0.022137871012091637
-3.3975353240966797 3.820014476776123 0.993733286857605 49.0 13 -0.02213326282799244
-1.5964714288711548 1.7956223487854004 -0.12592032551765442 1.0 6 -0.02213095873594284
-3.38533353805542 3.808973550796509 1.1764940023422241 52.0 14 -0.022128654643893242
-2.694862127304077 3.0331614017486572 -0.0708218663930893 26.0 7 -0.022126350551843643
-3.361091136932373 3.7843568325042725 1.3562119007110596 69.0 15 -0.022124046459794044
-2.1407077312469482 2.4162280559539795 -0.8649733066558838 6.0 0 -0.022103311493992805
-3.3715660572052 3.806844472885132 0.08876294642686844 45.0 8 -0.022101007401943207
-2.303250789642334 2.601520299911499 -0.8021755218505859 1.0 1 -0.022098703309893608
-3.4065136909484863 3.8476550579071045 0.26932087540626526 14.0 9 -0.02209639921784401
-1.5991116762161255 1.8068307638168335 -0.46900853514671326 1.0 2 -0.02209409512579441
-3.433832883834839 3.881242513656616 0.4533841609954834 42.0 10 -0.022091791033744812
-1.6279809474945068 1.8407443761825562 -0.38920900225639343 1.0 3 -0.022089486941695213
-3.4172778129577637 3.865246295928955 0.6334769129753113 63.0 11 -0.022087182849645615
-3.4142701625823975 3.8632044792175293 0.8165879845619202 57.0 12 -0.022082574665546417
-3.3880791664123535 3.8362655639648438 0.9948781728744507 45.0 13 -0.02207796648144722
-1.5809407234191895 1.790703535079956 -0.12518762052059174 3.0 6 -0.02207566238939762
-3.395228624343872 3.847066640853882 1.184592366218567 57.0 14 -0.022073358297348022
-2.684788942337036 3.042081356048584 -0.0708218663930893 11.0 7 -0.022071054205298424
-3.368972063064575 3.8186607360839844 1.3644940853118896 69.0 15 -0.022068750113248825
-2.125880241394043 2.416433572769165 -0.862385094165802 6.0 0 -0.022048015147447586
-3.3879830837249756 3.8510336875915527 0.0895308405160904 70.0 8 -0.022045711055397987
-2.2946112155914307 2.6091439723968506 -0.8021755218505859 1.0 1 -0.02204340696334839
-3.389105796813965 3.855022430419922 0.2690068483352661 51.0 9 -0.02204110287129879
-1.6135303974151611 1.8359971046447754 -0.4751144051551819 1.0 2 -0.02203879877924919
-3.437359094619751 3.9126627445220947 0.4556502103805542 37.0 10 -0.022036494687199593
-1.6218677759170532 1.8461328744888306 -0.38920900225639343 1.0 3 -0.022034190595149994
-3.4162302017211914 3.8899807929992676 0.63567054271698 61.0 11 -0.022031886503100395
-3.41379451751709 3.8899452686309814 0.8197166919708252 55.0 12 -0.022027278319001198
-3.3973491191864014 3.8725688457489014 1.0013656616210938 46.0 13 -0.022022670134902
-1.6447886228561401 1.8755221366882324 -0.13073523342609406 1.0 6 -0.0220203660428524
-3.394014596939087 3.871493101119995 1.1886414289474487 60.0 14 -0.022018061950802803
-3.3708977699279785 3.847834587097168 1.3707057237625122 66.0 15 -0.022013455629348755
-2.1331098079681396 2.4409260749816895 -0.8685967326164246 6.0 0 -0.021992718800902367
-3.3666255474090576 3.8538002967834473 0.08932141214609146 32.0 8 -0.021990414708852768
-2.3777806758880615 2.7228214740753174 -0.8345685005187988 3.0 1 -0.02198811061680317
-3.3651206493377686 3.854792356491089 0.26816946268081665 21.0 9 -0.02198580652475357
-3.4400856494903564 3.942054271697998 0.45774194598197937 40.0 10 -0.021981198340654373
-3.4195914268493652 3.9213318824768066 0.6388391256332397 55.0 11 -0.021976590156555176
-1.6892350912094116 1.9377708435058594 -0.3156416416168213 1.0 4 -0.021974286064505577
-3.413172960281372 3.9167306423187256 0.8228453993797302 53.0 12 -0.02197198197245598
-3.4018633365631104 3.9051296710968018 1.0067082643508911 50.0 13 -0.02196737565100193
-1.638231873512268 1.8812520503997803 -0.13073523342609406 1.0 6 -0.02196507155895233
-3.3907155990600586 3.8950753211975098 1.192240595817566 56.0 14 -0.021962767466902733
-1.5883769989013672 1.8252876996994019 -0.04223482310771942 1.0 7 -0.021960463374853134
-3.375196933746338 3.87998366355896 1.3779526948928833 71.0 15 -0.021958159282803535
-2.1089584827423096 2.43121600151062 -0.862385094165802 6.0 0 -0.021937422454357147
-3.357084035873413 3.870060443878174 0.08942613005638123 7.0 8 -0.02193511836230755
-2.3759217262268066 2.739938497543335 -0.8372678756713867 3.0 1 -0.02193281427025795
-3.352952718734741 3.8680248260498047 0.2682741582393646 29.0 9 -0.02193051017820835
-3.441267728805542 3.972707509994507 0.45983368158340454 38.0 10 -0.021925901994109154
-3.4266738891601562 3.9572551250457764 0.642738938331604 58.0 11 -0.021921295672655106
-3.420161485671997 3.952521324157715 0.8278512954711914 57.0 12 -0.021916687488555908
-3.408074140548706 3.9413321018218994 1.0128141641616821 50.0 13 -0.02191207930445671
-3.396801710128784 3.931070327758789 1.1994390487670898 60.0 14 -0.021907471120357513
-1.554539680480957 1.799046516418457 -0.04150182008743286 2.0 7 -0.021905167028307915
-3.3692100048065186 3.9005126953125 1.3810585737228394 70.0 15 -0.021902862936258316
-2.0941550731658936 2.431244373321533 -0.859796941280365 6.0 0 -0.021882126107811928
-2.3760337829589844 2.760443925857544 -0.8408671021461487 3.0 1 -0.02187751792371273
-3.439058780670166 3.9968631267547607 0.27633386850357056 5.0 9 -0.02187521383166313
-3.4429707527160645 4.002821922302246 0.4619254171848297 40.0 10 -0.021870607510209084
-3.432849884033203 3.9938747882843018 0.646638810634613 56.0 11 -0.021865999326109886
-1.8046941757202148 2.1003735065460205 -0.3400155007839203 1.0 4 -0.021863695234060287
-3.4210970401763916 3.9830124378204346 0.8316057324409485 55.0 12 -0.02186139114201069
-3.405806064605713 3.9666106700897217 1.0162487030029297 53.0 13 -0.02185678295791149
-3.3995563983917236 3.9621288776397705 1.2052878141403198 50.0 14 -0.021852174773812294
-1.6247466802597046 1.8942853212356567 -0.04356120526790619 1.0 7 -0.021849870681762695
-3.3674659729003906 3.9275012016296387 1.3862348794937134 72.0 15 -0.021847566589713097
-2.0931899547576904 2.447347640991211 -0.8629027009010315 6.0 0 -0.021826831623911858
-2.3625855445861816 2.7642765045166016 -0.83951735496521 3.0 1 -0.02182222343981266
-3.4471426010131836 4.034657001495361 0.27811330556869507 6.0 9 -0.02181991934776306
-3.449679136276245 4.039056777954102 0.4647144079208374 38.0 10 -0.021815311163663864
-1.5956077575683594 1.8688760995864868 -0.38920900225639343 1.0 3 -0.021813007071614265
-3.4343531131744385 4.023952007293701 0.6495636701583862 56.0 11 -0.021810702979564667
-1.7973510026931763 2.106660842895508 -0.3400155007839203 1.0 4 -0.021808398887515068
-3.427683115005493 4.01897668838501 0.8366115689277649 52.0 12 -0.02180609479546547
-3.4008560180664062 3.988931894302368 1.0189200639724731 50.0 13 -0.021801486611366272
-1.747662901878357 2.050595283508301 -0.1412024199962616 1.0 6 -0.021799182519316673
-3.4046630859375 3.9962217807769775 1.212036371231079 45.0 14 -0.021796878427267075
-3.371267318725586 3.9598262310028076 1.3934818506240845 73.0 15 -0.021792270243167877
-2.092137098312378 2.463474988937378 -0.8660085797309875 6.0 0 -0.021771535277366638
-1.546546220779419 1.8216902017593384 0.04171125218272209 2.0 8 -0.02176923118531704
-2.354182481765747 2.7739932537078857 -0.8399673104286194 3.0 1 -0.02176692709326744
-3.4420814514160156 4.0573272705078125 0.27884599566459656 5.0 9 -0.021764623001217842
-2.3432867527008057 2.762131452560425 -0.7040852308273315 1.0 2 -0.021762318909168243
-3.452312707901001 4.070827484130859 0.4669804573059082 36.0 10 -0.021760014817118645
-1.6325052976608276 1.925665259361267 -0.39984655380249023 1.0 3 -0.021757710725069046
-3.4305520057678223 4.048031806945801 0.6515135765075684 58.0 11 -0.021755406633019447
-1.8118001222610474 2.1386704444885254 -0.3441590666770935 1.0 4 -0.02175310254096985
-3.432781457901001 4.053529739379883 0.8413046598434448 50.0 12 -0.02175079844892025
-3.4148175716400146 4.033744812011719 1.0273157358169556 49.0 13 -0.021746190264821053
-1.7404946088790894 2.056682825088501 -0.1412024199962616 1.0 6 -0.021743886172771454
-3.4020190238952637 4.021471977233887 1.216085433959961 47.0 14 -0.021741582080721855
-3.38236927986145 4.001075744628906 1.403834581375122 70.0 15 -0.021736973896622658
-2.0909979343414307 2.479623556137085 -0.8691143989562988 6.0 0 -0.02171623893082142
-1.5569335222244263 1.8469535112380981 0.042165014892816544 1.0 8 -0.02171393483877182
-2.352020263671875 2.7911345958709717 -0.842666745185852 3.0 1 -0.02171163074672222
-3.427898645401001 4.069316864013672 0.27884599566459656 3.0 9 -0.021709326654672623
-3.4560492038726807 4.104188442230225 0.46942082047462463 32.0 10 -0.021704718470573425
-1.6308622360229492 1.93739652633667 -0.40109801292419434 1.0 3 -0.021702414378523827
-3.4419641494750977 4.090358734130859 0.6563883423805237 56.0 11 -0.021700110286474228
-1.8758840560913086 2.2300515174865723 -0.3578084111213684 1.0 4 -0.02169780619442463
-3.4325945377349854 4.082119464874268 0.8447461724281311 51.0 12 -0.02169550210237503
-3.417140007019043 4.065176486968994 1.0322767496109009 42.0 13 -0.021690893918275833
-1.792409896850586 2.1330835819244385 -0.14601734280586243 1.0 6 -0.021688591688871384
-3.399240493774414 4.046753883361816 1.2201346158981323 45.0 14 -0.021686287596821785
-3.393223524093628 4.042450428009033 1.4141873121261597 69.0 15 -0.021681679412722588
-2.0736474990844727 2.4765396118164062 -0.8654909133911133 6.0 0 -0.0216609425842762
-2.3447632789611816 2.8023173809051514 -0.8435665369033813 4.0 1 -0.021656334400177002
-3.41239070892334 4.079726696014404 0.27874132990837097 1.0 9 -0.021654030308127403
-3.4595930576324463 4.137627601623535 0.4718611538410187 32.0 10 -0.021649422124028206
-1.6088870763778687 1.924890160560608 -0.39734360575675964 1.0 3 -0.021647118031978607
-3.448028564453125 4.126722812652588 0.6602881550788879 54.0 11 -0.02164481393992901
-1.8579071760177612 2.224397897720337 -0.3558585047721863 1.0 4 -0.02164250984787941
-3.433518171310425 4.112271785736084 0.848500669002533 52.0 12 -0.02164020761847496
-3.423056125640869 4.101196765899658 1.038382649421692 45.0 13 -0.021635599434375763
-1.8079842329025269 2.1669321060180664 -0.14790143072605133 2.0 6 -0.021633295342326164
-3.403817892074585 4.0810418128967285 1.2268831729888916 50.0 14 -0.021630991250276566
-3.3914594650268555 4.069111347198486 1.4193637371063232 67.0 15 -0.021626383066177368
-2.064990520477295 2.483762264251709 -0.8654909133911133 6.0 0 -0.02160564623773098
-2.339948892593384 2.8164801597595215 -0.8453661203384399 3.0 1 -0.021601038053631783
-3.364952325820923 4.051664352416992 0.2760198414325714 1.0 9 -0.021598733961582184
-3.461674690246582 4.169605731964111 0.4741272032260895 40.0 10 -0.021594125777482986
-3.458953380584717 4.169288158416748 0.6651629209518433 56.0 11 -0.02158951945602894
-3.4393153190612793 4.148563385009766 0.8535065650939941 52.0 12 -0.02158491127192974
-3.419995069503784 4.1267242431640625 1.04181706905365 46.0 13 -0.021580303087830544
-1.7965871095657349 2.1686155796051025 -0.14758741855621338 4.0 6 -0.021577998995780945
-3.4119255542755127 4.119913578033447 1.2349814176559448 50.0 14 -0.021575694903731346
-1.718958854675293 2.0763871669769287 -0.04705168679356575 1.0 7 -0.021573390811681747
-3.3846240043640137 4.089856147766113 1.4224694967269897 64.0 15 -0.02157108671963215
-2.0493617057800293 2.4816596508026123 -0.862385094165802 6.0 0 -0.02152562141418457
-2.31199049949646 2.8016791343688965 -0.8386175632476807 4.0 1 -0.021521013230085373
-3.2327115535736084 3.917412757873535 0.26618072390556335 0.0 9 -0.021518709138035774
-3.4833223819732666 4.22410249710083 0.4790079593658447 50.0 10 -0.021514100953936577
-3.464043617248535 4.203716278076172 0.668819010257721 63.0 11 -0.02150949276983738
-1.8111706972122192 2.1986870765686035 -0.34976503252983093 5.0 4 -0.02150718867778778
-3.455153226852417 4.1944146156311035 0.8607025146484375 52.0 12 -0.021504884585738182
-2.2252588272094727 2.7023367881774902 -0.306265264749527 1.0 5 -0.021502580493688583
-3.4237587451934814 4.15926456451416 1.0471597909927368 46.0 13 -0.021500278264284134
-1.838880181312561 2.234708547592163 -0.15166962146759033 1.0 6 -0.021497974172234535
-3.4230031967163086 4.161305904388428 1.2439794540405273 50.0 14 -0.021495670080184937
-1.7873772382736206 2.17289400100708 -0.04911107197403908 3.0 7 -0.021493365988135338
-3.3901641368865967 4.1228508949279785 1.4302341938018799 64.0 15 -0.02149106189608574
-2.05293607711792 2.5037364959716797 -0.8675615191459656 6.0 0 -0.02147032506763935
-2.318747043609619 2.828923225402832 -0.8444663286209106 4.0 1 -0.021465716883540154
-3.1962332725524902 3.900864362716675 0.26429659128189087 0.0 9 -0.021463412791490555
-3.4773905277252197 4.247027397155762 0.48022812604904175 42.0 10 -0.021458804607391357
-3.457629442214966 4.224396705627441 0.6702814698219299 65.0 11 -0.02145419828593731
-1.791298508644104 2.1893181800842285 -0.34732764959335327 3.0 4 -0.02145189419388771
-3.457998752593994 4.22785758972168 0.8650826811790466 53.0 12 -0.021449590101838112
-2.2536466121673584 2.7563607692718506 -0.3114946186542511 1.0 5 -0.021447286009788513
-3.436044454574585 4.202512264251709 1.0551737546920776 57.0 13 -0.021444981917738914
-2.2106425762176514 2.7047271728515625 -0.18307119607925415 1.0 6 -0.021442677825689316
-3.427680492401123 4.19527006149292 1.2507280111312866 55.0 14 -0.021440373733639717
-1.7835766077041626 2.1837658882141113 -0.049215786159038544 3.0 7 -0.02143806964159012
-3.4014103412628174 4.166083812713623 1.441104531288147 68.0 15 -0.02143576554954052
-2.04950213432312 2.516521692276001 -0.8696320056915283 6.0 0 -0.02141502872109413
-2.3076272010803223 2.83548903465271 -0.8440163731575012 4.0 1 -0.021410420536994934
-3.1901605129241943 3.921292543411255 0.26492464542388916 0.0 9 -0.021408118307590485
-3.4353513717651367 4.227196216583252 0.668819010257721 49.0 11 -0.02139890193939209
-2.192945718765259 2.6993796825408936 -0.42703020572662354 53.0 4 -0.02139659784734249
-3.4257845878601074 4.218435764312744 0.8607025146484375 43.0 12 -0.021394293755292892
-2.2595653533935547 2.782379150390625 -0.31358635425567627 1.0 5 -0.021391989663243294
-3.4250667095184326 4.219052314758301 1.0563186407089233 49.0 13 -0.021389685571193695
-2.2011873722076416 2.712427854537964 -0.18307119607925415 1.0 6 -0.021387381479144096
-3.4154696464538574 4.2102370262146 1.2516276836395264 46.0 14 -0.021385077387094498
-1.7583099603652954 2.1682333946228027 -0.048727117478847504 5.0 7 -0.0213827732950449
-3.4050936698913574 4.200442314147949 1.448868989944458 64.0 15 -0.0213804692029953
-2.035845994949341 2.5176525115966797 -0.8675615191459656 6.0 0 -0.02135973423719406
-2.3050649166107178 2.852620840072632 -0.8467158079147339 3.0 1 -0.021355126053094864
-3.1588821411132812 3.910653829574585 0.2634592354297638 0.0 9 -0.021352821961045265
-3.434285879135132 4.2561564445495605 0.6715001463890076 40.0 11 -0.02134360559284687
-2.1897406578063965 2.7147440910339355 -0.42824891209602356 65.0 4 -0.02134130150079727
-3.423438787460327 4.245744705200195 0.8638312220573425 42.0 12 -0.021338997408747673
-2.1998157501220703 2.7282090187072754 -0.30661389231681824 1.0 5 -0.021336693316698074
-3.415245771408081 4.237097263336182 1.057845115661621 38.0 13 -0.021334389224648476
-3.4031982421875 4.225168228149414 1.2525275945663452 42.0 14 -0.021329781040549278
-2.1921751499176025 2.722620725631714 -0.061013612896203995 1.0 7 -0.02132747694849968
-3.378298759460449 4.197253227233887 1.443692684173584 61.0 15 -0.02132517285645008
-2.0222079753875732 2.5187172889709473 -0.8654909133911133 6.0 0 -0.021304437890648842
-1.7097630500793457 2.130319595336914 0.047679975628852844 1.0 8 -0.021302133798599243
-2.2987523078918457 2.8652093410491943 -0.8480655550956726 3.0 1 -0.021299829706549644
-3.155209541320801 3.9341201782226562 0.26429659128189087 0.0 9 -0.021297525614500046
-2.2662370204925537 2.8256916999816895 -0.7040852308273315 1.0 2 -0.021295221522450447
-3.443444013595581 4.295045375823975 0.4816226363182068 1.0 10 -0.02129291743040085
-3.066162109375 3.8258249759674072 -0.7765407562255859 1.0 3 -0.02129061333835125
-3.439267873764038 4.292905807495117 0.6753999590873718 42.0 11 -0.02128830924630165
-2.181492567062378 2.7239203453063965 -0.4284926652908325 61.0 4 -0.021286005154252052
-3.427116632461548 4.280799388885498 0.8685241937637329 38.0 12 -0.021283701062202454
-2.2400870323181152 2.7980849742889404 -0.31358635425567627 1.0 5 -0.021281396970152855
-3.4139280319213867 4.26585578918457 1.0620429515838623 35.0 13 -0.021279092878103256
-3.3981664180755615 4.2491960525512695 1.2561267614364624 36.0 14 -0.02127448469400406
-2.182657241821289 2.7302567958831787 -0.061013612896203995 1.0 7 -0.02127218060195446
-3.3756864070892334 4.224112510681152 1.448868989944458 57.0 15 -0.02126987650990486
-2.027853488922119 2.543889045715332 -0.8717026114463806 6.0 0 -0.021249141544103622
-1.7397019863128662 2.183192253112793 0.048727117478847504 2.0 8 -0.021246837452054024
-2.279022693634033 2.861022472381592 -0.8444663286209106 3.0 1 -0.021244533360004425
-3.1265268325805664 3.926361560821533 0.26304054260253906 0.0 9 -0.021242229267954826
-2.2563588619232178 2.833585739135742 -0.7040852308273315 1.0 2 -0.021239925175905228
-3.4507644176483154 4.335098743438721 0.48476022481918335 2.0 10 -0.02123762108385563
-3.06754732131958 3.8550541400909424 -0.7802952527999878 6.0 3 -0.02123531699180603
-3.4366180896759033 4.32042121887207 0.6778373718261719 40.0 11 -0.02123301289975643
-2.181853771209717 2.7439491748809814 -0.43044254183769226 58.0 4 -0.021230708807706833
-3.4293601512908936 4.31438684463501 0.8729044198989868 37.0 12 -0.021228404715657234
-2.2055106163024902 2.7746942043304443 -0.31010010838508606 1.0 5 -0.021226100623607635
-3.412451982498169 4.294653415679932 1.0662407875061035 34.0 13 -0.021223796531558037
-3.403912305831909 4.286977767944336 1.263775110244751 32.0 14 -0.02121919021010399
-2.173114061355591 2.737858533859253 -0.061013612896203995 1.0 7 -0.02121688611805439
-3.3765313625335693 4.255542755126953 1.4555983543395996 51.0 15 -0.02121458202600479
-2.011768341064453 2.5418624877929688 -0.8685967326164246 6.0 0 -0.021193845197558403
-2.952958106994629 3.732390880584717 0.0830734521150589 1.0 8 -0.021191541105508804
-2.277484655380249 2.8796589374542236 -0.8476155996322632 3.0 1 -0.021189237013459206
-3.120234966278076 3.9466512203216553 0.26366856694221497 0.0 9 -0.021186932921409607
-2.239149332046509 2.8322038650512695 -0.7017955183982849 1.0 2 -0.021184628829360008
-3.4640257358551025 4.3830695152282715 0.48876941204071045 7.0 10 -0.02118232473731041
-3.0540709495544434 3.865739345550537 -0.7802952527999878 8.0 3 -0.02118002064526081
-3.43135929107666 4.344852924346924 0.6797872185707092 35.0 11 -0.021177716553211212
-2.1722629070281982 2.7515480518341064 -0.43044254183769226 55.0 4 -0.021175414323806763
-3.435081958770752 4.3526930809021 0.878223180770874 34.0 12 -0.021173110231757164
-2.180518388748169 2.7639880180358887 -0.3080084025859833 1.0 5 -0.021170806139707565
-3.4168968200683594 4.331200122833252 1.0723466873168945 28.0 13 -0.021168502047657967
-3.4046101570129395 4.318729400634766 1.2696237564086914 35.0 14 -0.02116389386355877
-2.1635446548461914 2.745427131652832 -0.061013612896203995 1.0 7 -0.02116158977150917
-3.389153003692627 4.302206039428711 1.4675040245056152 49.0 15 -0.021159285679459572
-2.0084056854248047 2.556814432144165 -0.8711849451065063 5.0 0 -0.021138548851013184
-2.9596762657165527 3.767836332321167 0.08363193273544312 1.0 8 -0.021136244758963585
-2.266214609146118 2.886059522628784 -0.8471657633781433 3.0 1 -0.021133940666913986
-3.094106674194336 3.9418091773986816 0.26262184977531433 0.0 9 -0.021131636574864388
-2.2190589904785156 2.8280348777770996 -0.6987425684928894 2.0 2 -0.02112933248281479
-3.466381311416626 4.419252395629883 0.4913840889930725 10.0 10 -0.02112703025341034
-3.044757843017578 3.8831238746643066 -0.7815467119216919 9.0 3 -0.02112472616136074
-3.438218832015991 4.384923458099365 0.6841745376586914 33.0 11 -0.021122422069311142
-2.16754412651062 2.7653629779815674 -0.4314175248146057 51.0 4 -0.021120117977261543
-3.436924457550049 4.386425495147705 0.8826033473014832 33.0 12 -0.021117813885211945
-2.195427179336548 2.8029534816741943 -0.3114946186542511 1.0 5 -0.021115509793162346
-3.420362949371338 4.3684282302856445 1.0784525871276855 30.0 13 -0.021113205701112747
-3.4019687175750732 4.348060607910156 1.274572730064392 33.0 14 -0.02110859751701355
-2.153947353363037 2.752963066101074 -0.061013612896203995 1.0 7 -0.02110629342496395
-3.3919663429260254 4.336836338043213 1.4752686023712158 45.0 15 -0.021103989332914352
-2.0006558895111084 2.565333366394043 -0.8717026114463806 6.0 0 -0.021083252504467964
-2.950763702392578 3.7849676609039307 0.08377154916524887 1.0 8 -0.021080950275063515
-2.2508304119110107 2.888197183609009 -0.8453661203384399 4.0 1 -0.021078646183013916
-3.0999724864959717 3.9777908325195312 0.26429659128189087 0.0 9 -0.021076342090964317
-2.2501955032348633 2.8884220123291016 -0.7117176055908203 1.0 2 -0.02107403799891472
-3.46317720413208 4.447044372558594 0.4931271970272064 16.0 10 -0.02107173390686512
-3.0311856269836426 3.893728017807007 -0.7815467119216919 9.0 3 -0.02106942981481552
-3.448946475982666 4.4319610595703125 0.6895368099212646 30.0 11 -0.021067125722765923
-2.16226863861084 2.7795565128326416 -0.4323924481868744 48.0 4 -0.021064821630716324
-3.4337222576141357 4.413986682891846 0.8857320547103882 35.0 12 -0.021062517538666725
-2.1905226707458496 2.8168907165527344 -0.3121918737888336 1.0 5 -0.021060213446617126
-3.4291927814483643 4.411340713500977 1.0860848426818848 30.0 13 -0.021057909354567528
-3.4106805324554443 4.390687942504883 1.2835707664489746 33.0 14 -0.02105330117046833
-3.387471914291382 4.362381935119629 1.47992742061615 43.0 15 -0.021048692986369133
-1.9928709268569946 2.573829412460327 -0.8722202181816101 6.0 0 -0.021027958020567894
-2.2603256702423096 2.920301914215088 -0.8525645732879639 4.0 1 -0.021023349836468697
-3.076292037963867 3.975949764251709 0.2634592354297638 0.0 9 -0.021021045744419098
-3.4634766578674316 4.47959566116333 0.4953932464122772 21.0 10 -0.0210164375603199
-3.0061750411987305 3.8881306648254395 -0.7784180045127869 9.0 3 -0.021014133468270302
-3.4548680782318115 4.470073699951172 0.6936804056167603 30.0 11 -0.021011829376220703
-2.159107208251953 2.7945668697357178 -0.4336111545562744 35.0 4 -0.021009525284171104
-3.446063995361328 4.461904525756836 0.8929280042648315 35.0 12 -0.021007221192121506
-2.1758053302764893 2.8182120323181152 -0.3114946186542511 1.0 5 -0.021004917100071907
-3.427741527557373 4.439782619476318 1.090282678604126 28.0 13 -0.02100261300802231
-3.423478841781616 4.43746280670166 1.2939186096191406 30.0 14 -0.02099800482392311
-2.1346755027770996 2.7679333686828613 -0.061013612896203995 1.0 7 -0.020995700731873512
-3.38873553276062 4.395600318908691 1.4871742725372314 45.0 15 -0.020993396639823914
-1.973726749420166 2.566640853881836 -0.8675615191459656 6.0 0 -0.020972661674022675
-2.9614932537078857 3.852527141571045 0.08481869101524353 1.0 8 -0.020970357581973076
-2.2406182289123535 2.9158129692077637 -0.8489653468132019 3.0 1 -0.020968053489923477
-3.059960126876831 3.9834964275360107 0.26324987411499023 0.0 9 -0.02096574939787388
-3.4704434871673584 4.519501686096191 0.4985308349132538 20.0 10 -0.02096114121377468
-2.987772226333618 3.8923332691192627 -0.7771665453910828 9.0 3 -0.020958837121725082
-3.4561607837677 4.50415563583374 0.6970927119255066 30.0 11 -0.020956533029675484
-2.1553804874420166 2.8099613189697266 -0.43482983112335205 28.0 4 -0.020954228937625885
-3.4509024620056152 4.50055456161499 0.8982467651367188 35.0 12 -0.020951924845576286
-2.202317237854004 2.8732285499572754 -0.31672394275665283 1.0 5 -0.020949620753526688
-3.4277501106262207 4.471976280212402 1.0952436923980713 28.0 13 -0.02094731666147709
-3.421004056930542 4.466403007507324 1.2988674640655518 28.0 14 -0.02094271034002304
-3.39450740814209 4.4350152015686035 1.4964916706085205 43.0 15 -0.020938102155923843
-1.9783709049224854 2.5922858715057373 -0.8737731575965881 6.0 0 -0.020917365327477455
-2.931043863296509 3.840585708618164 0.08433002978563309 1.0 8 -0.020915061235427856
-2.225698947906494 2.9174187183380127 -0.8471657633781433 3.0 1 -0.020912757143378258
-3.0411906242370605 3.9878017902374268 0.2628312110900879 0.0 9 -0.02091045305132866
-3.480424404144287 4.56705379486084 0.5023657083511353 20.0 10 -0.02090584486722946
-2.977076292037964 3.907972574234009 -0.7781051397323608 8.0 3 -0.020903540775179863
-3.4608659744262695 4.543037414550781 0.7012362480163574 35.0 11 -0.020901236683130264
-2.152775526046753 2.8269431591033936 -0.43629229068756104 17.0 4 -0.020898932591080666
-3.4591004848480225 4.544009208679199 0.9045041799545288 34.0 12 -0.020896628499031067
-2.211578130722046 2.9062676429748535 -0.3195129334926605 1.0 5 -0.020894326269626617
-3.438675880432129 4.520447254180908 1.1040209531784058 28.0 13 -0.02089202217757702
-3.423478364944458 4.503734588623047 1.3060659170150757 32.0 14 -0.02088741399347782
-2.115299701690674 2.782768726348877 -0.061013612896203995 1.0 7 -0.020885109901428223
-3.4117331504821777 4.48990535736084 1.5109856128692627 45.0 15 -0.020882805809378624
-1.9751427173614502 2.60687518119812 -0.8763613104820251 6.0 0 -0.020862068980932236
-2.9241907596588135 3.860867738723755 0.08453945815563202 1.0 8 -0.020859764888882637
-2.2173430919647217 2.928664445877075 -0.8480655550956726 3.0 1 -0.02085746079683304
-3.0145020484924316 3.9829955101013184 0.26178449392318726 0.0 9 -0.02085515670478344
-3.487299680709839 4.609364032745361 0.5056775808334351 22.0 10 -0.020850548520684242
-2.9634175300598145 3.918339967727661 -0.7781051397323608 5.0 3 -0.020848246291279793
-3.4669387340545654 4.585777282714844 0.7058672904968262 37.0 11 -0.020845942199230194
-2.1423990726470947 2.83481502532959 -0.43629229068756104 10.0 4 -0.020843638107180595
-3.4614756107330322 4.581874847412109 0.90951007604599 32.0 12 -0.020841334015130997
-2.1822047233581543 2.888533592224121 -0.31672394275665283 1.0 5 -0.020839029923081398
-3.444171190261841 4.560624599456787 1.1108900308609009 27.0 13 -0.0208367258310318
-3.4265193939208984 4.5405449867248535 1.3132643699645996 33.0 14 -0.020832117646932602
-2.1050865650177 2.7905025482177734 -0.061013612896203995 1.0 7 -0.020829813554883003
-3.4080474376678467 4.519347190856934 1.5166796445846558 40.0 15 -0.020827509462833405
-1.956741452217102 2.601402521133423 -0.8722202181816101 6.0 0 -0.020806772634387016
-2.098297595977783 2.7906088829040527 0.06094380095601082 1.0 8 -0.020804468542337418
-2.2106199264526367 2.9410595893859863 -0.8494152426719666 4.0 1 -0.020802166312932968
-2.9693856239318848 3.951978921890259 0.2590630054473877 0.0 9 -0.02079986222088337
-3.4903342723846436 4.646996974945068 0.5084666013717651 26.0 10 -0.020795254036784172
-2.950908899307251 3.930239677429199 -0.7784180045127869 6.0 3 -0.020792949944734573
-3.4735496044158936 4.628017902374268 0.7104983329772949 35.0 11 -0.020790645852684975
-2.151552677154541 2.8676815032958984 -0.4401921033859253 1.0 4 -0.020788341760635376
-3.4679808616638184 4.623954772949219 0.9154545664787292 37.0 12 -0.020786037668585777
-2.9467520713806152 3.928986072540283 -0.429677814245224 1.0 5 -0.02078373357653618
-3.449427604675293 4.600894451141357 1.117759108543396 27.0 13 -0.02078142948448658
-3.4316816329956055 4.580550193786621 1.3213624954223633 33.0 14 -0.020776821300387383
-2.1552677154541016 2.877863883972168 -0.06275885552167892 1.0 7 -0.020774517208337784
-3.408461093902588 4.552866458892822 1.5239266157150269 41.0 15 -0.020772213116288185
-1.9476481676101685 2.608217716217041 -0.8722202181816101 6.0 0 -0.020751478150486946
-2.9234817028045654 3.91644287109375 0.08530735969543457 1.0 8 -0.020749174058437347
-2.2119953632354736 2.9643759727478027 -0.8539142608642578 4.0 1 -0.02074686996638775
-2.996175527572632 4.016751289367676 0.26262184977531433 1.0 9 -0.02074456587433815
-3.487191915512085 4.676723480224609 0.5103840231895447 23.0 10 -0.020739957690238953
-2.9383511543273926 3.9421005249023438 -0.7787308692932129 8.0 3 -0.020737653598189354
-3.4739792346954346 4.662398815155029 0.713910698890686 35.0 11 -0.020735349506139755
-2.9288902282714844 3.9322714805603027 -0.6020345687866211 12.0 4 -0.020733045414090157
-3.462435483932495 4.650292873382568 0.9182704091072083 39.0 12 -0.020730741322040558
-2.933018445968628 3.93924880027771 -0.429677814245224 1.0 5 -0.02072843722999096
-3.4485859870910645 4.633379936218262 1.1227202415466309 30.0 13 -0.02072613313794136
-3.4389302730560303 4.623775482177734 1.3303606510162354 32.0 14 -0.020721524953842163
-3.4109838008880615 4.589545249938965 1.532208800315857 42.0 15 -0.020716916769742966
-1.941983938217163 2.6196556091308594 -0.8737731575965881 6.0 0 -0.020696181803941727
-2.9097936153411865 3.9266228675842285 0.08530735969543457 1.0 8 -0.020693877711892128
-2.1900336742401123 2.9564208984375 -0.8494152426719666 4.0 1 -0.02069157361984253
-2.9916458129882812 4.040025234222412 0.2634592354297638 0.0 9 -0.02068926952779293
-3.4921839237213135 4.717691421508789 0.5135216116905212 23.0 10 -0.020684661343693733
-2.91869854927063 3.9443931579589844 -0.7771665453910828 9.0 3 -0.020682357251644135
-3.4730308055877686 4.695243835449219 0.7170792818069458 32.0 11 -0.020680053159594536
-3.4696662425994873 4.694120407104492 0.9245278239250183 39.0 12 -0.02067544497549534
-2.9003026485443115 3.9238271713256836 -0.4268888235092163 1.0 5 -0.02067314088344574
-3.451059579849243 4.670653343200684 1.1288261413574219 31.0 13 -0.02067083679139614
-3.4505503177642822 4.673376083374023 1.3411582708358765 32.0 14 -0.020666228607296944
-2.135125160217285 2.8928394317626953 -0.06275885552167892 1.0 7 -0.020663924515247345
-3.421320915222168 4.637178897857666 1.5441144704818726 45.0 15 -0.020661622285842896
-1.9385522603988647 2.6341986656188965 -0.8763613104820251 6.0 0 -0.020640885457396507
-2.8794808387756348 3.9142048358917236 0.08481869101524353 1.0 8 -0.02063858136534691
-2.1773905754089355 2.9609079360961914 -0.8485153913497925 3.0 1 -0.02063627727329731
-2.9403669834136963 3.9984357357025146 0.26010972261428833 1.0 9 -0.02063397318124771
-2.459373712539673 3.3455841541290283 -0.8071220517158508 1.0 2 -0.020631669089198112
-3.5040109157562256 4.7683844566345215 0.5177050828933716 21.0 10 -0.020629364997148514
-2.9025723934173584 3.9513742923736572 -0.7765407562255859 8.0 3 -0.020627060905098915
-3.4824674129486084 4.74254035949707 0.722441554069519 32.0 11 -0.020624756813049316
-3.478626251220703 4.73904275894165 0.9310980439186096 36.0 12 -0.02062014862895012
-2.9054458141326904 3.9596292972564697 -0.429677814245224 1.0 5 -0.02061784453690052
-3.4602794647216797 4.717498779296875 1.1372216939926147 28.0 13 -0.02061554230749607
-3.4434311389923096 4.697967052459717 1.3447574377059937 31.0 14 -0.020610934123396873
-2.8324501514434814 3.864388942718506 -0.08363193273544312 1.0 7 -0.020608630031347275
-3.4264779090881348 4.676548480987549 1.5534319877624512 39.0 15 -0.020606325939297676
-1.9282063245773315 2.6393890380859375 -0.8758436441421509 6.0 0 -0.020585589110851288
-2.8476099967956543 3.897897243499756 0.08426021784543991 1.0 8 -0.02058328501880169
-2.0871102809906006 2.8579485416412354 -0.8170222640037537 1.0 1 -0.02058098092675209
-2.9252147674560547 4.007061004638672 0.26000505685806274 5.0 9 -0.020578676834702492
-2.475456476211548 3.392209529876709 -0.8162809610366821 2.0 2 -0.020576372742652893
-3.507305145263672 4.8079514503479 0.5206683874130249 22.0 10 -0.020574068650603294
-2.8999316692352295 3.9753401279449463 -0.7793565988540649 8.0 3 -0.020571764558553696
-3.490114450454712 4.786139965057373 0.7273163199424744 32.0 11 -0.020569462329149246
-2.1585819721221924 2.9612395763397217 -0.4499416649341583 1.0 4 -0.020567158237099648
-3.481840133666992 4.778295516967773 0.9364168047904968 34.0 12 -0.02056485414505005
-2.147883653640747 2.9487245082855225 -0.31916433572769165 1.0 5 -0.02056255005300045
-3.471203565597534 4.765445709228516 1.1459989547729492 25.0 13 -0.02056024596095085
-3.446183443069458 4.734568119049072 1.3519558906555176 31.0 14 -0.020555637776851654
-2.8354156017303467 3.8968892097473145 -0.08412060141563416 1.0 7 -0.020553333684802055
-3.4351327419281006 4.722850322723389 1.5648200511932373 38.0 15 -0.020551029592752457
-1.9160405397415161 2.6410775184631348 -0.8742908239364624 5.0 0 -0.02053029276430607
-2.866858720779419 3.9531397819519043 0.08523755520582199 1.0 8 -0.02052798867225647
-2.0748331546783447 2.8620617389678955 -0.8161224722862244 1.0 1 -0.02052568458020687
-2.9165990352630615 4.0232086181640625 0.2604237496852875 1.0 9 -0.020523380488157272
-2.446913957595825 3.376553773880005 -0.8105566501617432 2.0 2 -0.020521078258752823
-3.508873462677002 4.843759536743164 0.523283064365387 21.0 10 -0.020518774166703224
-2.8756091594696045 3.9710400104522705 -0.7765407562255859 4.0 3 -0.020516470074653625
-3.497831344604492 4.832060813903809 0.7324348092079163 27.0 11 -0.020514165982604027
-2.1738336086273193 3.0041377544403076 -0.4553038775920868 1.0 4 -0.020511861890554428
-3.4833450317382812 4.813822269439697 0.941109836101532 24.0 12 -0.02050955779850483
-2.177795171737671 3.010718584060669 -0.3250909149646759 1.0 5 -0.02050725370645523
-3.47180438041687 4.801396369934082 1.1517231464385986 23.0 13 -0.020504949614405632
-2.104843854904175 2.912006139755249 -0.18830479681491852 4.0 6 -0.020502645522356033
-3.4547431468963623 4.781320095062256 1.361853837966919 33.0 14 -0.020500341430306435
-3.429633617401123 4.74830961227417 1.5694787502288818 33.0 15 -0.020495733246207237
-1.8989062309265137 2.6367764472961426 -0.8706672787666321 6.0 0 -0.020474998280405998
-2.8233489990234375 3.920435905456543 0.08433002978563309 1.0 8 -0.0204726941883564
-2.074439764022827 2.8815784454345703 -0.8197216987609863 1.0 1 -0.0204703900963068
-2.445430278778076 3.399418354034424 -0.8139912486076355 2.0 2 -0.020465781912207603
-3.5140459537506104 4.886711120605469 0.5265949964523315 20.0 10 -0.020463477820158005
-2.8324403762817383 3.9388551712036133 -0.7684061527252197 2.0 3 -0.020461173728108406
-3.5038020610809326 4.874259948730469 0.737065851688385 25.0 11 -0.020458869636058807
-2.11289119720459 2.940398931503296 -0.44457942247390747 2.0 4 -0.02045656554400921
-3.4953322410583496 4.866060733795166 0.9489316344261169 27.0 12 -0.02045426145195961
-3.475328207015991 4.839993953704834 1.1582106351852417 25.0 13 -0.020449653267860413
-2.0975053310394287 2.9222147464752197 -0.18851414322853088 5.0 6 -0.020447349175810814
-3.466135263442993 4.83074951171875 1.37265145778656 33.0 14 -0.020445045083761215
-2.151489734649658 2.999634265899658 -0.06443428248167038 1.0 7 -0.020442740991711617
-3.4332993030548096 4.788513660430908 1.5787962675094604 34.0 15 -0.020440436899662018
-1.9047614336013794 2.6634864807128906 -0.8773965835571289 6.0 0 -0.02041970193386078
-2.072347640991211 2.8988969326019287 0.06220037490129471 1.0 8 -0.02041739784181118
-2.077965497970581 2.907827615737915 -0.8251205086708069 1.0 1 -0.02041509374976158
-2.8141415119171143 3.9394586086273193 0.25372472405433655 7.0 9 -0.020412789657711983
-2.444415330886841 3.421886682510376 -0.8174257874488831 2.0 2 -0.020410485565662384
-3.5256080627441406 4.937252521514893 0.5307784676551819 22.0 10 -0.020408181473612785
-2.845071315765381 3.985697031021118 -0.7756021618843079 2.0 3 -0.020405877381563187
-3.5098276138305664 4.918778419494629 0.7419406175613403 25.0 11 -0.020403573289513588
-3.0386455059051514 4.260025978088379 -0.6424952149391174 2.0 4 -0.02040126919746399
-3.503556251525879 4.9136152267456055 0.9558146595954895 28.0 12 -0.02039896510541439
-3.4789247512817383 4.8808722496032715 1.1650798320770264 26.0 13 -0.020394356921315193
-2.074542760848999 2.9116263389587402 -0.18736274540424347 1.0 6 -0.020392052829265594
-3.4741246700286865 4.877738952636719 1.3825492858886719 33.0 14 -0.020389748737215996
-3.443446397781372 4.8382439613342285 1.5912195444107056 35.0 15 -0.0203851405531168
-1.896570086479187 2.6716949939727783 -0.8779142498970032 6.0 0 -0.02036440558731556
-2.0622153282165527 2.906113624572754 0.06220037490129471 1.0 8 -0.02036210149526596
-2.1388330459594727 3.015199661254883 -0.8534643650054932 3.0 1 -0.020359797403216362
-2.785353660583496 3.9280784130096436 0.25236400961875916 27.0 9 -0.020357493311166763
-2.4438109397888184 3.44641375541687 -0.8212419748306274 2.0 2 -0.020355189219117165
-3.5371577739715576 4.9901652336120605 0.5351362824440002 23.0 10 -0.020352885127067566
-2.8311400413513184 3.9956047534942627 -0.7756021618843079 2.0 3 -0.020350581035017967
-3.5086987018585205 4.953679084777832 0.7453529834747314 30.0 11 -0.02034827694296837
-3.0363759994506836 4.288426876068115 -0.645176351070404 15.0 4 -0.02034597285091877
-3.5092060565948486 4.95806360244751 0.9620720744132996 28.0 12 -0.02034366875886917
-3.4800076484680176 4.9186296463012695 1.1711857318878174 25.0 13 -0.020339060574769974
-2.9950625896453857 4.234777927398682 -0.27183297276496887 1.0 6 -0.020336758345365524
-3.472825288772583 4.912114143371582 1.3888479471206665 31.0 14 -0.020334454253315926
-3.4466021060943604 4.878634929656982 1.6005370616912842 35.0 15 -0.020329846069216728
-1.888345718383789 2.679877758026123 -0.8784318566322327 6.0 0 -0.02030910924077034
-2.0520591735839844 2.9132938385009766 0.06220037490129471 1.0 8 -0.02030680514872074
-2.127173900604248 3.0210535526275635 -0.8530144691467285 3.0 1 -0.020304501056671143
-2.7969167232513428 3.973708391189575 0.2546667754650116 5.0 9 -0.020302196964621544
-2.420466423034668 3.438868284225464 -0.8174257874488831 2.0 2 -0.020299892872571945
-3.5392088890075684 5.030182361602783 0.5380995273590088 22.0 10 -0.020297588780522346
-2.818312644958496 4.007077693939209 -0.7759150266647339 1.0 3 -0.020295284688472748
-3.5210719108581543 5.00811767578125 0.751690149307251 32.0 11 -0.02029298059642315
-3.0328032970428467 4.315239906311035 -0.6476137042045593 24.0 4 -0.02029067650437355
-3.506641387939453 4.991294860839844 0.9661393165588379 26.0 12 -0.0202883742749691
-3.492154121398926 4.9725189208984375 1.1811076402664185 25.0 13 -0.020283766090869904
-2.966492176055908 4.225590229034424 -0.27057692408561707 22.0 6 -0.020281461998820305
-3.4690916538238525 4.943347454071045 1.3942468166351318 31.0 14 -0.020279157906770706
-3.456172466278076 4.928595542907715 1.6129603385925293 33.0 15 -0.02027454972267151
-1.8701212406158447 2.6737890243530273 -0.8742908239364624 6.0 0 -0.02025381289422512
-2.0418765544891357 2.9204394817352295 0.06220037490129471 1.0 8 -0.020251508802175522
-2.1210813522338867 3.034848928451538 -0.8548140525817871 3.0 1 -0.020249204710125923
-2.80704927444458 4.017830848693848 0.25686490535736084 7.0 9 -0.020246900618076324
-2.410695791244507 3.4505157470703125 -0.8181890249252319 2.0 2 -0.020244598388671875
-3.5387392044067383 5.067008972167969 0.5407142043113708 23.0 10 -0.020242292433977127
-2.808830499649048 4.023370742797852 -0.7771665453910828 1.0 3 -0.020239990204572678
-3.5228800773620605 5.048052787780762 0.7558336853981018 28.0 11 -0.02023768611252308
-3.4390881061553955 4.9298176765441895 -0.7380408048629761 2.0 4 -0.02023538202047348
-3.5095343589782715 5.032670974731445 0.9717710018157959 29.0 12 -0.02023307792842388
-3.0109610557556152 4.3177170753479 -0.46053093671798706 4.0 5 -0.020230773836374283
-3.499473810195923 5.020111560821533 1.1895033121109009 23.0 13 -0.020228469744324684
-2.974560260772705 4.268693447113037 -0.27267035841941833 33.0 6 -0.020226165652275085
-3.48077392578125 4.997003078460693 1.4059442281723022 36.0 14 -0.020223861560225487
-3.454396963119507 4.962828636169434 1.6202073097229004 33.0 15 -0.02021925337612629
-1.8636133670806885 2.6853861808776855 -0.8758436441421509 6.0 0 -0.02021002769470215
-2.826754093170166 4.0747480392456055 0.08656392991542816 1.0 8 -0.02020772360265255
-2.1188271045684814 3.0554141998291016 -0.8584132790565491 3.0 1 -0.02020541951060295
-2.8396718502044678 4.094894886016846 0.26115643978118896 0.0 9 -0.020203115418553352
-2.393559455871582 3.452873706817627 -0.8166625499725342 2.0 2 -0.020200811326503754
-3.5371670722961426 5.104507923126221 0.5433288812637329 25.0 10 -0.020198507234454155
-2.79856538772583 4.040133476257324 -0.7784180045127869 1.0 3 -0.020196203142404556
-3.529217004776001 5.096834659576416 0.761195957660675 26.0 11 -0.020193899050354958
-3.436814785003662 4.965240001678467 -0.7414531111717224 3.0 4 -0.02019159495830536
-3.5178046226501465 5.082247734069824 0.978967010974884 30.0 12 -0.02018929086625576
-3.525667190551758 5.0955071449279785 -0.5421087145805359 47.0 5 -0.02018698677420616
-3.4978013038635254 5.057125091552734 1.1952276229858398 26.0 13 -0.020184684544801712
-2.9747977256774902 4.302566051483154 -0.2741357684135437 28.0 6 -0.020182380452752113
-3.4879202842712402 5.046597957611084 1.4162919521331787 40.0 14 -0.020180076360702515
-3.4590132236480713 5.006646156311035 1.630560040473938 33.0 15 -0.020175468176603317
-1.8586125373840332 2.6982386112213135 -0.8779142498970032 6.0 0 -0.02015473134815693
-2.7610459327697754 4.008345127105713 0.08495831489562988 11.0 8 -0.02015242725610733
-2.102051258087158 3.0527939796447754 -0.8557138442993164 3.0 1 -0.02015012316405773
-2.8208320140838623 4.098200798034668 0.2607377767562866 1.0 9 -0.020147819072008133
-2.3859424591064453 3.4676780700683594 -0.8181890249252319 2.0 2 -0.020145514979958534
-3.5464236736297607 5.156222820281982 0.5475123524665833 24.0 10 -0.020143210887908936
-2.7784347534179688 4.0396270751953125 -0.7765407562255859 1.0 3 -0.020140906795859337
-3.5280423164367676 5.131410598754883 0.7646083235740662 26.0 11 -0.020138604566454887
-3.4338219165802 4.996242523193359 -0.7443780303001404 3.0 4 -0.02013630047440529
-3.5201756954193115 5.123804092407227 0.9845986366271973 30.0 12 -0.02013399638235569
-3.499964952468872 5.096285820007324 -0.5408885478973389 41.0 5 -0.02013169229030609
-3.50102162361145 5.0978240966796875 1.202096700668335 26.0 13 -0.020129388198256493
-2.9684250354766846 4.323934078216553 -0.2748684883117676 13.0 6 -0.020127084106206894
-3.4976282119750977 5.096700191497803 1.4270895719528198 35.0 14 -0.020124780014157295
-3.4633677005767822 5.050553798675537 1.6409127712249756 34.0 15 -0.020120171830058098
-1.8463821411132812 2.699603796005249 -0.8763613104820251 6.0 0 -0.02009943500161171
-2.7470364570617676 4.0179595947265625 0.08495831489562988 11.0 8 -0.02009713090956211
-2.0913827419281006 3.060112476348877 -0.8557138442993164 3.0 1 -0.020094826817512512
-3.5658767223358154 5.219547748565674 0.33128663897514343 4.0 9 -0.020092524588108063
-2.3744311332702637 3.4755704402923584 -0.8181890249252319 2.0 2 -0.020090220496058464
-3.551779270172119 5.200860977172852 0.5509986281394958 22.0 10 -0.020087916404008865
-2.7710001468658447 4.059089183807373 -0.7784180045127869 1.0 3 -0.020085612311959267
-3.5257728099823 5.166650772094727 0.7680206894874573 26.0 11 -0.020083308219909668
-3.3783273696899414 4.952441215515137 -0.736090898513794 3.0 4 -0.02008100412786007
-3.532318353652954 5.180125713348389 0.9930461645126343 30.0 12 -0.02007870003581047
-3.476309061050415 5.097988128662109 -0.5398426651954651 40.0 5 -0.020076395943760872
-3.505319595336914 5.142459392547607 1.2097290754318237 27.0 13 -0.020074091851711273
-3.462778091430664 5.0819549560546875 -0.32228484749794006 37.0 6 -0.020071787759661674
-3.491884469985962 5.126594066619873 1.432038426399231 32.0 14 -0.020069483667612076
-3.4718053340911865 5.100940704345703 1.6533361673355103 35.0 15 -0.02006487548351288
-1.843456745147705 2.715623140335083 -0.8794671893119812 6.0 0 -0.02004414051771164
-2.7453465461730957 4.045725345611572 0.08534227311611176 5.0 8 -0.02004183642566204
-2.0817830562591553 3.0690064430236816 -0.8561637997627258 3.0 1 -0.020039532333612442
-3.5722930431365967 5.268331050872803 0.3335894048213959 4.0 9 -0.020037228241562843
-2.3799123764038086 3.5098371505737305 -0.824294924736023 2.0 2 -0.020034924149513245
-3.561551332473755 5.254456996917725 0.5553563833236694 20.0 10 -0.020032620057463646
-2.7789762020111084 4.101443290710449 -0.7846753597259521 1.0 3 -0.020030315965414047
-3.5355446338653564 5.220016956329346 0.7741141319274902 23.0 11 -0.02002801187336445
-3.3409879207611084 4.934615135192871 -0.7317035794258118 2.0 4 -0.02002570778131485
-3.534144878387451 5.221869468688965 0.9986777305603027 27.0 12 -0.02002340368926525
-3.454026699066162 5.103490829467773 -0.5391454100608826 41.0 5 -0.020021099597215652
-3.519249439239502 5.201821327209473 1.22079598903656 25.0 13 -0.020018795505166054
-3.08250093460083 4.557974815368652 -0.28837114572525024 31.0 6 -0.020016491413116455
-3.494706392288208 5.1694254875183105 1.4405866861343384 35.0 14 -0.020014187321066856
-2.73869252204895 4.052646160125732 -0.08537717163562775 1.0 7 -0.020011883229017258
-3.4777677059173584 5.148247241973877 1.6647241115570068 33.0 15 -0.02000957913696766
-1.833966851234436 2.722041130065918 -0.8794671893119812 6.0 0 -0.01998884417116642
-2.0808515548706055 3.090803861618042 -0.8602128624916077 3.0 1 -0.019984235987067223
-3.6118690967559814 5.3669304847717285 0.3390323519706726 5.0 9 -0.019981931895017624
-2.3555896282196045 3.5002059936523438 -0.8200971484184265 2.0 2 -0.019979627802968025
-3.5676534175872803 5.303227424621582 0.5591912269592285 21.0 10 -0.019977323710918427
-2.753618001937866 4.094727516174316 -0.7815467119216919 1.0 3 -0.019975019618868828
-3.558279275894165 5.293281555175781 0.7831324338912964 20.0 11 -0.01997271552681923
-3.049161911010742 4.537631034851074 -0.671256422996521 15.0 4 -0.01997041143476963
-3.532416820526123 5.258772373199463 1.003370761871338 18.0 12 -0.019968107342720032
-3.4295244216918945 5.105594635009766 -0.5380995273590088 40.0 5 -0.019965803250670433
-3.526243209838867 5.251561641693115 1.2295732498168945 22.0 13 -0.019963499158620834
-3.0654594898223877 4.567047595977783 -0.28826647996902466 46.0 6 -0.019961195066571236
-3.5037832260131836 5.222049713134766 1.4518342018127441 33.0 14 -0.019958890974521637
-3.480217218399048 5.190842151641846 1.674559235572815 31.0 15 -0.01995428279042244
-1.8212330341339111 2.7236082553863525 -0.8779142498970032 6.0 0 -0.0199335478246212
-3.379347324371338 5.055637836456299 0.10614553838968277 4.0 8 -0.019931243732571602
-2.066802501678467 3.093187093734741 -0.8588631749153137 3.0 1 -0.019928939640522003
