# .PCD v0.7 - Point Cloud Data file format
VERSION 0.7
FIELDS x y z intensity ring time
SIZE 4 4 4 4 4 4
TYPE F F F F F F
COUNT 1 1 1 1 1 1
WIDTH 545
HEIGHT 1
VIEWPOINT 0 0 0 1 0 0 0
POINTS 545
DATA ascii
-2.2728490829467773 0.8012880682945251 -0.3817001283168793 23.0 3 -0.056272272020578384
-3.1057121753692627 1.0955216884613037 0.4043624997138977 70.0 11 -0.056269969791173935
-2.302607536315918 0.8122312426567078 -0.2997986078262329 52.0 4 -0.05626766383647919
-3.103360891342163 1.0953022241592407 0.521239697933197 96.0 12 -0.05626536160707474
-2.132312059402466 0.7529974579811096 -0.197843536734581 32.0 5 -0.05626305937767029
-3.102447509765625 1.0961968898773193 0.6395918130874634 85.0 13 -0.05626075342297554
-2.1636223793029785 0.7649043798446655 -0.12026803940534592 18.0 6 -0.05625845119357109
-3.088507652282715 1.0918786525726318 0.7562854886054993 89.0 14 -0.05625614523887634
-2.166128158569336 0.7662149667739868 -0.040105629712343216 42.0 7 -0.05625384300947189
-3.0577213764190674 1.0821948051452637 0.8691143989562988 106.0 15 -0.056251537054777145
-2.5175678730010986 0.894485592842102 -0.7158935070037842 49.0 0 -0.056230802088975906
-2.185647964477539 0.7769843935966492 0.04048958420753479 52.0 8 -0.05622849613428116
-2.5043768882751465 0.8907835483551025 -0.6136665344238281 25.0 1 -0.05622619390487671
-3.0183537006378174 1.0736002922058105 0.16789376735687256 3.0 9 -0.05622388795018196
-2.221385955810547 0.7905629873275757 -0.45832324028015137 10.0 2 -0.05622158572077751
-3.108222007751465 1.106787085533142 0.28865981101989746 65.0 10 -0.05621928349137306
-2.2459888458251953 0.8002022504806519 -0.37763282656669617 22.0 3 -0.056216977536678314
-3.1001923084259033 1.1051480770111084 0.40411877632141113 80.0 11 -0.056214675307273865
-2.29242205619812 0.8171963691711426 -0.29882365465164185 66.0 4 -0.05621236935257912
-3.1034328937530518 1.1069138050079346 0.5218654274940491 96.0 12 -0.05621006712317467
-2.1373088359832764 0.7627430558204651 -0.19854077696800232 40.0 5 -0.05620776116847992
-3.080306053161621 1.0998772382736206 0.635775625705719 82.0 13 -0.05620545893907547
-2.153550863265991 0.7693868279457092 -0.11984935402870178 35.0 6 -0.05620315298438072
-3.092210531234741 1.1047364473342896 0.7580850720405579 89.0 14 -0.05620085075497627
-2.1503942012786865 0.7686823010444641 -0.039861299097537994 25.0 7 -0.056198544800281525
-3.061391830444336 1.0949310064315796 0.8711849451065063 106.0 15 -0.056196242570877075
-2.5218608379364014 0.9054406881332397 -0.7179640531539917 51.0 0 -0.05617550387978554
-2.1755313873291016 0.7815237641334534 0.040349964052438736 39.0 8 -0.05617320165038109
-2.49957537651062 0.8984237909317017 -0.6132165789604187 29.0 1 -0.05617089942097664
-2.992034912109375 1.0760191679000854 0.16663770377635956 2.0 9 -0.05616859346628189
-2.205819845199585 0.7932744026184082 -0.4556518793106079 13.0 2 -0.05616629123687744
-3.117657423019409 1.121811032295227 0.28988000750541687 72.0 10 -0.056163985282182693
-2.2396059036254883 0.8063077330589294 -0.3770070970058441 35.0 3 -0.056161683052778244
-3.096510410308838 1.1154228448867798 0.40411877632141113 77.0 11 -0.056159377098083496
-2.300760507583618 0.8292320370674133 -0.30028611421585083 53.0 4 -0.05615707486867905
-3.106982946395874 1.1204205751419067 0.5231168866157532 96.0 12 -0.0561547689139843
-2.1197736263275146 0.7644193768501282 -0.19714628159999847 39.0 5 -0.05615246668457985
-3.098802328109741 1.1180816888809204 0.6403550505638123 83.0 13 -0.0561501607298851
-2.134080171585083 0.7704203128814697 -0.11890730261802673 45.0 6 -0.05614785850048065
-3.092000961303711 1.1168476343154907 0.7589848637580872 100.0 14 -0.056145552545785904
-2.1552202701568604 0.7789025902748108 -0.04000091552734375 46.0 7 -0.056143250316381454
-3.0757181644439697 1.1121799945831299 0.8763613104820251 104.0 15 -0.05614094436168671
-2.529580593109131 0.9181923866271973 -0.721069872379303 48.0 0 -0.05612020939588547
-2.155874013900757 0.7829695343971252 0.04003582149744034 35.0 8 -0.05611790716648102
-2.498255491256714 0.9078096747398376 -0.6136665344238281 34.0 1 -0.05611560121178627
-2.975121021270752 1.0816797018051147 0.16590499877929688 2.0 9 -0.05611329898238182
-2.177206039428711 0.7915777564048767 -0.45030924677848816 13.0 2 -0.05611099302768707
-3.1249568462371826 1.136772871017456 0.29092586040496826 80.0 10 -0.05610869079828262
-2.22007155418396 0.8080399632453918 -0.3741912841796875 28.0 3 -0.056106384843587875
-3.101924419403076 1.1296212673187256 0.40533748269081116 81.0 11 -0.056104082614183426
-2.2698750495910645 0.8270637392997742 -0.29662999510765076 21.0 4 -0.05610177665948868
-3.106764793395996 1.1326123476028442 0.5237426161766052 93.0 12 -0.05609947443008423
-2.1245803833007812 0.7745439410209656 -0.197843536734581 39.0 5 -0.05609716847538948
-3.1059470176696777 1.132928490638733 0.6426447629928589 85.0 13 -0.05609486624598503
-2.131377696990967 0.7778650522232056 -0.11890730261802673 55.0 6 -0.05609256029129028
-3.0789310932159424 1.1242918968200684 0.7567353844642639 99.0 14 -0.056090258061885834
-2.141219139099121 0.7823037505149841 -0.03979148715734482 74.0 7 -0.056087952107191086
-3.0827038288116455 1.1268892288208008 0.8794671893119812 104.0 15 -0.056085649877786636
-2.5372414588928223 0.9310096502304077 -0.7241756916046143 51.0 0 -0.0560649149119854
-2.1512506008148193 0.7898010015487671 0.04000091552734375 50.0 8 -0.05606260895729065
-2.4969005584716797 0.9171966314315796 -0.614116370677948 40.0 1 -0.0560603067278862
-2.193345785140991 0.8061245679855347 0.12246615439653397 3.0 9 -0.05605800077319145
-2.1523170471191406 0.7910452485084534 -0.4457298517227173 17.0 2 -0.056055698543787
-3.120969295501709 1.1476749181747437 0.29092586040496826 80.0 10 -0.056053392589092255
-2.2116756439208984 0.8137382864952087 -0.3732526898384094 29.0 3 -0.056051090359687805
-3.116591215133667 1.1472992897033691 0.4077748656272888 93.0 11 -0.05604878440499306
-2.1961891651153564 0.8089108467102051 -0.28736793994903564 25.0 4 -0.05604648217558861
-3.102792263031006 1.143450140953064 0.5237426161766052 96.0 12 -0.05604417622089386
-2.116118907928467 0.7802573442459106 -0.1973206102848053 37.0 5 -0.05604187399148941
-3.1167097091674805 1.1491960287094116 0.6456976532936096 82.0 13 -0.05603956803679466
-2.115532875061035 0.7804612517356873 -0.11817460507154465 59.0 6 -0.05603726580739021
-3.096925973892212 1.1431304216384888 0.7621342539787292 100.0 14 -0.056034959852695465
-2.1234683990478516 0.7842304706573486 -0.03951225057244301 68.0 7 -0.056032657623291016
-3.0678787231445312 1.1336255073547363 0.8763613104820251 104.0 15 -0.056030355393886566
-2.5410566329956055 0.9429920315742493 -0.7262462973594666 43.0 0 -0.05600961670279503
-2.1241085529327393 0.7882615923881531 0.0395471528172493 61.0 8 -0.05600731447339058
-2.4955108165740967 0.9265846610069275 -0.6145663261413574 39.0 1 -0.05600500851869583
-2.1886463165283203 0.813080370426178 0.12236147373914719 21.0 9 -0.05600270628929138
-2.1291604042053223 0.7914048433303833 -0.44153204560279846 28.0 2 -0.056000400334596634
-3.114874839782715 1.1584110260009766 0.29075154662132263 90.0 10 -0.055998098105192184
-2.1938674449920654 0.8163274526596069 -0.37074974179267883 24.0 3 -0.055995792150497437
-3.116288185119629 1.1595556735992432 0.40826234221458435 100.0 11 -0.05599348992109299
-2.182190179824829 0.8124165534973145 -0.28590551018714905 35.0 4 -0.05599118396639824
-3.109889030456543 1.1584105491638184 0.5256198644638062 93.0 12 -0.05598888173699379
-2.1115152835845947 0.7869439721107483 -0.19714628159999847 41.0 5 -0.05598657578229904
-3.1161556243896484 1.1619844436645508 0.6464609503746033 85.0 13 -0.05598427355289459
-2.1220145225524902 0.7917001247406006 -0.11869796365499496 64.0 6 -0.05598197132349014
-3.089063882827759 1.1531105041503906 0.7612344026565552 100.0 14 -0.055979665368795395
-2.126338243484497 0.7937365174293518 -0.039616964757442474 76.0 7 -0.055977363139390945
-3.0711419582366943 1.1470311880111694 0.8784318566322327 108.0 15 -0.0559750571846962
-2.5540289878845215 0.9579616189002991 -0.7309049963951111 18.0 0 -0.05595432221889496
-2.111844062805176 0.7925280332565308 0.039372626692056656 64.0 8 -0.05595201626420021
-2.4811513423919678 0.9316155314445496 -0.6118668913841248 33.0 1 -0.05594971403479576
-2.18752121925354 0.8217991590499878 0.12246615439653397 38.0 9 -0.05594740808010101
-2.1190338134765625 0.7960700392723083 -0.4400055408477783 43.0 2 -0.055945105850696564
-3.1201372146606445 1.1727819442749023 0.2916231155395508 100.0 10 -0.055942799896001816
-2.170665979385376 0.8163322806358337 -0.3673081696033478 39.0 3 -0.055940497666597366
-3.1120171546936035 1.170969843864441 0.40826234221458435 100.0 11 -0.05593819543719292
-2.1699090003967285 0.8169116973876953 -0.2846868336200714 20.0 4 -0.05593588948249817
-3.1148650646209717 1.1732834577560425 0.5271841883659363 100.0 12 -0.05593358725309372
-2.121807098388672 0.7992259860038757 -0.1983664631843567 37.0 5 -0.05593128129839897
-3.1047322750091553 1.1700847148895264 0.6449344158172607 87.0 13 -0.05592897906899452
-2.109894037246704 0.7955791354179382 -0.11817460507154465 61.0 6 -0.055926673114299774
-3.0996062755584717 1.1693893671035767 0.7648336291313171 100.0 14 -0.055924370884895325
-2.112189769744873 0.7972869873046875 -0.03940753638744354 72.0 7 -0.05592206493020058
-3.0705318450927734 1.1596449613571167 0.8794671893119812 108.0 15 -0.05591976270079613
-2.507315158843994 0.9504370093345642 -0.7184816598892212 17.0 0 -0.05589902400970459
-2.116543769836426 0.8027315139770508 0.03951225057244301 68.0 8 -0.05589672178030014
-2.47424054145813 0.9388874173164368 -0.6109670996665955 26.0 1 -0.05589441955089569
-2.173435688018799 0.8251765370368958 0.12183811515569687 41.0 9 -0.05589211359620094
-2.1125710010528564 0.8020683526992798 -0.43924233317375183 42.0 2 -0.055889811366796494
-3.132786989212036 1.1900346279144287 0.29319190979003906 90.0 10 -0.055887505412101746
-2.165956974029541 0.8232021331787109 -0.36699530482292175 18.0 3 -0.055885203182697296
-3.1004891395568848 1.1790035963058472 0.4072873890399933 100.0 11 -0.05588289722800255
-2.1688992977142334 0.8251875638961792 -0.284930557012558 1.0 4 -0.0558805949985981
-3.1218278408050537 1.18836510181427 0.5290614366531372 98.0 12 -0.05587828904390335
-2.1227285861968994 0.8080447912216187 -0.19871510565280914 25.0 5 -0.0558759868144989
-3.106132984161377 1.1830114126205444 0.6460793018341064 92.0 13 -0.05587368085980415
-2.1015048027038574 0.8008062243461609 -0.1178605854511261 52.0 6 -0.055871378630399704
-3.0864012241363525 1.1767300367355347 0.7625840902328491 96.0 14 -0.055869072675704956
-2.1037888526916504 0.8025169968605042 -0.03930281847715378 77.0 7 -0.05586677044630051
-3.080904245376587 1.175866961479187 0.8836082816123962 106.0 15 -0.05586446449160576
-2.4679019451141357 0.945362389087677 -0.7081289291381836 32.0 0 -0.05584372952580452
-2.1137290000915527 0.810114860534668 0.03951225057244301 71.0 8 -0.05584142729640007
-2.4891436100006104 0.9544957876205444 -0.6154661178588867 17.0 1 -0.05583912134170532
-2.1556243896484375 0.8270348310470581 0.121000736951828 36.0 9 -0.05583681911230087
-3.130474090576172 1.2016761302947998 0.2933662235736847 65.0 10 -0.055832210928201675
-2.109592914581299 0.8102190494537354 -0.35792210698127747 1.0 3 -0.05582990497350693
-3.114884614944458 1.196939468383789 0.40972477197647095 100.0 11 -0.05582760274410248
-2.12153697013855 0.815656304359436 -0.2790808379650116 1.0 4 -0.05582529678940773
-3.101067304611206 1.192872405052185 0.5262455940246582 93.0 12 -0.05582299456000328
-2.142209768295288 0.8240333795547485 -0.20080682635307312 12.0 5 -0.05582068860530853
-3.1056485176086426 1.1952577829360962 0.6468425393104553 78.0 13 -0.05581838637590408
-2.117335319519043 0.8153135180473328 -0.11890730261802673 49.0 6 -0.055816080421209335
-3.07681941986084 1.1853947639465332 0.7612344026565552 86.0 14 -0.055813778191804886
-2.093510866165161 0.8069793581962585 -0.03916320204734802 77.0 7 -0.05581147223711014
-3.0677688121795654 1.1831376552581787 0.8810200095176697 96.0 15 -0.05580917000770569
-2.45377779006958 0.9497866630554199 -0.7050231099128723 51.0 0 -0.05578843504190445
-2.118346929550171 0.8203768730163574 0.039651867002248764 68.0 8 -0.0557861290872097
-2.556663751602173 0.9906377792358398 -0.6330122947692871 29.0 1 -0.05578382685780525
-2.1471376419067383 0.8323886394500732 0.12068671733140945 33.0 9 -0.055781520903110504
-3.0928244590759277 1.19962739944458 0.29022860527038574 40.0 10 -0.05577691271901131
-2.1067516803741455 0.8175780773162842 -0.35792210698127747 1.0 3 -0.05577461048960686
-2.1186769008636475 0.8230569362640381 -0.2790808379650116 1.0 4 -0.05577000230550766
-3.072948932647705 1.1943867206573486 0.5221782922744751 91.0 12 -0.05576769635081291
-2.130035161972046 0.8278971314430237 -0.19993527233600616 2.0 5 -0.05576539412140846
-3.0904793739318848 1.2018213272094727 0.6445528268814087 77.0 13 -0.055763088166713715
-2.114476442337036 0.8226995468139648 -0.11890730261802673 38.0 6 -0.055760785937309265
-3.065399169921875 1.1933000087738037 0.7594348192214966 75.0 14 -0.05575847998261452
-2.0925445556640625 0.8150073289871216 -0.03919810429215431 72.0 7 -0.05575617775321007
-3.042020082473755 1.1854219436645508 0.8748083710670471 90.0 15 -0.05575387179851532
-2.445049524307251 0.9562358260154724 -0.7034702301025391 61.0 0 -0.055737972259521484
-2.1005728244781494 0.8219369649887085 0.039372626692056656 72.0 8 -0.055735670030117035
-2.5749659538269043 1.0080807209014893 -0.6384111046791077 39.0 1 -0.05573336407542229
-2.1462254524230957 0.8402318954467773 0.12079139798879623 35.0 9 -0.05573106184601784
-3.08305287361145 1.2082351446151733 0.28970569372177124 40.0 10 -0.05572645366191864
-2.1038854122161865 0.8249265551567078 -0.35792210698127747 1.0 3 -0.05572414770722389
-2.3968286514282227 0.9402719736099243 0.31612908840179443 2.0 11 -0.05572184547781944
-2.0862252712249756 0.8188430070877075 -0.27518099546432495 1.0 4 -0.055719539523124695
-3.0800039768218994 1.208901047706604 0.524055540561676 87.0 12 -0.055717237293720245
-2.164222240447998 0.849892795085907 -0.20342150330543518 1.0 5 -0.0557149313390255
-3.082610607147217 1.2111659049987793 0.6437895894050598 81.0 13 -0.05571262910962105
-2.1171681880950928 0.8322675228118896 -0.11922132223844528 17.0 6 -0.0557103231549263
-3.073909282684326 1.208986759185791 0.7625840902328491 83.0 14 -0.05570802092552185
-2.086108446121216 0.8204787969589233 -0.039128296077251434 67.0 7 -0.0557057149708271
-3.048858404159546 1.1997476816177368 0.8779142498970032 92.0 15 -0.05570341274142265
-2.443493366241455 0.9654747843742371 -0.7039877772331238 64.0 0 -0.055682677775621414
-2.0903964042663574 0.8259589076042175 0.0392330102622509 65.0 8 -0.055680371820926666
-2.5734212398529053 1.017330527305603 -0.6388610601425171 8.0 1 -0.05567806959152222
-2.14699387550354 0.8491882085800171 0.121000736951828 35.0 9 -0.05567576363682747
-2.0902135372161865 0.8271521329879761 -0.4369526505470276 1.0 2 -0.05567346140742302
-3.097341537475586 1.2263234853744507 0.29144880175590515 42.0 10 -0.05567115545272827
-2.057058095932007 0.8144463300704956 -0.3504132330417633 1.0 3 -0.05566885322332382
-2.373396158218384 0.9401732087135315 0.3134479522705078 1.0 11 -0.055666547268629074
-2.094571113586426 0.8301451802253723 -0.27664345502853394 2.0 4 -0.055664245039224625
-3.0867836475372314 1.2240132093429565 0.5259327292442322 80.0 12 -0.05566193908452988
-3.0731029510498047 1.2192097902297974 0.6426447629928589 82.0 13 -0.05565733090043068
-3.078939437866211 1.2227685451507568 0.7648336291313171 86.0 14 -0.05565272271633148
-2.090665340423584 0.8307088613510132 -0.03926791250705719 47.0 7 -0.05565042048692703
-3.044651985168457 1.2103829383850098 0.8779142498970032 92.0 15 -0.055648114532232285
-2.438483953475952 0.9728567004203796 -0.7034702301025391 60.0 0 -0.055627379566431046
-2.078214645385742 0.8295436501502991 0.039058487862348557 58.0 8 -0.055625077337026596
-2.1310338973999023 0.8514900803565979 0.12026803940534592 33.0 9 -0.0556204691529274
-2.0619354248046875 0.823880672454834 -0.43160995841026306 1.0 2 -0.05561816319823265
-3.0951080322265625 1.2373275756835938 0.2916231155395508 32.0 10 -0.0556158609688282
-2.050534248352051 0.8201552629470825 -0.34978750348091125 1.0 3 -0.05561355501413345
-2.3627278804779053 0.9455021619796753 0.31247302889823914 1.0 11 -0.055611252784729004
-2.0658605098724365 0.8271213173866272 -0.2732310891151428 2.0 4 -0.055608946830034256
-3.095327854156494 1.2399232387542725 0.5281228423118591 26.0 12 -0.055606644600629807
-2.1583871841430664 0.8646045327186584 -0.20342150330543518 1.0 5 -0.05560433864593506
-3.0815846920013428 1.2350420951843262 0.6453160643577576 76.0 13 -0.05560203641653061
-2.085501194000244 0.8362522125244141 -0.11775590479373932 1.0 6 -0.05559973046183586
-3.06380033493042 1.2291558980941772 0.7621342539787292 81.0 14 -0.05559742823243141
-3.058335304260254 1.228201985359192 0.883090615272522 94.0 15 -0.055592820048332214
-2.4422407150268555 0.9842506051063538 -0.7055407166481018 58.0 0 -0.055572085082530975
-2.101270914077759 0.8472622632980347 0.0395471528172493 27.0 8 -0.05556977912783623
-3.1499886512756348 1.270760178565979 -0.7841793894767761 4.0 1 -0.05556747689843178
-2.113231897354126 0.852942705154419 0.11943066120147705 33.0 9 -0.05556517094373703
-2.040841817855835 0.823724627494812 -0.42779380083084106 1.0 2 -0.05556286871433258
-3.0870754718780518 1.2466320991516113 0.2912744879722595 10.0 10 -0.05556056275963783
-2.0366694927215576 0.8228680491447449 -0.3479103147983551 1.0 3 -0.05555826053023338
-2.3152430057525635 0.9358884692192078 0.30662328004837036 1.0 11 -0.055555954575538635
-2.062960624694824 0.8343275189399719 -0.2732310891151428 1.0 4 -0.055553652346134186
-2.155355930328369 0.8721334338188171 -0.20342150330543518 1.0 5 -0.05554904416203499
-3.0717954635620117 1.2435804605484009 0.6441711783409119 71.0 13 -0.05554674193263054
-2.0344388484954834 0.8240325450897217 -0.11503444612026215 1.0 6 -0.05554443597793579
-3.0667154788970947 1.2427706718444824 0.7639338374137878 81.0 14 -0.05554213374853134
-2.077402353286743 0.8422783017158508 -0.039128296077251434 1.0 7 -0.055539827793836594
-3.0683505535125732 1.2446805238723755 0.887231707572937 92.0 15 -0.055537525564432144
-2.4298436641693115 0.9891278147697449 -0.7029525637626648 57.0 0 -0.05551678687334061
-3.1419246196746826 1.2802765369415283 -0.7832795977592468 7.0 1 -0.05551217868924141
-2.114091157913208 0.8614532947540283 0.11964000016450882 38.0 9 -0.05550987645983696
-2.001594305038452 0.8160202503204346 -0.4201614260673523 1.0 2 -0.05550757050514221
-2.40380859375 0.980487048625946 0.22712786495685577 1.0 10 -0.05550526827573776
-2.0593903064727783 0.8404212594032288 -0.35229045152664185 1.0 3 -0.05550296604633331
-2.322988986968994 0.9484668374061584 0.30808573961257935 1.0 11 -0.055500660091638565
-2.063710927963257 0.8430254459381104 -0.27371856570243835 2.0 4 -0.055498357862234116
-2.104346990585327 0.8600531816482544 -0.19888940453529358 1.0 5 -0.05549374967813492
-3.0837905406951904 1.2609831094741821 0.6476057171821594 67.0 13 -0.05549144372344017
-2.031550168991089 0.8311291337013245 -0.11503444612026215 1.0 6 -0.05548914149403572
-3.064162254333496 1.2542062997817993 0.7643837332725525 78.0 14 -0.05548683553934097
-2.0079736709594727 0.8218929171562195 -0.037871722131967545 1.0 7 -0.05548453330993652
-3.0534799098968506 1.2504552602767944 0.8841258883476257 90.0 15 -0.055482227355241776
-2.422802686691284 0.9961344599723816 -0.701917290687561 52.0 0 -0.055461492389440536
-2.001131772994995 0.8227646350860596 0.03776700794696808 1.0 8 -0.05545918643474579
-3.153881788253784 1.297360897064209 -0.7873287796974182 10.0 1 -0.05545688420534134
-2.107377052307129 0.8673073053359985 0.11943066120147705 40.0 9 -0.05545458197593689
-2.000548839569092 0.8237496614456177 -0.42054301500320435 3.0 2 -0.05545227602124214
-2.3119466304779053 0.9524433016777039 0.2187609225511551 11.0 10 -0.05544997379183769
-2.0785093307495117 0.8562750816345215 -0.35604485869407654 5.0 3 -0.055447667837142944
-2.330842971801758 0.9607037901878357 0.30954816937446594 1.0 11 -0.055445365607738495
-2.0737502574920654 0.8551613092422485 -0.2754247188568115 4.0 4 -0.05544305965304375
-2.066340684890747 0.8529497981071472 -0.1955774873495102 3.0 5 -0.05543845146894455
-3.072333335876465 1.268206238746643 0.6460793018341064 67.0 13 -0.0554361492395401
-2.028782844543457 0.8378615379333496 -0.11503444612026215 1.0 6 -0.05543384328484535
-3.0689914226531982 1.268081545829773 0.7666332721710205 81.0 14 -0.0554315410554409
-2.008788585662842 0.8304244875907898 -0.03794153034687042 1.0 7 -0.055429235100746155
-3.04909610748291 1.261107087135315 0.8841258883476257 88.0 15 -0.055426932871341705
-2.4230546951293945 1.0056443214416504 -0.7029525637626648 34.0 0 -0.055406197905540466
-1.9613113403320312 0.8144076466560364 0.03706891089677811 1.0 8 -0.05540389195084572
-3.143934965133667 1.3061192035675049 -0.7859790325164795 32.0 1 -0.05540158972144127
-2.1061811447143555 0.875424861907959 0.11953534185886383 41.0 9 -0.05539928376674652
-2.0032448768615723 0.8326399326324463 -0.42168790102005005 10.0 2 -0.05539698153734207
-2.3087754249572754 0.9601048231124878 0.2187609225511551 22.0 10 -0.055394675582647324
-2.075507640838623 0.8635252714157104 -0.35604485869407654 9.0 3 -0.055392373353242874
-2.28165864944458 0.9497625231742859 0.3034546673297882 7.0 11 -0.055390067398548126
-2.0615899562835693 0.8585790395736694 -0.2742060422897339 2.0 4 -0.05538776516914368
-2.0653395652770996 0.8605636358261108 -0.19575178623199463 7.0 5 -0.05538315698504448
-3.0606391429901123 1.2759013175964355 0.6445528268814087 68.0 13 -0.05538085103034973
-2.051652431488037 0.855701744556427 -0.11649984866380692 3.0 6 -0.05537854880094528
-3.0771355628967285 1.2840391397476196 0.769782543182373 83.0 14 -0.055376242846250534
-2.0021870136260986 0.8358907103538513 -0.037871722131967545 1.0 7 -0.055373940616846085
-3.0464580059051514 1.2724874019622803 0.8846435546875 82.0 15 -0.05537163466215134
-2.476543664932251 1.037992000579834 -0.7195169925689697 25.0 0 -0.0553508996963501
-1.9658331871032715 0.8243422508239746 0.03720853105187416 1.0 8 -0.05534859746694565
-3.1537325382232666 1.3231170177459717 -0.7895782589912415 51.0 1 -0.0553462915122509
-2.097587823867798 0.8804519772529602 0.11922132223844528 38.0 9 -0.05534398928284645
-2.0093777179718018 0.8434262275695801 -0.42359596490859985 12.0 2 -0.0553416833281517
-2.2943880558013916 0.9635295271873474 0.2177150398492813 26.0 10 -0.05533938109874725
-2.0761234760284424 0.8722954392433167 -0.35667064785957336 9.0 3 -0.055337075144052505
-2.2673492431640625 0.9531064033508301 0.301992267370224 23.0 11 -0.055334772914648056
-2.109816312789917 0.8873181939125061 -0.28103071451187134 1.0 4 -0.05533246695995331
-2.0806875228881836 0.8754950761795044 -0.19749490916728973 6.0 5 -0.05532785877585411
-3.0706419944763184 1.292671799659729 0.6476057171821594 67.0 13 -0.05532555654644966
-2.05417537689209 0.8651835322380066 -0.11681386828422546 7.0 6 -0.05532325059175491
-3.0672473907470703 1.2925024032592773 0.7684328556060791 81.0 14 -0.055320948362350464
-2.039794683456421 0.8599656224250793 -0.038639627397060394 4.0 7 -0.055318646132946014
-3.0491180419921875 1.286116361618042 0.8867141008377075 82.0 15 -0.055316340178251266
-2.764672040939331 1.1701184511184692 -0.8044096231460571 6.0 0 -0.05529560521245003
-1.973992109298706 0.8358777165412903 0.03741795942187309 1.0 8 -0.05529329925775528
-3.1419174671173096 1.3310760259628296 -0.7877786159515381 51.0 1 -0.05529099702835083
-2.0853071212768555 0.8838720321655273 0.11869796365499496 41.0 9 -0.05528869107365608
-1.9990429878234863 0.8477199673652649 -0.4220695197582245 9.0 2 -0.05528638884425163
-2.2891762256622314 0.9707547426223755 0.21754072606563568 32.0 10 -0.055284082889556885
-2.082158327102661 0.8833942413330078 -0.3582349717617035 8.0 3 -0.055281780660152435
-2.234772205352783 0.9486044645309448 0.29809242486953735 30.0 11 -0.05527947470545769
-2.0646815299987793 0.8768304586410522 -0.2754247188568115 4.0 4 -0.05527717247605324
-2.2762296199798584 0.9671392440795898 0.391711950302124 1.0 12 -0.05527486652135849
-2.064629554748535 0.8776591420173645 -0.19627472758293152 8.0 5 -0.05527256429195404
-3.076723575592041 1.3085272312164307 0.6498954892158508 66.0 13 -0.05527026206254959
-2.049152135848999 0.8719251155853271 -0.11670918762683868 7.0 6 -0.05526795610785484
-3.062716484069824 1.3032020330429077 0.7684328556060791 81.0 14 -0.055265653878450394
-2.0312609672546387 0.8647304773330688 -0.03853491693735123 8.0 7 -0.055263347923755646
-3.058828592300415 1.3028080463409424 0.8908551931381226 78.0 15 -0.055261045694351196
-2.87227201461792 1.228090763092041 -0.8370208144187927 7.0 0 -0.05524030700325966
-2.033425807952881 0.8698469996452332 0.038604725152254105 2.0 8 -0.05523800477385521
-3.1406006813049316 1.3441171646118164 -0.7886784672737122 51.0 1 -0.05523569881916046
-2.0949056148529053 0.8970116972923279 0.11943066120147705 51.0 9 -0.05523339658975601
-1.9832899570465088 0.8496294617652893 -0.4193982183933258 6.0 2 -0.055231090635061264
-2.270951509475708 0.9728619456291199 0.21614623069763184 37.0 10 -0.055228788405656815
-2.0898001194000244 0.8956894874572754 -0.36011216044425964 8.0 3 -0.05522648245096207
-2.244051456451416 0.9622647166252136 0.2997986078262329 52.0 11 -0.05522418022155762
-2.05415678024292 0.8812615275382996 -0.27444979548454285 5.0 4 -0.05522187799215317
-2.2726693153381348 0.975476086139679 0.391711950302124 1.0 12 -0.05521957203745842
-2.0540761947631836 0.8820759654045105 -0.1955774873495102 8.0 5 -0.05521726980805397
-3.079122543334961 1.3228951692581177 0.6514219641685486 68.0 13 -0.05521496385335922
-2.055117607116699 0.883372962474823 -0.117232546210289 8.0 6 -0.05521266162395477
-3.0668716430664062 1.3182657957077026 0.7706823348999023 78.0 14 -0.055210355669260025
-2.018892765045166 0.8682195544242859 -0.038360390812158585 7.0 7 -0.055208053439855576
-3.0469348430633545 1.310956358909607 0.888784646987915 80.0 15 -0.05520574748516083
-2.864204168319702 1.2370786666870117 -0.8359856009483337 7.0 0 -0.05518501251935959
-2.0137031078338623 0.8701551556587219 0.03829057887196541 3.0 8 -0.05518270656466484
-3.153540849685669 1.3633514642715454 -0.7931774854660034 50.0 1 -0.05518040433526039
-2.088095188140869 0.9027337431907654 0.11922132223844528 53.0 9 -0.05517809838056564
-1.9911236763000488 0.8612236976623535 -0.42168790102005005 6.0 2 -0.055175796151161194
-2.260056734085083 0.9780133366584778 0.2154489904642105 43.0 10 -0.055173493921756744
-2.0792524814605713 0.9002031683921814 -0.35886070132255554 8.0 3 -0.055171187967061996
-2.251438856124878 0.9752177596092224 0.3012610375881195 45.0 11 -0.05516888573765755
-2.065640449523926 0.8947386145591736 -0.276399701833725 5.0 4 -0.0551665797829628
-2.2692503929138184 0.9834033250808716 0.391711950302124 1.0 12 -0.05516427755355835
-2.047328233718872 0.88765549659729 -0.19522884488105774 8.0 5 -0.0551619715988636
-3.0780880451202393 1.335197925567627 0.6521852016448975 67.0 13 -0.05515966936945915
-2.039196491241455 0.8849754333496094 -0.11649984866380692 10.0 6 -0.055157363414764404
-3.069401979446411 1.332066535949707 0.7724819779396057 78.0 14 -0.055155061185359955
-2.026855230331421 0.8800399899482727 -0.038569819182157516 7.0 7 -0.05515275523066521
-3.0494277477264404 1.3246631622314453 0.8908551931381226 78.0 15 -0.05515045300126076
-2.868940830230713 1.250429391860962 -0.8385737538337708 7.0 0 -0.05512971803545952
-2.025470495223999 0.8832224607467651 0.038569819182157516 6.0 8 -0.05512741208076477
-3.1668639183044434 1.3815940618515015 -0.7976765036582947 49.0 1 -0.05512510985136032
-2.0887513160705566 0.9112505316734314 0.11943066120147705 53.0 9 -0.05512280389666557
-1.9900562763214111 0.8686071634292603 -0.4220695197582245 5.0 2 -0.055120501667261124
-2.240367889404297 0.978327214717865 0.21388019621372223 40.0 10 -0.055118195712566376
-2.0690150260925293 0.9039298892021179 -0.35760921239852905 8.0 3 -0.055115893483161926
-2.2445547580718994 0.9810884594917297 0.300773561000824 44.0 11 -0.05511358752846718
-2.0662999153137207 0.9031738042831421 -0.2768871784210205 6.0 4 -0.05511128529906273
-2.265976905822754 0.9909230470657349 0.391711950302124 1.0 12 -0.05510897934436798
-2.042548418045044 0.8936408162117004 -0.1950545459985733 9.0 5 -0.05510667711496353
-3.071845054626465 1.3446106910705566 0.6518035531044006 63.0 13 -0.055104371160268784
-2.0325913429260254 0.8901305198669434 -0.11629050970077515 12.0 6 -0.055102068930864334
-3.0738930702209473 1.346146583557129 0.7747315168380737 81.0 14 -0.055099762976169586
-2.016599655151367 0.8835460543632507 -0.03843019902706146 7.0 7 -0.05509746074676514
-3.052095413208008 1.337870478630066 0.8929257392883301 76.0 15 -0.05509515479207039
-2.8630101680755615 1.2591580152511597 -0.8380560874938965 6.0 0 -0.05507441982626915
-2.0280215740203857 0.8923506140708923 0.03867453336715698 7.0 8 -0.0550721175968647
-3.1765336990356445 1.398369550704956 -0.8012757301330566 47.0 1 -0.05506981164216995
-2.078246593475342 0.9153160452842712 0.11901197582483292 55.0 9 -0.0550675094127655
-1.9961485862731934 0.8791578412055969 -0.4239776134490967 6.0 2 -0.055065203458070755
-2.2425808906555176 0.9881613254547119 0.21440312266349792 34.0 10 -0.055062901228666306
-2.0768511295318604 0.91556715965271 -0.3594864308834076 8.0 3 -0.05506059527397156
-2.235840082168579 0.9861231446266174 0.30004236102104187 29.0 11 -0.05505829304456711
-2.048605442047119 0.9039698839187622 -0.274937242269516 4.0 4 -0.05505598708987236
-2.2625043392181396 0.998826265335083 0.391711950302124 1.0 12 -0.05505368486046791
-2.045042037963867 0.9028233885765076 -0.1955774873495102 12.0 5 -0.05505137890577316
-3.0799403190612793 1.3603425025939941 0.6544748544692993 65.0 13 -0.05504907667636871
-2.0241479873657227 0.8944442272186279 -0.1159764900803566 12.0 6 -0.055046770721673965
-3.0673933029174805 1.3560795783996582 0.7742815613746643 72.0 14 -0.055044468492269516
-2.020817995071411 0.8938159942626953 -0.038569819182157516 7.0 7 -0.05504216253757477
-3.058006525039673 1.353206753730774 0.8960315585136414 76.0 15 -0.05503986030817032
-2.849769353866577 1.265224575996399 -0.8354679346084595 6.0 0 -0.05501912534236908
-2.0212392807006836 0.8978008031845093 0.038604725152254105 7.0 8 -0.05501681938767433
-3.201906681060791 1.4229028224945068 -0.8089240789413452 45.0 1 -0.05501451715826988
-2.0677382946014404 0.9193198084831238 0.11859328299760818 55.0 9 -0.055012211203575134
-1.9553942680358887 0.8693714737892151 -0.41596361994743347 4.0 2 -0.055009908974170685
-2.2318365573883057 0.992743968963623 0.2137058824300766 37.0 10 -0.05500760301947594
-2.0844709873199463 0.9276300668716431 -0.3613636791706085 9.0 3 -0.05500530079007149
-2.236011028289795 0.9955365657806396 0.300529807806015 6.0 11 -0.05500299483537674
-2.0454375743865967 0.9111149311065674 -0.274937242269516 4.0 4 -0.05500069260597229
-2.2590038776397705 1.0067179203033447 0.391711950302124 1.0 12 -0.05499838665127754
-2.0509772300720215 0.9140114784240723 -0.19644904136657715 9.0 5 -0.05499608442187309
-3.0787594318389893 1.3726842403411865 0.655238151550293 67.0 13 -0.054993778467178345
-2.0337815284729004 0.9071993231773376 -0.11670918762683868 15.0 6 -0.054991476237773895
-3.0608608722686768 1.3659850358963013 0.7738316655158997 75.0 14 -0.054989174008369446
-2.006730079650879 0.8959730863571167 -0.038360390812158585 7.0 7 -0.0549868680536747
-3.0638480186462402 1.3685998916625977 0.8991374373435974 74.0 15 -0.05498456582427025
-2.029041051864624 0.9097595810890198 0.038814153522253036 7.0 8 -0.05496152490377426
-3.2040328979492188 1.4372605085372925 -0.8107236623764038 27.0 1 -0.054959218949079514
-2.071805715560913 0.929802656173706 0.11901197582483292 52.0 9 -0.054956916719675064
-1.9595128297805786 0.8794068098068237 -0.4174901247024536 4.0 2 -0.054954610764980316
-2.217452049255371 0.9956319332122803 0.21265999972820282 33.0 10 -0.05495230853557587
-2.0866260528564453 0.9373295307159424 -0.3623022735118866 9.0 3 -0.05495000258088112
-2.2415757179260254 1.0074037313461304 0.30174851417541504 1.0 11 -0.05494770035147667
-2.0494868755340576 0.9215056300163269 -0.27591222524642944 4.0 4 -0.05494539439678192
-2.0350546836853027 0.9154440760612488 -0.19522884488105774 8.0 5 -0.05494078993797302
-3.0811102390289307 1.3866448402404785 0.656764566898346 67.0 13 -0.054938483983278275
-2.03060245513916 0.9142930507659912 -0.11670918762683868 14.0 6 -0.054936181753873825
-3.0702884197235107 1.3830643892288208 0.7774308919906616 75.0 14 -0.05493387579917908
-2.00176739692688 0.9021502733230591 -0.038325484842061996 8.0 7 -0.05493157356977463
-3.057290554046631 1.3784922361373901 0.8986197710037231 72.0 15 -0.05492926761507988
-2.0058133602142334 0.9077668786048889 0.03843019902706146 5.0 8 -0.05490622669458389
-2.070366859436035 0.9378530979156494 0.1191166415810585 51.0 9 -0.054901618510484695
-1.9617960453033447 0.8886717557907104 -0.41863495111465454 4.0 2 -0.054899316281080246
-2.1958158016204834 0.9951420426368713 0.2109168916940689 28.0 10 -0.054897014051675797
-2.074345827102661 0.9405283331871033 -0.3607378900051117 8.0 3 -0.05489470809698105
-2.263354778289795 1.0267030000686646 0.30516088008880615 1.0 11 -0.0548924058675766
-2.049872875213623 0.9302948713302612 -0.276399701833725 6.0 4 -0.05489009991288185
-2.251920700073242 1.0224641561508179 0.391711950302124 1.0 12 -0.0548877976834774
-2.0300328731536865 0.9217181205749512 -0.1950545459985733 9.0 5 -0.054885491728782654
-3.0834009647369385 1.400639533996582 0.6582910418510437 65.0 13 -0.054883189499378204
-2.0219438076019287 0.918897271156311 -0.11639518290758133 10.0 6 -0.054880883544683456
-3.0760860443115234 1.3986120223999023 0.7801303267478943 75.0 14 -0.05487858131527901
-2.002246379852295 0.910788357257843 -0.038395293056964874 8.0 7 -0.05487627536058426
-3.055976390838623 1.3907570838928223 0.8996549844741821 72.0 15 -0.05487397313117981
-2.0026321411132812 0.9147634506225586 0.03843019902706146 5.0 8 -0.05485093221068382
-2.2616219520568848 1.0335420370101929 -0.5740751028060913 3.0 1 -0.05484862998127937
-2.076162576675415 0.9492267370223999 0.11964000016450882 52.0 9 -0.054846324026584625
-1.9801079034805298 0.9053102731704712 -0.4232143759727478 3.0 2 -0.054844021797180176
-2.1887049674987793 1.0011433362960815 0.21056827902793884 24.0 10 -0.05484171584248543
-2.0728466510772705 0.9485855102539062 -0.3610507845878601 9.0 3 -0.05483941361308098
-2.223658800125122 1.0180703401565552 0.30028611421585083 1.0 11 -0.05483710765838623
-2.0538322925567627 0.9407512545585632 -0.27737462520599365 5.0 4 -0.05483480542898178
-2.248337745666504 1.0303187370300293 0.391711950302124 1.0 12 -0.05483249947428703
-2.0338854789733887 0.9324737787246704 -0.19575178623199463 9.0 5 -0.054830197244882584
-3.078493118286133 1.4113941192626953 0.6582910418510437 66.0 13 -0.054827891290187836
-2.0060160160064697 0.9201201796531677 -0.11566247045993805 10.0 6 -0.054825589060783386
-3.0747275352478027 1.4109667539596558 0.7810301184654236 74.0 14 -0.05482328310608864
-2.004506826400757 0.9202749729156494 -0.03850000724196434 10.0 7 -0.05482098087668419
-3.0581257343292236 1.4046406745910645 0.9017255902290344 72.0 15 -0.05481867492198944
-1.9994267225265503 0.9217483997344971 0.03843019902706146 5.0 8 -0.05479563772678375
-2.2456130981445312 1.0357171297073364 -0.5709258317947388 39.0 1 -0.054793331772089005
-2.069209575653076 0.9547939896583557 0.11943066120147705 52.0 9 -0.054791029542684555
-1.9714289903640747 0.9100931882858276 -0.4220695197582245 2.0 2 -0.05478872358798981
-2.1759769916534424 1.0049816370010376 0.2096967101097107 29.0 10 -0.05478642135858536
-2.065769672393799 0.9545188546180725 -0.36042505502700806 9.0 3 -0.05478411540389061
-2.1660308837890625 1.000846028327942 0.29297390580177307 1.0 11 -0.05478181317448616
-2.0469322204589844 0.9462488889694214 -0.2768871784210205 3.0 4 -0.05477950721979141
-2.18735408782959 1.011626124382019 0.3817001283168793 1.0 12 -0.05477720499038696
-2.0270018577575684 0.9378944635391235 -0.19540317356586456 9.0 5 -0.054774899035692215
-3.083989143371582 1.4276163578033447 0.6605807542800903 67.0 13 -0.054772596806287766
-2.0026302337646484 0.9274664521217346 -0.11566247045993805 11.0 6 -0.05477029085159302
-3.0748400688171387 1.4246845245361328 0.7823798060417175 74.0 14 -0.05476798862218857
-2.008539915084839 0.9306291341781616 -0.038639627397060394 14.0 7 -0.05476568266749382
-3.0637199878692627 1.4201817512512207 0.9048314094543457 72.0 15 -0.05476338043808937
-2.0050997734069824 0.9332892894744873 0.038604725152254105 6.0 8 -0.054740339517593384
-2.060432195663452 0.9594823122024536 0.1191166415810585 50.0 9 -0.054735731333494186
-1.973578929901123 0.919456422328949 -0.4232143759727478 2.0 2 -0.05473342910408974
-2.1670382022857666 1.0100455284118652 0.209173783659935 36.0 10 -0.05473112314939499
-2.0660057067871094 0.9633942246437073 -0.3610507845878601 11.0 3 -0.05472882091999054
-2.198326826095581 1.0255637168884277 0.2978487014770508 1.0 11 -0.05472651496529579
-2.032822847366333 0.9483527541160583 -0.2754247188568115 3.0 4 -0.05472421273589134
-2.2410902976989746 1.0459893941879272 0.391711950302124 1.0 12 -0.054721906781196594
-2.0381577014923096 0.9517080783843994 -0.1967976689338684 9.0 5 -0.054719604551792145
-3.0896594524383545 1.4433586597442627 0.662870466709137 67.0 13 -0.0547172985970974
-2.001190185546875 0.9352966547012329 -0.11576715111732483 11.0 6 -0.05471499636769295
-3.070098876953125 1.4348726272583008 0.7823798060417175 75.0 14 -0.0547126904129982
-2.0034677982330322 0.9367876648902893 -0.038604725152254105 16.0 7 -0.05471038818359375
-3.070993185043335 1.4365977048873901 0.9084548950195312 76.0 15 -0.0547080859541893
-2.01285457611084 0.9450324773788452 0.038814153522253036 6.0 8 -0.054685045033693314
-3.1079068183898926 1.4598201513290405 -0.7927275896072388 27.0 1 -0.054682739078998566
-2.0680859088897705 0.9714040756225586 0.1197446808218956 49.0 9 -0.054680436849594116
-1.9598580598831177 0.9209861755371094 -0.42092466354370117 1.0 2 -0.05467813089489937
-2.1618738174438477 1.0163785219192505 0.20899945497512817 39.0 10 -0.05467582866549492
-2.0788869857788086 0.9778069257736206 -0.3638666272163391 10.0 3 -0.05467352271080017
-2.2236526012420654 1.046371579170227 0.30174851417541504 1.0 11 -0.05467122048139572
-2.0386476516723633 0.9593148231506348 -0.27664345502853394 3.0 4 -0.054668914526700974
-2.2376091480255127 1.0534154176712036 0.391711950302124 1.0 12 -0.054666612297296524
-2.020570755004883 0.9516701698303223 -0.19540317356586456 10.0 5 -0.054664306342601776
-3.0955116748809814 1.4586173295974731 0.6651601791381836 67.0 13 -0.05466200411319733
-2.007110595703125 0.9461859464645386 -0.11629050970077515 11.0 6 -0.05465970188379288
-3.0811879634857178 1.4525243043899536 0.7864289283752441 72.0 14 -0.05465739592909813
-1.9876899719238281 0.9374553561210632 -0.038360390812158585 11.0 7 -0.05465509369969368
-3.0662121772766113 1.446773648262024 0.9084548950195312 76.0 15 -0.05465278774499893
-2.8112547397613525 1.330675721168518 -0.833397388458252 2.0 0 -0.05463205277919769
-2.0042877197265625 0.9491347074508667 0.03870943933725357 6.0 8 -0.054629746824502945
-3.0871989727020264 1.4626092910766602 -0.7886784672737122 32.0 1 -0.054627444595098495
-2.0682919025421143 0.9803285002708435 0.11995401978492737 49.0 9 -0.05462513864040375
-1.9780817031860352 0.9375706911087036 -0.42550405859947205 1.0 2 -0.0546228364109993
-2.1620919704437256 1.0252493619918823 0.20934809744358063 42.0 10 -0.05462053045630455
-2.0667099952697754 0.980461597442627 -0.3623022735118866 9.0 3 -0.0546182282269001
-2.220170497894287 1.0537397861480713 0.30174851417541504 1.0 11 -0.05461592599749565
-2.0209412574768066 0.959613025188446 -0.2746935188770294 2.0 4 -0.0546136200428009
-2.2339184284210205 1.0612198114395142 0.391711950302124 1.0 12 -0.054611317813396454
-2.0228030681610107 0.9609296917915344 -0.19592611491680145 12.0 5 -0.054609011858701706
-3.0906577110290527 1.4688745737075806 0.6651601791381836 65.0 13 -0.054606709629297256
-2.016587972640991 0.9588401317596436 -0.11702320724725723 13.0 6 -0.05460440367460251
-3.084897756576538 1.4674572944641113 0.7886784672737122 75.0 14 -0.05460210144519806
-1.9916279315948486 0.9478252530097961 -0.03850000724196434 8.0 7 -0.05459979549050331
-3.0646321773529053 1.4591281414031982 0.909490168094635 76.0 15 -0.05459749326109886
-2.8327412605285645 1.3529690504074097 -0.8411619663238525 6.0 0 -0.054576754570007324
-1.999158263206482 0.955263078212738 0.03867453336715698 6.0 8 -0.054574452340602875
-3.059218645095825 1.462450385093689 -0.782829761505127 30.0 1 -0.054572150111198425
-2.0756683349609375 0.9927121996879578 0.12058205902576447 49.0 9 -0.05456984415650368
-1.974797010421753 0.9444693326950073 -0.42550405859947205 1.0 2 -0.05456754192709923
-2.1638920307159424 1.0353702306747437 0.20987103879451752 43.0 10 -0.05456523597240448
-2.059710741043091 0.9859644174575806 -0.36167651414871216 9.0 3 -0.05456293374300003
-2.198575019836426 1.0529085397720337 0.2993111312389374 1.0 11 -0.05456062778830528
-2.0498030185699463 0.9821007251739502 -0.2790808379650116 2.0 4 -0.05455832555890083
-2.2302002906799316 1.0690118074417114 0.391711950302124 1.0 12 -0.054556019604206085
-2.017639398574829 0.9671240448951721 -0.19575178623199463 15.0 5 -0.054553717374801636
-3.0819716453552246 1.47795569896698 0.6643969416618347 65.0 13 -0.05455141142010689
-2.006025791168213 0.9624179005622864 -0.1166045218706131 12.0 6 -0.05454910919070244
-3.09381103515625 1.4849625825881958 0.7922776341438293 70.0 14 -0.05454680323600769
-1.9883074760437012 0.954771101474762 -0.03850000724196434 8.0 7 -0.05454450100660324
-3.0664854049682617 1.47316312789917 0.9115607142448425 76.0 15 -0.05454219505190849
-2.8245203495025635 1.3611716032028198 -0.840126633644104 6.0 0 -0.054521460086107254
-1.9922088384628296 0.9604988098144531 0.038604725152254105 7.0 8 -0.054519157856702805
-3.0312769412994385 1.4621142148971558 -0.776980996131897 32.0 1 -0.05451685190200806
-2.064995050430298 0.9964795112609863 0.12016335874795914 49.0 9 -0.05451454967260361
-1.971488118171692 0.9513570070266724 -0.42550405859947205 1.0 2 -0.05451224371790886
-2.165647029876709 1.0455158948898315 0.21039395034313202 38.0 10 -0.05450994148850441
-2.059814453125 0.994866132736206 -0.3623022735118866 9.0 3 -0.05450763553380966
-2.1948864459991455 1.0605766773223877 0.2993111312389374 1.0 11 -0.05450533330440521
-2.0177667140960693 0.9754262566566467 -0.27518099546432495 1.0 4 -0.054503027349710464
-2.2264554500579834 1.0767897367477417 0.391711950302124 1.0 12 -0.054500725120306015
-2.019632339477539 0.9767630100250244 -0.19627472758293152 12.0 5 -0.05449841916561127
-3.087397336959839 1.4938353300094604 0.6666866540908813 66.0 13 -0.05449611693620682
-2.0044515132904053 0.9702849388122559 -0.11670918762683868 13.0 6 -0.05449381098151207
-3.0921168327331543 1.4974511861801147 0.7931774854660034 74.0 14 -0.05449150875210762
-1.995760202407837 0.966937243938446 -0.03870943933725357 9.0 7 -0.05448920279741287
-3.0717544555664062 1.4889147281646729 0.9146665334701538 78.0 15 -0.05448690056800842
-2.8232266902923584 1.3727123737335205 -0.8411619663238525 6.0 0 -0.054466165602207184
-2.00862455368042 0.9770691394805908 0.03898867964744568 9.0 8 -0.054463859647512436
-3.0103843212127686 1.4650118350982666 -0.7729318737983704 30.0 1 -0.054461557418107986
-2.056117296218872 1.0010589361190796 0.11984935402870178 48.0 9 -0.05445925146341324
-1.9787465333938599 0.9633895754814148 -0.42779380083084106 1.0 2 -0.05445694923400879
-2.170940399169922 1.0574314594268799 0.21126550436019897 37.0 10 -0.05445464327931404
-2.0723109245300293 1.0098379850387573 -0.3651180863380432 10.0 3 -0.05445234104990959
-2.2018771171569824 1.073451280593872 0.300773561000824 2.0 11 -0.054450035095214844
-2.0428969860076904 0.9963871240615845 -0.2790808379650116 1.0 4 -0.054447732865810394
-2.0180013179779053 0.984680712223053 -0.19644904136657715 11.0 5 -0.0544431246817112
-3.09274959564209 1.5097708702087402 0.668976366519928 72.0 13 -0.05444081872701645
-2.010025978088379 0.9816579818725586 -0.117232546210289 16.0 6 -0.054438516497612
-3.0781164169311523 1.5039582252502441 0.7909280061721802 72.0 14 -0.05443621054291725
-1.981593370437622 0.9686288833618164 -0.03850000724196434 8.0 7 -0.0544339083135128
-3.0734803676605225 1.5030221939086914 0.9167370796203613 76.0 15 -0.054431602358818054
-2.8253557682037354 1.3859614133834839 -0.8432324528694153 7.0 0 -0.05439949035644531
-2.0016112327575684 0.9823126196861267 0.038918863981962204 9.0 8 -0.05439718812704086
-2.9947566986083984 1.47035813331604 -0.7702324986457825 31.0 1 -0.054394882172346115
-2.063366413116455 1.0135128498077393 0.12047737836837769 48.0 9 -0.054392579942941666
-1.9647986888885498 0.9650969505310059 -0.42550405859947205 1.0 2 -0.05439027398824692
-2.1690242290496826 1.0658818483352661 0.2114398330450058 32.0 10 -0.05438797175884247
-2.0740914344787598 1.0196802616119385 -0.3660567104816437 10.0 3 -0.05438566580414772
-2.1892101764678955 1.0767501592636108 0.29955488443374634 2.0 11 -0.05438336357474327
-2.0394062995910645 1.0035121440887451 -0.2790808379650116 1.0 4 -0.05438105762004852
-2.010976552963257 0.9899588823318481 -0.1961004137992859 10.0 5 -0.054376449435949326
-3.0980281829833984 1.5257619619369507 0.6712660789489746 74.0 13 -0.054374147206544876
-2.0137534141540527 0.9921993613243103 -0.11765124648809433 20.0 6 -0.05437184125185013
-3.0920748710632324 1.5241713523864746 0.7958768606185913 68.0 14 -0.05436953902244568
-1.9781999588012695 0.9755405187606812 -0.03850000724196434 8.0 7 -0.05436723306775093
-3.0716803073883057 1.515451192855835 0.9177724123001099 76.0 15 -0.05436493083834648
-2.815305709838867 1.3932454586029053 -0.841679573059082 7.0 0 -0.05434419587254524
-1.9945859909057617 0.9875190854072571 0.038849055767059326 9.0 8 -0.054341889917850494
-2.9721434116363525 1.4721524715423584 -0.7657334208488464 31.0 1 -0.054339587688446045
-2.0741326808929443 1.0278041362762451 0.12131475657224655 48.0 9 -0.0543372817337513
-1.9790087938308716 0.9806670546531677 -0.42932024598121643 1.0 2 -0.05433497950434685
-2.1795709133148193 1.0805262327194214 0.21283432841300964 9.0 10 -0.0543326735496521
-2.0563623905181885 1.0198919773101807 -0.3635537326335907 11.0 3 -0.05433037132024765
-2.201442003250122 1.0923264026641846 0.30174851417541504 1.0 11 -0.0543280653655529
-2.064340114593506 1.0247472524642944 -0.28298062086105347 1.0 4 -0.05432576313614845
-3.103203535079956 1.5411174297332764 0.5487721562385559 38.0 12 -0.054323457181453705
-2.0075089931488037 0.9969720244407654 -0.1961004137992859 10.0 5 -0.054321154952049255
-3.0961992740631104 1.5383137464523315 0.6720293164253235 74.0 13 -0.05431884899735451
-2.0031235218048096 0.9956666231155396 -0.117232546210289 21.0 6 -0.05431654676795006
-3.093714952468872 1.5384269952774048 0.7976765036582947 70.0 14 -0.05431424081325531
-1.9783635139465332 0.9842206835746765 -0.038569819182157516 8.0 7 -0.05431193858385086
-3.0698304176330566 1.5278856754302979 0.9188076257705688 76.0 15 -0.05430963262915611
