# .PCD v0.7 - Point Cloud Data file format
VERSION 0.7
FIELDS x y z intensity ring time
SIZE 4 4 4 4 4 4
TYPE F F F F F F
COUNT 1 1 1 1 1 1
WIDTH 542
HEIGHT 1
VIEWPOINT 0 0 0 1 0 0 0
POINTS 542
DATA ascii
3.064573049545288 0.7159676551818848 0.6117336750030518 3.0 13 -0.07396461069583893
0.59904944896698 0.13984429836273193 -0.032238952815532684 100.0 6 -0.07396230846643448
3.05342698097229 0.7128031849861145 0.7238925695419312 58.0 14 -0.07395999878644943
0.6056469082832336 0.14127297699451447 -0.010855397209525108 91.0 7 -0.07395769655704498
3.057314395904541 0.7125839591026306 0.8411619663238525 74.0 15 -0.07395539432764053
1.4058798551559448 0.3256067931652069 -0.3866756856441498 56.0 0 -0.0739346593618393
0.6019961833953857 0.13931377232074738 0.010785587131977081 100.0 8 -0.07393235713243484
1.397399663925171 0.3231295943260193 -0.33112797141075134 55.0 1 -0.0739300474524498
0.5935272574424744 0.13713565468788147 0.031924936920404434 59.0 9 -0.07392774522304535
1.417428731918335 0.32749971747398376 -0.28277894854545593 51.0 2 -0.0739254429936409
0.619282603263855 0.14297263324260712 0.05560535937547684 100.0 10 -0.07392314076423645
0.6043951511383057 0.13942480087280273 -0.09824085235595703 100.0 3 -0.0739208310842514
0.6015892028808594 0.13866662979125977 0.07580273598432541 100.0 11 -0.07391852885484695
0.5919411182403564 0.13633395731449127 -0.07458404451608658 100.0 4 -0.0739162266254425
0.6275687217712402 0.14442458748817444 0.10199528187513351 69.0 12 -0.07391392439603806
0.5999658107757568 0.13807222247123718 -0.05386224761605263 100.0 5 -0.07391161471605301
0.6026961803436279 0.1385895162820816 0.12020967900753021 13.0 13 -0.07390931248664856
0.611213207244873 0.14043569564819336 -0.032866984605789185 91.0 6 -0.07390701025724411
0.6042115688323975 0.13860495388507843 -0.01082049123942852 86.0 7 -0.07390239834785461
3.0693206787109375 0.703532338142395 0.8437501192092896 72.0 15 -0.07390009611845016
1.3994736671447754 0.3189804255962372 -0.3846051096916199 56.0 0 -0.07387936115264893
0.6005290150642395 0.1367676556110382 0.010750683024525642 100.0 8 -0.07387705892324448
1.3985191583633423 0.3182494342327118 -0.33112797141075134 59.0 1 -0.07387475669384003
0.6017925143241882 0.13683447241783142 0.03234362602233887 63.0 9 -0.07387244701385498
1.4204776287078857 0.32298558950424194 -0.28316056728363037 53.0 2 -0.07387014478445053
0.598406195640564 0.13595467805862427 0.053687937557697296 100.0 10 -0.07386784255504608
0.6068045496940613 0.13775137066841125 -0.09855373203754425 100.0 3 -0.07386554032564163
0.5981976985931396 0.13568773865699768 0.07531525939702988 100.0 11 -0.07386323064565659
0.6001573801040649 0.13602212071418762 -0.07555899769067764 100.0 4 -0.07386092841625214
0.6184361577033997 0.14005142450332642 0.1004309356212616 96.0 12 -0.07385862618684769
0.6004441380500793 0.13597695529460907 -0.05386224761605263 100.0 5 -0.07385632395744324
0.6050910353660583 0.13691826164722443 0.12059129029512405 37.0 13 -0.07385401427745819
0.611699640750885 0.13830143213272095 -0.032866984605789185 91.0 6 -0.07385171204805374
0.6007905602455139 0.13561424612998962 -0.010750683024525642 90.0 7 -0.07384710758924484
3.058565855026245 0.6898394227027893 0.840126633644104 74.0 15 -0.0738448053598404
1.396808385848999 0.3132482171058655 -0.3835698664188385 56.0 0 -0.07382406294345856
0.5912462472915649 0.13248419761657715 0.010576157830655575 100.0 8 -0.07382176071405411
1.4072282314300537 0.31506842374801636 -0.3329275846481323 54.0 1 -0.07381945848464966
0.6100389957427979 0.13658341765403748 0.032762311398983 58.0 9 -0.07381715625524521
1.4292598962783813 0.3197399377822876 -0.2846870422363281 57.0 2 -0.07381484657526016
0.6105436086654663 0.13647261261940002 0.05473380535840988 100.0 10 -0.07381254434585571
0.5976423025131226 0.13347932696342468 -0.09698937833309174 100.0 3 -0.07381024211645126
0.6083548069000244 0.13576072454452515 0.07653395086526871 100.0 11 -0.07380793988704681
0.5967535376548767 0.13306215405464172 -0.07507152855396271 100.0 4 -0.07380563020706177
0.6111850738525391 0.13628005981445312 0.0991794615983963 85.0 12 -0.07380332797765732
0.5931363105773926 0.1321469396352768 -0.053164999932050705 100.0 5 -0.07380102574825287
0.6113142967224121 0.13608519732952118 0.12173613905906677 40.0 13 -0.07379872351884842
0.6160779595375061 0.13703249394893646 -0.03307632729411125 100.0 6 -0.07379642128944397
1.4914237260818481 0.33146005868911743 0.35272327065467834 1.0 14 -0.07379411160945892
0.6051409840583801 0.13448898494243622 -0.01082049123942852 81.0 7 -0.07379180938005447
3.053292989730835 0.6780185103416443 0.8380560874938965 78.0 15 -0.07378950715065002
1.4016664028167725 0.30920249223709106 -0.3846051096916199 56.0 0 -0.07376877218484879
0.5838713049888611 0.12879988551139832 0.01043653953820467 100.0 8 -0.07376646250486374
1.4006531238555908 0.3087226152420044 -0.33112797141075134 55.0 1 -0.07376416027545929
0.6105120778083801 0.13445328176021576 0.032762311398983 61.0 9 -0.07376185804605484
1.4284499883651733 0.3143266439437866 -0.2843054234981537 55.0 2 -0.07375955581665039
0.6149080395698547 0.13519638776779175 0.05508242920041084 100.0 10 -0.07375724613666534
0.588435173034668 0.12937593460083008 -0.09542503207921982 100.0 3 -0.0737549439072609
0.5932908654212952 0.1303349882364273 0.07458404451608658 100.0 11 -0.07375264167785645
0.6088250279426575 0.13363617658615112 -0.07653395086526871 100.0 4 -0.073750339448452
0.6193752288818359 0.1358383297920227 0.1004309356212616 92.0 12 -0.07374803721904755
0.593593955039978 0.1300758272409439 -0.053164999932050705 100.0 5 -0.0737457275390625
0.5964202284812927 0.1306951642036438 0.11868320405483246 42.0 13 -0.07374342530965805
0.6087247729301453 0.13328015804290771 -0.03265763819217682 100.0 6 -0.0737411230802536
1.4791887998580933 0.3235967755317688 0.34957394003868103 2.0 14 -0.07373882085084915
0.6134210228919983 0.13408403098583221 -0.010960111394524574 84.0 7 -0.0737365111708641
3.059415817260742 0.668179988861084 0.8390913605690002 76.0 15 -0.07373420894145966
1.4140113592147827 0.3070116639137268 -0.38771092891693115 54.0 0 -0.07371347397565842
0.5979970097541809 0.1297287791967392 0.010680872946977615 100.0 8 -0.07371117174625397
1.4017221927642822 0.3038318455219269 -0.33112797141075134 55.0 1 -0.07370886206626892
0.6031467914581299 0.13073575496673584 0.03234362602233887 63.0 9 -0.07370655983686447
1.439078450202942 0.3116653859615326 -0.2862135171890259 57.0 2 -0.07370425760746002
0.6095110177993774 0.13189251720905304 0.05455949530005455 100.0 10 -0.07370195537805557
0.6023985147476196 0.13024339079856873 -0.09761511534452438 87.0 3 -0.07369965314865112
0.5956825613975525 0.1286822259426117 0.07482778280973434 100.0 11 -0.07369734346866608
0.6015262007713318 0.12983472645282745 -0.07555899769067764 100.0 4 -0.07369504123926163
0.6140295267105103 0.132533460855484 0.09949233382940292 76.0 12 -0.07369273900985718
0.6057077050209045 0.13062694668769836 -0.05421087145805359 100.0 5 -0.07369043678045273
0.6045497059822083 0.1302664875984192 0.12020967900753021 46.0 13 -0.07368812710046768
0.6052812933921814 0.13031359016895294 -0.03244829550385475 100.0 6 -0.07368582487106323
1.4574471712112427 0.3135146200656891 0.3441751301288605 1.0 14 -0.07368352264165878
0.6119073629379272 0.13162872195243835 -0.010925207287073135 91.0 7 -0.07368122041225433
3.078613519668579 0.6616836190223694 0.8437501192092896 56.0 15 -0.07367891073226929
1.4188529253005981 0.3028815686702728 -0.3887462317943573 54.0 0 -0.07365817576646805
0.604290783405304 0.1289975494146347 0.010785587131977081 100.0 8 -0.0736558735370636
1.4065337181091309 0.29999446868896484 -0.332027792930603 54.0 1 -0.07365357130765915
0.599692702293396 0.12779685854911804 0.0321342796087265 61.0 9 -0.0736512690782547
1.4382370710372925 0.3062322735786438 -0.28583186864852905 55.0 2 -0.07364895939826965
0.6060701608657837 0.12893478572368622 0.05421087145805359 100.0 10 -0.0736466571688652
0.5989628434181213 0.12742279469966888 -0.09698937833309174 87.0 3 -0.07364435493946075
0.601931095123291 0.1279444545507431 0.07555899769067764 100.0 11 -0.0736420527100563
0.5980698466300964 0.1270149201154709 -0.07507152855396271 100.0 4 -0.07363974303007126
0.6164206862449646 0.13079944252967834 0.09980519860982895 92.0 12 -0.07363744080066681
0.6198034882545471 0.13140420615673065 -0.055431053042411804 100.0 5 -0.07363513857126236
0.6088194251060486 0.12907548248767853 0.1209729015827179 41.0 13 -0.07363283634185791
0.6096178293228149 0.1291338950395584 -0.03265763819217682 100.0 6 -0.07363052666187286
1.4527593851089478 0.3074689209461212 0.34282541275024414 2.0 14 -0.07362822443246841
0.6064937710762024 0.12825065851211548 -0.01082049123942852 86.0 7 -0.07362592220306396
3.0752341747283936 0.6497343182563782 0.8421972393989563 9.0 15 -0.07362361997365952
1.4028340578079224 0.29460111260414124 -0.384087473154068 53.0 0 -0.07360288500785828
0.6047374606132507 0.1268872320652008 0.010785587131977081 100.0 8 -0.07360057532787323
1.4094796180725098 0.2954823970794678 -0.3324776887893677 52.0 1 -0.07359827309846878
0.6040447950363159 0.12652181088924408 0.03234362602233887 61.0 9 -0.07359597086906433
1.4354016780853271 0.30065587162971497 -0.28506866097450256 55.0 2 -0.07359366863965988
0.6123448014259338 0.12814874947071075 0.05473380535840988 100.0 10 -0.07359135895967484
0.6168060898780823 0.1289697289466858 -0.09980519860982895 94.0 3 -0.07358905673027039
0.6043172478675842 0.12624861299991608 0.07580273598432541 100.0 11 -0.07358675450086594
0.6101688146591187 0.12735995650291443 -0.07653395086526871 82.0 4 -0.07358445227146149
0.6110722422599792 0.12743693590164185 0.09886659681797028 74.0 12 -0.07358214259147644
0.5968307852745056 0.12446693331003189 -0.053339313715696335 100.0 5 -0.07357984036207199
0.6131101846694946 0.12775060534477234 0.12173613905906677 45.0 13 -0.07357753813266754
0.6139755845069885 0.12781910598278046 -0.032866984605789185 99.0 6 -0.07357523590326309
1.4500081539154053 0.30160191655158997 0.34192562103271484 5.0 14 -0.07357292622327805
0.6049798727035522 0.12572605907917023 -0.010785587131977081 79.0 7 -0.0735706239938736
3.075591564178467 0.6386051177978516 0.841679573059082 1.0 15 -0.07356832176446915
1.4000698328018188 0.2889212369918823 -0.38305220007896423 53.0 0 -0.07354758679866791
0.5895087122917175 0.12154495716094971 0.010506349615752697 100.0 8 -0.07354528456926346
1.4143197536468506 0.2913479506969452 -0.333377480506897 52.0 1 -0.07354297488927841
0.6083953380584717 0.12521761655807495 0.032552968710660934 63.0 9 -0.07354067265987396
1.4383654594421387 0.296038955450058 -0.285450279712677 57.0 2 -0.07353837043046951
0.6010791063308716 0.123602494597435 0.053687937557697296 100.0 10 -0.07353606820106506
0.6095126271247864 0.12522615492343903 -0.09855373203754425 100.0 3 -0.07353375852108002
0.6105878353118896 0.125335693359375 0.07653395086526871 100.0 11 -0.07353145629167557
0.6086651682853699 0.12483032792806625 -0.07629022002220154 40.0 4 -0.07352915406227112
0.6231243014335632 0.12768273055553436 0.10074380785226822 96.0 12 -0.07352685183286667
0.6089724898338318 0.12478291988372803 -0.05438518151640892 100.0 5 -0.07352454215288162
0.611629068851471 0.12521573901176453 0.12135452777147293 45.0 13 -0.07352223992347717
0.614418089389801 0.1256749927997589 -0.032866984605789185 100.0 6 -0.07351993769407272
1.449142575263977 0.2961494028568268 0.3414757251739502 7.0 14 -0.07351763546466827
0.6093336939811707 0.12441345304250717 -0.010855397209525108 73.0 7 -0.07351533323526382
1.4688650369644165 0.2996450960636139 0.4016871750354767 0.0 15 -0.07351302355527878
1.4124298095703125 0.28633561730384827 -0.3861580491065979 53.0 0 -0.07349228858947754
0.5938491225242615 0.12028048932552338 0.010576157830655575 100.0 8 -0.07348998636007309
1.4134180545806885 0.2860223650932312 -0.3329275846481323 56.0 1 -0.07348768413066864
0.6166375279426575 0.12478411197662354 0.03297165781259537 58.0 9 -0.0734853744506836
1.4393901824951172 0.2910159230232239 -0.285450279712677 57.0 2 -0.07348307222127914
0.6132245063781738 0.12387064844369888 0.05473380535840988 100.0 10 -0.0734807699918747
0.5925190448760986 0.11958054453134537 -0.09573790431022644 90.0 3 -0.07347846776247025
0.5993461012840271 0.12084922194480896 0.07507152855396271 100.0 11 -0.0734761580824852
0.6149351000785828 0.12388113141059875 -0.07702143490314484 14.0 4 -0.07347385585308075
0.6157984137535095 0.12405504286289215 0.09949233382940292 81.0 12 -0.0734715536236763
0.6074512004852295 0.12226315587759018 -0.05421087145805359 100.0 5 -0.07346925139427185
0.6062883138656616 0.1219187080860138 0.12020967900753021 41.0 13 -0.0734669491648674
0.61093670129776 0.12274281680583954 -0.03265763819217682 97.0 6 -0.07346463948488235
1.453988790512085 0.2918558120727539 0.3423755168914795 7.0 14 -0.0734623372554779
0.6195457577705383 0.12435998767614365 -0.011029920540750027 100.0 7 -0.07346003502607346
1.4546973705291748 0.2917332053184509 0.39754605293273926 1.0 15 -0.073457732796669
1.4153152704238892 0.28178107738494873 -0.3866756856441498 51.0 0 -0.07343699038028717
0.5962059497833252 0.11870114505290985 0.010611063800752163 100.0 8 -0.07343468815088272
1.4028911590576172 0.2790522575378418 -0.33022817969322205 55.0 1 -0.07343238592147827
0.5955208539962769 0.11834865808486938 0.03182026371359825 55.0 9 -0.07343008369207382
1.4461740255355835 0.2871377468109131 -0.2865951359272003 59.0 2 -0.07342778146266937
0.6214704513549805 0.1232798770070076 0.055431053042411804 100.0 10 -0.07342547178268433
0.6026004552841187 0.11953667551279068 -0.09730225056409836 97.0 3 -0.07342316955327988
0.6016907095909119 0.11924736946821213 0.07531525939702988 100.0 11 -0.07342086732387543
0.6133952140808105 0.12145580351352692 -0.07677769660949707 12.0 4 -0.07341856509447098
0.6317302584648132 0.12497136741876602 0.10199528187513351 96.0 12 -0.07341625541448593
0.603965163230896 0.11936923116445541 -0.05386224761605263 100.0 5 -0.07341395318508148
0.6105412244796753 0.1206689402461052 0.1209729015827179 41.0 13 -0.07341165095567703
0.6132997870445251 0.12110324949026108 -0.032762311398983 84.0 6 -0.07340934872627258
1.4511250257492065 0.2862778306007385 0.3414757251739502 7.0 14 -0.07340703904628754
0.6082044243812561 0.11987625062465668 -0.01082049123942852 68.0 7 -0.07340473681688309
1.4651843309402466 0.2885201573371887 0.40013426542282104 1.0 15 -0.07340243458747864
1.416242003440857 0.2770857512950897 -0.3866756856441498 51.0 0 -0.0733816996216774
0.6123170852661133 0.11968803405761719 0.010890301316976547 94.0 8 -0.07337939739227295
1.4076818227767944 0.2749008536338806 -0.33112797141075134 52.0 1 -0.0733770877122879
0.5939700603485107 0.11588655412197113 0.03171559050679207 51.0 9 -0.07337478548288345
1.43941068649292 0.280836284160614 -0.28506866097450256 61.0 2 -0.073372483253479
0.6160091161727905 0.12007489800453186 0.05490811914205551 100.0 10 -0.07337018102407455
0.6049529910087585 0.1178102046251297 -0.09761511534452438 90.0 3 -0.07336787134408951
0.6118460893630981 0.11904175579547882 0.07653395086526871 100.0 11 -0.07336556911468506
0.6021237969398499 0.11704111099243164 -0.07531525939702988 8.0 4 -0.07336326688528061
0.6127711534500122 0.11899977177381516 0.09886659681797028 74.0 12 -0.07336096465587616
0.6180486083030701 0.1200246512889862 -0.05508242920041084 100.0 5 -0.07335865497589111
0.6167406439781189 0.11965896189212799 0.12211776524782181 36.0 13 -0.07335635274648666
0.6058757901191711 0.11744125932455063 -0.03234362602233887 82.0 6 -0.07335405051708221
1.440636157989502 0.2789880037307739 0.33877629041671753 7.0 14 -0.07335174828767776
0.6007660031318665 0.11623323708772659 -0.010680872946977615 66.0 7 -0.07334943860769272
1.4642856121063232 0.28303763270378113 0.3996165990829468 2.0 15 -0.07334713637828827
1.419097900390625 0.27250441908836365 -0.3871932923793793 53.0 0 -0.07332640141248703
0.6127310991287231 0.11755005270242691 0.010890301316976547 100.0 8 -0.07332409918308258
1.4220300912857056 0.27255356311798096 -0.33427727222442627 53.0 1 -0.07332179695367813
0.6002558469772339 0.11493921279907227 0.03202961012721062 53.0 9 -0.07331948727369308
1.444238543510437 0.2765481472015381 -0.28583186864852905 61.0 2 -0.07331718504428864
0.612510621547699 0.11717528849840164 0.05455949530005455 100.0 10 -0.07331488281488419
0.6150617599487305 0.11755204945802689 -0.0991794615983963 94.0 3 -0.07331258058547974
0.6103081107139587 0.1165328249335289 0.07629022002220154 100.0 11 -0.07331027090549469
0.6278777718544006 0.11977433413267136 -0.07848386466503143 5.0 4 -0.07330796867609024
0.611242413520813 0.11649011075496674 0.09855373203754425 85.0 12 -0.07330566644668579
0.612592339515686 0.11674737930297852 -0.05455949530005455 100.0 5 -0.07330336421728134
0.6229404211044312 0.11860685050487518 0.12326261401176453 31.0 13 -0.0733010545372963
0.6180545091629028 0.1175651103258133 -0.03297165781259537 63.0 6 -0.07329875230789185
1.4301143884658813 0.2717742323875427 0.33607688546180725 10.0 14 -0.0732964500784874
0.5992034673690796 0.11376230418682098 -0.010645967908203602 35.0 7 -0.07329414784908295
1.4424885511398315 0.2736048400402069 0.3934049606323242 4.0 15 -0.0732918381690979
1.410548210144043 0.26576101779937744 -0.3846051096916199 54.0 0 -0.07327110320329666
0.607242226600647 0.11430062353610992 0.010785587131977081 100.0 8 -0.07326880097389221
1.4268032312393188 0.26830801367759705 -0.33517709374427795 51.0 1 -0.07326649874448776
0.6026163101196289 0.11321211606264114 0.0321342796087265 51.0 9 -0.07326419651508331
1.4451950788497925 0.2715054154396057 -0.28583186864852905 61.0 2 -0.07326188683509827
0.6089995503425598 0.11430128663778305 0.05421087145805359 100.0 10 -0.07325958460569382
0.6057606935501099 0.11358395963907242 -0.09761511534452438 90.0 3 -0.07325728237628937
0.6126621961593628 0.11476736515760422 0.07653395086526871 100.0 11 -0.07325498014688492
0.6146335005760193 0.1150256097316742 -0.07677769660949707 6.0 4 -0.07325267046689987
0.6232956647872925 0.11653409898281097 0.1004309356212616 92.0 12 -0.07325036823749542
0.6110575795173645 0.11413565278053284 -0.05438518151640892 99.0 5 -0.07324806600809097
0.6098414659500122 0.11390849947929382 0.12059129029512405 27.0 13 -0.07324576377868652
0.6184611320495605 0.1154068186879158 -0.03297165781259537 63.0 6 -0.07324345409870148
1.4368016719818115 0.2678522765636444 0.3374266028404236 11.0 14 -0.07324115186929703
0.5976310968399048 0.11130400747060776 -0.010611063800752163 8.0 7 -0.07323884963989258
1.4301400184631348 0.2660938799381256 0.38978150486946106 6.0 15 -0.07323654741048813
1.4229111671447754 0.26269400119781494 -0.38771092891693115 54.0 0 -0.07321581244468689
0.6017380952835083 0.1110912561416626 0.010680872946977615 100.0 8 -0.07321350276470184
1.4162324666976929 0.26120543479919434 -0.3324776887893677 52.0 1 -0.0732112005352974
0.6089003682136536 0.11219377815723419 0.03244829550385475 52.0 9 -0.07320889830589294
1.4461805820465088 0.2662063241004944 -0.28583186864852905 59.0 2 -0.0732065960764885
0.61725252866745 0.11350997537374496 0.05490811914205551 100.0 10 -0.07320428639650345
0.6003444194793701 0.11029202491044998 -0.09667651355266571 97.0 3 -0.073201984167099
0.6013447046279907 0.11047579348087311 0.07507152855396271 100.0 11 -0.07319968193769455
0.6208887100219727 0.11395431309938431 -0.07750891149044037 5.0 4 -0.0731973797082901
0.6256416440010071 0.11471407860517502 0.10074380785226822 74.0 12 -0.07319507002830505
0.613412082195282 0.11236078292131424 -0.05455949530005455 100.0 5 -0.0731927677989006
0.6025301218032837 0.11025881767272949 0.1190648153424263 18.0 13 -0.07319046556949615
0.611021101474762 0.11170271039009094 -0.032552968710660934 65.0 6 -0.0731881633400917
1.4492759704589844 0.26468461751937866 0.34012600779533386 12.0 14 -0.07318586111068726
0.5960487723350525 0.10885777324438095 -0.010576157830655575 8.0 7 -0.07318355143070221
1.4272593259811401 0.2604062855243683 0.3887462317943573 6.0 15 -0.07318124920129776
1.425720453262329 0.2580692172050476 -0.3882285952568054 53.0 0 -0.07316051423549652
0.6060767769813538 0.10959653556346893 0.010750683024525642 100.0 8 -0.07315821200609207
1.4171802997589111 0.25601324439048767 -0.3324776887893677 52.0 1 -0.07315590232610703
0.6151846051216125 0.11113293468952179 0.032762311398983 39.0 9 -0.07315360009670258
1.4528971910476685 0.2622029483318329 -0.28697675466537476 57.0 2 -0.07315129786729813
0.6058803200721741 0.10923346132040024 0.05386224761605263 95.0 10 -0.07314899563789368
0.616278350353241 0.11099736392498016 -0.0991794615983963 100.0 3 -0.07314668595790863
0.6036992073059082 0.10862267762422562 0.07531525939702988 100.0 11 -0.07314438372850418
0.6115333437919617 0.10992206633090973 -0.07629022002220154 6.0 4 -0.07314208149909973
0.6279824376106262 0.11287876963615417 0.10105667263269424 85.0 12 -0.07313977926969528
0.6177226305007935 0.11092329770326614 -0.05490811914205551 100.0 5 -0.07313747704029083
0.676342785358429 0.12132778018712997 0.13356630504131317 100.0 13 -0.07313516736030579
0.6074754595756531 0.10886437445878983 -0.03234362602233887 68.0 6 -0.07313286513090134
1.4444361925125122 0.2585941553115845 0.33877629041671753 22.0 14 -0.07313056290149689
0.5944567322731018 0.1064242497086525 -0.010541253723204136 5.0 7 -0.07312826067209244
1.4414712190628052 0.25780370831489563 0.39236968755722046 5.0 15 -0.07312595099210739
1.4323190450668335 0.2541029453277588 -0.38978150486946106 54.0 0 -0.07310521602630615
0.6182505488395691 0.10968177020549774 0.010960111394524574 100.0 8 -0.0731029137969017
1.4237780570983887 0.2523321211338043 -0.3338273763656616 50.0 1 -0.07310061156749725
0.6214688420295715 0.11002928018569946 0.03307632729411125 6.0 9 -0.0730983093380928
1.4441373348236084 0.2554197609424591 -0.28506866097450256 55.0 2 -0.07309599965810776
0.6258779168128967 0.11058459430932999 0.05560535937547684 84.0 10 -0.07309369742870331
0.6127526760101318 0.10826553404331207 -0.09855373203754425 97.0 3 -0.07309139519929886
0.6099207401275635 0.10765540599822998 0.07604647427797318 100.0 11 -0.07308909296989441
0.6236240863800049 0.1099616140127182 -0.07775264233350754 5.0 4 -0.07308678328990936
0.6205909252166748 0.109315425157547 0.09980519860982895 85.0 12 -0.07308448106050491
0.6239926815032959 0.10980235785245895 -0.055431053042411804 100.0 5 -0.07308217883110046
0.6157015562057495 0.10823230445384979 -0.032762311398983 60.0 6 -0.07307756692171097
1.4395276308059692 0.2527919411659241 0.3374266028404236 34.0 14 -0.07307526469230652
0.5928550362586975 0.10400316119194031 -0.010506349615752697 2.0 7 -0.07307296246290207
1.434751033782959 0.2514362037181854 0.39029911160469055 2.0 15 -0.07307066023349762
1.425540804862976 0.248027503490448 -0.38771092891693115 54.0 0 -0.07304992526769638
0.614689290523529 0.10683856904506683 0.010890301316976547 100.0 8 -0.07304761558771133
1.4361703395843506 0.24936050176620483 -0.3365267813205719 56.0 1 -0.07304531335830688
0.6237980723381042 0.1083092987537384 0.033180996775627136 3.0 9 -0.07304301112890244
1.4372389316558838 0.2492876499891281 -0.2835421860218048 55.0 2 -0.07304070889949799
0.626241147518158 0.1085086241364479 0.05560535937547684 98.0 10 -0.07303839921951294
0.6248054504394531 0.10814724862575531 -0.1004309356212616 100.0 3 -0.07303609699010849
0.618117094039917 0.10687845200300217 0.07702143490314484 100.0 11 -0.07303379476070404
0.6318285465240479 0.10913605242967606 -0.0787276029586792 7.0 4 -0.07303149253129959
0.6131638288497925 0.10591208189725876 0.09855373203754425 85.0 12 -0.07302918285131454
0.6125731468200684 0.10569966584444046 -0.05438518151640892 100.0 5 -0.0730268806219101
0.6655446887016296 0.11472029983997345 0.13127659261226654 100.0 13 -0.07302457839250565
0.6259170174598694 0.10777749121189117 -0.03328566998243332 55.0 6 -0.0730222761631012
1.4538451433181763 0.25007757544517517 0.3405759036540985 44.0 14 -0.07301996648311615
0.585313618183136 0.10068047046661377 -0.010366729460656643 2.0 7 -0.0730176642537117
1.4336729049682617 0.24635012447834015 0.38978150486946106 1.0 15 -0.07301536202430725
1.4302066564559937 0.24369926750659943 -0.3887462317943573 54.0 0 -0.07299462705850601
0.6110976934432983 0.10412763804197311 0.01082049123942852 100.0 8 -0.07299232482910156
1.442752718925476 0.24557791650295258 -0.33787649869918823 66.0 1 -0.07299001514911652
0.6379554271697998 0.10847460478544235 0.03391370177268982 3.0 9 -0.07298771291971207
1.4439069032669067 0.24525581300258636 -0.2846870422363281 57.0 2 -0.07298541069030762
0.6246517896652222 0.1059885174036026 0.055431053042411804 100.0 10 -0.07298310846090317
0.5998426079750061 0.10177899152040482 -0.09636364877223969 90.0 3 -0.07298079878091812
0.6341255307197571 0.10748181492090225 0.07897134125232697 90.0 11 -0.07297849655151367
0.6419731974601746 0.10869702696800232 -0.07994629442691803 15.0 4 -0.07297619432210922
0.6174252033233643 0.10442978888750076 0.0991794615983963 58.0 12 -0.07297389209270477
0.605080246925354 0.10223287343978882 -0.053687937557697296 100.0 5 -0.07297158241271973
0.6262709498405457 0.10570110380649567 -0.03328566998243332 55.0 6 -0.07296697795391083
1.4546663761138916 0.24525538086891174 0.3405759036540985 58.0 14 -0.07296467572450638
0.5876333713531494 0.09896868467330933 -0.010401634499430656 5.0 7 -0.07296237349510193
1.4249986410140991 0.2397419512271881 0.3871932923793793 0.0 15 -0.07296006381511688
1.4329123497009277 0.23927363753318787 -0.3892638683319092 60.0 0 -0.07291793823242188
0.5996228456497192 0.10001964867115021 0.010611063800752163 100.0 8 -0.07291563600301743
1.4359121322631836 0.23925939202308655 -0.33607688546180725 65.0 1 -0.07291333377361298
0.6422704458236694 0.10690335184335709 0.03412304446101189 3.0 9 -0.07291102409362793
1.4427756071090698 0.24014423787593842 -0.2843054234981537 55.0 2 -0.07290872186422348
0.6367923021316528 0.10587701201438904 0.05647691711783409 100.0 10 -0.07290641963481903
0.6118862628936768 0.10162626206874847 -0.09824085235595703 87.0 3 -0.07290411740541458
0.6168718934059143 0.10234398394823074 0.07677769660949707 70.0 11 -0.07290180772542953
0.6325567960739136 0.1048324927687645 -0.0787276029586792 37.0 4 -0.07289950549602509
0.6236326098442078 0.10324167460203171 0.10011807084083557 42.0 12 -0.07289720326662064
0.6152440905570984 0.10185296833515167 -0.05455949530005455 100.0 5 -0.07289490103721619
0.583021342754364 0.09641427546739578 0.11486702412366867 4.0 13 -0.07289259135723114
0.6128422617912292 0.10123559087514877 -0.032552968710660934 42.0 6 -0.07289028912782669
1.4497454166412354 0.2392239272594452 0.3392261862754822 60.0 14 -0.07288798689842224
0.601786732673645 0.09919384121894836 -0.010645967908203602 2.0 7 -0.07288568466901779
1.4143898487091064 0.2328827828168869 0.384087473154068 0.0 15 -0.07288337498903275
1.4356454610824585 0.23458150029182434 -0.38978150486946106 54.0 0 -0.0728626400232315
0.6039153933525085 0.09857062250375748 0.010680872946977615 100.0 8 -0.07286033779382706
1.4348152875900269 0.23393170535564423 -0.3356269896030426 63.0 1 -0.07285803556442261
0.6308119893074036 0.10273431986570358 0.033495016396045685 3.0 9 -0.07285573333501816
1.4397296905517578 0.2344750165939331 -0.2835421860218048 51.0 2 -0.07285342365503311
0.6273252367973328 0.1020544022321701 0.05560535937547684 91.0 10 -0.07285112142562866
0.6083377003669739 0.09885620325803757 -0.09761511534452438 94.0 3 -0.07284881919622421
0.6172254085540771 0.10018990188837051 0.07677769660949707 55.0 11 -0.07284651696681976
0.6054857969284058 0.09817614406347275 -0.07531525939702988 62.0 4 -0.07284420728683472
0.6181392073631287 0.1001168042421341 0.0991794615983963 6.0 12 -0.07284190505743027
0.6195294260978699 0.10034196823835373 -0.05490811914205551 100.0 5 -0.07283960282802582
0.5794782638549805 0.09375131130218506 0.1141037866473198 4.0 13 -0.07283730059862137
0.6033335328102112 0.09750241041183472 -0.03202961012721062 41.0 6 -0.07283499091863632
1.4467239379882812 0.2335411161184311 0.3383263945579529 64.0 14 -0.07283268868923187
0.6021292805671692 0.09709244221448898 -0.010645967908203602 2.0 7 -0.07283038645982742
1.4342669248580933 0.2310158610343933 0.3892638683319092 0.0 15 -0.07282808423042297
1.4479013681411743 0.2313983142375946 -0.3928873538970947 54.0 0 -0.07280734926462173
0.6161039471626282 0.09835320711135864 0.010890301316976547 100.0 8 -0.07280503958463669
1.439471960067749 0.22953519225120544 -0.3365267813205719 59.0 1 -0.07280273735523224
0.6193323135375977 0.09864690899848938 0.032866984605789185 3.0 9 -0.07280043512582779
1.4347227811813354 0.22852186858654022 -0.2823973298072815 49.0 2 -0.07279813289642334
0.623742401599884 0.09923772513866425 0.055256739258766174 92.0 10 -0.0727958232164383
0.6164827346801758 0.0979720875620842 -0.09886659681797028 87.0 3 -0.07279352098703384
0.6156107783317566 0.09772367030382156 0.07653395086526871 47.0 11 -0.0727912187576294
0.6156278252601624 0.09761623293161392 -0.07653395086526871 96.0 4 -0.07278891652822495
0.6165338754653931 0.09764930605888367 0.09886659681797028 6.0 12 -0.0727866068482399
0.6277472972869873 0.09942533820867538 -0.05560535937547684 64.0 5 -0.07278430461883545
0.7543242573738098 0.11933857202529907 0.14844940602779388 78.0 13 -0.072782002389431
0.6155068278312683 0.09726671129465103 -0.03265763819217682 26.0 6 -0.07277970016002655
1.4436806440353394 0.22788162529468536 0.3374266028404236 71.0 14 -0.0727773979306221
0.6024645566940308 0.09499016404151917 -0.010645967908203602 5.0 7 -0.07277508825063705
1.4426976442337036 0.2272111028432846 0.3913344144821167 0.0 15 -0.0727727860212326
1.4391568899154663 0.2248513251543045 -0.39029911160469055 53.0 0 -0.07275205105543137
0.6203950643539429 0.09681852161884308 0.010960111394524574 97.0 8 -0.07274974882602692
1.440264344215393 0.2245100885629654 -0.3365267813205719 50.0 1 -0.07274743914604187
0.6275668740272522 0.09771336615085602 0.03328566998243332 3.0 9 -0.07274513691663742
1.429692268371582 0.22260582447052002 -0.2812524735927582 51.0 2 -0.07274283468723297
0.6319599151611328 0.09828440845012665 0.0559539832174778 98.0 10 -0.07274053245782852
0.6226767897605896 0.09672937542200089 -0.09980519860982895 77.0 3 -0.07273822277784348
0.639487624168396 0.09922654926776886 0.0794588178396225 44.0 11 -0.07273592054843903
0.6140032410621643 0.09516251087188721 -0.07629022002220154 96.0 4 -0.07273361831903458
0.6129667162895203 0.09489232301712036 0.09824085235595703 4.0 12 -0.07273131608963013
0.6084012389183044 0.09418553858995438 -0.05386224761605263 12.0 5 -0.07272901386022568
1.4687284231185913 0.22710886597633362 0.28888481855392456 22.0 13 -0.07272670418024063
0.613868772983551 0.09481257945299149 -0.032552968710660934 26.0 6 -0.07272440195083618
1.427133560180664 0.22016707062721252 0.333377480506897 71.0 14 -0.07272209972143173
0.6106979846954346 0.09410461038351059 -0.010785587131977081 13.0 7 -0.07271979749202728
1.4358445405960083 0.2209978550672531 0.3892638683319092 0.0 15 -0.07271748781204224
1.4342039823532104 0.21895135939121246 -0.3887462317943573 51.0 0 -0.072696752846241
0.6088682413101196 0.09284383058547974 0.010750683024525642 97.0 8 -0.07269445061683655
1.4468188285827637 0.2203611433506012 -0.33787649869918823 52.0 1 -0.0726921483874321
0.6397513747215271 0.09732429683208466 0.03391370177268982 3.0 9 -0.07268983870744705
1.4304605722427368 0.21761353313922882 -0.2812524735927582 55.0 2 -0.0726875364780426
0.6244199872016907 0.09488075971603394 0.055256739258766174 99.0 10 -0.07268523424863815
0.6112926006317139 0.09277690947055817 -0.097927987575531 83.0 3 -0.0726829320192337
0.6359047293663025 0.0963984876871109 0.07897134125232697 30.0 11 -0.07268062978982925
0.626107931137085 0.0948018953204155 -0.07775264233350754 88.0 4 -0.07267832010984421
0.6093879342079163 0.09216145426034927 0.09761511534452438 4.0 12 -0.07267601788043976
0.6008462309837341 0.09086964279413223 -0.053164999932050705 8.0 5 -0.07267371565103531
1.461747407913208 0.22080734372138977 0.2873583436012268 40.0 13 -0.07267141342163086
0.6596188545227051 0.09952269494533539 -0.03496042266488075 59.0 6 -0.07266910374164581
1.4490901231765747 0.21837875247001648 0.3383263945579529 76.0 14 -0.07266680151224136
0.616955041885376 0.09286507964134216 -0.010890301316976547 26.0 7 -0.07266449928283691
1.448069453239441 0.2177080363035202 0.39236968755722046 0.0 15 -0.07266219705343246
1.4234950542449951 0.2122347354888916 -0.385640412569046 45.0 0 -0.07264145463705063
0.6111664772033691 0.09101229906082153 0.010785587131977081 91.0 8 -0.07263915240764618
1.4340864419937134 0.2133028656244278 -0.3347271978855133 50.0 1 -0.07263685017824173
0.6282337307929993 0.09332974255084991 0.03328566998243332 3.0 9 -0.07263454794883728
1.4350953102111816 0.213196262717247 -0.28201571106910706 55.0 2 -0.07263224571943283
0.6208059191703796 0.09211553633213043 0.05490811914205551 92.0 10 -0.07262993603944778
0.6116127967834473 0.09064237773418427 -0.097927987575531 79.0 3 -0.07262763381004333
0.6362373232841492 0.09417831152677536 0.07897134125232697 30.0 11 -0.07262533158063889
0.6303625702857971 0.09319628775119781 -0.07824012637138367 86.0 4 -0.07262302935123444
0.6233851909637451 0.09205354750156403 0.09980519860982895 6.0 12 -0.07262071967124939
0.6051018834114075 0.08935369551181793 -0.053513623774051666 8.0 5 -0.07261841744184494
1.4527980089187622 0.21427154541015625 0.285450279712677 46.0 13 -0.07261611521244049
0.6421788930892944 0.09459973126649857 -0.034018374979496 67.0 6 -0.07261381298303604
1.4498436450958252 0.21331878006458282 0.3383263945579529 78.0 14 -0.072611503303051
0.6331030130386353 0.09303699433803558 -0.01116954069584608 65.0 7 -0.07260920107364655
1.4182387590408325 0.20816296339035034 0.384087473154068 0.0 15 -0.0726068988442421
1.4414325952529907 0.20976866781711578 -0.39029911160469055 45.0 0 -0.07258616387844086
0.6055437326431274 0.0880156010389328 0.010680872946977615 74.0 8 -0.07258386164903641
1.4193941354751587 0.20605558156967163 -0.33112797141075134 44.0 1 -0.07258155196905136
0.6226259469985962 0.09027658402919769 0.03297165781259537 7.0 9 -0.07257924973964691
1.4377737045288086 0.20846755802631378 -0.2823973298072815 49.0 2 -0.07257694751024246
0.6290108561515808 0.09109027683734894 0.05560535937547684 100.0 10 -0.07257464528083801
0.6177904605865479 0.08935531973838806 -0.09886659681797028 87.0 3 -0.07257233560085297
0.6306681632995605 0.09110555052757263 0.07824012637138367 15.0 11 -0.07257003337144852
0.6267545223236084 0.09042853116989136 -0.07775264233350754 88.0 4 -0.07256773114204407
0.6256579160690308 0.0901588499546051 0.10011807084083557 18.0 12 -0.07256542891263962
0.6152701377868652 0.08866194635629654 -0.05438518151640892 4.0 5 -0.07256311923265457
1.4477072954177856 0.20836028456687927 0.2843054234981537 51.0 13 -0.07256081700325012
0.6306434869766235 0.09065228700637817 -0.0333903431892395 70.0 6 -0.07255851477384567
1.431289792060852 0.20548751950263977 0.3338273763656616 62.0 14 -0.07255621254444122
0.6433210968971252 0.09224577993154526 -0.011344064027071 72.0 7 -0.07255390286445618
1.4380801916122437 0.20594941079616547 0.3892638683319092 0.0 15 -0.07255160063505173
1.449806571006775 0.20582230389118195 -0.39236968755722046 45.0 0 -0.07253086566925049
0.6276260614395142 0.08898910880088806 0.01106482557952404 39.0 8 -0.07252856343984604
1.429752230644226 0.2024655044078827 -0.333377480506897 47.0 1 -0.07252626121044159
0.6209595799446106 0.08782310038805008 0.032866984605789185 12.0 9 -0.07252395153045654
1.4287729263305664 0.20207317173480988 -0.2804892361164093 51.0 2 -0.0725216493010521
0.6332705616950989 0.08945123106241226 0.0559539832174778 77.0 10 -0.07251934707164764
0.6161426901817322 0.08692218363285065 -0.09855373203754425 79.0 3 -0.0725170448422432
0.6604674458503723 0.09305805712938309 0.08189620822668076 7.0 11 -0.07251473516225815
0.6152721047401428 0.08658035099506378 -0.07629022002220154 94.0 4 -0.0725124329328537
0.6220565438270569 0.08742433786392212 0.09949233382940292 20.0 12 -0.07251013070344925
0.6274138689041138 0.08817726373672485 -0.055431053042411804 4.0 5 -0.0725078284740448
1.4542583227157593 0.2041245549917221 0.285450279712677 60.0 13 -0.07250551879405975
0.6309560537338257 0.08845051378011703 -0.0333903431892395 81.0 6 -0.0725032165646553
1.4319984912872314 0.20048974454402924 0.3338273763656616 53.0 14 -0.07250091433525085
0.6198740601539612 0.08667667955160141 -0.010925207287073135 55.0 7 -0.0724986121058464
1.4215706586837769 0.1985238790512085 0.3846051096916199 1.0 15 -0.07249630987644196
1.4390347003936768 0.19917075335979462 -0.3892638683319092 45.0 0 -0.07247556746006012
0.6417989134788513 0.08871454745531082 0.011309158988296986 6.0 8 -0.07247326523065567
1.440102458000183 0.1988062858581543 -0.3356269896030426 45.0 1 -0.07247096300125122
0.6291614770889282 0.08685579895973206 0.03328566998243332 54.0 9 -0.07246866077184677
1.4353042840957642 0.19788864254951477 -0.2816340923309326 49.0 2 -0.07246635109186172
0.6296314597129822 0.08669673651456833 0.05560535937547684 77.0 10 -0.07246404886245728
0.6281840801239014 0.08638573437929153 -0.1004309356212616 84.0 3 -0.07246174663305283
0.6607882976531982 0.09075185656547546 0.08189620822668076 7.0 11 -0.07245944440364838
0.6313039064407349 0.08659026026725769 -0.07824012637138367 86.0 4 -0.07245713472366333
0.6203858852386475 0.08509273082017899 0.0991794615983963 22.0 12 -0.07245483249425888
0.615874171257019 0.0843643844127655 -0.05438518151640892 4.0 5 -0.07245253026485443
1.4588524103164673 0.19957883656024933 0.2862135171890259 54.0 13 -0.07245022803544998
0.6391765475273132 0.08732884377241135 -0.033809032291173935 87.0 6 -0.07244792580604553
1.4442745447158813 0.19707098603248596 0.3365267813205719 57.0 14 -0.07244561612606049
0.6201581358909607 0.08462046086788177 -0.010925207287073135 65.0 7 -0.07244331389665604
1.4088221788406372 0.19198305904865265 0.3809816539287567 1.0 15 -0.07244101166725159
1.4416356086730957 0.19440416991710663 -0.38978150486946106 45.0 0 -0.07242027670145035
0.6222720146179199 0.08391320705413818 0.010960111394524574 6.0 8 -0.0724179670214653
1.4523415565490723 0.19559046626091003 -0.3383263945579529 45.0 1 -0.07241566479206085
0.6314402222633362 0.08492513746023178 0.0333903431892395 62.0 9 -0.0724133625626564
1.44766104221344 0.19444501399993896 -0.28392380475997925 49.0 2 -0.07241106033325195
0.6338796019554138 0.08502829074859619 0.0559539832174778 49.0 10 -0.0724087506532669
0.6206356287002563 0.08325175195932388 -0.0991794615983963 80.0 3 -0.07240644842386246
0.6551830172538757 0.08776920288801193 0.08116498589515686 14.0 11 -0.07240414619445801
0.635522723197937 0.08502257615327835 -0.0787276029586792 82.0 4 -0.07240184396505356
0.6245951056480408 0.08344998955726624 0.09980519860982895 24.0 12 -0.07239954173564911
0.6280142068862915 0.08379494398832321 -0.055431053042411804 4.0 5 -0.07239723205566406
1.4614522457122803 0.19499927759170532 0.2865951359272003 43.0 13 -0.07239492982625961
0.6414423584938049 0.0854727029800415 -0.03391370177268982 92.0 6 -0.07239262759685516
1.4545786380767822 0.19356611371040344 0.33877629041671753 62.0 14 -0.07239032536745071
0.6244142651557922 0.0829818844795227 -0.010995016433298588 60.0 7 -0.07238801568746567
1.405653476715088 0.18655547499656677 0.37994638085365295 2.0 15 -0.07238571345806122
1.45376455783844 0.19113439321517944 -0.3928873538970947 39.0 0 -0.07236497849225998
0.6185957789421082 0.08122005313634872 0.010890301316976547 3.0 8 -0.07236267626285553
1.4510833024978638 0.1902659386396408 -0.33787649869918823 46.0 1 -0.07236036658287048
0.6257774829864502 0.08205189555883408 0.03307632729411125 51.0 9 -0.07235806435346603
1.4521909952163696 0.1901540905237198 -0.2846870422363281 49.0 2 -0.07235576212406158
0.6065001487731934 0.07930893450975418 0.053513623774051666 7.0 10 -0.07235345989465714
0.6170049905776978 0.08057307451963425 -0.09855373203754425 79.0 3 -0.07235115766525269
0.6417064666748047 0.08368456363677979 0.0794588178396225 36.0 11 -0.07234884798526764
0.6358156204223633 0.08280380070209503 -0.0787276029586792 84.0 4 -0.07234654575586319
0.646415650844574 0.08418427407741547 0.10324675589799881 38.0 12 -0.07234424352645874
0.640143096446991 0.08325377106666565 -0.05647691711783409 3.0 5 -0.07234194129705429
1.4621241092681885 0.18989627063274384 0.2865951359272003 38.0 13 -0.07233963161706924
0.6338140964508057 0.08220569044351578 -0.033495016396045685 91.0 6 -0.0723373293876648
1.4668411016464233 0.18998900055885315 0.3414757251739502 59.0 14 -0.07233502715826035
0.6286522150039673 0.08142463862895966 -0.01106482557952404 65.0 7 -0.0723327249288559
1.425423502922058 0.18437084555625916 0.38512274622917175 2.0 15 -0.07233041524887085
1.4774177074432373 0.18899987637996674 -0.3990989923477173 37.0 0 -0.07230968028306961
0.63869708776474 0.08170585334300995 0.011239349842071533 3.0 8 -0.07230737805366516
1.4575053453445435 0.1861933469772339 -0.3392261862754822 40.0 1 -0.07230507582426071
0.6201164722442627 0.07910893112421036 0.032762311398983 52.0 9 -0.07230277359485626
1.4625836610794067 0.18632398545742035 -0.2865951359272003 47.0 2 -0.07230046391487122
0.6146791577339172 0.07819695770740509 0.05421087145805359 7.0 10 -0.07229816168546677
0.6231476068496704 0.07927428185939789 -0.09949233382940292 87.0 3 -0.07229585945606232
0.6222877502441406 0.0790548324584961 0.07702143490314484 93.0 11 -0.07229355722665787
0.6321480870246887 0.08019537478685379 -0.07824012637138367 76.0 4 -0.07229124754667282
0.6604235768318176 0.08366502076387405 0.10543683916330338 53.0 12 -0.07228894531726837
0.6404297947883606 0.08101888000965118 -0.05647691711783409 3.0 5 -0.07228664308786392
1.4685887098312378 0.18578682839870453 0.28773996233940125 45.0 13 -0.07228434085845947
0.6340832114219666 0.0801035612821579 -0.033495016396045685 99.0 6 -0.07228203117847443
1.4500623941421509 0.182928204536438 0.3374266028404236 49.0 14 -0.07227972894906998
0.6329007148742676 0.07972944527864456 -0.011134634725749493 52.0 7 -0.07227742671966553
1.4337252378463745 0.18035954236984253 0.3871932923793793 2.0 15 -0.07227512449026108
1.479953408241272 0.18433791399002075 -0.3996165990829468 37.0 0 -0.07225438952445984
0.6191343069076538 0.07700751721858978 0.010890301316976547 3.0 8 -0.07225207984447479
1.4658818244934082 0.18206633627414703 -0.34102579951286316 42.0 1 -0.07224977761507034
0.6144425868988037 0.07620618492364883 0.03244829550385475 49.0 9 -0.0722474753856659
1.4554002285003662 0.1805058866739273 -0.28506866097450256 43.0 2 -0.07224517315626144
0.6544808149337769 0.08105594664812088 0.057697102427482605 6.0 10 -0.0722428634762764
0.6253809332847595 0.0773414745926857 -0.09980519860982895 84.0 3 -0.07224056124687195
0.6265002489089966 0.0773685947060585 0.07750891149044037 93.0 11 -0.0722382590174675
0.616662859916687 0.0760444924235344 -0.07629022002220154 46.0 4 -0.07223595678806305
0.6548298001289368 0.08063539117574692 0.1044982373714447 70.0 12 -0.072233647108078
0.6446498036384583 0.07938183099031448 -0.05682554095983505 11.0 5 -0.07223134487867355
1.4750741720199585 0.18137778341770172 0.28888481855392456 49.0 13 -0.0722290426492691
0.6343589425086975 0.07788954675197601 -0.033495016396045685 97.0 6 -0.07222674041986465
1.4371521472930908 0.1762063354253769 0.33427727222442627 43.0 14 -0.07222443073987961
0.6292053461074829 0.07703383266925812 -0.01106482557952404 52.0 7 -0.07222212851047516
1.4305108785629272 0.17488457262516022 0.3861580491065979 4.0 15 -0.07221982628107071
1.4786700010299683 0.17893831431865692 -0.3990989923477173 39.0 0 -0.07219909131526947
0.6352813839912415 0.07676512748003006 0.01116954069584608 3.0 8 -0.07219678908586502
1.478116750717163 0.1783486157655716 -0.3437252342700958 44.0 1 -0.07219447940587997
0.6186707019805908 0.07453856617212296 0.03265763819217682 51.0 9 -0.07219217717647552
1.4599196910858154 0.17589375376701355 -0.28583186864852905 43.0 2 -0.07218987494707108
0.682453453540802 0.08210273087024689 0.06013746187090874 6.0 10 -0.07218757271766663
0.6393759846687317 0.07680708169937134 -0.10199528187513351 84.0 3 -0.07218526303768158
0.6287373900413513 0.07541748136281967 0.07775264233350754 100.0 11 -0.07218296080827713
0.638605535030365 0.0764884203672409 -0.07897134125232697 9.0 4 -0.07218065857887268
0.633531928062439 0.07576858252286911 0.10105667263269424 74.0 12 -0.07217835634946823
0.6370099186897278 0.07618454098701477 -0.05612830072641373 42.0 5 -0.07217604666948318
1.4795972108840942 0.1766929179430008 0.2896480858325958 45.0 13 -0.07217374444007874
0.6366101503372192 0.07591135799884796 -0.03359968587756157 78.0 6 -0.07217144221067429
1.4725898504257202 0.17533549666404724 0.3423755168914795 47.0 14 -0.07216913998126984
0.6235132813453674 0.07412862777709961 -0.010960111394524574 47.0 7 -0.07216683775186539
1.415765643119812 0.1680685132741928 0.3820169270038605 5.0 15 -0.07216452807188034
1.4869602918624878 0.17467829585075378 -0.4011695384979248 36.0 0 -0.0721437931060791
0.6415036916732788 0.07524581253528595 0.011274254880845547 6.0 8 -0.07214149087667465
1.494214415550232 0.17500101029872894 -0.3473244309425354 48.0 1 -0.0721391886472702
0.6268492937088013 0.07341600954532623 0.03307632729411125 51.0 9 -0.07213687896728516
1.478074312210083 0.17284993827342987 -0.289266437292099 49.0 2 -0.0721345767378807
0.6629464626312256 0.07740911096334457 0.05839434638619423 6.0 10 -0.07213227450847626
0.6219814419746399 0.07251579314470291 -0.0991794615983963 80.0 3 -0.07212997227907181
0.6289967894554138 0.07322274893522263 0.07775264233350754 100.0 11 -0.07212766259908676
0.6566150188446045 0.07632137835025787 -0.08116498589515686 5.0 4 -0.07212536036968231
0.6396662592887878 0.07435134053230286 0.10199528187513351 78.0 12 -0.07212305814027786
0.6234182715415955 0.07235249876976013 -0.05490811914205551 84.0 5 -0.07212075591087341
1.4704537391662598 0.17039811611175537 0.28773996233940125 27.0 13 -0.07211845368146896
0.6348872780799866 0.07345898449420929 -0.033495016396045685 60.0 6 -0.07211614400148392
1.4693212509155273 0.16974645853042603 0.3414757251739502 45.0 14 -0.07211384177207947
0.623755693435669 0.07206069678068161 -0.010960111394524574 28.0 7 -0.07211153954267502
1.4124770164489746 0.16293027997016907 0.3809816539287567 5.0 15 -0.07210923731327057
1.4952386617660522 0.17036113142967224 -0.4032400846481323 34.0 0 -0.07208849489688873
0.6258549690246582 0.07130724936723709 0.010995016433298588 6.0 8 -0.07208619266748428
1.4870414733886719 0.1691642850637436 -0.3455248177051544 43.0 1 -0.07208389043807983
0.6370242238044739 0.07235459983348846 0.03359968587756157 50.0 9 -0.07208158820867538
1.4864716529846191 0.16857394576072693 -0.29079291224479675 45.0 2 -0.07207928597927094
0.64737468957901 0.07330136001110077 0.05699985474348068 6.0 10 -0.07207697629928589
0.6182928085327148 0.07000846415758133 -0.09855373203754425 83.0 3 -0.07207467406988144
0.6292361617088318 0.07113634049892426 0.07775264233350754 100.0 11 -0.07207237184047699
0.6627822518348694 0.07481163740158081 -0.08189620822668076 5.0 4 -0.07207006961107254
0.6438477635383606 0.07256030291318893 0.10262101888656616 87.0 12 -0.0720677599310875
0.6474257111549377 0.07284941524267197 -0.05699985474348068 100.0 5 -0.07206545770168304
1.4729617834091187 0.16574011743068695 0.28812161087989807 7.0 13 -0.0720631554722786
0.6351273655891418 0.07135334610939026 -0.033495016396045685 18.0 6 -0.07206085324287415
