# .PCD v0.7 - Point Cloud Data file format
VERSION 0.7
FIELDS x y z intensity ring time
SIZE 4 4 4 4 4 4
TYPE F F F F F F
COUNT 1 1 1 1 1 1
WIDTH 541
HEIGHT 1
VIEWPOINT 0 0 0 1 0 0 0
POINTS 541
DATA ascii
0.6222661137580872 0.09933692216873169 0.09980519860982895 4.0 12 -0.0692160353064537
0.6335455179214478 0.1010238379240036 -0.05612830072641373 42.0 5 -0.06921373307704926
0.6456252336502075 0.10283483564853668 0.12707878649234772 4.0 13 -0.0692114308476448
0.6055423617362976 0.09634209424257278 -0.0321342796087265 27.0 6 -0.06920912861824036
1.447290301322937 0.2300049364566803 0.3383263945579529 71.0 14 -0.06920681893825531
0.6062979698181152 0.09635352343320847 -0.010715777985751629 5.0 7 -0.06920451670885086
1.4538668394088745 0.2307906299829483 0.394440233707428 0.0 15 -0.06920221447944641
1.4236536026000977 0.22395651042461395 -0.3861580491065979 48.0 0 -0.06918147951364517
0.620293378829956 0.09746809303760529 0.010960111394524574 100.0 8 -0.06917917728424072
1.4304025173187256 0.22450730204582214 -0.33427727222442627 52.0 1 -0.06917686760425568
0.6373125314712524 0.10002870857715607 0.033809032291173935 3.0 9 -0.06917456537485123
1.4236396551132202 0.2231905609369278 -0.28010761737823486 57.0 2 -0.06917226314544678
0.6239830255508423 0.09771313518285751 0.055256739258766174 85.0 10 -0.06916996091604233
0.6245267987251282 0.09768692404031754 -0.10011807084083557 87.0 3 -0.06916765123605728
0.6354607343673706 0.09928325563669205 0.07897134125232697 30.0 11 -0.06916534900665283
0.6099638938903809 0.09529967606067657 -0.07580273598432541 90.0 4 -0.06916304677724838
0.605043351650238 0.09442273527383804 0.09698937833309174 4.0 12 -0.06916074454784393
0.6083022356033325 0.09482286125421524 -0.05386224761605263 12.0 5 -0.06915843486785889
1.4801291227340698 0.23045894503593445 0.2911745309829712 23.0 13 -0.06915613263845444
0.6236368417739868 0.09698997437953949 -0.03307632729411125 23.0 6 -0.06915383040904999
1.4538218975067139 0.22610299289226532 0.3396761119365692 75.0 14 -0.06915152817964554
0.6125585436820984 0.09515756368637085 -0.01082049123942852 15.0 7 -0.06914921849966049
1.4355735778808594 0.22275179624557495 0.3892638683319092 0.0 15 -0.06914691627025604
1.4052947759628296 0.2162957787513733 -0.3809816539287567 45.0 0 -0.0691261813044548
0.610730767250061 0.0938914492726326 0.010785587131977081 91.0 8 -0.06912387907505035
1.433065414428711 0.22005805373191833 -0.3347271978855133 49.0 1 -0.0691215768456459
0.6376407742500305 0.09791457653045654 0.033809032291173935 3.0 9 -0.06911926716566086
1.4282530546188354 0.21906395256519318 -0.28087085485458374 57.0 2 -0.06911696493625641
0.6243036389350891 0.0956435278058052 0.055256739258766174 100.0 10 -0.06911466270685196
0.6111788153648376 0.09352362900972366 -0.097927987575531 87.0 3 -0.06911236047744751
0.6318619251251221 0.09657574445009232 0.07848386466503143 38.0 11 -0.06911005079746246
0.6181257963180542 0.09447626024484634 -0.07677769660949707 96.0 4 -0.06910774856805801
0.5994948744773865 0.09152130782604218 0.09605076909065247 2.0 12 -0.06910544633865356
0.6105828881263733 0.09310530126094818 -0.05403655767440796 8.0 5 -0.06910314410924911
1.4692399501800537 0.22377605736255646 0.28888481855392456 40.0 13 -0.06910083442926407
0.6496241688728333 0.09882622212171555 -0.034437064081430435 65.0 6 -0.06909853219985962
1.4391510486602783 0.21893560886383057 0.33607688546180725 71.0 14 -0.06909622997045517
0.610893726348877 0.09282544255256653 -0.010785587131977081 24.0 7 -0.06909392774105072
1.41720449924469 0.2150915116071701 0.384087473154068 0.0 15 -0.06909161806106567
1.4193766117095947 0.21364687383174896 -0.3846051096916199 47.0 0 -0.06907088309526443
0.6031288504600525 0.09067659080028534 0.010645967908203602 94.0 8 -0.06906858086585999
1.4164429903030396 0.21270041167736053 -0.3306780755519867 46.0 1 -0.06906627863645554
0.6498296856880188 0.09746551513671875 0.034437064081430435 3.0 9 -0.06906397640705109
1.4250885248184204 0.2137436717748642 -0.28010761737823486 53.0 2 -0.06906166672706604
0.6206766366958618 0.09298250079154968 0.05490811914205551 92.0 10 -0.06905936449766159
0.6017174124717712 0.09003487974405289 -0.09636364877223969 78.0 3 -0.06905706226825714
0.6145091652870178 0.09183897078037262 0.07629022002220154 23.0 11 -0.06905476003885269
0.6361217498779297 0.09495580941438675 -0.07897134125232697 84.0 4 -0.06905245035886765
0.6095796227455139 0.090884730219841 0.09761511534452438 4.0 12 -0.0690501481294632
0.6069629192352295 0.09038631618022919 -0.053687937557697296 8.0 5 -0.06904784590005875
1.45638108253479 0.2168780416250229 0.2862135171890259 46.0 13 -0.0690455436706543
0.6242663264274597 0.09285200387239456 -0.03307632729411125 55.0 6 -0.06904323399066925
1.437978982925415 0.21362464129924774 0.3356269896030426 76.0 14 -0.0690409317612648
0.634950578212738 0.09421432763338089 -0.01120444480329752 65.0 7 -0.06903862953186035
1.437056541442871 0.21297498047351837 0.3892638683319092 0.0 15 -0.0690363273024559
1.4297070503234863 0.20984621345996857 -0.3871932923793793 45.0 0 -0.06901559233665466
0.6192697882652283 0.09089374542236328 0.010925207287073135 61.0 8 -0.06901328265666962
1.4133206605911255 0.20718914270401 -0.3297782838344574 46.0 1 -0.06901098042726517
0.6343563199043274 0.09288190305233002 0.03359968587756157 8.0 9 -0.06900867819786072
1.427804946899414 0.2088034451007843 -0.2804892361164093 51.0 2 -0.06900637596845627
0.6348135471343994 0.09272253513336182 0.05612830072641373 100.0 10 -0.06900406628847122
0.6313636302947998 0.09210609644651413 -0.10105667263269424 100.0 3 -0.06900176405906677
0.614825963973999 0.08969350159168243 0.07629022002220154 15.0 11 -0.06899946182966232
0.6285920143127441 0.09158971905708313 -0.0779963880777359 86.0 4 -0.06899715960025787
0.6274862289428711 0.09131675958633423 0.1004309356212616 13.0 12 -0.06899484992027283
0.6269913911819458 0.0911330133676529 -0.055431053042411804 4.0 5 -0.06899254769086838
1.4493945837020874 0.21041078865528107 0.2846870422363281 53.0 13 -0.06899024546146393
0.6285556554794312 0.09113635867834091 -0.03328566998243332 73.0 6 -0.06898794323205948
1.4348948001861572 0.20779447257518768 0.3347271978855133 65.0 14 -0.06898564100265503
0.6451706886291504 0.09343047440052032 -0.011378969065845013 65.0 7 -0.06898333132266998
1.4492628574371338 0.20961694419384003 0.39236968755722046 0.0 15 -0.06898102909326553
1.4380801916122437 0.20594941079616547 -0.3892638683319092 48.0 0 -0.0689602941274643
0.6097009778022766 0.08720781654119492 0.010750683024525642 22.0 8 -0.06895799189805984
1.427574634552002 0.2039364129304886 -0.3329275846481323 45.0 1 -0.0689556822180748
0.6149201989173889 0.08773502707481384 0.032552968710660934 18.0 9 -0.06895337998867035
1.4285252094268799 0.20381781458854675 -0.2804892361164093 51.0 2 -0.0689510777592659
0.6371057629585266 0.09078726172447205 0.05630260705947876 82.0 10 -0.06894877552986145
0.6179916262626648 0.08795316517353058 -0.09886659681797028 90.0 3 -0.0689464658498764
0.6269425749778748 0.0891154408454895 0.07775264233350754 15.0 11 -0.06894416362047195
0.6289234757423401 0.08928534388542175 -0.0779963880777359 86.0 4 -0.0689418613910675
0.6239050626754761 0.08846151828765869 0.09980519860982895 18.0 12 -0.06893955916166306
0.627321183681488 0.08883420377969742 -0.055431053042411804 8.0 5 -0.0689372569322586
1.461783528327942 0.20700140297412872 0.28697675466537476 60.0 13 -0.06893494725227356
0.6348026394844055 0.08978094160556793 -0.03359968587756157 73.0 6 -0.06893264502286911
1.4414002895355225 0.20360179245471954 0.33607688546180725 51.0 14 -0.06893034279346466
0.6237279176712036 0.08799227327108383 -0.010995016433298588 57.0 7 -0.06892804056406021
1.4232399463653564 0.20053061842918396 0.38512274622917175 0.0 15 -0.06892573088407516
1.4311720132827759 0.19961009919643402 -0.3871932923793793 45.0 0 -0.06890499591827393
0.6199043393135071 0.08646002411842346 0.010925207287073135 6.0 8 -0.06890269368886948
1.4359982013702393 0.200027734041214 -0.3347271978855133 45.0 1 -0.06890039145946503
0.6330265998840332 0.08806497603654861 0.033495016396045685 58.0 9 -0.06889808923006058
1.4214842319488525 0.19750022888183594 -0.27896276116371155 51.0 2 -0.06889577955007553
0.6334872841835022 0.08790368586778641 0.0559539832174778 98.0 10 -0.06889347732067108
0.6320065855979919 0.08758579939603806 -0.10105667263269424 94.0 3 -0.06889117509126663
0.6449465155601501 0.08937906473875046 0.07994629442691803 14.0 11 -0.06888887286186218
0.6213659048080444 0.08600065112113953 -0.07702143490314484 94.0 4 -0.06888656318187714
0.624210000038147 0.08628327399492264 0.09980519860982895 22.0 12 -0.06888426095247269
0.6276274919509888 0.08664403855800629 -0.055431053042411804 4.0 5 -0.06888195872306824
1.4625324010849 0.20164263248443604 0.28697675466537476 52.0 13 -0.06887965649366379
0.6450204849243164 0.08881571888923645 -0.03412304446101189 80.0 6 -0.06887734681367874
1.4517897367477417 0.19964517652988434 0.3383263945579529 53.0 14 -0.06887504458427429
0.6141259670257568 0.08445251733064651 -0.01082049123942852 52.0 7 -0.06887274235486984
1.4335006475448608 0.19687522947788239 0.38771092891693115 1.0 15 -0.0688704401254654
1.4414311647415161 0.19591432809829712 -0.38978150486946106 40.0 0 -0.06884970515966415
0.6380507946014404 0.08660824596881866 0.011239349842071533 6.0 8 -0.06884739547967911
1.4483082294464111 0.19633348286151886 -0.3374266028404236 45.0 1 -0.06884509325027466
0.6333450675010681 0.08574436604976654 0.033495016396045685 62.0 9 -0.06884279102087021
1.4435656070709229 0.19543470442295074 -0.28316056728363037 53.0 2 -0.06884048879146576
0.6337902545928955 0.08569199591875076 0.0559539832174778 56.0 10 -0.06883817911148071
0.628393292427063 0.08485032618045807 -0.1004309356212616 94.0 3 -0.06883587688207626
0.6590407490730286 0.08887146413326263 0.08165246248245239 14.0 11 -0.06883357465267181
0.6295462846755981 0.08478257805109024 -0.0779963880777359 88.0 4 -0.06883127242326736
0.6206066012382507 0.08346807211637497 0.0991794615983963 24.0 12 -0.06882896274328232
0.6417635083198547 0.08619953691959381 -0.05665123090147972 3.0 5 -0.06882666051387787
1.4729562997817993 0.1978425830602646 0.28888481855392456 44.0 13 -0.06882435828447342
0.65324467420578 0.0876259133219719 -0.03454173356294632 92.0 6 -0.06882205605506897
1.460203766822815 0.1956108659505844 0.34012600779533386 60.0 14 -0.06881974637508392
0.6401978731155396 0.08564803004264832 -0.011274254880845547 70.0 7 -0.06881744414567947
1.4169790744781494 0.18931765854358673 0.38305220007896423 2.0 15 -0.06881514191627502
1.4536309242248535 0.19214850664138794 -0.3928873538970947 38.0 0 -0.06879440695047379
0.6224895715713501 0.08228391408920288 0.010960111394524574 3.0 8 -0.06879210472106934
1.4489846229553223 0.19127775728702545 -0.3374266028404236 40.0 1 -0.06878979504108429
0.635620653629303 0.08379393070936203 0.03359968587756157 49.0 9 -0.06878749281167984
1.4501116275787354 0.19091086089611053 -0.2843054234981537 51.0 2 -0.06878519058227539
0.594592273235321 0.07817430794239044 0.05246775969862938 15.0 10 -0.06878288835287094
0.616948664188385 0.08100378513336182 -0.09855373203754425 97.0 3 -0.0687805786728859
0.6357285380363464 0.08346954733133316 0.0787276029586792 52.0 11 -0.06877827644348145
0.6377113461494446 0.08361665904521942 -0.07897134125232697 82.0 4 -0.068775974214077
0.6502739787101746 0.08514875173568726 0.10387250036001205 42.0 12 -0.06877367198467255
0.6262558102607727 0.08189228177070618 -0.055256739258766174 8.0 5 -0.0687713623046875
1.463937759399414 0.1911718249320984 0.28697675466537476 37.0 13 -0.06876906007528305
0.6337565779685974 0.08264783024787903 -0.033495016396045685 97.0 6 -0.0687667578458786
1.4667081832885742 0.19101294875144958 0.3414757251739502 59.0 14 -0.06876445561647415
0.6266123056411743 0.08160523325204849 -0.011029920540750027 55.0 7 -0.0687621533870697
1.4329571723937988 0.18636316061019897 0.3871932923793793 2.0 15 -0.06875984370708466
1.4715042114257812 0.18954789638519287 -0.39754605293273926 41.0 0 -0.06864809989929199
0.6108728647232056 0.07857988029718399 0.010750683024525642 3.0 8 -0.06864579766988754
1.449643611907959 0.18621830642223358 -0.3374266028404236 42.0 1 -0.0686434954404831
0.6220281720161438 0.07990448921918869 0.032866984605789185 52.0 9 -0.06864118576049805
1.4546314477920532 0.18660026788711548 -0.28506866097450256 41.0 2 -0.0686388835310936
0.6462305188179016 0.08278419822454453 0.05699985474348068 6.0 10 -0.06863658130168915
0.6328890919685364 0.08096285909414291 -0.10105667263269424 100.0 3 -0.0686342790722847
0.6222324371337891 0.07948893308639526 0.07702143490314484 100.0 11 -0.06863196939229965
0.6281536817550659 0.08013425022363663 -0.07775264233350754 69.0 4 -0.0686296671628952
0.6505528092384338 0.08299172669649124 0.10387250036001205 51.0 12 -0.06862736493349075
0.6265239119529724 0.07981521636247635 -0.055256739258766174 8.0 5 -0.0686250627040863
1.4723540544509888 0.18730683624744415 0.2885032296180725 45.0 13 -0.06862275302410126
0.6300644278526306 0.0800427794456482 -0.03328566998243332 91.0 6 -0.06862045079469681
1.4557340145111084 0.1846768707036972 0.33877629041671753 51.0 14 -0.06861814856529236
0.638782262802124 0.0810369998216629 -0.011239349842071533 52.0 7 -0.06861584633588791
1.4335674047470093 0.1816098690032959 0.3871932923793793 2.0 15 -0.06861353665590286
1.4740737676620483 0.18465137481689453 -0.3980637192726135 39.0 0 -0.06859280169010162
0.6428770422935486 0.08053065836429596 0.011309158988296986 6.0 8 -0.06859049946069717
1.4637887477874756 0.18310284614562988 -0.3405759036540985 46.0 1 -0.06858819723129272
0.6123939752578735 0.07649477571249008 0.03234362602233887 49.0 9 -0.06858589500188828
1.4513773918151855 0.18103653192520142 -0.2843054234981537 41.0 2 -0.06858358532190323
0.6504697799682617 0.0810202807188034 0.057348478585481644 6.0 10 -0.06858128309249878
0.6253131628036499 0.07788686454296112 -0.09980519860982895 80.0 3 -0.06857898086309433
0.6323422193527222 0.07865030318498611 0.07824012637138367 99.0 11 -0.06857667863368988
0.6323558688163757 0.07854025065898895 -0.07824012637138367 37.0 4 -0.06857436895370483
0.6508385539054871 0.0807201936841011 0.10387250036001205 76.0 12 -0.06857206672430038
0.6445943117141724 0.07983152568340302 -0.05682554095983505 15.0 5 -0.06856976449489594
1.4729670286178589 0.18242357671260834 0.2885032296180725 45.0 13 -0.06856746226549149
0.6323085427284241 0.07819822430610657 -0.0333903431892395 81.0 6 -0.06856515258550644
1.454404354095459 0.1796092391014099 0.3383263945579529 40.0 14 -0.06856285035610199
0.627153217792511 0.07733812183141708 -0.011029920540750027 55.0 7 -0.06856054812669754
1.4303576946258545 0.17613346874713898 0.3861580491065979 2.0 15 -0.06855824589729309
1.4746780395507812 0.17976175248622894 -0.3980637192726135 39.0 0 -0.06853751093149185
0.6510944962501526 0.07925243675708771 0.011448778212070465 3.0 8 -0.0685352012515068
1.4740915298461914 0.17916738986968994 -0.34282541275024414 48.0 1 -0.06853289902210236
0.6285189390182495 0.07628187537193298 0.033180996775627136 50.0 9 -0.0685305967926979
1.4578166007995605 0.17693179845809937 -0.285450279712677 49.0 2 -0.06852829456329346
0.6902931928634644 0.08365702629089355 0.06083470582962036 6.0 10 -0.06852598488330841
0.6314645409584045 0.07641542702913284 -0.10074380785226822 87.0 3 -0.06852368265390396
0.6365543007850647 0.07691894471645355 0.0787276029586792 97.0 11 -0.06852138042449951
0.6286845803260803 0.07585667818784714 -0.07775264233350754 7.0 4 -0.06851907819509506
0.633465588092804 0.076321080327034 0.10105667263269424 74.0 12 -0.06851676851511002
0.6329870223999023 0.0762634202837944 -0.055779676884412766 34.0 5 -0.06851446628570557
1.4833407402038574 0.17845366895198822 0.2904112935066223 43.0 13 -0.06851216405630112
0.6464586853981018 0.07765791565179825 -0.03412304446101189 80.0 6 -0.06850986182689667
1.4763059616088867 0.17708390951156616 0.3432753086090088 47.0 14 -0.06850755959749222
0.6234483122825623 0.07467298209667206 -0.010960111394524574 42.0 7 -0.06850524991750717
1.4232912063598633 0.1702215075492859 0.384087473154068 3.0 15 -0.06850294768810272
1.4791333675384521 0.1750667840242386 -0.3990989923477173 39.0 0 -0.06848221272230148
0.6513671278953552 0.07697934657335281 0.011448778212070465 3.0 8 -0.06847991049289703
1.4805139303207397 0.17470690608024597 -0.3441751301288605 47.0 1 -0.06847760081291199
0.6307649612426758 0.07432101666927338 0.03328566998243332 53.0 9 -0.06847529858350754
1.4701238870620728 0.17321999371051788 -0.28773996233940125 49.0 2 -0.06847299635410309
0.6628786325454712 0.07798789441585541 0.05839434638619423 6.0 10 -0.06847069412469864
0.6258416771888733 0.0735197588801384 -0.09980519860982895 94.0 3 -0.06846838444471359
0.6328758597373962 0.07423380762338638 0.07824012637138367 100.0 11 -0.06846608221530914
0.6545765399932861 0.07666340470314026 -0.0809212476015091 5.0 4 -0.0684637799859047
0.6415761709213257 0.07502761483192444 0.10230815410614014 81.0 12 -0.06846147775650024
0.6253337264060974 0.07312818616628647 -0.05508242920041084 100.0 5 -0.0684591755270958
1.4761546850204468 0.17236357927322388 0.28888481855392456 22.0 13 -0.06845686584711075
0.6447420716285706 0.07516942173242569 -0.034018374979496 57.0 6 -0.0684545636177063
1.4788508415222168 0.17215591669082642 0.3437252342700958 43.0 14 -0.06845226138830185
0.6237052083015442 0.07249612361192703 -0.010960111394524574 31.0 7 -0.0684499591588974
1.4353904724121094 0.16658814251422882 0.3871932923793793 4.0 15 -0.06844764947891235
1.4835740327835083 0.17034363746643066 -0.40013426542282104 36.0 0 -0.06842691451311111
0.6436851024627686 0.07379396259784698 0.011309158988296986 6.0 8 -0.06842461228370667
1.4791786670684814 0.1693158745765686 -0.3437252342700958 43.0 1 -0.06842231005430222
0.6389452219009399 0.07313759624958038 0.03370435908436775 52.0 9 -0.06842000037431717
1.470719575881958 0.16808757185935974 -0.28773996233940125 44.0 2 -0.06841769814491272
0.6710649728775024 0.07657693326473236 0.05909159407019615 6.0 10 -0.06841539591550827
0.6182438135147095 0.07044006884098053 -0.09855373203754425 83.0 3 -0.06841309368610382
0.623269259929657 0.07090246677398682 0.07702143490314484 100.0 11 -0.06841079145669937
0.6627298593521118 0.07527430355548859 -0.08189620822668076 5.0 4 -0.06840848177671432
0.6398586630821228 0.07267654687166214 0.10199528187513351 78.0 12 -0.06840617954730988
0.6275648474693298 0.07116924971342087 -0.055256739258766174 100.0 5 -0.06840387731790543
1.4689440727233887 0.16632656753063202 0.2873583436012268 5.0 13 -0.06840157508850098
0.6271389126777649 0.07089924067258835 -0.03307632729411125 15.0 6 -0.06839926540851593
1.4910614490509033 0.16830377280712128 0.3464246392250061 31.0 14 -0.06839696317911148
0.6100326776504517 0.06885752081871033 -0.010715777985751629 22.0 7 -0.06839466094970703
3.6224725246429443 0.40824511647224426 0.9767830967903137 17.0 15 -0.06839235872030258
1.5014395713806152 0.16708727180957794 -0.40479302406311035 32.0 0 -0.06837161630392075
0.6598257422447205 0.07342851161956787 0.01158839836716652 18.0 8 -0.0683693140745163
1.487479329109192 0.16527016460895538 -0.3455248177051544 44.0 1 -0.06836701184511185
0.6292710900306702 0.06980589777231216 0.033180996775627136 51.0 9 -0.0683647096157074
1.483005404472351 0.16424980759620667 -0.29002970457077026 44.0 2 -0.06836240738630295
0.7228164672851562 0.07992727309465408 0.06362368911504745 5.0 10 -0.0683600977063179
0.6204373836517334 0.06860645115375519 -0.09886659681797028 94.0 3 -0.06835779547691345
0.6274471282958984 0.0692710280418396 0.07750891149044037 100.0 11 -0.068355493247509
0.6471906304359436 0.07133641093969345 -0.07994629442691803 5.0 4 -0.06835319101810455
0.6499261260032654 0.07152282446622849 0.10355963557958603 80.0 12 -0.0683508813381195
0.6436532735824585 0.07071913033723831 -0.05665123090147972 100.0 5 -0.06834857910871506
0.7083983421325684 0.07783276587724686 0.13852733373641968 3.0 13 -0.06834627687931061
0.6055316925048828 0.066423699259758 -0.031924936920404434 5.0 6 -0.06834397464990616
1.4625540971755981 0.1601756066083908 0.3396761119365692 16.0 14 -0.06834166496992111
0.6202085614204407 0.06781459599733353 -0.010890301316976547 26.0 7 -0.06833936274051666
3.6142733097076416 0.3945521116256714 0.9741949439048767 39.0 15 -0.06833706051111221
1.5077474117279053 0.16272886097431183 -0.4063459038734436 34.0 0 -0.06831632554531097
0.6481488943099976 0.06983928382396698 0.011378969065845013 31.0 8 -0.06831402331590652
1.5035475492477417 0.16174468398094177 -0.3491240441799164 42.0 1 -0.06831171363592148
0.6255393624305725 0.06718219071626663 0.03297165781259537 50.0 9 -0.06830941140651703
1.4893980026245117 0.1599595993757248 -0.2911745309829712 37.0 2 -0.06830710917711258
0.7230775356292725 0.07753003388643265 0.06362368911504745 5.0 10 -0.06830480694770813
0.6324580907821655 0.06770196557044983 -0.10074380785226822 84.0 3 -0.06830249726772308
0.6296589970588684 0.06729118525981903 0.07775264233350754 100.0 11 -0.06830019503831863
0.6513835191726685 0.06949789077043533 -0.08043377101421356 5.0 4 -0.06829789280891418
0.6462433338165283 0.06883540004491806 0.10293389111757278 76.0 12 -0.06829559057950974
0.6419030427932739 0.06837309151887894 -0.05647691711783409 89.0 5 -0.06829328089952469
0.7184270620346069 0.07639734447002411 0.14043542742729187 17.0 13 -0.06829097867012024
0.635551393032074 0.0674721971154213 -0.033495016396045685 2.0 6 -0.06828867644071579
1.4708558320999146 0.15589123964309692 0.3414757251739502 7.0 14 -0.06828637421131134
0.6283958554267883 0.06649073958396912 -0.011029920540750027 39.0 7 -0.0682840645313263
3.6194708347320557 0.3823384642601013 0.9752302169799805 72.0 15 -0.06828176230192184
1.5083062648773193 0.15746517479419708 -0.4063459038734436 36.0 0 -0.0682610273361206
0.630488395690918 0.06571092456579208 0.01106482557952404 68.0 8 -0.06825872510671616
1.5137944221496582 0.15750400722026825 -0.351373553276062 46.0 1 -0.0682564228773117
0.6277565956115723 0.06520441919565201 0.03307632729411125 42.0 9 -0.06825411319732666
1.4919002056121826 0.15496210753917694 -0.291556179523468 45.0 2 -0.06825181096792221
0.6599273085594177 0.0684298649430275 0.05804572254419327 6.0 10 -0.06824950873851776
0.6366202235221863 0.0659007802605629 -0.10136953741312027 87.0 3 -0.06824720650911331
0.6377883553504944 0.06590889394283295 0.0787276029586792 100.0 11 -0.06824489682912827
0.6259521245956421 0.06457563489675522 -0.077265165746212 5.0 4 -0.06824259459972382
0.6327247619628906 0.06516273319721222 0.10074380785226822 78.0 12 -0.06824029237031937
0.6441197395324707 0.0663362666964531 -0.05665123090147972 100.0 5 -0.06823799014091492
0.7284541130065918 0.07489282637834549 0.14234352111816406 30.0 13 -0.06823568046092987
0.6318093538284302 0.06484559923410416 -0.03328566998243332 5.0 6 -0.06823337823152542
1.471390962600708 0.1507563441991806 0.3414757251739502 4.0 14 -0.06823107600212097
0.6405600905418396 0.06551748514175415 -0.011239349842071533 45.0 7 -0.06822877377271652
3.6227052211761475 0.36989882588386536 0.97574782371521 113.0 15 -0.06822647154331207
1.5165351629257202 0.15297436714172363 -0.4084164798259735 36.0 0 -0.06820572912693024
0.616786539554596 0.06210711970925331 0.01082049123942852 78.0 8 -0.06820342689752579
1.5201518535614014 0.1528039425611496 -0.35272327065467834 42.0 1 -0.06820112466812134
0.6339421272277832 0.06361109018325806 0.0333903431892395 17.0 9 -0.06819882243871689
1.498292088508606 0.15034179389476776 -0.29270100593566895 48.0 2 -0.06819651275873184
0.6145654320716858 0.061558451503515244 0.05403655767440796 14.0 10 -0.06819421052932739
0.6329153180122375 0.0632852241396904 -0.10074380785226822 98.0 3 -0.06819190829992294
0.6419650912284851 0.06407664716243744 0.07921507954597473 100.0 11 -0.0681896060705185
0.6518528461456299 0.0649486854672432 -0.08043377101421356 5.0 4 -0.06818729639053345
0.6447424292564392 0.06412658095359802 0.10262101888656616 87.0 12 -0.068184994161129
0.6304690837860107 0.06270694732666016 -0.055431053042411804 100.0 5 -0.06818269193172455
0.695499062538147 0.0690523013472557 0.1358560025691986 41.0 13 -0.0681803897023201
0.6360069513320923 0.0630335658788681 -0.033495016396045685 2.0 6 -0.06817808747291565
1.483543872833252 0.14677006006240845 0.3441751301288605 2.0 14 -0.0681757777929306
0.6427748203277588 0.0634777694940567 -0.011274254880845547 60.0 7 -0.06817347556352615
3.6105165481567383 0.3559233546257019 0.9721243977546692 120.0 15 -0.0681711733341217
1.52475106716156 0.1484287679195404 -0.41048702597618103 36.0 0 -0.06815043836832047
0.6130189895629883 0.05956709012389183 0.010750683024525642 78.0 8 -0.06814812868833542
1.5303741693496704 0.14843694865703583 -0.354972779750824 34.0 1 -0.06814582645893097
0.6480761170387268 0.06274525821208954 0.03412304446101189 6.0 9 -0.06814352422952652
1.5105326175689697 0.14624634385108948 -0.2949907183647156 37.0 2 -0.06814122200012207
0.6465069055557251 0.062479447573423386 0.05682554095983505 54.0 10 -0.06813891232013702
0.6291998624801636 0.060696035623550415 -0.10011807084083557 98.0 3 -0.06813661009073257
0.642184853553772 0.06183551996946335 0.07921507954597473 97.0 11 -0.06813430786132812
0.6639314889907837 0.06381254643201828 -0.08189620822668076 5.0 4 -0.06813200563192368
0.6410295963287354 0.06149846315383911 0.10199528187513351 76.0 12 -0.06812970340251923
0.6406005620956421 0.061457302421331406 -0.05630260705947876 100.0 5 -0.06812739372253418
0.6898729205131531 0.06606251746416092 0.1347111612558365 46.0 13 -0.06812509149312973
0.6203175187110901 0.059292908757925034 -0.03265763819217682 2.0 6 -0.06812278926372528
3.6276705265045166 0.3461111783981323 0.8413169980049133 6.0 14 -0.06812048703432083
0.6569273471832275 0.0625605508685112 -0.011518588289618492 77.0 7 -0.06811817735433578
3.6136600971221924 0.34349995851516724 0.9726420044898987 117.0 15 -0.06811587512493134
1.5425704717636108 0.14472995698451996 -0.41514575481414795 29.0 0 -0.0680951401591301
0.6291510462760925 0.05891833081841469 0.011029920540750027 74.0 8 -0.06809283792972565
1.5386440753936768 0.14381907880306244 -0.35677239298820496 34.0 1 -0.0680905282497406
0.6522684693336487 0.06085387244820595 0.03433239087462425 4.0 9 -0.06808822602033615
1.522762417793274 0.14206725358963013 -0.2972804307937622 41.0 2 -0.0680859237909317
0.652672529220581 0.06077636033296585 0.057348478585481644 86.0 10 -0.06808362156152725
0.6313747763633728 0.05868198722600937 -0.1004309356212616 84.0 3 -0.0680813193321228
0.6344903707504272 0.0588601753115654 0.07824012637138367 76.0 11 -0.06807900965213776
0.6621735692024231 0.061311401426792145 -0.08165246248245239 10.0 4 -0.0680767074227333
0.6589432954788208 0.06089633330702782 0.10481110215187073 76.0 12 -0.06807440519332886
0.6408112049102783 0.05922064930200577 -0.05630260705947876 100.0 5 -0.06807210296392441
0.6979191303253174 0.06437578052282333 0.13623763620853424 48.0 13 -0.06806979328393936
0.6125653386116028 0.05639467388391495 -0.032238952815532684 5.0 6 -0.06806749105453491
3.6191539764404297 0.33255359530448914 0.8390675187110901 1.0 14 -0.06806518882513046
0.6571416854858398 0.06026751920580864 -0.011518588289618492 75.0 7 -0.06806288659572601
3.622532606124878 0.331589013338089 0.974712610244751 120.0 15 -0.06806057691574097
1.570002555847168 0.14177653193473816 -0.42239269614219666 14.0 0 -0.06803984194993973
0.6293528079986572 0.05672195553779602 0.011029920540750027 78.0 8 -0.06803753972053528
1.5507822036743164 0.13949517905712128 -0.35947179794311523 30.0 1 -0.06803523749113083
0.6365628242492676 0.0571477897465229 0.033495016396045685 3.0 9 -0.06803293526172638
1.5232491493225098 0.13675054907798767 -0.2972804307937622 26.0 2 -0.06803062558174133
0.6528807282447815 0.05849756672978401 0.057348478585481644 86.0 10 -0.06802832335233688
0.6433809399604797 0.057533517479896545 -0.10230815410614014 100.0 3 -0.06802602112293243
0.6623731851577759 0.05911535397171974 0.08165246248245239 14.0 11 -0.06802371889352798
0.6485427021980286 0.057766612619161606 -0.07994629442691803 24.0 4 -0.06802140921354294
0.651281476020813 0.05789630860090256 0.10355963557958603 80.0 12 -0.06801910698413849
0.6529213786125183 0.058042094111442566 -0.057348478585481644 100.0 5 -0.06801680475473404
0.6942284107208252 0.06159200891852379 0.13547439873218536 45.0 13 -0.06801450252532959
0.618726909160614 0.0547843798995018 -0.032552968710660934 2.0 6 -0.06801219284534454
3.6222338676452637 0.3200906813144684 0.83951735496521 6.0 14 -0.0680098906159401
0.6593400835990906 0.05814880132675171 -0.011553493328392506 80.0 7 -0.06800758838653564
3.6236679553985596 0.31894102692604065 0.974712610244751 117.0 15 -0.0680052861571312
1.560864806175232 0.13546054065227509 -0.41980451345443726 0.0 0 -0.06798455119132996
0.6235703229904175 0.05400725454092026 0.010925207287073135 71.0 8 -0.06798224151134491
1.5726163387298584 0.13592658936977386 -0.36442074179649353 12.0 1 -0.06797993928194046
0.6407285928726196 0.055380359292030334 0.03370435908436775 3.0 9 -0.06797763705253601
1.5569690465927124 0.13430114090442657 -0.30376794934272766 7.0 2 -0.06797533482313156
0.6451407074928284 0.055535171180963516 0.05665123090147972 96.0 10 -0.06797302514314651
0.6416096687316895 0.05511809512972832 -0.10199528187513351 94.0 3 -0.06797072291374207
0.6665312051773071 0.057141825556755066 0.08213994652032852 14.0 11 -0.06796842068433762
0.6368732452392578 0.05448758229613304 -0.07848386466503143 50.0 4 -0.06796611845493317
0.6435971260070801 0.05506284162402153 0.10230815410614014 81.0 12 -0.06796380877494812
0.6292979717254639 0.05372855067253113 -0.055256739258766174 100.0 5 -0.06796150654554367
0.7003077268600464 0.059668153524398804 0.13661924004554749 37.0 13 -0.06795920431613922
0.648765504360199 0.055162880569696426 -0.03412304446101189 7.0 6 -0.06795690208673477
3.631096363067627 0.3081028461456299 0.8413169980049133 18.0 14 -0.06795459240674973
0.6415964961051941 0.054440226405858994 -0.011239349842071533 85.0 7 -0.06795229017734528
3.6208555698394775 0.30659744143486023 0.9736772775650024 117.0 15 -0.06794998794794083
3.1014792919158936 0.25825828313827515 -0.8339149951934814 86.0 0 -0.06792925298213959
0.6237460374832153 0.05193895101547241 0.010925207287073135 71.0 8 -0.06792695075273514
3.1189279556274414 0.25916314125061035 -0.7225428223609924 87.0 1 -0.06792464107275009
0.6568413376808167 0.054464247077703476 0.03454173356294632 3.0 9 -0.06792233884334564
3.1070303916931152 0.25708258152008057 -0.6060094237327576 82.0 2 -0.06792003661394119
0.6493019461631775 0.05361058935523033 0.05699985474348068 100.0 10 -0.06791773438453674
0.6260395646095276 0.05168989673256874 -0.09949233382940292 91.0 3 -0.0679154247045517
0.666716992855072 0.05493166670203209 0.08213994652032852 14.0 11 -0.06791312247514725
0.6548562049865723 0.0538390576839447 -0.08067751675844193 100.0 4 -0.0679108202457428
0.6536291241645813 0.05362334102392197 0.10387250036001205 82.0 12 -0.06790851801633835
0.6334531903266907 0.051857125014066696 -0.05560535937547684 96.0 5 -0.0679062083363533
0.6946315765380859 0.056865446269512177 0.13547439873218536 33.0 13 -0.06790390610694885
0.6628792881965637 0.054149288684129715 -0.03485574945807457 17.0 6 -0.0679016038775444
3.639867067337036 0.2966940104961395 0.8431165814399719 30.0 14 -0.06789930164813995
0.6517481207847595 0.053010694682598114 -0.011413874104619026 80.0 7 -0.0678969994187355
3.6180527210235596 0.29364466667175293 0.9726420044898987 120.0 15 -0.06789468973875046
3.096541166305542 0.24751083552837372 -0.8323620557785034 72.0 0 -0.06787395477294922
0.6199367642402649 0.04944322258234024 0.010855397209525108 71.0 8 -0.06787165254354477
3.1003875732421875 0.24672921001911163 -0.7180438041687012 72.0 1 -0.06786935031414032
0.664982259273529 0.05291936546564102 0.03496042266488075 3.0 9 -0.06786704063415527
3.1176512241363525 0.24755552411079407 -0.6079174876213074 90.0 2 -0.06786473840475082
0.6415314674377441 0.050827506929636 0.05630260705947876 89.0 10 -0.06786243617534637
0.6281853914260864 0.0496600978076458 -0.09980519860982895 94.0 3 -0.06786013394594193
0.6886731386184692 0.05432092025876045 0.08482106775045395 6.0 11 -0.06785782426595688
0.6431662440299988 0.050618186593055725 -0.07921507954597473 97.0 4 -0.06785552203655243
0.6557726860046387 0.05161033198237419 0.10418536514043808 78.0 12 -0.06785321980714798
0.6336216330528259 0.04975605383515358 -0.05560535937547684 16.0 5 -0.06785091757774353
0.6791677474975586 0.053213369101285934 0.13242144882678986 32.0 13 -0.06784861534833908
0.6670466661453247 0.052146222442388535 -0.03506509214639664 35.0 6 -0.06784630566835403
3.650594711303711 0.2847451865673065 0.8453661203384399 28.0 14 -0.06784400343894958
0.6598949432373047 0.051471587270498276 -0.011553493328392506 80.0 7 -0.06784170120954514
3.619006395339966 0.28164586424827576 0.9726420044898987 120.0 15 -0.06783939898014069
3.1012392044067383 0.2369939684867859 -0.833397388458252 67.0 0 -0.06781865656375885
0.6320605278015137 0.04830151051282883 0.01106482557952404 65.0 8 -0.0678163543343544
3.0973024368286133 0.23615092039108276 -0.7171440124511719 72.0 1 -0.06781405210494995
0.6571968793869019 0.04999168589711189 0.03454173356294632 4.0 9 -0.0678117498755455
3.1224117279052734 0.23696768283843994 -0.6086807250976562 84.0 2 -0.06780944764614105
0.6516385078430176 0.049340419471263885 0.057174164801836014 100.0 10 -0.067807137966156
0.6381952166557312 0.04832252860069275 -0.10136953741312027 98.0 3 -0.06780483573675156
0.6690549850463867 0.05054140090942383 0.08238368481397629 7.0 11 -0.0678025335073471
0.6413509845733643 0.04833603277802467 -0.07897134125232697 91.0 4 -0.06780023127794266
0.661858320236206 0.04976573586463928 0.10512397438287735 91.0 12 -0.06779792159795761
0.6278311014175415 0.04709671065211296 -0.05508242920041084 12.0 5 -0.06779561936855316
0.6734672784805298 0.05052010342478752 0.13127659261226654 32.0 13 -0.06779331713914871
0.661240816116333 0.04948689416050911 -0.034751079976558685 85.0 6 -0.06779101490974426
3.6418020725250244 0.2719130516052246 0.8431165814399719 18.0 14 -0.06778870522975922
0.6441171169281006 0.047979287803173065 -0.011274254880845547 62.0 7 -0.06778640300035477
3.627674102783203 0.26958316564559937 0.974712610244751 120.0 15 -0.06778410077095032
3.105861186981201 0.22699083387851715 -0.8344326615333557 69.0 0 -0.06776336580514908
0.6322252750396729 0.046095047146081924 0.01106482557952404 42.0 8 -0.06776106357574463
3.105882406234741 0.2259025275707245 -0.7189435958862305 72.0 1 -0.06775875389575958
0.6454152464866638 0.046829938888549805 0.03391370177268982 5.0 9 -0.06775645166635513
3.111431837081909 0.22575877606868744 -0.6063910126686096 84.0 2 -0.06775414943695068
0.6617344617843628 0.047898247838020325 0.05804572254419327 100.0 10 -0.06775184720754623
0.642300546169281 0.046378884464502335 -0.10199528187513351 94.0 3 -0.06774953752756119
0.6771471500396729 0.04877594858407974 0.08335863798856735 6.0 11 -0.06774723529815674
0.641515851020813 0.04609714075922966 -0.07897134125232697 86.0 4 -0.06774493306875229
0.654146671295166 0.046890001744031906 0.10387250036001205 87.0 12 -0.06774263083934784
0.6299789547920227 0.04504682123661041 -0.055256739258766174 8.0 5 -0.06774032115936279
0.6834307909011841 0.04886890947818756 0.13318468630313873 34.0 13 -0.06773801892995834
0.6673861145973206 0.04760488122701645 -0.03506509214639664 100.0 6 -0.0677357167005539
0.7017210721969604 0.049930915236473083 0.16241468489170074 15.0 14 -0.06773341447114944
0.6263285875320435 0.044456206262111664 -0.010960111394524574 23.0 7 -0.0677311047911644
3.632446765899658 0.2571922242641449 0.97574782371521 120.0 15 -0.06772880256175995
3.095108985900879 0.21480245888233185 -0.8313267827033997 69.0 0 -0.06770806759595871
0.6363721489906311 0.044164616614580154 0.011134634725749493 28.0 8 -0.06770576536655426
3.106652021408081 0.2150602489709854 -0.7189435958862305 72.0 1 -0.06770346313714981
0.6535448431968689 0.045127514749765396 0.03433239087462425 8.0 9 -0.06770115345716476
3.1063625812530518 0.2139492779970169 -0.6052461862564087 74.0 2 -0.06769885122776031
0.6499793529510498 0.04465336725115776 0.05699985474348068 100.0 10 -0.06769654899835587
0.6542907357215881 0.04483483359217644 -0.10387250036001205 100.0 3 -0.06769424676895142
0.689195990562439 0.047226689755916595 0.08482106775045395 6.0 11 -0.06769193708896637
0.6416728496551514 0.043857380747795105 -0.07897134125232697 88.0 4 -0.06768963485956192
0.6424815654754639 0.043800003826618195 0.10199528187513351 81.0 12 -0.06768733263015747
0.6301323771476746 0.042847637087106705 -0.055256739258766174 8.0 5 -0.06768503040075302
0.6894816756248474 0.0467623770236969 0.13432954251766205 42.0 13 -0.06768272072076797
0.653607189655304 0.04421469196677208 -0.03433239087462425 100.0 6 -0.06768041849136353
0.7018994092941284 0.04735846444964409 0.16241468489170074 15.0 14 -0.06767811626195908
0.6224896907806396 0.04200054332613945 -0.010890301316976547 7.0 7 -0.06767581403255463
3.625612258911133 0.24399122595787048 0.9736772775650024 120.0 15 -0.06767350435256958
3.0958399772644043 0.20399785041809082 -0.8313267827033997 65.0 0 -0.06765276938676834
0.6365297436714172 0.04183204099535942 0.011134634725749493 40.0 8 -0.06765046715736389
3.1151978969573975 0.20418137311935425 -0.7207432389259338 70.0 1 -0.06764816492795944
0.655691385269165 0.042976394295692444 0.034437064081430435 21.0 9 -0.06764586269855499
3.111008405685425 0.20336151123046875 -0.6060094237327576 76.0 2 -0.06764355301856995
0.6382021903991699 0.04160637781023979 0.0559539832174778 91.0 10 -0.0676412507891655
0.6307887434959412 0.04101251810789108 -0.10011807084083557 91.0 3 -0.06763894855976105
0.6616313457489014 0.04290188476443291 0.08140873163938522 7.0 11 -0.0676366463303566
0.6497531533241272 0.04201779514551163 -0.07994629442691803 95.0 4 -0.06763433665037155
0.6584006547927856 0.04257700592279434 0.1044982373714447 91.0 12 -0.0676320344209671
0.6422076225280762 0.04141730070114136 -0.05630260705947876 7.0 5 -0.06762973219156265
0.6798446178436279 0.04372544586658478 0.13242144882678986 52.0 13 -0.0676274299621582
0.6517643928527832 0.0418052040040493 -0.03422771766781807 100.0 6 -0.06762512028217316
0.7001156210899353 0.04478383809328079 0.1619647741317749 11.0 14 -0.06762281805276871
0.6246281266212463 0.03995518013834953 -0.010925207287073135 5.0 7 -0.06762051582336426
3.6264419555664062 0.23133303225040436 0.9736772775650024 120.0 15 -0.06761821359395981
3.131239175796509 0.19535604119300842 -0.8406442999839783 16.0 0 -0.06759747862815857
0.6246901154518127 0.03897402808070183 0.010925207287073135 58.0 8 -0.06759516894817352
3.1236374378204346 0.1943330317735672 -0.7225428223609924 47.0 1 -0.06759286671876907
0.6658045649528503 0.04130583256483078 0.03496042266488075 47.0 9 -0.06759056448936462
3.1234564781188965 0.1932273507118225 -0.6082991361618042 54.0 2 -0.06758826225996017
0.6502752900123596 0.040114257484674454 0.05699985474348068 74.0 10 -0.06758595257997513
0.632892906665802 0.039041969925165176 -0.1004309356212616 94.0 3 -0.06758365035057068
0.6875274777412415 0.04229216277599335 0.08457732945680618 13.0 11 -0.06758134812116623
0.6578143239021301 0.040348853915929794 -0.0809212476015091 91.0 4 -0.06757904589176178
0.6486868262290955 0.039675358682870865 0.10293389111757278 78.0 12 -0.06757673621177673
0.6224613785743713 0.03796260058879852 -0.05455949530005455 8.0 5 -0.06757443398237228
0.6682281494140625 0.04075382277369499 0.13013173639774323 74.0 13 -0.06757213175296783
0.6499058604240417 0.03952222689986229 -0.03412304446101189 92.0 6 -0.06756982952356339
3.6646955013275146 0.2222163826227188 0.8476155996322632 13.0 14 -0.06756752729415894
0.6187756061553955 0.037412647157907486 -0.01082049123942852 5.0 7 -0.06756521761417389
3.631084442138672 0.2189062535762787 0.974712610244751 120.0 15 -0.06756291538476944
3.203223943710327 0.18918476998806 -0.859796941280365 1.0 0 -0.0675421804189682
0.6328072547912598 0.03726324066519737 0.01106482557952404 78.0 8 -0.06753987818956375
0.6400246024131775 0.037464071065187454 0.03359968587756157 38.0 9 -0.06753526628017426
0.6643278002738953 0.03877032920718193 0.0582200363278389 52.0 10 -0.06753066182136536
0.6369693279266357 0.0370621420443058 -0.10105667263269424 94.0 3 -0.06752835214138031
0.6638898253440857 0.03851225972175598 0.08165246248245239 21.0 11 -0.06752604991197586
0.6381334066390991 0.03690639138221741 -0.07848386466503143 91.0 4 -0.06752374768257141
0.6724864840507507 0.03877544030547142 0.10668832063674927 87.0 12 -0.06752144545316696
0.6583874225616455 0.03796248883008957 -0.057697102427482605 7.0 5 -0.06751914322376251
0.680126428604126 0.03909686580300331 0.13242144882678986 88.0 13 -0.06751683354377747
0.6460518836975098 0.037024978548288345 -0.03391370177268982 97.0 6 -0.06751453131437302
3.6479387283325195 0.2084231972694397 0.8435665369033813 21.0 14 -0.06751222908496857
0.6328776478767395 0.036048341542482376 -0.01106482557952404 5.0 7 -0.06750992685556412
3.63568377494812 0.20644988119602203 0.97574782371521 117.0 15 -0.06750761717557907
0.6469098925590515 0.035828303545713425 0.011309158988296986 68.0 8 -0.06748457998037338
0.6381572484970093 0.03511982038617134 0.033495016396045685 41.0 9 -0.06747997552156448
0.6233716011047363 0.0343061201274395 -0.12135452777147293 17.0 2 -0.06747766584157944
0.6525226831436157 0.03579648211598396 0.057174164801836014 13.0 10 -0.06747536361217499
0.6351224780082703 0.0347304567694664 -0.10074380785226822 98.0 3 -0.06747306138277054
0.6580737829208374 0.03587030991911888 0.0809212476015091 58.0 11 -0.06747075915336609
0.6422225832939148 0.0348941870033741 -0.07897134125232697 91.0 4 -0.06746844947338104
0.6509204506874084 0.03525252640247345 0.10324675589799881 87.0 12 -0.06746614724397659
0.6386210918426514 0.03458641842007637 -0.0559539832174778 7.0 5 -0.06746384501457214
0.6782984137535095 0.03661653399467468 0.13203983008861542 84.0 13 -0.0674615427851677
0.6501659154891968 0.03498437628149986 -0.03412304446101189 97.0 6 -0.06745923310518265
3.648643970489502 0.19568727910518646 0.8435665369033813 28.0 14 -0.0674569308757782
0.6270090937614441 0.033518560230731964 -0.010960111394524574 5.0 7 -0.06745462864637375
3.64024019241333 0.19396404922008514 0.9767830967903137 115.0 15 -0.0674523264169693
1.4681510925292969 0.07642869651317596 -0.3939225971698761 0.0 0 -0.06743159145116806
0.6370460391044617 0.03305172547698021 0.011134634725749493 81.0 8 -0.06742928177118301
1.5238279104232788 0.07879451662302017 -0.3522733747959137 0.0 1 -0.06742697954177856
0.6542328596115112 0.03371446207165718 0.03433239087462425 39.0 9 -0.06742467731237411
0.6215268969535828 0.032029032707214355 -0.1209729015827179 29.0 2 -0.06742237508296967
0.6188175678253174 0.03178112953901291 0.05421087145805359 14.0 10 -0.06742006540298462
0.6411581635475159 0.03281661123037338 -0.10168241709470749 77.0 3 -0.06741776317358017
0.6502649188041687 0.03316862881183624 0.07994629442691803 100.0 11 -0.06741546094417572
0.6542357802391052 0.03325669839978218 -0.08043377101421356 82.0 4 -0.06741315871477127
0.639202356338501 0.032380666583776474 0.10136953741312027 96.0 12 -0.06741084903478622
0.6387379169464111 0.03235714137554169 -0.0559539832174778 7.0 5 -0.06740854680538177
0.682343602180481 0.03444672003388405 0.1328030675649643 85.0 13 -0.06740624457597733
0.6662420034408569 0.033517297357320786 -0.03496042266488075 100.0 6 -0.06740394234657288
3.6493048667907715 0.1829507052898407 0.8435665369033813 30.0 14 -0.06740163266658783
0.6211307048797607 0.03103048913180828 -0.010855397209525108 5.0 7 -0.06739933043718338
3.6370365619659424 0.1810629814863205 0.97574782371521 117.0 15 -0.06739702820777893
1.4394654035568237 0.0698975920677185 -0.3861580491065979 1.0 0 -0.06737629324197769
0.633162796497345 0.030634675174951553 0.01106482557952404 87.0 8 -0.06737399101257324
1.5007357597351074 0.07234843820333481 -0.34687453508377075 1.0 1 -0.0673716813325882
0.656341552734375 0.03152620792388916 0.034437064081430435 43.0 9 -0.06736937910318375
0.611829936504364 0.029388172551989555 -0.1190648153424263 35.0 2 -0.0673670768737793
0.6388258337974548 0.03057343140244484 0.0559539832174778 7.0 10 -0.06736477464437485
0.6452150940895081 0.030766353011131287 -0.10230815410614014 70.0 3 -0.0673624649643898
0.6543424725532532 0.031086811795830727 0.08043377101421356 100.0 11 -0.06736016273498535
0.6563307642936707 0.031066786497831345 -0.08067751675844193 56.0 4 -0.0673578605055809
0.6689093708992004 0.03154518082737923 0.10606258362531662 100.0 12 -0.06735555827617645
0.6468077898025513 0.030502889305353165 -0.05665123090147972 11.0 5 -0.0673532485961914
0.6765764355659485 0.031788092106580734 0.13165821135044098 96.0 13 -0.06735094636678696
0.6603697538375854 0.03091145120561123 -0.0346464067697525 100.0 6 -0.06734864413738251
3.6557610034942627 0.1704842448234558 0.8449162244796753 33.0 14 -0.06734634190797806
0.6232327818870544 0.02895478904247284 -0.010890301316976547 5.0 7 -0.06734403967857361
3.629926919937134 0.1680080145597458 0.9736772775650024 120.0 15 -0.06734172999858856
1.451279878616333 0.06539525091648102 -0.3892638683319092 1.0 0 -0.06706953048706055
0.6372612118721008 0.028603503480553627 0.011134634725749493 100.0 8 -0.0670672282576561
1.471777319908142 0.0658034235239029 -0.34012600779533386 2.0 1 -0.06706492602825165
0.6604330539703369 0.029528077691793442 0.0346464067697525 38.0 9 -0.0670626163482666
0.6413484811782837 0.028562957420945168 -0.12478908896446228 37.0 2 -0.06706031411886215
0.6548521518707275 0.029049530625343323 0.057348478585481644 6.0 10 -0.0670580118894577
0.6393981575965881 0.028252175077795982 -0.10136953741312027 59.0 3 -0.06705570966005325
0.656430184841156 0.028890274465084076 0.08067751675844193 100.0 11 -0.0670533999800682
0.6742838621139526 0.029557809233665466 -0.08287115395069122 14.0 4 -0.06705109775066376
0.6650633215904236 0.029153617098927498 0.10543683916330338 100.0 12 -0.06704879552125931
0.65885329246521 0.028766192495822906 -0.057697102427482605 33.0 5 -0.06704649329185486
0.6688376665115356 0.029085490852594376 0.13013173639774323 86.0 13 -0.06704418361186981
0.6524920463562012 0.02826027385890484 -0.03422771766781807 100.0 6 -0.06704188138246536
3.6602280139923096 0.1578892171382904 0.8458160161972046 25.0 14 -0.06703957915306091
0.6233253479003906 0.026888038963079453 -0.010890301316976547 5.0 7 -0.06703727692365646
3.6381845474243164 0.15630395710468292 0.97574782371521 117.0 15 -0.06703496724367142
1.4611502885818481 0.06072968244552612 -0.3918520510196686 1.0 0 -0.06701423227787018
0.6433465480804443 0.026739366352558136 0.011239349842071533 100.0 8 -0.06701193004846573
1.4817228317260742 0.061324987560510635 -0.3423755168914795 1.0 1 -0.06700962781906128
0.6545453667640686 0.02697596326470375 0.03433239087462425 35.0 9 -0.06700732558965683
0.6414443254470825 0.026323888450860977 -0.12478908896446228 37.0 2 -0.06700501590967178
0.678838312625885 0.02773948945105076 0.05944021791219711 6.0 10 -0.06700271368026733
0.6315935254096985 0.025808915495872498 -0.10011807084083557 45.0 3 -0.06700041145086288
0.6505719423294067 0.02647101692855358 0.07994629442691803 100.0 11 -0.06699810922145844
0.6624773740768433 0.02683962695300579 -0.08140873163938522 14.0 4 -0.06699579954147339
0.6691086292266846 0.026990998536348343 0.10606258362531662 100.0 12 -0.06699349731206894
