# .PCD v0.7 - Point Cloud Data file format
VERSION 0.7
FIELDS x y z intensity ring time
SIZE 4 4 4 4 4 4
TYPE F F F F F F
COUNT 1 1 1 1 1 1
WIDTH 542
HEIGHT 1
VIEWPOINT 0 0 0 1 0 0 0
POINTS 542
DATA ascii
1.4007638692855835 0.29902011156082153 -0.3306780755519867 53.0 1 -0.06687204539775848
0.6016013026237488 0.12842342257499695 0.032238952815532684 63.0 9 -0.06686973571777344
1.4170094728469849 0.3022288382053375 -0.2816340923309326 61.0 2 -0.06686743348836899
0.6060251593589783 0.12914632260799408 0.05421087145805359 100.0 10 -0.06686513125896454
0.6028047204017639 0.1283503770828247 -0.09761511534452438 94.0 3 -0.06686282902956009
0.6193835139274597 0.13176706433296204 0.07775264233350754 100.0 11 -0.06686051934957504
0.605814516544342 0.1287699043750763 -0.07604647427797318 90.0 4 -0.0668582171201706
0.6125105619430542 0.13019318878650665 0.0991794615983963 92.0 12 -0.06685591489076614
0.6158596873283386 0.130793035030365 -0.05508242920041084 57.0 5 -0.0668536126613617
0.6260813474655151 0.13284935057163239 0.12440747022628784 91.0 13 -0.06685131043195724
0.6174106597900391 0.1308969110250473 -0.03307632729411125 100.0 6 -0.0668490007519722
1.4202961921691895 0.3008579611778259 0.33517709374427795 5.0 14 -0.06684669852256775
0.596667468547821 0.12639065086841583 -0.010645967908203602 99.0 7 -0.0668443962931633
1.4515089988708496 0.3072042763233185 0.39754605293273926 0.0 15 -0.06684209406375885
1.3857678174972534 0.2912689745426178 -0.3794287443161011 51.0 0 -0.06682135164737701
0.5929515361785889 0.12463010102510452 0.010576157830655575 100.0 8 -0.06681904941797256
1.3979334831237793 0.29357197880744934 -0.3297782838344574 53.0 1 -0.06681674718856812
0.6137740612030029 0.12878331542015076 0.032866984605789185 59.0 9 -0.06681444495916367
1.4238203763961792 0.2984887659549713 -0.28277894854545593 70.0 2 -0.06681214272975922
0.6064721941947937 0.12703025341033936 0.05421087145805359 100.0 10 -0.06680983304977417
0.601293683052063 0.1259455680847168 -0.09730225056409836 97.0 3 -0.06680753082036972
0.6120451092720032 0.12808603048324585 0.07677769660949707 100.0 11 -0.06680522859096527
0.6062382459640503 0.1267600804567337 -0.07604647427797318 44.0 4 -0.06680292636156082
0.6168285608291626 0.1288623809814453 0.09980519860982895 83.0 12 -0.06680061668157578
0.5929082632064819 0.12375716865062714 -0.052990689873695374 100.0 5 -0.06679831445217133
0.6188310980796814 0.12916801869869232 0.12288100272417068 85.0 13 -0.06679601222276688
0.617841362953186 0.1288486123085022 -0.03307632729411125 91.0 6 -0.06679370999336243
1.4212862253189087 0.296146035194397 0.33517709374427795 7.0 14 -0.06679140031337738
0.6029782891273499 0.12552966177463531 -0.010750683024525642 88.0 7 -0.06678909808397293
1.4431158304214478 0.30016830563545227 0.39495787024497986 1.0 15 -0.06678679585456848
1.3942933082580566 0.2882366478443146 -0.3814992904663086 54.0 0 -0.06676606088876724
0.5972995758056641 0.12336893379688263 0.010645967908203602 100.0 8 -0.06676375865936279
1.3951326608657837 0.2879024147987366 -0.3288784623146057 51.0 1 -0.06676144897937775
0.6142198443412781 0.12663990259170532 0.032866984605789185 59.0 9 -0.0667591467499733
1.426725149154663 0.2941623330116272 -0.28316056728363037 70.0 2 -0.06675684452056885
0.6107929348945618 0.125822514295578 0.05455949530005455 100.0 10 -0.0667545422911644
0.5997948050498962 0.12344750016927719 -0.09698937833309174 90.0 3 -0.06675223261117935
0.6047108769416809 0.12434931099414825 0.07580273598432541 100.0 11 -0.0667499303817749
0.6222327947616577 0.12783955037593842 -0.0779963880777359 13.0 4 -0.06674762815237045
0.623079776763916 0.1278999149799347 0.10074380785226822 87.0 12 -0.066745325922966
0.6030739545822144 0.12379331141710281 -0.05386224761605263 100.0 5 -0.06674301624298096
0.6115853190422058 0.1254292130470276 0.12135452777147293 85.0 13 -0.06674071401357651
0.6182872653007507 0.12669157981872559 -0.03307632729411125 91.0 6 -0.06673841178417206
1.429947853088379 0.29274600744247437 0.33697667717933655 7.0 14 -0.06673610955476761
0.6151675581932068 0.12582829594612122 -0.010960111394524574 84.0 7 -0.06673379987478256
1.4384764432907104 0.29396966099739075 0.3934049606323242 1.0 15 -0.06673149764537811
1.40286386013031 0.28490614891052246 -0.3835698664188385 54.0 0 -0.06671076267957687
0.6016461253166199 0.12207835912704468 0.010715777985751629 100.0 8 -0.06670846045017242
1.3923094272613525 0.28225669264793396 -0.3279786705970764 51.0 1 -0.06670615822076797
0.6068281531333923 0.1229093074798584 0.03244829550385475 56.0 9 -0.06670384854078293
1.4219707250595093 0.28801143169403076 -0.28201571106910706 76.0 2 -0.06670154631137848
0.6209924817085266 0.12566538155078888 0.055431053042411804 100.0 10 -0.06669924408197403
0.5982859134674072 0.12096145749092102 -0.09667651355266571 83.0 3 -0.06669694185256958
0.5973580479621887 0.12066563963890076 0.07482778280973434 100.0 11 -0.06669463217258453
0.6032166481018066 0.12173951417207718 -0.07555899769067764 14.0 4 -0.06669232994318008
0.6196496486663818 0.12494312226772308 0.10011807084083557 76.0 12 -0.06669002771377563
0.617173969745636 0.12444394081830978 -0.05508242920041084 56.0 5 -0.06668772548437119
0.6177932024002075 0.12445689737796783 0.12249937653541565 85.0 13 -0.06668541580438614
0.6108938455581665 0.1229560598731041 -0.03265763819217682 86.0 6 -0.06668311357498169
1.4156771898269653 0.28467893600463867 0.333377480506897 6.0 14 -0.06668081134557724
0.615602970123291 0.12368032336235046 -0.010960111394524574 68.0 7 -0.06667850911617279
1.4300235509872437 0.28704532980918884 0.3908167779445648 1.0 15 -0.06667619943618774
1.4133225679397583 0.28189653158187866 -0.3861580491065979 60.0 0 -0.0666554644703865
0.6040297746658325 0.12036841362714767 0.010750683024525642 100.0 8 -0.06665316224098206
1.3951973915100098 0.27777570486068726 -0.32842856645584106 49.0 1 -0.0666508600115776
0.5935206413269043 0.11816652119159698 0.03171559050679207 52.0 9 -0.06664855778217316
1.4210419654846191 0.28266268968582153 -0.2816340923309326 66.0 2 -0.06664624810218811
0.6155648231506348 0.12233202904462814 0.05490811914205551 100.0 10 -0.06664394587278366
0.6142048239707947 0.12195032089948654 -0.0991794615983963 100.0 3 -0.06664164364337921
0.6133528351783752 0.12166960537433624 0.07677769660949707 100.0 11 -0.06663934141397476
0.6211628913879395 0.12310650199651718 -0.07775264233350754 9.0 4 -0.06663703173398972
0.621998131275177 0.12327204644680023 0.1004309356212616 92.0 12 -0.06663472950458527
0.6254222989082336 0.12383722513914108 -0.055779676884412766 54.0 5 -0.06663242727518082
0.6317053437232971 0.12496644258499146 0.12517070770263672 78.0 13 -0.06663012504577637
0.6211161017417908 0.12275898456573486 -0.033180996775627136 100.0 6 -0.06662781536579132
1.4071029424667358 0.277849018573761 0.33112797141075134 6.0 14 -0.06662551313638687
0.6101243495941162 0.12047622352838516 -0.010855397209525108 76.0 7 -0.06662321090698242
1.4366536140441895 0.28342291712760925 0.39236968755722046 2.0 15 -0.06662090867757797
1.401026964187622 0.27436283230781555 -0.38253456354141235 56.0 0 -0.06660017371177673
0.6103128790855408 0.11951745301485062 0.010855397209525108 100.0 8 -0.06659786403179169
1.4114108085632324 0.2761405408382416 -0.332027792930603 50.0 1 -0.06659556180238724
0.5978499054908752 0.11686016619205475 0.031924936920404434 53.0 9 -0.06659325957298279
1.4123855829238892 0.27581945061683655 -0.2797259986400604 61.0 2 -0.06659095734357834
0.6179436445236206 0.12056392431259155 0.05508242920041084 100.0 10 -0.06658864766359329
0.6165447235107422 0.12029098719358444 -0.09949233382940292 98.0 3 -0.06658634543418884
0.6215465664863586 0.12115428596735 0.07775264233350754 100.0 11 -0.0665840432047844
0.6332586407661438 0.12332253158092499 -0.07921507954597473 7.0 4 -0.06658174097537994
0.6088515520095825 0.11845913529396057 0.09824085235595703 85.0 12 -0.0665794312953949
0.6180276274681091 0.12013251334428787 -0.05508242920041084 52.0 5 -0.06657712906599045
0.6321162581443787 0.12287106364965439 0.12517070770263672 61.0 13 -0.066574826836586
0.619559109210968 0.12031799554824829 -0.03307632729411125 89.0 6 -0.06657252460718155
1.4041904211044312 0.2724386155605316 0.33022817969322205 8.0 14 -0.0665702223777771
0.5967991352081299 0.11568186432123184 -0.010611063800752163 35.0 7 -0.06656791269779205
1.4072883129119873 0.2725299894809723 0.384087473154068 5.0 15 -0.0665656104683876
1.3981348276138306 0.26898568868637085 -0.3814992904663086 56.0 0 -0.06654487550258636
0.602871298789978 0.11587665975093842 0.010715777985751629 100.0 8 -0.06654257327318192
1.4123661518096924 0.27121174335479736 -0.332027792930603 50.0 1 -0.06654026359319687
0.6100230813026428 0.11703052371740341 0.032552968710660934 55.0 9 -0.06653796136379242
1.4171485900878906 0.2718743681907654 -0.2804892361164093 55.0 2 -0.06653565913438797
0.610512912273407 0.11701402813196182 0.05438518151640892 100.0 10 -0.06653335690498352
0.5975596308708191 0.11442292481660843 -0.09636364877223969 97.0 3 -0.06653104722499847
0.6239154934883118 0.11935707181692123 0.0779963880777359 100.0 11 -0.06652874499559402
0.633685290813446 0.1211114227771759 -0.07921507954597473 7.0 4 -0.06652644276618958
0.615082323551178 0.11744441837072372 0.0991794615983963 92.0 12 -0.06652414053678513
0.6047234535217285 0.11546648293733597 -0.05386224761605263 70.0 5 -0.06652183830738068
0.6228989362716675 0.11882457137107849 0.12326261401176453 54.0 13 -0.06651952862739563
0.6317471265792847 0.1203978881239891 -0.03370435908436775 100.0 6 -0.06651722639799118
1.4108760356903076 0.2686285078525543 0.331577867269516 11.0 14 -0.06651492416858673
0.6011281609535217 0.11434541642665863 -0.010680872946977615 11.0 7 -0.06651262193918228
1.4139248132705688 0.2686976194381714 0.385640412569046 6.0 15 -0.06651031225919724
1.4028619527816772 0.2648199796676636 -0.38253456354141235 56.0 0 -0.066489577293396
0.5993419885635376 0.11303020268678665 0.010645967908203602 100.0 8 -0.06648727506399155
1.4113891124725342 0.2659194767475128 -0.331577867269516 51.0 1 -0.0664849728345871
0.6143535375595093 0.11563917994499207 0.032762311398983 52.0 9 -0.06648267060518265
1.4065128564834595 0.2647465765476227 -0.27819952368736267 50.0 2 -0.0664803609251976
0.6187499761581421 0.11635491251945496 0.05508242920041084 100.0 10 -0.06647805869579315
0.6018381714820862 0.1130659282207489 -0.09698937833309174 94.0 3 -0.0664757564663887
0.6165241599082947 0.11571356654167175 0.07702143490314484 100.0 11 -0.06647345423698425
0.649712860584259 0.12182527035474777 -0.08116498589515686 5.0 4 -0.0664711445569992
0.6251965761184692 0.11711537837982178 0.10074380785226822 76.0 12 -0.06646884232759476
0.6090393662452698 0.11408872157335281 -0.05421087145805359 74.0 5 -0.06646654009819031
0.6233099699020386 0.11664936691522598 0.12326261401176453 54.0 13 -0.06646423786878586
0.6184208393096924 0.11562266945838928 -0.03297165781259537 81.0 6 -0.06646192818880081
1.4213831424713135 0.2654913365840912 0.3338273763656616 12.0 14 -0.06645962595939636
0.6015236973762512 0.11224623769521713 -0.010680872946977615 5.0 7 -0.06645732372999191
1.4110558032989502 0.26305264234542847 0.3846051096916199 6.0 15 -0.06645502150058746
1.4113761186599731 0.26132863759994507 -0.3846051096916199 54.0 0 -0.06643428653478622
0.6016992330551147 0.11130128055810928 0.010680872946977615 100.0 8 -0.06643197685480118
1.4046435356140137 0.2595749795436859 -0.3297782838344574 53.0 1 -0.06642967462539673
0.6049330830574036 0.11168110370635986 0.032238952815532684 45.0 9 -0.06642737239599228
1.419012188911438 0.26197418570518494 -0.2804892361164093 49.0 2 -0.06642507016658783
0.6171930432319641 0.11383312195539474 0.05490811914205551 92.0 10 -0.06642276048660278
0.6061145067214966 0.11168047040700912 -0.09761511534452438 100.0 3 -0.06642045825719833
0.6130198240280151 0.1128418892621994 0.07653395086526871 100.0 11 -0.06641815602779388
0.6267059445381165 0.1152484118938446 -0.07824012637138367 7.0 4 -0.06641585379838943
0.6314301490783691 0.11600293219089508 0.10168241709470749 85.0 12 -0.06641354411840439
0.6251107454299927 0.11484196037054062 -0.05560535937547684 88.0 5 -0.06641124188899994
0.6256442666053772 0.11482712626457214 0.12364423274993896 48.0 13 -0.06640893965959549
0.6227495670318604 0.11418379843235016 -0.033180996775627136 100.0 6 -0.06640663743019104
1.4184675216674805 0.25982552766799927 0.3329275846481323 21.0 14 -0.066404327750206
0.6038788557052612 0.11050562560558319 -0.010715777985751629 5.0 7 -0.06640202552080154
1.4043638706207275 0.25673621892929077 0.38253456354141235 6.0 15 -0.0663997232913971
1.4198827743530273 0.25778040289878845 -0.3866756856441498 54.0 0 -0.06637898832559586
0.6060193181037903 0.10991384834051132 0.010750683024525642 100.0 8 -0.0663766860961914
1.417046070098877 0.25675517320632935 -0.3324776887893677 66.0 1 -0.06637437641620636
0.5994232296943665 0.10850141197443008 0.031924936920404434 10.0 9 -0.06637207418680191
1.4083267450332642 0.2549208104610443 -0.27819952368736267 45.0 2 -0.06636977195739746
0.6215077638626099 0.11238690465688705 0.055256739258766174 85.0 10 -0.06636746972799301
0.6181641221046448 0.11167118698358536 -0.09949233382940292 98.0 3 -0.06636516004800797
0.6192705035209656 0.11175914853811264 0.077265165746212 100.0 11 -0.06636285781860352
0.6271044611930847 0.11305992305278778 -0.07824012637138367 7.0 4 -0.06636055558919907
0.6240547895431519 0.11239796876907349 0.1004309356212616 81.0 12 -0.06635825335979462
0.6176643967628479 0.1112470030784607 -0.05490811914205551 80.0 5 -0.06635594367980957
0.6221768856048584 0.11194733530282974 0.12288100272417068 45.0 13 -0.06635364145040512
0.6251101493835449 0.11236248165369034 -0.03328566998243332 86.0 6 -0.06635133922100067
1.4232019186019897 0.2555617094039917 0.3338273763656616 34.0 14 -0.06634903699159622
0.594419538974762 0.10663173347711563 -0.010541253723204136 2.0 7 -0.06634673476219177
1.4185625314712524 0.2542175352573395 0.3861580491065979 3.0 15 -0.06634442508220673
1.4131221771240234 0.25171563029289246 -0.3846051096916199 56.0 0 -0.06634044647216797
0.6181930303573608 0.11000574380159378 0.010960111394524574 100.0 8 -0.06633814424276352
1.4178898334503174 0.2520543038845062 -0.3324776887893677 65.0 1 -0.06633584201335907
0.6096121668815613 0.10825929790735245 0.03244829550385475 5.0 9 -0.06633353233337402
1.4072314500808716 0.2499062418937683 -0.27781790494918823 51.0 2 -0.06633123010396957
0.6277623772621155 0.11136922240257263 0.055779676884412766 63.0 10 -0.06632892787456512
0.6165859699249268 0.10927577316761017 -0.0991794615983963 84.0 3 -0.06632662564516068
0.627456545829773 0.11108937859535217 0.07824012637138367 100.0 11 -0.06632431596517563
0.6352949142456055 0.11236249655485153 -0.07921507954597473 7.0 4 -0.06632201373577118
0.6146978735923767 0.10860922932624817 0.09886659681797028 78.0 12 -0.06631971150636673
0.6180299520492554 0.10919796675443649 -0.05490811914205551 84.0 5 -0.06631740927696228
0.6244780421257019 0.1102248877286911 0.12326261401176453 45.0 13 -0.06631509959697723
0.6254794001579285 0.11028875410556793 -0.03328566998243332 97.0 6 -0.06631279736757278
1.431718349456787 0.2521933317184448 0.3356269896030426 45.0 14 -0.06631049513816833
0.5987087488174438 0.1053532138466835 -0.010611063800752163 2.0 7 -0.06630819290876389
1.4155924320220947 0.24884270131587982 0.38512274622917175 1.0 15 -0.06630588322877884
1.412089228630066 0.24644887447357178 -0.384087473154068 53.0 0 -0.0662851482629776
0.6106933355331421 0.10647345334291458 0.01082049123942852 100.0 8 -0.06628284603357315
1.4283602237701416 0.24877490103244781 -0.3347271978855133 63.0 1 -0.0662805438041687
0.6257279515266418 0.10886938869953156 0.03328566998243332 4.0 9 -0.06627824157476425
1.4138977527618408 0.24600175023078918 -0.27896276116371155 49.0 2 -0.0662759318947792
0.6242212653160095 0.1084953099489212 0.055431053042411804 56.0 10 -0.06627362966537476
0.6150174736976624 0.10678472369909286 -0.09886659681797028 100.0 3 -0.0662713274359703
0.6356640458106995 0.11025529354810715 0.07921507954597473 100.0 11 -0.06626902520656586
0.6532867550849915 0.11319480836391449 -0.08140873163938522 14.0 4 -0.06626671552658081
0.6228590607643127 0.10781034827232361 0.10011807084083557 67.0 12 -0.06626441329717636
0.6223337054252625 0.10771941393613815 -0.055256739258766174 84.0 5 -0.06626211106777191
0.6267935633659363 0.10837870091199875 0.12364423274993896 43.0 13 -0.06625980883836746
0.6357011198997498 0.10980495810508728 -0.033809032291173935 77.0 6 -0.06625749915838242
1.4287492036819458 0.24653106927871704 0.3347271978855133 55.0 14 -0.06625519692897797
0.62272047996521 0.10733867436647415 -0.011029920540750027 2.0 7 -0.06625289469957352
1.4316829442977905 0.2465234100818634 0.3892638683319092 0.0 15 -0.06625059247016907
1.4186536073684692 0.24249505996704102 -0.385640412569046 54.0 0 -0.06622985750436783
0.6071190237998962 0.10366776585578918 0.010750683024525642 100.0 8 -0.06622754782438278
1.4138520956039429 0.24116575717926025 -0.33112797141075134 57.0 1 -0.06622524559497833
0.6378985643386841 0.10880861431360245 0.03391370177268982 3.0 9 -0.06622294336557388
1.4128124713897705 0.24073536694049835 -0.2785811424255371 51.0 2 -0.06622064113616943
0.626560389995575 0.10664987564086914 0.05560535937547684 70.0 10 -0.06621833145618439
0.6056493520736694 0.10298145562410355 -0.09730225056409836 87.0 3 -0.06621602922677994
0.6203885078430176 0.10537651926279068 0.077265165746212 100.0 11 -0.06621372699737549
0.6438923478126526 0.1092531830072403 -0.08019004017114639 30.0 4 -0.06621142476797104
0.6212655305862427 0.10541395097970963 0.09980519860982895 47.0 12 -0.06620911508798599
0.6109197735786438 0.10354852676391602 -0.05421087145805359 82.0 5 -0.06620681285858154
0.6174895167350769 0.1045515239238739 0.12173613905906677 40.0 13 -0.0662045106291771
0.630172610282898 0.10658586025238037 -0.033495016396045685 84.0 6 -0.06620220839977264
1.421915054321289 0.24024328589439392 0.3329275846481323 60.0 14 -0.0661999061703682
0.5875815153121948 0.0992763340473175 -0.010401634499430656 2.0 7 -0.06619759649038315
1.402014136314392 0.2366299033164978 0.3809816539287567 0.0 15 -0.0661952942609787
1.4233020544052124 0.23817884922027588 -0.3866756856441498 56.0 0 -0.06617455929517746
0.6114040017127991 0.10231383889913559 0.01082049123942852 97.0 8 -0.06617225706577301
1.4107997417449951 0.2358342707157135 -0.33022817969322205 50.0 1 -0.06616994738578796
0.6343345046043396 0.10592380166053772 0.03370435908436775 3.0 9 -0.06616764515638351
1.4175174236297607 0.23644793033599854 -0.279344379901886 51.0 2 -0.06616534292697906
0.6249635219573975 0.10413477569818497 0.055431053042411804 63.0 10 -0.06616304069757462
0.6118329763412476 0.10194689780473709 -0.09824085235595703 90.0 3 -0.06616073101758957
0.6129019856452942 0.10201508551836014 0.07629022002220154 100.0 11 -0.06615842878818512
0.6090033650398254 0.10125665366649628 -0.07580273598432541 60.0 4 -0.06615612655878067
0.6216297149658203 0.10324451327323914 0.09980519860982895 18.0 12 -0.06615382432937622
0.6289671063423157 0.10435067862272263 -0.055779676884412766 96.0 5 -0.06615152209997177
0.6139592528343201 0.10186075419187546 0.1209729015827179 32.0 13 -0.06614921241998672
0.6147595643997192 0.10188298672437668 -0.03265763819217682 76.0 6 -0.06614691019058228
1.4130910634994507 0.2339356243610382 0.3306780755519867 62.0 14 -0.06614460796117783
0.5958160161972046 0.09853013604879379 -0.010541253723204136 2.0 7 -0.06614230573177338
1.4028316736221313 0.23173415660858154 0.3809816539287567 0.0 15 -0.06613999605178833
1.4259904623031616 0.23377051949501038 -0.3871932923793793 50.0 0 -0.06611926108598709
0.6157041788101196 0.10082575678825378 0.010890301316976547 100.0 8 -0.06611695885658264
1.4096912145614624 0.2305932492017746 -0.3297782838344574 53.0 1 -0.06611465662717819
0.6228736042976379 0.10177626460790634 0.03307632729411125 3.0 9 -0.06611234694719315
1.4027931690216064 0.22921350598335266 -0.2762914299964905 55.0 2 -0.0661100447177887
0.6351372003555298 0.10366662591695786 0.05630260705947876 68.0 10 -0.06610774248838425
0.6121851205825806 0.0998104140162468 -0.09824085235595703 87.0 3 -0.0661054402589798
0.6152135729789734 0.10019395500421524 0.07653395086526871 86.0 11 -0.06610313802957535
0.6113123297691345 0.09944938868284225 -0.07604647427797318 96.0 4 -0.0661008283495903
0.6141871213912964 0.09980674088001251 0.09855373203754425 4.0 12 -0.06609852612018585
0.6253942251205444 0.10151588916778564 -0.055431053042411804 80.0 5 -0.0660962238907814
0.6201248168945312 0.1006605327129364 0.12211776524782181 22.0 13 -0.06609392166137695
0.61905437707901 0.10037621110677719 -0.032866984605789185 57.0 6 -0.0660916119813919
1.4138989448547363 0.22900187969207764 0.3306780755519867 67.0 14 -0.06608930975198746
0.5902342796325684 0.09549148380756378 -0.01043653953820467 5.0 7 -0.06608700752258301
1.4112603664398193 0.22806833684444427 0.38305220007896423 0.0 15 -0.06608470529317856
1.402039647102356 0.22457076609134674 -0.38046398758888245 45.0 0 -0.06606396287679672
0.6160523891448975 0.09867577254772186 0.010890301316976547 100.0 8 -0.06606166064739227
1.4124118089675903 0.22597859799861908 -0.33022817969322205 50.0 1 -0.06605935841798782
0.6311140060424805 0.10086233168840408 0.033495016396045685 3.0 9 -0.06605705618858337
1.4113786220550537 0.22530874609947205 -0.27781790494918823 59.0 2 -0.06605475395917892
0.6256753206253052 0.09976887702941895 0.055431053042411804 70.0 10 -0.06605244427919388
0.6125468015670776 0.09756612032651901 -0.09824085235595703 79.0 3 -0.06605014204978943
0.6214406490325928 0.09898272901773453 0.077265165746212 69.0 11 -0.06604783982038498
0.6038140654563904 0.09606711566448212 -0.07507152855396271 92.0 4 -0.06604553759098053
0.6067282557487488 0.09642190486192703 0.09730225056409836 4.0 12 -0.06604322791099548
0.6198415756225586 0.09839528053998947 -0.05490811914205551 16.0 5 -0.06604092568159103
0.6146724224090576 0.09746474772691727 0.1209729015827179 13.0 13 -0.06603862345218658
0.631254255771637 0.09998077899217606 -0.033495016396045685 34.0 6 -0.06603632122278214
1.4205031394958496 0.22473202645778656 0.332027792930603 79.0 14 -0.06603401154279709
0.6280914545059204 0.09936778992414474 -0.011099730618298054 7.0 7 -0.06603170931339264
1.4120477437973022 0.22314170002937317 0.38305220007896423 0.0 15 -0.06602940708398819
1.410449504852295 0.2208704799413681 -0.38253456354141235 47.0 0 -0.06600867211818695
0.6124585270881653 0.09579923003911972 0.01082049123942852 100.0 8 -0.0660063698887825
1.4151558876037598 0.22110144793987274 -0.3306780755519867 46.0 1 -0.06600406020879745
0.6314622759819031 0.09865853935480118 0.033495016396045685 3.0 9 -0.066001757979393
1.4102168083190918 0.22007766366004944 -0.2774363160133362 57.0 2 -0.06599945574998856
0.6299569606781006 0.09819842875003815 0.055779676884412766 63.0 10 -0.0659971535205841
0.6148355603218079 0.09573108702898026 -0.09855373203754425 87.0 3 -0.06599484384059906
0.64141446352005 0.09975481778383255 0.07970255613327026 73.0 11 -0.06599254161119461
0.6237778067588806 0.09690040349960327 -0.07750891149044037 88.0 4 -0.06599023938179016
0.6090130805969238 0.09460678696632385 0.09761511534452438 2.0 12 -0.06598793715238571
0.6063994765281677 0.09409239888191223 -0.053687937557697296 12.0 5 -0.06598562747240067
0.6538107991218567 0.1013321578502655 0.12860526144504547 94.0 13 -0.06598332524299622
0.6335731148719788 0.09808236360549927 -0.03359968587756157 28.0 6 -0.06598102301359177
1.4077980518341064 0.2176872193813324 0.3288784623146057 73.0 14 -0.06597872078418732
0.6185535192489624 0.09564667195081711 -0.010925207287073135 21.0 7 -0.06597641110420227
1.4128180742263794 0.21821099519729614 0.38305220007896423 0.0 15 -0.06597410887479782
1.4131213426589966 0.21623824536800385 -0.38305220007896423 48.0 0 -0.06595337390899658
0.6028894186019897 0.09225516766309738 0.010645967908203602 94.0 8 -0.06595107167959213
1.4062495231628418 0.2149355411529541 -0.32842856645584106 48.0 1 -0.06594876945018768
0.643649160861969 0.09826207160949707 0.03412304446101189 3.0 9 -0.06594645977020264
1.4070944786071777 0.21456211805343628 -0.2766730487346649 53.0 2 -0.06594415754079819
0.6283262372016907 0.09569870680570602 0.05560535937547684 91.0 10 -0.06594185531139374
0.6073381900787354 0.09250207990407944 -0.09730225056409836 83.0 3 -0.06593955308198929
0.635854184627533 0.09673141688108444 0.07897134125232697 82.0 11 -0.06593724340200424
0.6319459676742554 0.09602433443069458 -0.07848386466503143 88.0 4 -0.06593494117259979
0.607386589050293 0.09218408167362213 0.09730225056409836 2.0 12 -0.06593263894319534
0.6106639504432678 0.0925721749663353 -0.05403655767440796 8.0 5 -0.0659303367137909
0.6677307486534119 0.10122307389974594 0.13127659261226654 100.0 13 -0.06592802703380585
0.6180968880653381 0.09358890354633331 -0.032762311398983 26.0 6 -0.0659257248044014
1.410439133644104 0.21330930292606354 0.32932838797569275 78.0 14 -0.06592342257499695
0.6386561989784241 0.0964735597372055 -0.011274254880845547 55.0 7 -0.0659211203455925
1.3868279457092285 0.20924332737922668 0.3758052587509155 0.0 15 -0.06591881811618805
1.4252941608428955 0.2132665514945984 -0.3861580491065979 48.0 0 -0.06589807569980621
0.611118733882904 0.09133227914571762 0.010785587131977081 81.0 8 -0.06589577347040176
1.4012089967727661 0.20916269719600677 -0.3270788788795471 46.0 1 -0.06589347124099731
0.6321356296539307 0.09424769878387451 0.033495016396045685 6.0 9 -0.06589116901159286
1.4252744913101196 0.21250003576278687 -0.28010761737823486 53.0 2 -0.06588885933160782
0.6286401748657227 0.09361439943313599 0.05560535937547684 91.0 10 -0.06588655710220337
0.6193806529045105 0.0921253189444542 -0.0991794615983963 77.0 3 -0.06588425487279892
0.6302973628044128 0.09363631159067154 0.07824012637138367 68.0 11 -0.06588195264339447
0.6165685057640076 0.09148678928613663 -0.07653395086526871 94.0 4 -0.06587964296340942
0.6135666966438293 0.0909319519996643 0.09824085235595703 2.0 12 -0.06587734073400497
0.6267344951629639 0.09288344532251358 -0.055431053042411804 4.0 5 -0.06587503850460052
0.6263229250907898 0.0925990417599678 -0.033180996775627136 31.0 6 -0.06587043404579163
1.40731942653656 0.20781490206718445 0.32842856645584106 75.0 14 -0.06586812436580658
0.6488805413246155 0.09570266306400299 -0.011448778212070465 85.0 7 -0.06586582213640213
1.418129563331604 0.20890547335147858 0.384087473154068 0.0 15 -0.06586351990699768
1.4336762428283691 0.2094065099954605 -0.3882285952568054 50.0 0 -0.06584278494119644
0.6054975986480713 0.0883326381444931 0.010680872946977615 43.0 8 -0.0658404752612114
1.4115725755691528 0.20567479729652405 -0.32932838797569275 43.0 1 -0.06583817303180695
0.6186257004737854 0.09002730250358582 0.032762311398983 11.0 9 -0.0658358708024025
1.427950382232666 0.20780663192272186 -0.2804892361164093 55.0 2 -0.06583356857299805
0.628963053226471 0.09141959249973297 0.05560535937547684 77.0 10 -0.065831258893013
0.6177436113357544 0.08967876434326172 -0.09886659681797028 90.0 3 -0.06582895666360855
0.6325849294662476 0.0917205810546875 0.07848386466503143 53.0 11 -0.0658266544342041
0.620813250541687 0.08990314602851868 -0.07702143490314484 92.0 4 -0.06582435220479965
0.6217005848884583 0.08992086350917816 0.09949233382940292 4.0 12 -0.0658220499753952
0.6270548701286316 0.09069529175758362 -0.055431053042411804 4.0 5 -0.06581974029541016
0.6742503643035889 0.09740138053894043 0.13242144882678986 52.0 13 -0.0658174380660057
0.6325727105140686 0.09126798063516617 -0.033495016396045685 31.0 6 -0.06581513583660126
1.3983920812606812 0.20151175558567047 0.32617905735969543 59.0 14 -0.06581283360719681
0.6254590153694153 0.09001876413822174 -0.011029920540750027 73.0 7 -0.06581052392721176
1.4112014770507812 0.20285414159297943 0.3820169270038605 0.0 15 -0.06580822169780731
1.4248359203338623 0.20303840935230255 -0.385640412569046 45.0 0 -0.06578748673200607
0.6354984641075134 0.09044475108385086 0.01120444480329752 9.0 8 -0.06578518450260162
1.4238579273223877 0.20239132642745972 -0.332027792930603 44.0 1 -0.06578287482261658
0.6327781677246094 0.08983257412910461 0.033495016396045685 45.0 9 -0.06578057259321213
1.4267232418060303 0.20254527032375336 -0.28010761737823486 53.0 2 -0.06577827036380768
0.621387779712677 0.08810459822416306 0.05490811914205551 71.0 10 -0.06577596813440323
0.6297881603240967 0.08918353915214539 -0.10074380785226822 84.0 3 -0.06577366590499878
0.6329011917114258 0.08951202034950256 0.07848386466503143 45.0 11 -0.06577135622501373
0.6211233139038086 0.08773539960384369 -0.07702143490314484 92.0 4 -0.06576905399560928
0.6044065952301025 0.08526652306318283 0.09667651355266571 4.0 12 -0.06576675176620483
0.6155305504798889 0.0868358314037323 -0.05438518151640892 4.0 5 -0.06576444953680038
0.6388208270072937 0.08989410102367401 -0.033809032291173935 37.0 6 -0.06575983762741089
1.4145252704620361 0.1987985521554947 0.3297782838344574 51.0 14 -0.06575753539800644
0.6218088269233704 0.08727916330099106 -0.010960111394524574 78.0 7 -0.06575523316860199
1.3851168155670166 0.1941724568605423 0.37476998567581177 0.0 15 -0.06575292348861694
1.4331897497177124 0.19912658631801605 -0.38771092891693115 43.0 0 -0.0657321885228157
0.6457138061523438 0.08960026502609253 0.011378969065845013 6.0 8 -0.06572988629341125
1.4342072010040283 0.19875772297382355 -0.33427727222442627 46.0 1 -0.0657275840640068
0.6350662708282471 0.08789686113595963 0.03359968587756157 55.0 9 -0.06572528183460236
1.4332557916641235 0.19837091863155365 -0.2812524735927582 55.0 2 -0.06572297215461731
0.6315596103668213 0.08729919791221619 0.055779676884412766 63.0 10 -0.06572066992521286
0.6163978576660156 0.08509378135204315 -0.09855373203754425 87.0 3 -0.06571836769580841
0.6174778342247009 0.08513306826353073 0.07653395086526871 39.0 11 -0.06571606546640396
0.6332250833511353 0.08719155937433243 -0.07848386466503143 84.0 4 -0.06571375578641891
0.6105714440345764 0.08396369963884354 0.09761511534452438 4.0 12 -0.06571145355701447
0.6276727318763733 0.08631542325019836 -0.055431053042411804 8.0 5 -0.06570915132761002
0.7040888667106628 0.09669870883226395 0.13814571499824524 100.0 13 -0.06570684909820557
0.6608967781066895 0.09064923971891403 -0.03496042266488075 54.0 6 -0.06570453941822052
1.4287254810333252 0.19571132957935333 0.3329275846481323 57.0 14 -0.06570223718881607
0.6379597187042236 0.08727631717920303 -0.011239349842071533 85.0 7 -0.06569993495941162
1.4068410396575928 0.19221261143684387 0.38046398758888245 1.0 15 -0.06569763273000717
1.4453624486923218 0.1956779807806015 -0.3908167779445648 43.0 0 -0.06567689776420593
0.6202610731124878 0.0838627740740776 0.010925207287073135 6.0 8 -0.06567458808422089
1.4252363443374634 0.19244597852230072 -0.332027792930603 44.0 1 -0.06567228585481644
0.6353542804718018 0.085790254175663 0.03359968587756157 52.0 9 -0.06566998362541199
1.4456133842468262 0.19494056701660156 -0.2835421860218048 51.0 2 -0.06566768139600754
0.6042166352272034 0.08137136697769165 0.053339313715696335 15.0 10 -0.06566537171602249
0.6127756834030151 0.08241485804319382 -0.097927987575531 79.0 3 -0.06566306948661804
0.6256410479545593 0.0840340182185173 0.07750891149044037 38.0 11 -0.06566076725721359
0.6374604105949402 0.08550861477851868 -0.07897134125232697 84.0 4 -0.06565846502780914
0.6343405246734619 0.08509011566638947 0.10136953741312027 9.0 12 -0.0656561553478241
0.6279702186584473 0.08412373811006546 -0.055431053042411804 4.0 5 -0.06565385311841965
1.4263575077056885 0.19082337617874146 0.2797259986400604 25.0 13 -0.0656515508890152
0.6315140724182129 0.08437440544366837 -0.0333903431892395 49.0 6 -0.06564924865961075
1.4371263980865479 0.19175352156162262 0.3347271978855133 60.0 14 -0.0656469389796257
0.6481562852859497 0.086482472717762 -0.011413874104619026 80.0 7 -0.06564463675022125
1.4017258882522583 0.18678107857704163 0.3789111077785492 2.0 15 -0.0656423345208168
1.4575283527374268 0.19214610755443573 -0.3939225971698761 47.0 0 -0.06562159955501556
0.6304484605789185 0.08311207592487335 0.011099730618298054 3.0 8 -0.06561929732561111
1.4335949420928955 0.18873639404773712 -0.3338273763656616 42.0 1 -0.06561698764562607
0.6257487535476685 0.08227061480283737 0.03307632729411125 50.0 9 -0.06561468541622162
1.44823157787323 0.19014912843704224 -0.28392380475997925 53.0 2 -0.06561238318681717
0.6143743395805359 0.080556720495224 0.05421087145805359 7.0 10 -0.06561008095741272
0.6267558336257935 0.08218017965555191 -0.10011807084083557 98.0 3 -0.06560777127742767
0.6259161829948425 0.08195927739143372 0.07750891149044037 62.0 11 -0.06560546904802322
0.6338039040565491 0.08287931233644485 -0.07848386466503143 76.0 4 -0.06560316681861877
0.6483449935913086 0.0846656858921051 0.10355963557958603 23.0 12 -0.06560086458921432
0.6480166912078857 0.08450748026371002 -0.057174164801836014 7.0 5 -0.06559855490922928
1.4328229427337646 0.18685360252857208 0.28087085485458374 28.0 13 -0.06559625267982483
0.6317903995513916 0.08227959275245667 -0.0333903431892395 55.0 6 -0.06559395045042038
1.4261597394943237 0.18547910451889038 0.332027792930603 57.0 14 -0.06559164822101593
0.6444881558418274 0.08370417356491089 -0.011344064027071 77.0 7 -0.06558934599161148
1.3985376358032227 0.18139034509658813 0.37787580490112305 2.0 15 -0.06558703631162643
1.4658219814300537 0.18829655647277832 -0.395993173122406 45.0 0 -0.0655663013458252
0.6426353454589844 0.08243732899427414 0.011309158988296986 3.0 8 -0.06556399911642075
1.4497084617614746 0.1857123076915741 -0.3374266028404236 43.0 1 -0.0655616968870163
0.6181076765060425 0.07907193154096603 0.03265763819217682 50.0 9 -0.06555938720703125
1.4469068050384521 0.18509674072265625 -0.2835421860218048 51.0 2 -0.0655570849776268
0.6383540630340576 0.08154843747615814 0.05630260705947876 6.0 10 -0.06555478274822235
0.6270388960838318 0.07999203354120255 -0.10011807084083557 87.0 3 -0.0655524805188179
0.6281676292419434 0.08002462238073349 0.07775264233350754 85.0 11 -0.06555017083883286
0.6183355450630188 0.07866210490465164 -0.07653395086526871 50.0 4 -0.0655478686094284
0.6603943109512329 0.08389584720134735 0.10543683916330338 53.0 12 -0.06554556638002396
0.6423780918121338 0.08149316906929016 -0.05665123090147972 11.0 5 -0.0655432641506195
1.4393092393875122 0.1825931966304779 0.28201571106910706 41.0 13 -0.06554096192121506
0.6360366344451904 0.08057558536529541 -0.03359968587756157 57.0 6 -0.06553865224123001
1.4151984453201294 0.1790325790643692 0.32932838797569275 45.0 14 -0.06553635001182556
0.6328727602958679 0.07995064556598663 -0.011134634725749493 81.0 7 -0.06553404778242111
1.418328881263733 0.17892494797706604 0.38305220007896423 2.0 15 -0.06553174555301666
1.4665021896362305 0.1829231083393097 -0.395993173122406 43.0 0 -0.06551100313663483
0.6508564352989197 0.08118411153554916 0.011448778212070465 3.0 8 -0.06550870090723038
1.4561492204666138 0.18137295544147491 -0.33877629041671753 47.0 1 -0.06550639867782593
0.6203619241714478 0.07716020941734314 0.032762311398983 52.0 9 -0.06550409644842148
1.4553685188293457 0.18076057732105255 -0.28506866097450256 55.0 2 -0.06550179421901703
0.6623755693435669 0.08215107023715973 0.05839434638619423 6.0 10 -0.06549948453903198
0.6273278594017029 0.07769311219453812 -0.10011807084083557 87.0 3 -0.06549718230962753
0.6343533992767334 0.07856320589780807 0.07848386466503143 99.0 11 -0.06549488008022308
0.6422473192214966 0.07942736148834229 -0.0794588178396225 13.0 4 -0.06549257785081863
0.6469597816467285 0.07989521324634552 0.10324675589799881 76.0 12 -0.06549026817083359
0.6387037634849548 0.078762486577034 -0.05630260705947876 31.0 5 -0.06548796594142914
1.4555569887161255 0.179236501455307 0.28506866097450256 44.0 13 -0.06548566371202469
0.6502040028572083 0.0799502581357956 -0.03433239087462425 65.0 6 -0.06548336148262024
1.44292414188385 0.17716893553733826 0.3356269896030426 43.0 14 -0.06548105180263519
0.6331480145454407 0.0777408555150032 -0.011134634725749493 76.0 7 -0.06547874957323074
1.399769902229309 0.17162296175956726 0.37787580490112305 3.0 15 -0.0654764473438263
1.4671318531036377 0.17780254781246185 -0.395993173122406 43.0 0 -0.06545571237802505
0.6273271441459656 0.07591474056243896 0.011029920540750027 3.0 8 -0.0654534101486206
1.4703469276428223 0.17767146229743958 -0.34192562103271484 48.0 1 -0.06545110046863556
0.6325377821922302 0.07632160186767578 0.0333903431892395 52.0 9 -0.06544879823923111
1.4559906721115112 0.17567889392375946 -0.28506866097450256 55.0 2 -0.06544649600982666
0.642877459526062 0.07745503634214401 0.05665123090147972 6.0 10 -0.06544419378042221
0.625633955001831 0.07526703923940659 -0.09980519860982895 84.0 3 -0.06544188410043716
0.6405497193336487 0.07694808393716812 0.07921507954597473 100.0 11 -0.06543958187103271
0.6583018898963928 0.0789637565612793 -0.08140873163938522 5.0 4 -0.06543727964162827
0.6511709094047546 0.07799343019723892 0.10387250036001205 82.0 12 -0.06543497741222382
0.642931342124939 0.07700654119253159 -0.05665123090147972 100.0 5 -0.06543266773223877
1.4444776773452759 0.17275534570217133 0.28277894854545593 30.0 13 -0.06543036550283432
0.6484960317611694 0.07744313776493073 -0.03422771766781807 57.0 6 -0.06542806327342987
1.445468783378601 0.17236214876174927 0.33607688546180725 47.0 14 -0.06542576104402542
0.6274716854095459 0.07471059262752533 -0.011029920540750027 65.0 7 -0.06542345136404037
1.3773695230484009 0.16375353932380676 0.3716641664505005 5.0 15 -0.06542114913463593
1.479255199432373 0.17403487861156464 -0.3990989923477173 42.0 0 -0.06540041416883469
0.6275882720947266 0.07372493296861649 0.011029920540750027 3.0 8 -0.06539811193943024
1.4612808227539062 0.17140239477157593 -0.3396761119365692 47.0 1 -0.06539580971002579
0.6407352685928345 0.07504232227802277 0.033809032291173935 52.0 9 -0.06539350003004074
1.460494875907898 0.17105181515216827 -0.28583186864852905 51.0 2 -0.06539119780063629
0.6510594487190247 0.07613662630319595 0.057348478585481644 6.0 10 -0.06538889557123184
0.6219687461853027 0.0726243406534195 -0.0991794615983963 84.0 3 -0.06538659334182739
0.6289840340614319 0.07333222031593323 0.07775264233350754 100.0 11 -0.06538428366184235
0.6467427611351013 0.07528859376907349 -0.07994629442691803 5.0 4 -0.0653819814324379
0.6416284441947937 0.07457941770553589 0.10230815410614014 81.0 12 -0.06537967920303345
0.6372590661048889 0.07407154887914658 -0.05612830072641373 100.0 5 -0.065377376973629
1.4431217908859253 0.16748541593551636 0.2823973298072815 13.0 13 -0.06537506729364395
0.6269384622573853 0.07265046238899231 -0.03307632729411125 47.0 6 -0.0653727650642395
1.4596123695373535 0.16888295114040375 0.3392261862754822 43.0 14 -0.06537046283483505
0.6177963018417358 0.07137222588062286 -0.010855397209525108 49.0 7 -0.0653681606054306
1.39712393283844 0.16115929186344147 0.3768405616283417 5.0 15 -0.06536585092544556
1.4913700819015503 0.17018403112888336 -0.40220481157302856 40.0 0 -0.06534511595964432
0.6536707282066345 0.0744764655828476 0.011483684182167053 9.0 8 -0.06534281373023987
1.4696153402328491 0.16718190908432007 -0.3414757251739502 46.0 1 -0.06534051150083542
0.6270893216133118 0.071337029337883 0.03307632729411125 50.0 9 -0.06533820927143097
1.4708365201950073 0.16706083714962006 -0.28773996233940125 45.0 2 -0.06533589959144592
0.6473618745803833 0.07341434061527252 0.05699985474348068 6.0 10 -0.06533359736204147
0.6222184896469116 0.07045295834541321 -0.0991794615983963 84.0 3 -0.06533129513263702
0.6213460564613342 0.07024434953927994 0.07677769660949707 100.0 11 -0.06532899290323257
0.650946855545044 0.07347571849822998 -0.08043377101421356 5.0 4 -0.06532668322324753
0.653649628162384 0.07378078997135162 0.10418536514043808 80.0 12 -0.06532438099384308
0.6434532999992371 0.07251584529876709 -0.05665123090147972 100.0 5 -0.06532207876443863
0.7277016639709473 0.08188220113515854 0.14234352111816406 3.0 13 -0.06531977653503418
0.6311578154563904 0.07090738415718079 -0.03328566998243332 18.0 6 -0.06531746685504913
1.4447003602981567 0.16204875707626343 0.3356269896030426 28.0 14 -0.06531516462564468
0.6339274048805237 0.0711061954498291 -0.011134634725749493 26.0 7 -0.06531286239624023
3.6304359436035156 0.4065779745578766 0.9788536429405212 17.0 15 -0.06531056016683578
1.5073162317276 0.16667534410953522 -0.4063459038734436 38.0 0 -0.06528982520103455
0.6479513645172119 0.07164887338876724 0.011378969065845013 25.0 8 -0.0652875155210495
1.4875941276550293 0.16423244774341583 -0.3455248177051544 42.0 1 -0.06528521329164505
0.6233639717102051 0.06871012598276138 0.032866984605789185 50.0 9 -0.0652829110622406
1.4753139019012451 0.16235476732254028 -0.2885032296180725 40.0 2 -0.06528060883283615
0.7228720784187317 0.07942301034927368 0.06362368911504745 5.0 10 -0.0652782991528511
0.628339409828186 0.0690365731716156 -0.10011807084083557 91.0 3 -0.06527599692344666
0.6373615860939026 0.069915272295475 0.0787276029586792 100.0 11 -0.0652736946940422
0.6452670693397522 0.07066818326711655 -0.07970255613327026 5.0 4 -0.06527139246463776
0.6440848112106323 0.07042526453733444 0.10262101888656616 87.0 12 -0.06526908278465271
0.6575668454170227 0.07178328186273575 -0.057871412485837936 100.0 5 -0.06526678055524826
0.6986942887306213 0.07627295702695847 0.13661924004554749 7.0 13 -0.06526447832584381
0.6274185180664062 0.06838103383779526 -0.03307632729411125 7.0 6 -0.06526217609643936
1.4316685199737549 0.15578243136405945 0.3324776887893677 11.0 14 -0.06525987386703491
0.6222438216209412 0.06759729236364365 -0.010925207287073135 21.0 7 -0.06525756418704987
3.6164684295654297 0.39223554730415344 0.974712610244751 36.0 15 -0.06525526195764542
1.5001773834228516 0.16085246205329895 -0.4042753577232361 34.0 0 -0.06523452699184418
0.6362675428390503 0.06810975074768066 0.01116954069584608 50.0 8 -0.06523222476243973
1.4959092140197754 0.15986670553684235 -0.3473244309425354 45.0 1 -0.06522991508245468
0.6355159878730774 0.06780494004487991 0.033495016396045685 49.0 9 -0.06522761285305023
1.4797483682632446 0.15787839889526367 -0.289266437292099 44.0 2 -0.06522531062364578
0.65180903673172 0.06942823529243469 0.057348478585481644 6.0 10 -0.06522300839424133
0.6364337205886841 0.06767819076776505 -0.10136953741312027 87.0 3 -0.06522069871425629
0.6376017928123474 0.06768987327814102 0.0787276029586792 100.0 11 -0.06521839648485184
0.6514319181442261 0.06904315203428268 -0.08043377101421356 5.0 4 -0.06521609425544739
0.6345046758651733 0.06713711470365524 0.10105667263269424 65.0 12 -0.06521379202604294
0.6360065937042236 0.06729603558778763 -0.0559539832174778 96.0 5 -0.06521148979663849
0.7243373394012451 0.07651451230049133 0.14158028364181519 24.0 13 -0.06520918011665344
0.6316258311271667 0.06660957634449005 -0.03328566998243332 5.0 6 -0.06520687788724899
1.4438318014144897 0.15200787782669067 0.33517709374427795 4.0 14 -0.06520457565784454
0.6244646310806274 0.06563399732112885 -0.010960111394524574 23.0 7 -0.0652022734284401
3.612051486968994 0.3790052533149719 0.973159670829773 72.0 15 -0.06519996374845505
1.5045727491378784 0.15601371228694916 -0.40531066060066223 36.0 0 -0.06517922878265381
0.6305341124534607 0.06527076661586761 0.01106482557952404 87.0 8 -0.06517692655324936
1.5100271701812744 0.1560458540916443 -0.3504737615585327 47.0 1 -0.06517462432384491
0.6397222876548767 0.0659962147474289 0.03370435908436775 28.0 9 -0.06517232209444046
1.4900548458099365 0.15371981263160706 -0.2911745309829712 47.0 2 -0.06517001241445541
0.6401558518409729 0.06592804193496704 0.05630260705947876 13.0 10 -0.06516771018505096
0.6347010731697083 0.06525401771068573 -0.10105667263269424 94.0 3 -0.06516540795564651
0.6378341317176819 0.06546395272016525 0.0787276029586792 100.0 11 -0.06516310572624207
0.6575931310653687 0.06737593561410904 -0.08116498589515686 5.0 4 -0.06516079604625702
0.6425957083702087 0.06572569161653519 0.10230815410614014 81.0 12 -0.06515849381685257
0.6223633289337158 0.0636562928557396 -0.05473380535840988 100.0 5 -0.06515619158744812
0.7011628150939941 0.07159271836280823 0.13700087368488312 33.0 13 -0.06515388935804367
0.6398024559020996 0.06521434336900711 -0.03370435908436775 2.0 6 -0.06515157967805862
1.4540473222732544 0.14795301854610443 0.3374266028404236 3.0 14 -0.06514927744865417
0.618721604347229 0.06284769624471664 -0.010855397209525108 21.0 7 -0.06514697521924973
3.6210405826568604 0.36717313528060913 0.9752302169799805 109.0 15 -0.06514467298984528
1.5089527368545532 0.15114548802375793 -0.4063459038734436 36.0 0 -0.06512393802404404
0.6148399710655212 0.06147787347435951 0.010785587131977081 87.0 8 -0.06512162834405899
1.5144407749176025 0.151161327958107 -0.351373553276062 32.0 1 -0.06511932611465454
0.6459110379219055 0.06435665488243103 0.034018374979496 6.0 9 -0.06511702388525009
1.496443271636963 0.1491011679172516 -0.2923193871974945 40.0 2 -0.06511472165584564
0.6443473696708679 0.06408729404211044 0.05665123090147972 41.0 10 -0.0651124119758606
0.6290279030799866 0.06245274469256401 -0.10011807084083557 84.0 3 -0.06511010974645615
0.6341080069541931 0.06284536421298981 0.07824012637138367 100.0 11 -0.0651078075170517
0.6657261252403259 0.06586165726184845 -0.08213994652032852 5.0 4 -0.06510550528764725
0.6487186551094055 0.06406475603580475 0.10324675589799881 82.0 12 -0.0651031956076622
0.6562884449958801 0.0648123174905777 -0.057697102427482605 100.0 5 -0.06510089337825775
0.6935933232307434 0.0683741644024849 0.13547439873218536 48.0 13 -0.0650985911488533
0.6141865253448486 0.060438044369220734 -0.03234362602233887 2.0 6 -0.06509628891944885
3.6247506141662598 0.3560490608215332 0.8408671021461487 1.0 14 -0.0650939792394638
0.6408289074897766 0.06283390522003174 -0.011239349842071533 22.0 7 -0.06509167701005936
3.6126866340637207 0.3535909652709961 0.9726420044898987 120.0 15 -0.06508937478065491
1.532545804977417 0.148107647895813 -0.41255757212638855 30.0 0 -0.06506863981485367
0.6269935965538025 0.06048320606350899 0.010995016433298588 100.0 8 -0.06506633758544922
1.518838882446289 0.14624790847301483 -0.3522733747959137 30.0 1 -0.06506402790546417
0.6381792426109314 0.061337415128946304 0.03359968587756157 4.0 9 -0.06506172567605972
1.5028173923492432 0.14444050192832947 -0.2934642434120178 37.0 2 -0.06505942344665527
0.6525002717971802 0.06259892880916595 0.057348478585481644 66.0 10 -0.06505712121725082
0.6233428716659546 0.059691574424505234 -0.0991794615983963 94.0 3 -0.06505481153726578
0.6382756233215332 0.06100943312048912 0.0787276029586792 90.0 11 -0.06505250930786133
0.6619997024536133 0.0631605014204979 -0.08165246248245239 8.0 4 -0.06505020707845688
0.6528712511062622 0.06217428296804428 0.10387250036001205 76.0 12 -0.06504790484905243
0.6426267027854919 0.06119867041707039 -0.05647691711783409 100.0 5 -0.06504559516906738
0.699691116809845 0.06650981307029724 0.13661924004554749 60.0 13 -0.06504329293966293
0.6303003430366516 0.05980312079191208 -0.033180996775627136 5.0 6 -0.06504099071025848
3.6298515796661377 0.3437606692314148 0.841766893863678 1.0 14 -0.06503868848085403
0.645025908946991 0.06097280979156494 -0.011309158988296986 27.0 7 -0.06503638625144958
3.6177453994750977 0.34134185314178467 0.9736772775650024 120.0 15 -0.06503407657146454
1.5426710844039917 0.14365233480930328 -0.41514575481414795 22.0 0 -0.06502008438110352
0.6451208591461182 0.059959594160318375 0.011309158988296986 96.0 8 -0.06501778215169907
