# .PCD v0.7 - Point Cloud Data file format
VERSION 0.7
FIELDS x y z intensity ring time
SIZE 4 4 4 4 4 4
TYPE F F F F F F
COUNT 1 1 1 1 1 1
WIDTH 543
HEIGHT 1
VIEWPOINT 0 0 0 1 0 0 0
POINTS 543
DATA ascii
-0.4195001423358917 1.7871456146240234 0.032042618840932846 9.0 8 -0.09139527380466461
-0.4191874563694 1.787211537361145 -0.4238077998161316 85.0 1 -0.09139296412467957
-0.42018890380859375 1.7928924560546875 0.09650751203298569 39.0 9 -0.09139066189527512
-0.42154645919799805 1.798685073852539 -0.3591025471687317 94.0 2 -0.09138835966587067
-1.545028805732727 6.5976243019104 0.5928333401679993 85.0 10 -0.09138605743646622
-0.42171820998191833 1.8022453784942627 -0.29315823316574097 100.0 3 -0.09138374775648117
-1.5348159074783325 6.564332008361816 0.8277366757392883 97.0 11 -0.09138144552707672
-0.41683676838874817 1.7841949462890625 -0.22497083246707916 85.0 4 -0.09137914329767227
-1.5380500555038452 6.588522911071777 1.0715762376785278 88.0 12 -0.09137684106826782
-0.418057382106781 1.790826439857483 -0.16088949143886566 98.0 5 -0.09137453883886337
-1.5310332775115967 6.563653469085693 1.3100945949554443 100.0 13 -0.09137222915887833
-0.43658608198165894 1.8731547594070435 -0.100799061357975 32.0 6 -0.09136992692947388
-1.5289357900619507 6.565004348754883 1.5562114715576172 100.0 14 -0.09136762470006943
-0.4242267310619354 1.8230054378509521 -0.03267090395092964 19.0 7 -0.09136532247066498
-1.5234737396240234 6.55191707611084 1.8024158477783203 63.0 15 -0.09136301279067993
-0.41782015562057495 1.8068991899490356 -0.49693259596824646 87.0 0 -0.09134227782487869
-0.413709819316864 1.7905473709106445 0.032077521085739136 9.0 8 -0.09133997559547424
-0.41382262110710144 1.7924617528915405 -0.4247076213359833 87.0 1 -0.0913376733660698
-0.4121325612068176 1.7865636348724365 0.09608882665634155 43.0 9 -0.09133536368608475
-0.41305917501449585 1.7905805110931396 -0.3571944534778595 99.0 2 -0.0913330614566803
-1.5219908952713013 6.6029767990112305 0.5928333401679993 83.0 10 -0.09133075922727585
-0.417197585105896 1.8114064931869507 -0.29440969228744507 100.0 3 -0.0913284569978714
-1.5136717557907104 6.577388286590576 0.8287115693092346 99.0 11 -0.09132615476846695
-0.41238605976104736 1.79337739944458 -0.22594578564167023 86.0 4 -0.0913238450884819
-1.5132713317871094 6.586151599884033 1.0703247785568237 88.0 12 -0.09132154285907745
-0.4118031859397888 1.7922749519348145 -0.16088949143886566 93.0 5 -0.091319240629673
-1.5103071928024292 6.578525543212891 1.3120027780532837 100.0 13 -0.09131693840026855
-0.4264727234840393 1.8590935468673706 -0.09996168315410614 30.0 6 -0.09131462872028351
-1.5055732727050781 6.5684027671813965 1.5557615756988525 100.0 14 -0.09131232649087906
-0.41562798619270325 1.81472909450531 -0.0324963815510273 20.0 7 -0.09131002426147461
-1.4997336864471436 6.553429126739502 1.8013806343078613 63.0 15 -0.09130772203207016
-0.4097960889339447 1.8008116483688354 -0.49486202001571655 87.0 0 -0.09128697961568832
-0.40790000557899475 1.7939304113388062 0.032112427055835724 10.0 8 -0.09128467738628387
-0.409290611743927 1.8014963865280151 -0.42650723457336426 87.0 1 -0.09128237515687943
-0.40633630752563477 1.789939045906067 0.09619349241256714 44.0 9 -0.09128007292747498
-0.4055028557777405 1.786267638206482 -0.3560495972633362 91.0 2 -0.09127777069807053
-1.496727466583252 6.59853458404541 0.5919618010520935 90.0 10 -0.09127546101808548
-0.40999919176101685 1.808998703956604 -0.293783962726593 100.0 3 -0.09127315878868103
-1.4915846586227417 6.586503505706787 0.8291990756988525 92.0 11 -0.09127085655927658
-0.4078754186630249 1.8025506734848022 -0.2269207388162613 90.0 4 -0.09126855432987213
-1.4876598119735718 6.579832553863525 1.0684475898742676 88.0 12 -0.09126624464988708
-0.4037873446941376 1.7859278917312622 -0.16019225120544434 98.0 5 -0.09126394242048264
-1.4851762056350708 6.57418155670166 1.3100945949554443 100.0 13 -0.09126164019107819
-0.42613697052001953 1.8878463506698608 -0.1014270931482315 32.0 6 -0.09125933796167374
-1.4839205741882324 6.579321384429932 1.5571112632751465 100.0 14 -0.09125702828168869
-0.4092921018600464 1.8161685466766357 -0.0324963815510273 17.0 7 -0.09125472605228424
-1.4759982824325562 6.554854869842529 1.8003453016281128 62.0 15 -0.09125242382287979
-0.40181878209114075 1.7946906089782715 -0.49279147386550903 83.0 0 -0.09123168885707855
-0.3998897075653076 1.7875375747680664 0.03197281062602997 10.0 8 -0.0912293866276741
-0.40384942293167114 1.8067177534103394 -0.42740702629089355 89.0 1 -0.09122707694768906
-0.40214067697525024 1.799073338508606 0.09661218523979187 44.0 9 -0.0912247747182846
-0.39926469326019287 1.7876724004745483 -0.3560495972633362 97.0 2 -0.09122247248888016
-1.4710828065872192 6.592051029205322 0.5909159183502197 90.0 10 -0.09122017025947571
-0.40153205394744873 1.8007787466049194 -0.2922196090221405 100.0 3 -0.09121786057949066
-1.4685826301574707 6.591670036315918 0.8291990756988525 94.0 11 -0.09121555835008621
-0.4015812575817108 1.803963303565979 -0.2269207388162613 88.0 4 -0.09121325612068176
-1.466688632965088 6.58858585357666 1.06907320022583 88.0 12 -0.09121095389127731
-0.3975503742694855 1.7873265743255615 -0.16019225120544434 98.0 5 -0.09120864421129227
-1.4613653421401978 6.575493335723877 1.3093314170837402 100.0 13 -0.09120634198188782
-0.41997793316841125 1.8912720680236816 -0.10153176635503769 30.0 6 -0.09120403975248337
-1.4605247974395752 6.582558631896973 1.5566614866256714 100.0 14 -0.09120173752307892
-0.402400404214859 1.813611388206482 -0.03242656961083412 14.0 7 -0.09119942784309387
-1.451745867729187 6.548396587371826 1.7972395420074463 63.0 15 -0.09119712561368942
-0.39721405506134033 1.80362868309021 -0.49486202001571655 89.0 0 -0.09117639064788818
-0.393960177898407 1.7888537645339966 0.03197281062602997 10.0 8 -0.09117408841848373
-0.3961810767650604 1.8004342317581177 -0.4256074130535126 90.0 1 -0.09117178618907928
-0.39500007033348083 1.7965649366378784 0.0964028462767601 48.0 9 -0.09116947650909424
-0.39470747113227844 1.7967251539230347 -0.35757607221603394 94.0 2 -0.09116717427968979
-1.4493461847305298 6.6029839515686035 0.5914388298988342 87.0 10 -0.09116487205028534
-0.3942880928516388 1.7963119745254517 -0.2912810146808624 100.0 3 -0.09116256982088089
-1.4428865909576416 6.579052925109863 0.8270054459571838 100.0 11 -0.09116026014089584
-0.3972969055175781 1.8130414485931396 -0.22789569199085236 90.0 4 -0.0911579579114914
-1.4428377151489258 6.58980655670166 1.0684475898742676 88.0 12 -0.09115565568208694
-0.3913085162639618 1.7887035608291626 -0.16019225120544434 98.0 5 -0.0911533534526825
-1.438711166381836 6.576467514038086 1.3085681200027466 100.0 13 -0.09115104377269745
-0.41199833154678345 1.8848495483398438 -0.10111307352781296 34.0 6 -0.091148741543293
-1.4403494596481323 6.594981670379639 1.55846107006073 100.0 14 -0.09114643931388855
-0.396066814661026 1.8150051832199097 -0.03242656961083412 15.0 7 -0.0911441370844841
-1.4305264949798584 6.56097412109375 1.7993099689483643 63.0 15 -0.09114183485507965
-0.39204883575439453 1.8087122440338135 -0.4958973228931427 89.0 0 -0.09112109243869781
-0.38728973269462585 1.7882636785507202 0.03193790465593338 9.0 8 -0.09111879020929337
-0.3882448971271515 1.7941875457763672 -0.4238077998161316 85.0 1 -0.09111648797988892
-0.3874606490135193 1.7920762300491333 0.09608882665634155 46.0 9 -0.09111418575048447
-0.39040622115135193 1.8057000637054443 -0.3591025471687317 91.0 2 -0.09111187607049942
-1.428281545639038 6.611649513244629 0.5917875170707703 87.0 10 -0.09110957384109497
-0.389265239238739 1.8034701347351074 -0.2922196090221405 100.0 3 -0.09110727161169052
-1.4186586141586304 6.578227996826172 0.8262742161750793 97.0 11 -0.09110496938228607
-0.38762015104293823 1.798892855644226 -0.22594578564167023 90.0 4 -0.09110265970230103
-1.4206559658050537 6.5986647605896 1.06907320022583 88.0 12 -0.09110035747289658
-0.3859008252620697 1.7939542531967163 -0.1605408787727356 98.0 5 -0.09109805524349213
-1.4157476425170898 6.581449031829834 1.3085681200027466 100.0 13 -0.09109575301408768
-0.40373721718788147 1.8784657716751099 -0.10069439560174942 25.0 6 -0.09109345078468323
-1.4140480756759644 6.584726333618164 1.5548617839813232 100.0 14 -0.09109114110469818
-0.3930853605270386 1.8320181369781494 -0.03270580992102623 15.0 7 -0.09108883887529373
-1.4076138734817505 6.565927982330322 1.7993099689483643 63.0 15 -0.09108653664588928
-0.3862219750881195 1.8139158487319946 -0.49693259596824646 85.0 0 -0.09106580168008804
-0.3822948932647705 1.7954721450805664 0.032042618840932846 7.0 8 -0.091063492000103
-0.3819800615310669 1.7955318689346313 -0.4238077998161316 89.0 1 -0.09106118977069855
-0.379957377910614 1.7875568866729736 0.095774807035923 44.0 9 -0.0910588875412941
-0.3813386559486389 1.7955962419509888 -0.35681283473968506 91.0 2 -0.09105658531188965
-1.4040405750274658 6.616839408874512 0.5917875170707703 85.0 10 -0.0910542756319046
-0.38388118147850037 1.8106821775436401 -0.29315823316574097 100.0 3 -0.09105197340250015
-1.3981561660766602 6.594791412353516 0.8277366757392883 97.0 11 -0.0910496711730957
-0.3813380002975464 1.8002349138259888 -0.22594578564167023 90.0 4 -0.09104736894369125
-1.3959789276123047 6.595853328704834 1.067821741104126 88.0 12 -0.0910450667142868
-0.38046029210090637 1.7991889715194702 -0.16088949143886566 98.0 5 -0.09104275703430176
-1.3924260139465332 6.5904364585876465 1.3093314170837402 100.0 13 -0.09104045480489731
-0.40056276321411133 1.8975205421447754 -0.10163643956184387 36.0 6 -0.09103815257549286
-1.388293981552124 6.58223819732666 1.5530622005462646 100.0 14 -0.09103585034608841
-0.38256070017814636 1.8138128519058228 -0.032356761395931244 14.0 7 -0.09103354066610336
-1.3846842050552368 6.570802211761475 1.7993099689483643 62.0 15 -0.09103123843669891
-0.37672165036201477 1.8001259565353394 -0.49279147386550903 85.0 0 -0.09101050347089767
-0.3773482143878937 1.8046908378601074 0.0321822389960289 6.0 8 -0.09100820124149323
-0.3769909739494324 1.8045499324798584 -0.4256074130535126 90.0 1 -0.09100589156150818
-0.37494099140167236 1.7947373390197754 0.09608882665634155 43.0 9 -0.09100358933210373
-0.37426576018333435 1.7930727005004883 -0.3560495972633362 94.0 2 -0.09100128710269928
-1.378899335861206 6.611948013305664 0.5909159183502197 90.0 10 -0.09099898487329483
-0.37836554646492004 1.8158786296844482 -0.293783962726593 100.0 3 -0.09099668264389038
-1.374786376953125 6.603758811950684 0.8282241225242615 99.0 11 -0.09099437296390533
-0.3763546347618103 1.8093944787979126 -0.2269207388162613 84.0 4 -0.09099207073450089
-1.3705313205718994 6.58908224105835 1.0659445524215698 85.0 12 -0.09098976850509644
-0.37255728244781494 1.7927029132843018 -0.16019225120544434 98.0 5 -0.09098746627569199
-1.370212197303772 6.599100589752197 1.3100945949554443 100.0 13 -0.09098515659570694
-0.4008331000804901 1.9321527481079102 -0.10341586172580719 39.0 6 -0.09098285436630249
-1.3668925762176514 6.5946760177612305 1.5548617839813232 100.0 14 -0.09098055213689804
-0.37582147121429443 1.8131788969039917 -0.032321859151124954 13.0 7 -0.09097824990749359
-1.3601737022399902 6.568027973175049 1.7972395420074463 63.0 15 -0.09097594022750854
-0.3704352378845215 1.801430106163025 -0.49279147386550903 89.0 0 -0.0909552052617073
-0.3689444363117218 1.794180154800415 0.03197281062602997 7.0 8 -0.09095290303230286
-0.3717886507511139 1.8096081018447876 -0.42650723457336426 87.0 1 -0.09095060080289841
-0.36947664618492126 1.7999482154846191 0.09629816561937332 47.0 9 -0.09094829857349396
-0.3680040240287781 1.7943682670593262 -0.3560495972633362 97.0 2 -0.09094598889350891
-1.3550124168395996 6.612817287445068 0.5905672907829285 93.0 10 -0.09094368666410446
-0.3687725067138672 1.7997069358825684 -0.2909681499004364 100.0 3 -0.09094138443470001
-1.3520848751068115 6.604391098022461 0.8277366757392883 97.0 11 -0.09093908220529556
-0.36876070499420166 1.8028534650802612 -0.22594578564167023 89.0 4 -0.09093677252531052
-1.3483150005340576 6.597696304321289 1.0665702819824219 88.0 12 -0.09093447029590607
-0.3658982515335083 1.792040467262268 -0.1600179374217987 100.0 5 -0.09093216806650162
-1.3459659814834595 6.592065811157227 1.307804822921753 100.0 13 -0.09092986583709717
-0.3936247229576111 1.9295575618743896 -0.10320651531219482 37.0 6 -0.09092755615711212
-1.3457961082458496 6.602991580963135 1.5557615756988525 100.0 14 -0.09092525392770767
-0.369490385055542 1.8144797086715698 -0.032321859151124954 11.0 7 -0.09092295169830322
-1.3356964588165283 6.565164089202881 1.7951689958572388 63.0 15 -0.09092064946889877
-0.36522552371025085 1.8064357042312622 -0.4938267767429352 85.0 0 -0.09089991450309753
-0.3610967695713043 1.7876163721084595 0.031833190470933914 7.0 8 -0.09089760482311249
-0.3631560802459717 1.7994335889816284 -0.4238077998161316 85.0 1 -0.09089530259370804
-0.3635052442550659 1.801163673400879 0.09629816561937332 46.0 9 -0.09089300036430359
-0.3628281354904175 1.7994279861450195 -0.35681283473968506 97.0 2 -0.09089069813489914
-1.3334709405899048 6.619227409362793 0.5907416343688965 87.0 10 -0.09088838845491409
-0.363267183303833 1.8048564195632935 -0.29159387946128845 100.0 3 -0.09088608622550964
-1.326673150062561 6.5973944664001465 0.8262742161750793 99.0 11 -0.0908837839961052
-0.36512863636016846 1.815743088722229 -0.22740821540355682 88.0 4 -0.09088148176670074
-1.3287649154663086 6.6137518882751465 1.0684475898742676 88.0 12 -0.0908791720867157
-0.3603452146053314 1.7951974868774414 -0.16019225120544434 100.0 5 -0.09087686985731125
-1.3214012384414673 6.589025020599365 1.3062784671783447 100.0 13 -0.0908745676279068
-0.3876729905605316 1.9348361492156982 -0.10341586172580719 35.0 6 -0.09087226539850235
-1.3227452039718628 6.601685523986816 1.5544118881225586 100.0 14 -0.0908699557185173
-0.3622932732105255 1.8098126649856567 -0.03221714124083519 10.0 7 -0.09086765348911285
-1.314677357673645 6.573346138000488 1.7962043285369873 63.0 15 -0.0908653512597084
-0.360740602016449 1.815215826034546 -0.4958973228931427 89.0 0 -0.09084461629390717
-0.3575029969215393 1.8005726337432861 0.032042618840932846 6.0 8 -0.09084231406450272
-0.35567060112953186 1.7929818630218506 -0.4220081865787506 89.0 1 -0.09084000438451767
-0.3548104166984558 1.7886455059051514 0.09556546807289124 48.0 9 -0.09083770215511322
-0.3568585216999054 1.8006212711334229 -0.35681283473968506 94.0 2 -0.09083539992570877
-1.3126726150512695 6.629476547241211 0.591264545917511 90.0 10 -0.09083309769630432
-0.3568970561027527 1.8041131496429443 -0.2912810146808624 100.0 3 -0.09083078801631927
-1.3047863245010376 6.601758003234863 0.8262742161750793 97.0 11 -0.09082848578691483
-0.3560257852077484 1.8013646602630615 -0.2254583090543747 88.0 4 -0.09082618355751038
-1.3026143312454224 6.596804141998291 1.065005898475647 85.0 12 -0.09082388132810593
-0.35439053177833557 1.7963825464248657 -0.16019225120544434 100.0 5 -0.09082157164812088
-1.3003015518188477 6.59722375869751 1.3070416450500488 100.0 13 -0.09081926941871643
-0.3797106146812439 1.9282726049423218 -0.10299716889858246 39.0 6 -0.09081696718931198
-1.2989615201950073 6.596475601196289 1.5521622896194458 100.0 14 -0.09081466495990753
-0.3566760718822479 1.8129661083221436 -0.03225204721093178 8.0 7 -0.09081236273050308
-1.2936153411865234 6.581460475921631 1.7972395420074463 63.0 15 -0.09081005305051804
-0.3547186255455017 1.8164021968841553 -0.4958973228931427 89.0 0 -0.0907893180847168
-0.35229629278182983 1.8056732416152954 0.032112427055835724 5.0 8 -0.09078701585531235
-0.3512137532234192 1.801802396774292 -0.4238077998161316 87.0 1 -0.0907847136259079
-0.34856510162353516 1.7898731231689453 0.09556546807289124 51.0 9 -0.09078240394592285
-0.35051143169403076 1.7998673915863037 -0.3564312160015106 99.0 2 -0.0907801017165184
-1.2910629510879517 6.635748386383057 0.5914388298988342 87.0 10 -0.09077779948711395
-0.3524196147918701 1.813043236732483 -0.2925325036048889 100.0 3 -0.0907754972577095
-1.2821345329284668 6.6021504402160645 0.8257867693901062 95.0 11 -0.09077318757772446
-0.35049307346343994 1.8064937591552734 -0.22594578564167023 88.0 4 -0.09077088534832001
-1.2825847864151 6.616826057434082 1.0675089359283447 89.0 12 -0.09076858311891556
-0.34994763135910034 1.8053719997406006 -0.16088949143886566 100.0 5 -0.09076628088951111
-1.2791650295257568 6.605353355407715 1.307804822921753 100.0 13 -0.09076397866010666
-0.37369394302368164 1.9314820766448975 -0.10310184955596924 41.0 6 -0.09076166898012161
-1.2748162746429443 6.595230579376221 1.5508127212524414 100.0 14 -0.09075936675071716
-0.3499658405780792 1.8122367858886719 -0.03221714124083519 7.0 7 -0.09075706452131271
-1.2706384658813477 6.585935592651367 1.7972395420074463 63.0 15 -0.09075476229190826
-0.3469209372997284 1.8100402355194092 -0.4938267767429352 87.0 0 -0.09073401987552643
-0.8036762475967407 4.197096347808838 0.07459158450365067 20.0 8 -0.09073171764612198
-0.346388041973114 1.8106733560562134 -0.4256074130535126 89.0 1 -0.09072941541671753
-0.3426896035671234 1.7930407524108887 0.09567013382911682 54.0 9 -0.09072711318731308
-0.34348902106285095 1.797223448753357 -0.35566797852516174 99.0 2 -0.09072481095790863
-1.2652746438980103 6.626515865325928 0.5902186632156372 93.0 10 -0.09072250127792358
-0.3457198739051819 1.8123217821121216 -0.2922196090221405 100.0 3 -0.09072019904851913
-1.2605656385421753 6.614385604858398 0.8267617225646973 97.0 11 -0.09071789681911469
-0.34418463706970215 1.8077061176300049 -0.22594578564167023 92.0 4 -0.09071559458971024
-1.2539474964141846 6.5921525955200195 1.0628159046173096 84.0 12 -0.09071328490972519
-0.34141096472740173 1.7948384284973145 -0.15984363853931427 100.0 5 -0.09071098268032074
-1.2561016082763672 6.60977840423584 1.307804822921753 100.0 13 -0.09070868045091629
-0.3695567548274994 1.9465103149414062 -0.10383454710245132 42.0 6 -0.09070637822151184
-1.2521514892578125 6.6015543937683105 1.551262617111206 100.0 14 -0.0907040685415268
-0.3425212800502777 1.8075530529022217 -0.032112427055835724 7.0 7 -0.09070176631212234
-1.245483636856079 6.578941822052002 1.7941336631774902 63.0 15 -0.0906994640827179
-0.3406001627445221 1.8112401962280273 -0.4938267767429352 89.0 0 -0.09067872911691666
-0.7868062853813171 4.188084125518799 0.07438215613365173 21.0 8 -0.09067642688751221
-0.34006500244140625 1.8118715286254883 -0.4256074130535126 89.0 1 -0.09067411720752716
-0.3386366367340088 1.806004285812378 0.09629816561937332 51.0 9 -0.09067181497812271
-0.33757472038269043 1.800341010093689 -0.3560495972633362 94.0 2 -0.09066951274871826
-1.240670084953308 6.623058795928955 0.5895214676856995 90.0 10 -0.09066721051931381
-0.337937593460083 1.8057509660720825 -0.2909681499004364 100.0 3 -0.09066490083932877
-1.2374677658081055 6.618745803833008 0.8267617225646973 95.0 11 -0.09066259860992432
-0.33787283301353455 1.808896541595459 -0.22594578564167023 90.0 4 -0.09066029638051987
-1.2338260412216187 6.612024784088135 1.0653188228607178 88.0 12 -0.09065799415111542
-0.3355591595172882 1.7999951839447021 -0.16019225120544434 100.0 5 -0.09065568447113037
-1.232659935951233 6.6121931076049805 1.3074232339859009 100.0 13 -0.09065338224172592
-0.3656857907772064 1.9634963274002075 -0.1046719178557396 38.0 6 -0.09065108001232147
-1.229101538658142 6.605884552001953 1.551262617111206 100.0 14 -0.09064877778291702
-0.3358437418937683 1.8067717552185059 -0.032077521085739136 7.0 7 -0.09064646810293198
-1.2211018800735474 6.575652122497559 1.7920631170272827 63.0 15 -0.09064416587352753
-0.33325958251953125 1.8086764812469482 -0.49279147386550903 87.0 0 -0.09062343090772629
-0.7739930748939514 4.200638771057129 0.07455668598413467 8.0 8 -0.09062112867832184
-0.3316211402416229 1.8015483617782593 -0.4229080080986023 85.0 1 -0.09061882644891739
-0.3308867812156677 1.7993179559707642 0.09587948024272919 58.0 9 -0.09061651676893234
-0.33168381452560425 1.805428147315979 -0.35681283473968506 94.0 2 -0.0906142145395279
-1.2171045541763306 6.631481170654297 0.589870035648346 93.0 10 -0.09061191231012344
-0.33202898502349854 1.8108633756637573 -0.29159387946128845 100.0 3 -0.090609610080719
-1.212925910949707 6.615214824676514 0.8257867693901062 97.0 11 -0.09060730040073395
-0.33227139711380005 1.8139702081680298 -0.22643324732780457 94.0 4 -0.0906049981713295
-1.2121586799621582 6.624063968658447 1.0665702819824219 85.0 12 -0.09060269594192505
-0.32927435636520386 1.8011554479599 -0.16019225120544434 100.0 5 -0.0906003937125206
-1.206654667854309 6.607010364532471 1.3055152893066406 100.0 13 -0.09059808403253555
-0.36063721776008606 1.9766125679016113 -0.10529995709657669 38.0 6 -0.0905957818031311
-1.2066268920898438 6.619931221008301 1.5535120964050293 100.0 14 -0.09059347957372665
-0.32881811261177063 1.803998589515686 -0.03200771287083626 7.0 7 -0.0905911773443222
-1.199523687362671 6.58747673034668 1.7941336631774902 63.0 15 -0.09058886766433716
-0.3269444704055786 1.809828758239746 -0.49279147386550903 89.0 0 -0.09056813269853592
-0.3274449408054352 1.8144091367721558 0.0321822389960289 1.0 8 -0.09056583046913147
-0.32432475686073303 1.798915982246399 -0.4220081865787506 92.0 1 -0.09056352823972702
-0.3231860101222992 1.7925999164581299 0.09546079486608505 63.0 9 -0.09056122601032257
-0.3253791928291321 1.806575059890747 -0.35681283473968506 94.0 2 -0.09055891633033752
-1.1946560144424438 6.639610767364502 0.5902186632156372 90.0 10 -0.09055661410093307
-0.3264051675796509 1.8158997297286987 -0.2922196090221405 100.0 3 -0.09055431187152863
-1.1879682540893555 6.615708351135254 0.8252992630004883 95.0 11 -0.09055200964212418
-0.32492002844810486 1.8112679719924927 -0.22594578564167023 88.0 4 -0.09054969996213913
-1.189030408859253 6.6282548904418945 1.0665702819824219 88.0 12 -0.09054739773273468
-0.3222826421260834 1.79837167263031 -0.15984363853931427 100.0 5 -0.09054509550333023
-1.1821988821029663 6.603451728820801 1.3039886951446533 100.0 13 -0.09054279327392578
-0.34002235531806946 1.9011828899383545 -0.10121775418519974 8.0 6 -0.09054048359394073
-1.1811139583587646 6.6106743812561035 1.5503627061843872 100.0 14 -0.09053818136453629
-0.32498133182525635 1.8189148902893066 -0.03225204721093178 6.0 7 -0.09053587913513184
-1.177198886871338 6.595427989959717 1.7951689958572388 63.0 15 -0.09053357690572739
-0.32264527678489685 1.8223726749420166 -0.4958973228931427 89.0 0 -0.09051284193992615
-0.32212308049201965 1.8194231986999512 0.03225204721093178 1.0 8 -0.0905105322599411
-0.320393443107605 1.8114955425262451 -0.4247076213359833 90.0 1 -0.09050823003053665
-0.3172746002674103 1.795683741569519 0.09556546807289124 98.0 9 -0.0905059278011322
-0.3170239329338074 1.7960994243621826 -0.3545231223106384 97.0 2 -0.09050362557172775
-1.170778512954712 6.639816761016846 0.589870035648346 90.0 10 -0.0905013158917427
-0.3196951150894165 1.8130816221237183 -0.29159387946128845 100.0 3 -0.09049901366233826
-1.1653389930725098 6.6157002449035645 0.8248117566108704 97.0 11 -0.09049671143293381
-0.31753525137901306 1.8045152425765991 -0.22497083246707916 90.0 4 -0.09049440920352936
-1.163832426071167 6.620692253112793 1.0646930932998657 85.0 12 -0.09049209952354431
-0.3177257478237152 1.8092975616455078 -0.16071519255638123 100.0 5 -0.09048979729413986
-1.1623332500457764 6.6189374923706055 1.3062784671783447 100.0 13 -0.09048749506473541
-0.31887590885162354 1.8177094459533691 -0.09671685099601746 5.0 6 -0.09048519283533096
-1.1581746339797974 6.608796119689941 1.5490130186080933 100.0 14 -0.09048289060592651
-0.3172503113746643 1.8121591806411743 -0.032112427055835724 4.0 7 -0.09048058092594147
-1.1535052061080933 6.595690727233887 1.7941336631774902 63.0 15 -0.09047827869653702
-0.3139567971229553 1.808205485343933 -0.4917562007904053 87.0 0 -0.09045754373073578
-0.31440356373786926 1.8126553297042847 0.032112427055835724 1.0 8 -0.09045524150133133
-0.31473398208618164 1.8164429664611816 -0.4256074130535126 89.0 1 -0.09045293182134628
-0.3096415102481842 1.7889083623886108 0.0951467752456665 84.0 9 -0.09045062959194183
-0.3110664486885071 1.7971407175064087 -0.3545231223106384 97.0 2 -0.09044832736253738
-1.148076057434082 6.639735698699951 0.5895214676856995 93.0 10 -0.09044602513313293
-0.31370091438293457 1.81613290309906 -0.2919067442417145 100.0 3 -0.09044371545314789
-1.142574667930603 6.621685028076172 0.8250555396080017 91.0 11 -0.09044141322374344
-0.31190916895866394 1.8095252513885498 -0.2254583090543747 94.0 4 -0.09043911099433899
-1.1407161951065063 6.624713897705078 1.0646930932998657 85.0 12 -0.09043680876493454
-0.31003400683403015 1.8005237579345703 -0.15984363853931427 100.0 5 -0.09043450653553009
-1.1392232179641724 6.62295389175415 1.3062784671783447 100.0 13 -0.09043219685554504
-0.3128676116466522 1.8207799196243286 -0.09682153165340424 6.0 6 -0.0904298946261406
-1.1354297399520874 6.614719867706299 1.5494630336761475 100.0 14 -0.09042759239673615
-0.30754354596138 1.7935463190078735 -0.03176337853074074 2.0 7 -0.0904252901673317
-1.12917160987854 6.592060565948486 1.7920631170272827 63.0 15 -0.09042298048734665
-0.3069949448108673 1.8054815530776978 -0.4907209575176239 87.0 0 -0.09040224552154541
-0.30539578199386597 1.797970175743103 0.031833190470933914 0.0 8 -0.09039994329214096
-0.3083910346031189 1.817530632019043 -0.4256074130535126 89.0 1 -0.09039764106273651
-0.30539730191230774 1.8017933368682861 0.095774807035923 100.0 9 -0.09039533883333206
-0.30577516555786133 1.8040227890014648 -0.35566797852516174 99.0 2 -0.09039302915334702
-1.1235629320144653 6.635844707489014 0.5888242125511169 93.0 10 -0.09039072692394257
-0.3073590397834778 1.8172168731689453 -0.2919067442417145 100.0 3 -0.09038842469453812
-1.121105432510376 6.635419845581055 0.8262742161750793 97.0 11 -0.09038612246513367
-0.30625197291374207 1.8145177364349365 -0.22594578564167023 92.0 4 -0.09038381278514862
-1.1175830364227295 6.628655433654785 1.0646930932998657 85.0 12 -0.09038151055574417
-0.3030841648578644 1.7976655960083008 -0.15949499607086182 100.0 5 -0.09037920832633972
-1.116422176361084 6.628827095031738 1.3066600561141968 100.0 13 -0.09037690609693527
-0.30651038885116577 1.821860909461975 -0.09682153165340424 6.0 6 -0.09037459641695023
-1.1123312711715698 6.618642807006836 1.5494630336761475 100.0 14 -0.09037229418754578
-0.30227378010749817 1.8005253076553345 -0.031868092715740204 1.0 7 -0.09036999195814133
-1.1048774719238281 6.588340759277344 1.7899925708770752 63.0 15 -0.09036768972873688
-0.3013255000114441 1.8103532791137695 -0.4917562007904053 89.0 0 -0.09034695476293564
-0.30010128021240234 1.8049430847167969 0.03193790465593338 1.0 8 -0.09034464508295059
-0.29949086904525757 1.8032166957855225 -0.4220081865787506 87.0 1 -0.09034234285354614
-0.3000870645046234 1.8087594509124756 0.09608882665634155 92.0 9 -0.0903400406241417
-0.29851245880126953 1.7992686033248901 -0.3545231223106384 91.0 2 -0.09033773839473724
-1.1016939878463745 6.647588729858398 0.5895214676856995 90.0 10 -0.0903354287147522
-0.3006916642189026 1.816329836845398 -0.29159387946128845 100.0 3 -0.09033312648534775
-1.0959947109222412 6.6275410652160645 0.8248117566108704 95.0 11 -0.0903308242559433
-0.3005628287792206 1.8194928169250488 -0.22643324732780457 96.0 4 -0.09032852202653885
-1.0944392681121826 6.632515907287598 1.0646930932998657 88.0 12 -0.0903262123465538
-0.29842954874038696 1.8085415363311768 -0.16036656498908997 100.0 5 -0.09032391011714935
-1.0904041528701782 6.6152496337890625 1.3032255172729492 100.0 13 -0.0903216078877449
-0.29787716269493103 1.8091247081756592 -0.09608882665634155 6.0 6 -0.09031930565834045
-1.090803861618042 6.632099151611328 1.5517125129699707 100.0 14 -0.09031699597835541
-0.29371798038482666 1.7877566814422607 -0.031623758375644684 1.0 7 -0.09031469374895096
-1.0831228494644165 6.599782943725586 1.7920631170272827 63.0 15 -0.09031239151954651
-0.2956249415874481 1.815207600593567 -0.49279147386550903 89.0 0 -0.09029165655374527
-0.29733145236968994 1.827690839767456 0.032321859151124954 1.0 8 -0.09028935432434082
-0.29382017254829407 1.8080981969833374 -0.4229080080986023 89.0 1 -0.09028704464435577
-0.2921709418296814 1.799938678741455 0.09556546807289124 100.0 9 -0.09028474241495132
-0.2938023507595062 1.809989094734192 -0.3564312160015106 99.0 2 -0.09028244018554688
-1.0778433084487915 6.6474609375 0.5891727805137634 90.0 10 -0.09028013795614243
-0.2946658432483673 1.819318175315857 -0.2919067442417145 100.0 3 -0.09027782827615738
-1.071583867073059 6.623488903045654 0.8238368034362793 97.0 11 -0.09027552604675293
-0.29230913519859314 1.8087729215621948 -0.22497083246707916 92.0 4 -0.09027322381734848
-1.0725414752960205 6.644096851348877 1.0659445524215698 85.0 12 -0.09027092158794403
-0.2917976379394531 1.8076053857803345 -0.16019225120544434 100.0 5 -0.09026861190795898
-1.0673041343688965 6.619015693664551 1.3032255172729492 100.0 13 -0.09026630967855453
-0.2925126552581787 1.8160691261291504 -0.0964028462767601 4.0 6 -0.09026400744915009
-1.0657908916473389 6.624321937561035 1.5490130186080933 100.0 14 -0.09026170521974564
-0.29160019755363464 1.8144378662109375 -0.032077521085739136 1.0 7 -0.09025940299034119
-1.0613017082214355 6.611153602600098 1.7941336631774902 63.0 15 -0.09025709331035614
-0.2901844382286072 1.8239102363586426 -0.49486202001571655 90.0 0 -0.09019756317138672
-0.28906089067459106 1.8188939094543457 0.03214733302593231 3.0 8 -0.09019526094198227
-0.28719156980514526 1.8091628551483154 -0.4229080080986023 89.0 1 -0.09019295871257782
-0.28400835394859314 1.7911343574523926 0.09504210948944092 100.0 9 -0.09019064903259277
-0.2862444818019867 1.80523681640625 -0.3552863597869873 94.0 2 -0.09018834680318832
-1.0540966987609863 6.655302047729492 0.5895214676856995 90.0 10 -0.09018604457378387
-0.2879961133003235 1.8203859329223633 -0.2919067442417145 100.0 3 -0.09018374234437943
-1.0473017692565918 6.627371788024902 0.8238368034362793 97.0 11 -0.09018143266439438
-0.2850590646266937 1.8059104681015015 -0.22448335587978363 92.0 4 -0.09017913043498993
-1.0454086065292358 6.630422592163086 1.0631288290023804 83.0 12 -0.09017682820558548
-0.28547942638397217 1.8106309175491333 -0.16036656498908997 100.0 5 -0.09017452597618103
-1.0430386066436768 6.622882843017578 1.3032255172729492 100.0 13 -0.09017221629619598
-0.28647559881210327 1.8210749626159668 -0.09661218523979187 2.0 6 -0.09016991406679153
-1.040894627571106 6.624334812164307 1.548113226890564 100.0 14 -0.09016761183738708
-0.28246787190437317 1.7996903657913208 -0.031798284500837326 1.0 7 -0.09016530960798264
-1.037065029144287 6.6149983406066895 1.7941336631774902 63.0 15 -0.09016299992799759
-0.28262805938720703 1.8172765970230103 -0.49279147386550903 89.0 0 -0.09014226496219635
-0.28271037340164185 1.8198916912078857 0.03214733302593231 3.0 8 -0.0901399627327919
-0.28147178888320923 1.814005732536316 -0.4238077998161316 87.0 1 -0.09013766050338745
-0.27897748351097107 1.8000096082687378 0.09546079486608505 100.0 9 -0.090135358273983
-0.2796401083469391 1.804284930229187 -0.35490477085113525 99.0 2 -0.09013304859399796
-1.0308603048324585 6.658941268920898 0.5895214676856995 93.0 10 -0.0901307463645935
-0.2828470468521118 1.8291889429092407 -0.29315823316574097 100.0 3 -0.09012844413518906
-1.0259778499603271 6.642758369445801 0.8252992630004883 93.0 11 -0.0901261419057846
-0.27935922145843506 1.8108181953430176 -0.22497083246707916 92.0 4 -0.09012383222579956
-1.0213598012924194 6.628173351287842 1.0621901750564575 85.0 12 -0.09012152999639511
-0.2782483696937561 1.805708885192871 -0.15984363853931427 100.0 5 -0.09011922776699066
-1.0211069583892822 6.6342453956604 1.304751992225647 100.0 13 -0.09011692553758621
-0.2786000967025757 1.8121933937072754 -0.09608882665634155 1.0 6 -0.09011461585760117
-1.019544243812561 6.639484405517578 1.5508127212524414 100.0 14 -0.09011231362819672
-0.27648675441741943 1.8026419878005981 -0.031833190470933914 1.0 7 -0.09011001139879227
-1.01279616355896 6.610940933227539 1.7920631170272827 63.0 15 -0.09010770916938782
-0.2751232385635376 1.8106123208999634 -0.4907209575176239 89.0 0 -0.09008697420358658
-0.27485525608062744 1.810982346534729 0.03197281062602997 5.0 8 -0.09008466452360153
-0.2757216989994049 1.8188308477401733 -0.4247076213359833 90.0 1 -0.09008236229419708
-0.27390533685684204 1.8068488836288452 0.095774807035923 100.0 9 -0.09008006006479263
-0.2730475962162018 1.8033087253570557 -0.3545231223106384 97.0 2 -0.09007775783538818
-1.0070123672485352 6.6585588455200195 0.5891727805137634 93.0 10 -0.09007544815540314
-0.2746894657611847 1.8184459209442139 -0.2912810146808624 100.0 3 -0.09007314592599869
-1.0024924278259277 6.644335746765137 0.8250555396080017 93.0 11 -0.09007084369659424
-0.27303609251976013 1.8117824792861938 -0.22497083246707916 92.0 4 -0.09006854146718979
-1.0005499124526978 6.639337539672852 1.0634416341781616 88.0 12 -0.09006623178720474
-0.2713499665260315 1.8027287721633911 -0.15949499607086182 100.0 5 -0.09006392955780029
-0.9967799186706543 6.630002975463867 1.3032255172729492 100.0 13 -0.09006162732839584
-0.2734585106372833 1.8210554122924805 -0.09650751203298569 1.0 6 -0.0900593250989914
-0.9957820177078247 6.639148235321045 1.549912929534912 100.0 14 -0.09005702286958694
-0.2711010277271271 1.8075040578842163 -0.03190299868583679 1.0 7 -0.0900547131896019
-0.9897274374961853 6.606619834899902 1.7899925708770752 63.0 15 -0.09005241096019745
-0.2693679630756378 1.8153833150863647 -0.4917562007904053 87.0 0 -0.09003167599439621
-0.2688486874103546 1.811883807182312 0.03197281062602997 5.0 8 -0.09002937376499176
-0.2685454785823822 1.812024474143982 -0.4229080080986023 85.0 1 -0.09002706408500671
-0.26993662118911743 1.8235998153686523 0.09661218523979187 100.0 9 -0.09002476185560226
-0.26703789830207825 1.8061931133270264 -0.35490477085113525 99.0 2 -0.09002245962619781
-0.983761727809906 6.662034034729004 0.5891727805137634 93.0 10 -0.09002015739679337
-0.2677915692329407 1.8134843111038208 -0.29034239053726196 100.0 3 -0.09001784771680832
-0.979582667350769 6.641732692718506 0.8243243098258972 95.0 11 -0.09001554548740387
-0.2687627077102661 1.8244612216949463 -0.22643324732780457 96.0 4 -0.09001324325799942
-0.978516697883606 6.650607109069824 1.0646930932998657 85.0 12 -0.09001094102859497
-0.2653456926345825 1.8056361675262451 -0.15966932475566864 100.0 5 -0.09000863879919052
-0.9742158055305481 6.629386901855469 1.3024622201919556 100.0 13 -0.09000632911920547
-0.26538825035095215 1.8081194162368774 -0.095774807035923 1.0 6 -0.09000402688980103
-0.9743238687515259 6.646270751953125 1.5508127212524414 100.0 14 -0.09000172466039658
-0.26276248693466187 1.7945891618728638 -0.03165866807103157 2.0 7 -0.08999942243099213
-0.9677764177322388 6.61768102645874 1.7920631170272827 63.0 15 -0.08999711275100708
-0.2639003396034241 1.820090413093567 -0.49279147386550903 89.0 0 -0.08997637778520584
-0.2628093361854553 1.81479012966156 0.03200771287083626 5.0 8 -0.08997407555580139
-0.26166200637817383 1.8090931177139282 -0.4220081865787506 90.0 1 -0.08997177332639694
-0.2616010010242462 1.808671236038208 0.095774807035923 100.0 9 -0.0899694636464119
-0.26244986057281494 1.8167842626571655 -0.35681283473968506 97.0 2 -0.08996716141700745
-0.962234616279602 6.669203758239746 0.5895214676856995 90.0 10 -0.089964859187603
-0.2623061537742615 1.8202733993530273 -0.2912810146808624 100.0 3 -0.08996255695819855
-0.9552598595619202 6.637252330780029 0.8233493566513062 97.0 11 -0.0899602547287941
-0.2595675587654114 1.8057392835617065 -0.2239958643913269 96.0 4 -0.08995794504880905
-0.95702064037323 6.657725811004639 1.0653188228607178 88.0 12 -0.0899556428194046
-0.26048940420150757 1.8143945932388306 -0.16036656498908997 100.0 5 -0.08995334059000015
-0.9505099058151245 6.628860950469971 1.3016990423202515 100.0 13 -0.0899510383605957
-0.26077350974082947 1.8208975791931152 -0.0964028462767601 1.0 6 -0.08994872868061066
-0.9500189423561096 6.641913890838623 1.5490130186080933 100.0 14 -0.08994642645120621
-0.25794288516044617 1.8033686876296997 -0.031798284500837326 1.0 7 -0.08994412422180176
-0.9458243250846863 6.620853900909424 1.7920631170272827 63.0 15 -0.08994182199239731
-0.25862792134284973 1.8286516666412354 -0.49486202001571655 89.0 0 -0.08992107957601547
-0.25650930404663086 1.8136718273162842 0.03197281062602997 7.0 8 -0.08991877734661102
-0.25620603561401367 1.8138103485107422 -0.4229080080986023 89.0 1 -0.08991647511720657
-0.25472748279571533 1.805618166923523 0.09556546807289124 100.0 9 -0.08991417288780212
-0.2550112009048462 1.8099130392074585 -0.3552863597869873 97.0 2 -0.08991187065839767
-0.9400608539581299 6.680413246154785 0.5902186632156372 90.0 10 -0.08990956097841263
-0.25709378719329834 1.8270015716552734 -0.2922196090221405 100.0 3 -0.08990725874900818
-0.9335223436355591 6.6423492431640625 0.8235930800437927 93.0 11 -0.08990495651960373
-0.25357845425605774 1.8065900802612305 -0.2239958643913269 92.0 4 -0.08990265429019928
-0.9326794147491455 6.653201103210449 1.0640673637390137 85.0 12 -0.08990034461021423
-0.25443020462989807 1.8172662258148193 -0.1605408787727356 100.0 5 -0.08989804238080978
-0.9296127557754517 6.639753341674805 1.3032255172729492 100.0 13 -0.08989574015140533
-0.2533503472805023 1.8118622303009033 -0.09587948024272919 1.0 6 -0.08989343792200089
-0.9269083142280579 6.637308120727539 1.5472134351730347 100.0 14 -0.08989112824201584
-0.2519221603870392 1.8062387704849243 -0.031833190470933914 2.0 7 -0.08988882601261139
-0.9237717390060425 6.631768703460693 1.7941336631774902 63.0 15 -0.08988652378320694
-0.25044938921928406 1.8141897916793823 -0.4907209575176239 90.0 0 -0.0898657888174057
-0.2485385239124298 1.8026702404022217 0.03176337853074074 15.0 8 -0.08986348658800125
-0.249872624874115 1.814693570137024 -0.4229080080986023 90.0 1 -0.0898611769080162
-0.2489677220582962 1.8104535341262817 0.095774807035923 100.0 9 -0.08985887467861176
-0.247670978307724 1.8010238409042358 -0.3533782958984375 99.0 2 -0.0898565724492073
-0.916006326675415 6.669676303863525 0.5889984965324402 96.0 10 -0.08985427021980286
-0.24910371005535126 1.816145658493042 -0.29034239053726196 100.0 3 -0.08985196053981781
-0.9122177362442017 6.659334182739258 0.8252992630004883 95.0 11 -0.08984965831041336
-0.2475401610136032 1.8094309568405151 -0.22423960268497467 99.0 4 -0.08984735608100891
-0.9089130759239197 6.652502059936523 1.0634416341781616 88.0 12 -0.08984505385160446
-0.2473231852054596 1.8102039098739624 -0.15984363853931427 100.0 5 -0.08984274417161942
-0.9069622755050659 6.646848201751709 1.3039886951446533 100.0 13 -0.08984044194221497
-0.24945256114006042 1.8305461406707764 -0.09682153165340424 2.0 6 -0.08983813971281052
-0.9042580723762512 6.644365310668945 1.548113226890564 100.0 14 -0.08983583748340607
-0.24534671008586884 1.8051255941390991 -0.031798284500837326 4.0 7 -0.08983352780342102
-0.8990592956542969 6.623466968536377 1.7910279035568237 63.0 15 -0.08983122557401657
-0.24359963834285736 1.8112236261367798 -0.48968565464019775 89.0 0 -0.08981049060821533
-0.24171163141727448 1.7995630502700806 0.03169357031583786 21.0 8 -0.08980818837881088
-0.24457333981990814 1.8232805728912354 -0.4247076213359833 87.0 1 -0.08980588614940643
-0.2434416264295578 1.817250370979309 0.09608882665634155 100.0 9 -0.08980357646942139
-0.2421642541885376 1.8077150583267212 -0.3545231223106384 97.0 2 -0.08980127424001694
-0.8924531936645508 6.670858860015869 0.5888242125511169 90.0 10 -0.08979897201061249
-0.24040864408016205 1.7993823289871216 -0.28752657771110535 98.0 3 -0.08979666978120804
-0.8889649510383606 6.662477970123291 0.8252992630004883 97.0 11 -0.08979436010122299
-0.2430574744939804 1.8240580558776855 -0.22594578564167023 92.0 4 -0.08979205787181854
-0.8856874704360962 6.655633449554443 1.0634416341781616 85.0 12 -0.08978975564241409
-0.24021482467651367 1.805130958557129 -0.15932069718837738 100.0 5 -0.08978745341300964
-0.8832359313964844 6.646081447601318 1.3032255172729492 100.0 13 -0.0897851437330246
-0.24253521859645844 1.8274459838867188 -0.09661218523979187 3.0 6 -0.08978284150362015
-0.8810606598854065 6.6474809646606445 1.548113226890564 100.0 14 -0.0897805392742157
-0.23904366791248322 1.8059710264205933 -0.031798284500837326 6.0 7 -0.08977823704481125
-0.8744160532951355 6.6150736808776855 1.7879220247268677 63.0 15 -0.0897759348154068
-0.2382786124944687 1.8197250366210938 -0.4917562007904053 89.0 0 -0.08975519239902496
-0.2349102944135666 1.7964301109313965 0.031623758375644684 34.0 8 -0.08975289016962051
-0.23719842731952667 1.8163937330245972 -0.4229080080986023 89.0 1 -0.08975058794021606
-0.23632141947746277 1.812147617340088 0.095774807035923 100.0 9 -0.08974828571081161
-0.2371215671300888 1.8182833194732666 -0.3564312160015106 99.0 2 -0.08974597603082657
-0.8691635727882385 6.673933029174805 0.5888242125511169 93.0 10 -0.08974367380142212
-0.23616467416286469 1.8158814907073975 -0.29002952575683594 100.0 3 -0.08974137157201767
-0.8641673922538757 6.653729438781738 0.8238368034362793 95.0 11 -0.08973906934261322
-0.23541259765625 1.8150522708892822 -0.2247270941734314 99.0 4 -0.08973675966262817
-0.8634626269340515 6.666521072387695 1.0646930932998657 88.0 12 -0.08973445743322372
-0.23416770994663239 1.8079345226287842 -0.15949499607086182 100.0 5 -0.08973215520381927
-0.8590222001075745 6.641336441040039 1.3016990423202515 100.0 13 -0.08972985297441483
-0.2356434464454651 1.824319839477539 -0.0964028462767601 6.0 6 -0.08972755074501038
-0.8590960502624512 6.66018009185791 1.5503627061843872 100.0 14 -0.08972524106502533
-0.23324865102767944 1.8107610940933228 -0.031868092715740204 7.0 7 -0.08972293883562088
-0.8528000116348267 6.629581928253174 1.7910279035568237 63.0 15 -0.08972063660621643
-0.23241378366947174 1.8243783712387085 -0.49279147386550903 89.0 0 -0.08969990164041519
-0.229394793510437 1.8031904697418213 0.03172847628593445 45.0 8 -0.08969759196043015
-0.2298746109008789 1.8094778060913086 -0.4211083948612213 90.0 1 -0.0896952897310257
-0.2289893478155136 1.8050360679626465 0.09535612165927887 100.0 9 -0.08969298750162125
-0.23077350854873657 1.8190997838974 -0.3564312160015106 99.0 2 -0.0896906852722168
-0.846861720085144 6.684833526611328 0.5895214676856995 93.0 10 -0.08968837559223175
-0.2308158129453659 1.8245338201522827 -0.2912810146808624 100.0 3 -0.0896860733628273
-0.8409377336502075 6.656705379486084 0.8238368034362793 99.0 11 -0.08968377113342285
-0.22932341694831848 1.8178324699401855 -0.22497083246707916 92.0 4 -0.0896814689040184
-0.8401882648468018 6.669493675231934 1.0646930932998657 85.0 12 -0.08967916667461395
-0.2283538430929184 1.8126944303512573 -0.15984363853931427 100.0 5 -0.0896768569946289
-0.8363258838653564 6.648190021514893 1.3024622201919556 100.0 13 -0.08967455476522446
-0.22852663695812225 1.8191862106323242 -0.09608882665634155 7.0 6 -0.08967225253582001
-0.835601270198822 6.6612043380737305 1.549912929534912 100.0 14 -0.08966995030641556
-0.22866672277450562 1.8254534006118774 -0.032112427055835724 7.0 7 -0.08966764062643051
-0.8306106925010681 6.640186309814453 1.7930984497070312 63.0 15 -0.08966533839702606
-0.22746913135051727 1.836681842803955 -0.4958973228931427 87.0 0 -0.08964460343122482
-0.22285400331020355 1.8019955158233643 0.03169357031583786 75.0 8 -0.08964230120182037
-0.2240341305732727 1.8141372203826904 -0.4220081865787506 87.0 1 -0.08963999152183533
-0.22324752807617188 1.807767629623413 0.09546079486608505 100.0 9 -0.08963768929243088
-0.22346067428588867 1.8121005296707153 -0.35490477085113525 99.0 2 -0.08963538706302643
-0.8240104913711548 6.691702842712402 0.589870035648346 93.0 10 -0.08963308483362198
-0.2249281406402588 1.829249620437622 -0.2919067442417145 100.0 3 -0.08963078260421753
-0.8181783556938171 6.663540840148926 0.8243243098258972 99.0 11 -0.08962847292423248
-0.22249382734298706 1.8146811723709106 -0.22448335587978363 96.0 4 -0.08962617069482803
-0.8171066641807556 6.664401054382324 1.0634416341781616 88.0 12 -0.08962386846542358
-0.22250959277153015 1.817435622215271 -0.16019225120544434 100.0 5 -0.08962156623601913
-0.8135890364646912 6.654966831207275 1.3032255172729492 100.0 13 -0.08961925655603409
-0.22193259000778198 1.8179904222488403 -0.09598415344953537 8.0 6 -0.08961695432662964
-0.811402440071106 6.656342506408691 1.548113226890564 100.0 14 -0.08961465209722519
-0.22067667543888092 1.8103218078613281 -0.031833190470933914 7.0 7 -0.08961234986782074
-0.8085846304893494 6.642904758453369 1.7930984497070312 63.0 15 -0.0896100401878357
-0.2192109227180481 1.8221203088760376 -0.4917562007904053 90.0 0 -0.08958930522203445
-0.2185494750738144 1.816622257232666 0.03193790465593338 100.0 8 -0.08958700299263
-0.21894621849060059 1.822609543800354 -0.4238077998161316 90.0 1 -0.08958470076322556
-0.2166975438594818 1.8065530061721802 0.09535612165927887 100.0 9 -0.0895823985338211
-0.21666817367076874 1.8089706897735596 -0.354141503572464 99.0 2 -0.08958008885383606
-0.7992257475852966 6.682669162750244 0.5888242125511169 93.0 10 -0.08957778662443161
-0.21909496188163757 1.831946849822998 -0.2922196090221405 100.0 3 -0.08957548439502716
-0.796078085899353 6.66621732711792 0.8243243098258972 95.0 11 -0.08957318216562271
-0.2169453501701355 1.819351315498352 -0.22497083246707916 94.0 4 -0.08957087248563766
-0.7929025888442993 6.659366607666016 1.0621901750564575 85.0 12 -0.08956857025623322
-0.21522286534309387 1.8102874755859375 -0.15949499607086182 100.0 5 -0.08956626802682877
-0.7929078340530396 6.66932487487793 1.3055152893066406 100.0 13 -0.08956396579742432
-0.21613936126232147 1.8206995725631714 -0.09608882665634155 7.0 6 -0.08956165611743927
-0.7881760001182556 6.649321556091309 1.5458637475967407 100.0 14 -0.08955935388803482
-0.21435564756393433 1.8110811710357666 -0.031833190470933914 8.0 7 -0.08955705165863037
-0.7840357422828674 6.634174823760986 1.7899925708770752 63.0 15 -0.08955474942922592
-0.21226930618286133 1.815162181854248 -0.48968565464019775 89.0 0 -0.08953401446342468
-0.20988726615905762 1.797512173652649 0.031588856130838394 100.0 8 -0.08953170478343964
-0.21303364634513855 1.827234148979187 -0.4247076213359833 89.0 1 -0.08952940255403519
-0.21246904134750366 1.8251529932022095 0.09629816561937332 100.0 9 -0.08952710032463074
-0.211348757147789 1.8155295848846436 -0.3552863597869873 100.0 2 -0.08952479809522629
-0.7763720750808716 6.67934513092041 0.5883012413978577 96.0 10 -0.08952248841524124
-0.20951023697853088 1.805229663848877 -0.28783944249153137 100.0 3 -0.08952018618583679
-0.7734907865524292 6.674870491027832 0.8250555396080017 100.0 11 -0.08951788395643234
-0.2108209878206253 1.8220694065093994 -0.22521455585956573 96.0 4 -0.0895155817270279
-0.7705572843551636 6.669943332672119 1.0634416341781616 85.0 12 -0.08951327204704285
-0.20890285074710846 1.8110277652740479 -0.15949499607086182 100.0 5 -0.0895109698176384
-0.7691742181777954 6.668151378631592 1.304751992225647 100.0 13 -0.08950866758823395
-0.21092474460601807 1.831363558769226 -0.09661218523979187 6.0 6 -0.0895063653588295
-0.7651816010475159 6.653968334197998 1.5463136434555054 100.0 14 -0.08950405567884445
-0.20985768735408783 1.8277112245559692 -0.032112427055835724 14.0 7 -0.08950175344944
-0.7604315280914307 6.633032321929932 1.7889572381973267 63.0 15 -0.08949945122003555
