# .PCD v0.7 - Point Cloud Data file format
VERSION 0.7
FIELDS x y z intensity ring time
SIZE 4 4 4 4 4 4
TYPE F F F F F F
COUNT 1 1 1 1 1 1
WIDTH 546
HEIGHT 1
VIEWPOINT 0 0 0 1 0 0 0
POINTS 546
DATA ascii
-2.2829930782318115 0.9568692445755005 0.30394217371940613 9.0 11 -0.033062390983104706
-2.187631845474243 0.9173500537872314 -0.2912677526473999 1.0 4 -0.03306008502840996
-2.0724167823791504 0.8694617748260498 -0.19662334024906158 7.0 5 -0.03305547684431076
-3.079235792160034 1.2924938201904297 0.649132251739502 67.0 13 -0.03305317461490631
-2.049555540084839 0.8607120513916016 -0.11649984866380692 7.0 6 -0.03305087238550186
-3.0614125728607178 1.2862704992294312 0.7666332721710205 78.0 14 -0.033048566430807114
-2.0167293548583984 0.8477553725242615 -0.03818586841225624 2.0 7 -0.033046264201402664
-3.0469014644622803 1.2814249992370605 0.8856788277626038 80.0 15 -0.033043958246707916
-2.5024774074554443 1.0560581684112549 -0.7277991771697998 8.0 0 -0.03302322328090668
-1.96749746799469 0.8306990265846252 0.03727834299206734 1.0 8 -0.03302091732621193
-3.154080629348755 1.3323352336883545 -0.7904780507087708 50.0 1 -0.03301861509680748
-2.0972700119018555 0.8863524794578552 0.11932599544525146 39.0 9 -0.03301630914211273
-1.9946520328521729 0.8429839015007019 -0.42092466354370117 10.0 2 -0.03301400691270828
-2.2846860885620117 0.9660292267799377 0.2170177847146988 30.0 10 -0.033011700958013535
-2.0758049488067627 0.8781349062919617 -0.356983482837677 9.0 3 -0.033009398728609085
-2.285122871398926 0.967154324054718 0.30467337369918823 24.0 11 -0.033007096499204636
-2.0729103088378906 0.8777641654014587 -0.276399701833725 4.0 4 -0.03300479054450989
-2.060196876525879 0.8728041052818298 -0.19575178623199463 8.0 5 -0.03300018236041069
-3.074704885482788 1.3032352924346924 0.649132251739502 66.0 13 -0.03299788013100624
-2.053893804550171 0.8709801435470581 -0.11691854149103165 8.0 6 -0.03299557417631149
-3.0694618225097656 1.3022761344909668 0.769782543182373 81.0 14 -0.03299327194690704
-2.034005880355835 0.8633841872215271 -0.038569819182157516 8.0 7 -0.032990965992212296
-3.045966148376465 1.2935631275177002 0.8867141008377075 82.0 15 -0.032988663762807846
-2.8631064891815186 1.2200376987457275 -0.8339149951934814 6.0 0 -0.03296792507171631
-2.0124127864837646 0.8579514622688293 0.03818586841225624 1.0 8 -0.03296562284231186
-3.1512033939361572 1.3441015481948853 -0.7909280061721802 51.0 1 -0.03296332061290741
-2.097836971282959 0.8952362537384033 0.11953534185886383 41.0 9 -0.03296101465821266
-1.9935029745101929 0.8507125377655029 -0.421306312084198 7.0 2 -0.03295871242880821
-2.270306348800659 0.969304084777832 0.2159719318151474 31.0 10 -0.032956406474113464
-2.0763602256774902 0.8869274854660034 -0.35760921239852905 8.0 3 -0.032954104244709015
-2.236098527908325 0.9556226134300232 0.2985799014568329 39.0 11 -0.03295179829001427
-2.051581382751465 0.8771900534629822 -0.2739623188972473 6.0 4 -0.03294949606060982
-2.0553059577941895 0.8792067766189575 -0.1955774873495102 8.0 5 -0.03294488787651062
-3.0665271282196045 1.3124151229858398 0.6483690142631531 66.0 13 -0.03294258192181587
-2.041661262512207 0.8742130994796753 -0.11639518290758133 8.0 6 -0.03294027969241142
-3.0810186862945557 1.319889783859253 0.7738316655158997 78.0 14 -0.032937973737716675
-2.02730393409729 0.8689035773277283 -0.03850000724196434 7.0 7 -0.032935671508312225
-3.0520853996276855 1.3087552785873413 0.8898199200630188 80.0 15 -0.03293336555361748
-2.8730268478393555 1.2361319065093994 -0.8380560874938965 6.0 0 -0.03291263058781624
-2.0332834720611572 0.8752492666244507 0.038639627397060394 3.0 8 -0.03291032835841179
-3.144702196121216 1.3543230295181274 -0.7904780507087708 50.0 1 -0.03290802240371704
-2.0800254344940186 0.8962305784225464 0.11869796365499496 45.0 9 -0.03290572017431259
-1.9923243522644043 0.8584423661231995 -0.42168790102005005 6.0 2 -0.032903414219617844
-2.2742273807525635 0.9803779125213623 0.21666917204856873 41.0 10 -0.032901111990213394
-2.0877623558044434 0.9004289507865906 -0.36011216044425964 8.0 3 -0.032898806035518646
-2.2418622970581055 0.9673539996147156 0.2997986078262329 47.0 11 -0.0328965038061142
-2.052151918411255 0.8859196901321411 -0.27444979548454285 6.0 4 -0.03289419785141945
-2.2704501152038574 0.9806303381919861 0.391711950302124 1.0 12 -0.032891895622015
-2.057711124420166 0.8887462615966797 -0.1961004137992859 9.0 5 -0.03288958966732025
-3.0727407932281494 1.327783226966858 0.6506586670875549 66.0 13 -0.0328872874379158
-2.031264066696167 0.8781641721725464 -0.1159764900803566 10.0 6 -0.032884981483221054
-3.0620839595794678 1.324447751045227 0.7702324986457825 78.0 14 -0.032882679253816605
-2.022423267364502 0.875180184841156 -0.03846510127186775 6.0 7 -0.03288037329912186
-3.0581352710723877 1.324006199836731 0.8929257392883301 78.0 15 -0.03287807106971741
-2.8651509284973145 1.244613766670227 -0.8370208144187927 6.0 0 -0.03285733610391617
-2.033884048461914 0.8839356303215027 0.03870943933725357 6.0 8 -0.03285503014922142
-3.159614086151123 1.3738389015197754 -0.7954270243644714 47.0 1 -0.03285272791981697
-2.0695583820343018 0.9002988934516907 0.11827926337718964 46.0 9 -0.03285042196512222
-1.9893157482147217 0.865391731262207 -0.42168790102005005 6.0 2 -0.03284811973571777
-2.2598304748535156 0.9835400581359863 0.21562331914901733 42.0 10 -0.032845813781023026
-2.077362298965454 0.9045562148094177 -0.35886070132255554 8.0 3 -0.032843511551618576
-2.242111921310425 0.9767594933509827 0.30028611421585083 45.0 11 -0.03284120559692383
-2.0508668422698975 0.8938714265823364 -0.2746935188770294 7.0 4 -0.03283890336751938
-2.2670135498046875 0.9885491728782654 0.391711950302124 1.0 12 -0.03283659741282463
-2.061901807785034 0.8991086483001709 -0.1967976689338684 9.0 5 -0.03283429518342018
-3.077084541320801 1.3424263000488281 0.6525667905807495 63.0 13 -0.03283198922872543
-2.0318470001220703 0.886847734451294 -0.11618582904338837 12.0 6 -0.032829686999320984
-3.066371440887451 1.3390276432037354 0.7724819779396057 81.0 14 -0.032827381044626236
-2.0101940631866455 0.8782316446304321 -0.03829057887196541 7.0 7 -0.032825078815221786
-3.060575246810913 1.337768793106079 0.8949962854385376 78.0 15 -0.03282277286052704
-2.864546298980713 1.2556593418121338 -0.8380560874938965 6.0 0 -0.03278970718383789
-2.0291101932525635 0.8898723721504211 0.03867453336715698 7.0 8 -0.03278740495443344
-3.178239583969116 1.3944878578186035 -0.8012757301330566 43.0 1 -0.03278509899973869
-2.0720479488372803 0.9095652103424072 0.11859328299760818 47.0 9 -0.032782796770334244
-1.973851203918457 0.866459846496582 -0.419016569852829 6.0 2 -0.032780490815639496
-2.2456107139587402 0.9862215518951416 0.21457743644714355 39.0 10 -0.032778188586235046
-2.0888192653656006 0.9177970886230469 -0.3613636791706085 8.0 3 -0.0327758826315403
-2.238860607147217 0.9841892719268799 0.30028611421585083 45.0 11 -0.03277358040213585
-2.0388057231903076 0.8966711163520813 -0.2734748423099518 5.0 4 -0.0327712744474411
-2.2637226581573486 0.9960615634918213 0.391711950302124 1.0 12 -0.03276897221803665
-2.0423388481140137 0.8990758061408997 -0.19522884488105774 12.0 5 -0.032766666263341904
-3.0816001892089844 1.3565781116485596 0.6544748544692993 67.0 13 -0.032764364033937454
-2.027067184448242 0.892775297164917 -0.11608116328716278 12.0 6 -0.032762058079242706
-3.0761804580688477 1.3554750680923462 0.7760811448097229 86.0 14 -0.03275975584983826
-2.007270336151123 0.8848929405212402 -0.03829057887196541 7.0 7 -0.03275744989514351
-3.056122064590454 1.347910761833191 0.8949962854385376 74.0 15 -0.03275514766573906
-2.8457934856414795 1.2598929405212402 -0.8339149951934814 6.0 0 -0.03273441269993782
-2.0223348140716553 0.8953303694725037 0.038604725152254105 7.0 8 -0.03273210674524307
-3.1876065731048584 1.4118871688842773 -0.8048748970031738 41.0 1 -0.03272980451583862
-2.0706863403320312 0.9176018238067627 0.11869796365499496 51.0 9 -0.032727498561143875
-1.9832258224487305 0.8792581558227539 -0.42168790102005005 5.0 2 -0.032725196331739426
-2.2292323112487793 0.9887908101081848 0.21335725486278534 35.0 10 -0.03272289037704468
-2.0637741088867188 0.9158318042755127 -0.35760921239852905 8.0 3 -0.03272058814764023
-2.244483470916748 0.9960244297981262 0.30150479078292847 31.0 11 -0.03271828219294548
-2.053806781768799 0.9118375778198242 -0.27591222524642944 7.0 4 -0.03271597996354103
-2.2602319717407227 1.0039573907852173 0.391711950302124 1.0 12 -0.03271367400884628
-2.037367343902588 0.9053905010223389 -0.1950545459985733 9.0 5 -0.032711371779441833
-3.074812889099121 1.367066740989685 0.6540932655334473 63.0 13 -0.032709065824747086
-2.0329058170318604 0.9042575359344482 -0.1166045218706131 16.0 6 -0.032706763595342636
-3.076533079147339 1.369117021560669 0.7774308919906616 78.0 14 -0.03270445764064789
-2.0059962272644043 0.8927072882652283 -0.038325484842061996 7.0 7 -0.03270215541124344
-3.051398515701294 1.3585704565048218 0.8949962854385376 76.0 15 -0.03269984945654869
-2.86607027053833 1.2808548212051392 -0.8411619663238525 1.0 0 -0.03267911449074745
-2.0153884887695312 0.901104748249054 0.03853491693735123 7.0 8 -0.032676812261343
-3.2019784450531006 1.4323132038116455 -0.8098238706588745 30.0 1 -0.032674506306648254
-2.0729403495788574 0.9272704124450684 0.11901197582483292 52.0 9 -0.032672204077243805
-1.9801442623138428 0.8861761093139648 -0.42168790102005005 4.0 2 -0.03266989812254906
-2.2184932231903076 0.9933094382286072 0.21265999972820282 34.0 10 -0.03266759589314461
-2.0713815689086914 0.9278749823570251 -0.3594864308834076 8.0 3 -0.03266528993844986
-2.233572006225586 1.0009968280792236 0.300529807806015 6.0 11 -0.03266298770904541
-2.0576961040496826 0.9226076006889343 -0.2768871784210205 4.0 4 -0.03266068175435066
-2.036012649536133 0.9133116602897644 -0.19522884488105774 8.0 5 -0.032656073570251465
-3.0682315826416016 1.3769869804382324 0.6537116169929504 66.0 13 -0.032653771340847015
-2.0188047885894775 0.9064397811889648 -0.1159764900803566 12.0 6 -0.03265146538615227
-3.0824007987976074 1.3846397399902344 0.7801303267478943 78.0 14 -0.03264916315674782
-2.0083398818969727 0.9021628499031067 -0.03843019902706146 8.0 7 -0.03264686092734337
-3.055448293685913 1.3731725215911865 0.8975844979286194 72.0 15 -0.03264455497264862
-2.017857313156128 0.9102498292922974 0.038639627397060394 4.0 8 -0.032621514052152634
-2.0660500526428223 0.9328574538230896 0.11880263686180115 52.0 9 -0.032616905868053436
-1.9788281917572021 0.8938910365104675 -0.4220695197582245 4.0 2 -0.03261460363864899
-2.2168283462524414 1.001867413520813 0.21283432841300964 30.0 10 -0.03261229768395424
-2.0628929138183594 0.9322983026504517 -0.3585478365421295 9.0 3 -0.03260999545454979
-2.2356667518615723 1.0108517408370972 0.3012610375881195 1.0 11 -0.03260768949985504
-2.036538600921631 0.9212446212768555 -0.27444979548454285 6.0 4 -0.03260538727045059
-2.2531683444976807 1.0197118520736694 0.391711950302124 1.0 12 -0.03260308504104614
-2.0437021255493164 0.9253445267677307 -0.19627472758293152 8.0 5 -0.032600779086351395
-3.076167583465576 1.3928226232528687 0.6563829779624939 63.0 13 -0.032598476856946945
-2.0085105895996094 0.9098329544067383 -0.11555780470371246 9.0 6 -0.0325961709022522
-3.072467565536499 1.392439842224121 0.7787805795669556 74.0 14 -0.03259386867284775
-2.0124635696411133 0.9124704003334045 -0.038569819182157516 9.0 7 -0.032591562718153
-3.0629513263702393 1.3894160985946655 0.9012079238891602 74.0 15 -0.03258926048874855
-2.0073883533477783 0.9139730334281921 0.03850000724196434 4.0 8 -0.032566219568252563
-2.2770702838897705 1.0372402667999268 -0.5776743292808533 1.0 1 -0.032563913613557816
-2.0627810955047607 0.9400637149810791 0.11880263686180115 53.0 9 -0.032561611384153366
-1.9812123775482178 0.9028906226158142 -0.4232143759727478 2.0 2 -0.03255930542945862
-2.213493824005127 1.0092133283615112 0.21283432841300964 25.0 10 -0.03255700320005417
-2.072206735610962 0.9452321529388428 -0.3607378900051117 9.0 3 -0.03255470097064972
-2.1707229614257812 0.9906284213066101 0.29297390580177307 1.0 11 -0.03255239501595497
-2.026087760925293 0.9250496029853821 -0.2734748423099518 5.0 4 -0.03255009278655052
-2.2495949268341064 1.027571201324463 0.391711950302124 1.0 12 -0.032547786831855774
-2.0406224727630615 0.9321166276931763 -0.19627472758293152 8.0 5 -0.032545484602451324
-3.087357759475708 1.4108961820602417 0.6598175168037415 66.0 13 -0.03254317864775658
-2.0125880241394043 0.9201602935791016 -0.1159764900803566 9.0 6 -0.03254087641835213
-3.0711326599121094 1.4047776460647583 0.7796803712844849 74.0 14 -0.03253857046365738
-2.0038113594055176 0.9169933199882507 -0.03846510127186775 12.0 7 -0.03253626823425293
-3.0668652057647705 1.4041203260421753 0.9037961363792419 72.0 15 -0.03253396227955818
-2.022355794906616 0.9293242692947388 0.038849055767059326 5.0 8 -0.032510921359062195
-2.257500410079956 1.0378570556640625 -0.5736252665519714 25.0 1 -0.032508619129657745
-2.0631163120269775 0.948927104473114 0.11901197582483292 52.0 9 -0.032506316900253296
-1.9780488014221191 0.9098004102706909 -0.4232143759727478 3.0 2 -0.03250401094555855
-2.1828081607818604 1.0044406652450562 0.21021965146064758 24.0 10 -0.0325017087161541
-2.074277400970459 0.954938530921936 -0.36167651414871216 9.0 3 -0.03249940276145935
-2.203312397003174 1.0148080587387085 0.2978487014770508 1.0 11 -0.0324971005320549
-2.048086643218994 0.9437470436096191 -0.2768871784210205 4.0 4 -0.03249479457736015
-2.1993520259857178 1.0139151811599731 0.3835773468017578 1.0 12 -0.032492492347955704
-2.0355467796325684 0.9383999109268188 -0.1961004137992859 9.0 5 -0.032490186393260956
-3.0895450115203857 1.424953579902649 0.6613439917564392 68.0 13 -0.032487884163856506
-2.012990951538086 0.9288530945777893 -0.11618582904338837 11.0 6 -0.03248557820916176
-3.08036470413208 1.4220236539840698 0.7832795977592468 74.0 14 -0.03248327597975731
-1.99333655834198 0.920628547668457 -0.038325484842061996 11.0 7 -0.03248097002506256
-3.061945676803589 1.4148164987564087 0.9037961363792419 70.0 15 -0.03247866779565811
-2.0064010620117188 0.9304888844490051 0.038604725152254105 6.0 8 -0.032455626875162125
-2.259167432785034 1.0481910705566406 -0.5749749541282654 3.0 1 -0.032453324645757675
-2.0634145736694336 0.9578048586845398 0.11922132223844528 53.0 9 -0.03245101869106293
-1.9784224033355713 0.9183528423309326 -0.4239776134490967 2.0 2 -0.03244871646165848
-2.164832353591919 1.0053406953811646 0.20882515609264374 28.0 10 -0.03244641050696373
-2.0691399574279785 0.9613410234451294 -0.3613636791706085 10.0 3 -0.03244410827755928
-2.253761053085327 1.0475952625274658 0.30516088008880615 1.0 11 -0.03244180232286453
-2.0465798377990723 0.9517280459403992 -0.27713093161582947 3.0 4 -0.03243950009346008
-2.1957993507385254 1.021586298942566 0.3835773468017578 1.0 12 -0.032437194138765335
-2.0268394947052 0.9429785013198853 -0.1955774873495102 8.0 5 -0.032434891909360886
-3.08455228805542 1.435728907585144 0.6613439917564392 68.0 13 -0.03243258595466614
-2.0097362995147705 0.9358746409416199 -0.11618582904338837 10.0 6 -0.03243028372526169
-3.080681324005127 1.4352364540100098 0.7846293449401855 72.0 14 -0.03242797777056694
-1.9991734027862549 0.9318045973777771 -0.03850000724196434 14.0 7 -0.03242567554116249
-3.0622408390045166 1.4279463291168213 0.90534907579422 74.0 15 -0.03242336958646774
-1.9958958625793457 0.9340963363647461 0.03846510127186775 6.0 8 -0.032400332391262054
-3.1185123920440674 1.4601539373397827 -0.794977068901062 14.0 1 -0.032398026436567307
-2.0691020488739014 0.9692379236221313 0.1197446808218956 51.0 9 -0.03239572420716286
-1.9787604808807373 0.9269188642501831 -0.42474085092544556 1.0 2 -0.03239341825246811
-2.1613097190856934 1.0128918886184692 0.20882515609264374 33.0 10 -0.03239111602306366
-2.0586178302764893 0.9652031660079956 -0.36011216044425964 11.0 3 -0.03238881006836891
-2.2321183681488037 1.0470257997512817 0.3027234971523285 1.0 11 -0.03238650783896446
-2.0522303581237793 0.9630829095840454 -0.2783496081829071 3.0 4 -0.032384201884269714
-2.23871111869812 1.0510717630386353 0.391711950302124 1.0 12 -0.032381899654865265
-2.0289461612701416 0.952587366104126 -0.1961004137992859 10.0 5 -0.03237959370017052
-3.083075761795044 1.448156714439392 0.6621072888374329 66.0 13 -0.03237729147076607
-2.0028419494628906 0.9411854147911072 -0.1159764900803566 11.0 6 -0.03237498551607132
-3.0879979133605957 1.4517844915390015 0.7877786159515381 74.0 14 -0.03237268328666687
-1.997718095779419 0.9396290183067322 -0.03853491693735123 11.0 7 -0.03237038105726242
-3.067725658416748 1.4435621500015259 0.9084548950195312 78.0 15 -0.03236807510256767
-1.989006757736206 0.9393498301506042 0.038395293056964874 6.0 8 -0.032345034182071686
-3.085204839706421 1.45771062374115 -0.7877786159515381 30.0 1 -0.032342731952667236
-2.0620949268341064 0.9747470617294312 0.11953534185886383 49.0 9 -0.03234042599797249
-1.9968122243881226 0.9438880681991577 -0.42932024598121643 1.0 2 -0.03233812376856804
-2.16676664352417 1.0246883630752563 0.2096967101097107 41.0 10 -0.03233581781387329
-2.0695207118988037 0.9791417121887207 -0.3626151382923126 10.0 3 -0.03233351558446884
-2.178210973739624 1.031031608581543 0.29589879512786865 1.0 11 -0.032331209629774094
-2.029121160507202 0.9608945846557617 -0.2756684720516205 3.0 4 -0.032328907400369644
-2.023808002471924 0.9588110446929932 -0.19592611491680145 12.0 5 -0.03232429921627045
-3.0850980281829834 1.4622740745544434 0.6636337041854858 65.0 13 -0.032321996986866
-1.9995445013046265 0.9481704831123352 -0.1159764900803566 12.0 6 -0.03231969103217125
-3.086432933807373 1.4642254114151 0.7886784672737122 74.0 14 -0.0323173888027668
-1.9926193952560425 0.945739209651947 -0.03850000724196434 9.0 7 -0.03231508284807205
-3.07313871383667 1.4592328071594238 0.9115607142448425 76.0 15 -0.0323127806186676
-2.8236916065216064 1.3450173139572144 -0.8380560874938965 6.0 0 -0.032292041927576065
-2.000157356262207 0.9531692266464233 0.03867453336715698 6.0 8 -0.032289739698171616
-3.0695438385009766 1.4634387493133545 -0.7850792407989502 32.0 1 -0.03228743374347687
-2.055074453353882 0.9802200794219971 0.11932599544525146 50.0 9 -0.03228513151407242
-1.940345048904419 0.9254969954490662 -0.41787171363830566 1.0 2 -0.03228282555937767
-2.1667728424072266 1.0339616537094116 0.21004533767700195 40.0 10 -0.03228052332997322
-2.0714385509490967 0.9889125227928162 -0.3635537326335907 9.0 3 -0.03227821737527847
-2.2068417072296143 1.0540279150009155 0.30028611421585083 1.0 11 -0.03227591514587402
-2.0185904502868652 0.9645484089851379 -0.2746935188770294 2.0 4 -0.032273612916469574
-2.020448923110962 0.965869665145874 -0.19592611491680145 14.0 5 -0.03226900473237038
-3.090601921081543 1.4781157970428467 0.6659234166145325 66.0 13 -0.03226669877767563
-1.9962226152420044 0.9551445245742798 -0.1159764900803566 12.0 6 -0.03226439654827118
-3.077787160873413 1.4733080863952637 0.7877786159515381 74.0 14 -0.03226209059357643
-1.9838954210281372 0.9500974416732788 -0.038395293056964874 8.0 7 -0.03225978836417198
-3.0819637775421143 1.4766290187835693 0.9157018065452576 74.0 15 -0.032257482409477234
-2.825944185256958 1.358213186264038 -0.840126633644104 6.0 0 -0.032236747443675995
-2.000422477722168 0.9618778824806213 0.03874434158205986 7.0 8 -0.03223444148898125
-3.0486111640930176 1.4665422439575195 -0.7810301184654236 31.0 1 -0.0322321392595768
-2.0626113414764404 0.9922244548797607 0.11995401978492737 49.0 9 -0.03222983330488205
-1.9795596599578857 0.9526976943016052 -0.4270305633544922 1.0 2 -0.0322275310754776
-2.1559700965881348 1.0380616188049316 0.20934809744358063 42.0 10 -0.03222522884607315
-2.0679738521575928 0.9961376786231995 -0.3635537326335907 10.0 3 -0.0322229228913784
-2.2031490802764893 1.0617250204086304 0.30028611421585083 1.0 11 -0.03222062066197395
-2.0545494556427 0.9905549883842468 -0.2800557613372803 1.0 4 -0.032218314707279205
-2.227769136428833 1.0740689039230347 0.391711950302124 1.0 12 -0.032216012477874756
-2.0134758949279785 0.9711853861808777 -0.1955774873495102 13.0 5 -0.03221370652318001
-3.0995686054229736 1.4957211017608643 0.668976366519928 74.0 13 -0.03221140429377556
-2.0108625888824463 0.9707901477813721 -0.11702320724725723 16.0 6 -0.03220909833908081
-3.08139967918396 1.4882797002792358 0.7900281548500061 72.0 14 -0.03220679610967636
-1.980733871459961 0.9566710591316223 -0.038395293056964874 8.0 7 -0.03220449015498161
-3.0666139125823975 1.4817982912063599 0.9125959873199463 78.0 15 -0.032202187925577164
-2.8211863040924072 1.3680686950683594 -0.840126633644104 6.0 0 -0.032181452959775925
-2.006218433380127 0.9728689193725586 0.038918863981962204 9.0 8 -0.03217914700508118
-3.0332119464874268 1.4715394973754883 -0.7783307433128357 31.0 1 -0.03217684477567673
-2.0663225650787354 1.0029067993164062 0.1203727126121521 46.0 9 -0.03217453882098198
-1.993882656097412 0.9681774377822876 -0.4308467507362366 1.0 2 -0.03217223659157753
-2.1559178829193115 1.0473217964172363 0.2096967101097107 39.0 10 -0.03216993063688278
-2.0735433101654053 1.0073051452636719 -0.3651180863380432 10.0 3 -0.03216762840747833
-2.196044921875 1.0672895908355713 0.2997986078262329 1.0 11 -0.032165322452783585
-2.0084073543548584 0.9765300750732422 -0.2742060422897339 2.0 4 -0.032163020223379135
-2.224006414413452 1.0818387269973755 0.391711950302124 1.0 12 -0.03216071426868439
-2.00828218460083 0.9773359894752502 -0.19540317356586456 11.0 5 -0.03215841203927994
-3.0945916175842285 1.5059915781021118 0.668976366519928 74.0 13 -0.03215610608458519
-2.0058364868164062 0.9765788316726685 -0.11691854149103165 18.0 6 -0.03215380385518074
-3.090463161468506 1.5053167343139648 0.7936273813247681 71.0 14 -0.03215149790048599
-1.9773824214935303 0.9635793566703796 -0.038395293056964874 9.0 7 -0.03214919567108154
-3.0648953914642334 1.4941868782043457 0.91363126039505 78.0 15 -0.032146889716386795
-2.8131630420684814 1.3757193088531494 -0.8390913605690002 6.0 0 -0.032126154750585556
-1.9884400367736816 0.9728356599807739 0.038639627397060394 10.0 8 -0.03212385252118111
-2.998300790786743 1.467555046081543 -0.7706823348999023 30.0 1 -0.03212154656648636
-2.068190336227417 1.0127485990524292 0.12068671733140945 47.0 9 -0.03211924433708191
-1.9765554666519165 0.9678769111633301 -0.42779380083084106 1.0 2 -0.03211693838238716
-2.161378860473633 1.0588480234146118 0.21056827902793884 34.0 10 -0.03211463615298271
-2.0629191398620605 1.0110602378845215 -0.3638666272163391 10.0 3 -0.032112330198287964
-2.181612014770508 1.0697051286697388 0.2983361780643463 1.0 11 -0.032110027968883514
-2.0513241291046143 1.0062649250030518 -0.2805432379245758 1.0 4 -0.032107722014188766
-2.2202165126800537 1.0895954370498657 0.391711950302124 1.0 12 -0.03210541978478432
-2.015761613845825 0.9892570972442627 -0.19644904136657715 9.0 5 -0.03210311383008957
-3.089315891265869 1.5167845487594604 0.668976366519928 72.0 13 -0.03210081160068512
-1.9934523105621338 0.9791714549064636 -0.11639518290758133 21.0 6 -0.03209850564599037
-3.10442852973938 1.5255495309829712 0.798576295375824 74.0 14 -0.03209620341658592
-1.9829795360565186 0.9748870730400085 -0.038569819182157516 9.0 7 -0.032093897461891174
-3.0700619220733643 1.509992003440857 0.9167370796203613 80.0 15 -0.032091595232486725
-2.8170058727264404 1.389804482460022 -0.841679573059082 7.0 0 -0.032070860266685486
-1.992205023765564 0.9833110570907593 0.03877924755215645 9.0 8 -0.03206855431199074
-2.970444679260254 1.4667954444885254 -0.7648336291313171 30.0 1 -0.03206625208258629
-2.0664334297180176 1.020845890045166 0.12079139798879623 49.0 9 -0.03206394612789154
-1.966124415397644 0.9712918400764465 -0.4262673258781433 1.0 2 -0.03206164389848709
-2.1773173809051514 1.076096773147583 0.21248570084571838 24.0 10 -0.03205933794379234
-2.0629186630249023 1.0200061798095703 -0.36449235677719116 10.0 3 -0.032057035714387894
-2.1903200149536133 1.0834746360778809 0.30004236102104187 2.0 11 -0.032054729759693146
-2.0371241569519043 1.0081369876861572 -0.2790808379650116 1.0 4 -0.032052427530288696
-2.2163994312286377 1.0973389148712158 0.391711950302124 1.0 12 -0.03205012157559395
-2.0194382667541504 0.9998233914375305 -0.19714628159999847 9.0 5 -0.0320478193461895
-3.0910398960113525 1.5310438871383667 0.6705028414726257 71.0 13 -0.03204551339149475
-1.9918113946914673 0.9870111346244812 -0.11649984866380692 19.0 6 -0.0320432111620903
-3.0903546810150146 1.5320489406585693 0.7963268160820007 71.0 14 -0.03204090893268585
-1.9849392175674438 0.9844682812690735 -0.03867453336715698 9.0 7 -0.032038602977991104
-3.0786168575286865 1.5275689363479614 0.9208781719207764 76.0 15 -0.032036300748586655
-2.8259735107421875 1.4065155982971191 -0.8458206653594971 9.0 0 -0.03201556205749512
-1.9995005130767822 0.9956076741218567 0.03898867964744568 9.0 8 -0.03201325982809067
-2.956585168838501 1.47281014919281 -0.7625840902328491 29.0 1 -0.03201095387339592
-2.0592823028564453 1.0262712240219116 0.12058205902576447 45.0 9 -0.03200865164399147
-2.0013787746429443 0.997414231300354 -0.43466290831565857 1.0 2 -0.03200634568929672
-2.0646491050720215 1.0298455953598022 -0.3654309809207916 11.0 3 -0.032001737505197525
-2.223825216293335 1.109727382659912 0.30516088008880615 1.0 11 -0.031999435275793076
-2.0478010177612305 1.022335171699524 -0.28103071451187134 1.0 4 -0.03199712932109833
-3.0961642265319824 1.5463895797729492 0.5481464266777039 51.0 12 -0.03199482709169388
-2.0212836265563965 1.009536862373352 -0.19766922295093536 8.0 5 -0.03199252486228943
-3.099726438522339 1.548844814300537 0.6735557913780212 72.0 13 -0.03199021890759468
-1.9919267892837524 0.9957439303398132 -0.11670918762683868 19.0 6 -0.03198791667819023
-3.0884740352630615 1.5445696115493774 0.79722660779953 67.0 14 -0.03198561072349548
-1.974337100982666 0.9878125190734863 -0.03853491693735123 8.0 7 -0.031983308494091034
-3.0836310386657715 1.5434943437576294 0.9239840507507324 80.0 15 -0.031981002539396286
-2.8037822246551514 1.4077028036117554 -0.8406442999839783 9.0 0 -0.03196026757359505
-2.001373767852783 1.0052733421325684 0.039093390107154846 8.0 8 -0.0319579616189003
-2.934013605117798 1.4743717908859253 -0.7580850720405579 30.0 1 -0.03195565938949585
-2.0628247261047363 1.0370420217514038 0.121000736951828 45.0 9 -0.0319533534348011
-2.0364742279052734 1.0237948894500732 -0.44305849075317383 1.0 2 -0.03195105120539665
-3.136261224746704 1.5773745775222778 0.3071368336677551 40.0 10 -0.0319487489759922
-2.0804519653320312 1.0468130111694336 -0.3688724935054779 12.0 3 -0.031946443021297455
-2.308593273162842 1.1621116399765015 0.31734779477119446 1.0 11 -0.031944140791893005
-2.044220209121704 1.0294766426086426 -0.28103071451187134 1.0 4 -0.03194183483719826
-3.1030962467193604 1.5634095668792725 0.550336480140686 76.0 12 -0.03193953260779381
-2.008850574493408 1.0121040344238281 -0.1967976689338684 9.0 5 -0.03193722665309906
-3.097806930541992 1.561423420906067 0.6743190288543701 72.0 13 -0.03193492442369461
-1.9973559379577637 1.007187008857727 -0.117232546210289 21.0 6 -0.03193261846899986
-3.093502998352051 1.5606075525283813 0.7999260425567627 72.0 14 -0.03193031623959541
-1.9708768129348755 0.9946982860565186 -0.03853491693735123 8.0 7 -0.031928010284900665
-3.0747756958007812 1.552506685256958 0.9229487776756287 78.0 15 -0.031925708055496216
-2.7988510131835938 1.4174820184707642 -0.8406442999839783 7.0 0 -0.03190496936440468
-1.9835823774337769 1.0050230026245117 0.038814153522253036 8.0 8 -0.03190266713500023
-2.9201581478118896 1.4801990985870361 -0.7558355927467346 31.0 1 -0.03190036490559578
-2.069880485534668 1.0496559143066406 0.1216287761926651 43.0 9 -0.03189805895090103
-2.04689621925354 1.0380003452301025 -0.44611144065856934 1.0 2 -0.03189575672149658
-3.1289589405059814 1.5874111652374268 0.3069625198841095 40.0 10 -0.031893450766801834
-2.071500778198242 1.0513867139816284 -0.36793389916419983 13.0 3 -0.031891148537397385
-3.1364169120788574 1.592571496963501 0.43190500140190125 39.0 11 -0.03188884258270264
-2.0583126544952393 1.045596718788147 -0.2834681272506714 1.0 4 -0.03188654035329819
-3.1011414527893066 1.5760225057601929 0.5509622097015381 75.0 12 -0.03188423439860344
-1.9982004165649414 1.0154999494552612 -0.1961004137992859 9.0 5 -0.03188193216919899
-3.0993380546569824 1.5757856369018555 0.6758455038070679 74.0 13 -0.03187962621450424
-1.9991685152053833 1.0168694257736206 -0.11754656583070755 20.0 6 -0.03187732398509979
-3.098456621170044 1.5766998529434204 0.8026254177093506 66.0 14 -0.031875018030405045
-1.9638285636901855 0.9997568726539612 -0.03846510127186775 8.0 7 -0.031872715801000595
-3.0693376064300537 1.5632301568984985 0.9229487776756287 78.0 15 -0.03187040984630585
-2.7973265647888184 1.4290008544921875 -0.841679573059082 9.0 0 -0.03184967488050461
-1.9765006303787231 1.0101208686828613 0.03874434158205986 6.0 8 -0.03184737265110016
-2.8958873748779297 1.480625033378601 -0.7508866190910339 33.0 1 -0.03184506669640541
-2.0804290771484375 1.0641510486602783 0.12246615439653397 42.0 9 -0.03184276446700096
-2.001311779022217 1.0236819982528687 -0.4369526505470276 1.0 2 -0.03184045851230621
-3.1375882625579834 1.605584740638733 0.30835700035095215 40.0 10 -0.031838156282901764
-2.0607848167419434 1.0550105571746826 -0.3666824400424957 11.0 3 -0.031835850328207016
-3.1343722343444824 1.605319857597351 0.4323924481868744 66.0 11 -0.031833548098802567
-2.0652499198913574 1.0582064390182495 -0.284930557012558 1.0 4 -0.03183124214410782
-3.097379684448242 1.5877383947372437 0.5512751340866089 72.0 12 -0.03182893991470337
-2.005281686782837 1.027921438217163 -0.19714628159999847 9.0 5 -0.03182663396000862
-3.0938186645507812 1.586594820022583 0.6758455038070679 74.0 13 -0.03182433173060417
-1.9902757406234741 1.0211066007614136 -0.117232546210289 21.0 6 -0.031822025775909424
-3.1120054721832275 1.597293734550476 0.8075743317604065 70.0 14 -0.031819723546504974
-1.9781157970428467 1.0157402753829956 -0.038814153522253036 9.0 7 -0.031817417591810226
-3.074172019958496 1.5792319774627686 0.9260545372962952 80.0 15 -0.03181511536240578
-2.7923214435577393 1.4387567043304443 -0.841679573059082 9.0 0 -0.03179438039660454
-1.9871824979782104 1.024343490600586 0.03902358189225197 6.0 8 -0.03179207444190979
-2.876845359802246 1.483579158782959 -0.7472874522209167 36.0 1 -0.03178977221250534
-2.073338508605957 1.0692133903503418 0.1222568079829216 39.0 9 -0.03178746625781059
-2.032620668411255 1.0486644506454468 -0.44458499550819397 1.0 2 -0.03178516402840614
-3.142587661743164 1.62200927734375 0.3094028830528259 38.0 10 -0.031782858073711395
-2.057089328765869 1.0621976852416992 -0.3666824400424957 9.0 3 -0.031780555844306946
-3.126986026763916 1.615340232849121 0.4321487247943878 66.0 11 -0.0317782498896122
-2.1073949337005615 1.089105248451233 -0.2912677526473999 1.0 4 -0.03177594766020775
-3.1008718013763428 1.6025357246398926 0.552839457988739 76.0 12 -0.031773641705513
-2.012300491333008 1.0404052734375 -0.19819216430187225 12.0 5 -0.03177133947610855
-3.098724126815796 1.6027965545654297 0.6781352162361145 71.0 13 -0.0317690335214138
-1.9884731769561768 1.028965711593628 -0.11733722686767578 22.0 6 -0.031766731292009354
-3.102949619293213 1.6063551902770996 0.8066745400428772 70.0 14 -0.031764425337314606
-1.980064034461975 1.0250524282455444 -0.038918863981962204 8.0 7 -0.031762123107910156
-3.086073160171509 1.5983014106750488 0.9312310218811035 78.0 15 -0.03175982087850571
-2.790710926055908 1.4502761363983154 -0.8427148461341858 10.0 0 -0.03173908218741417
-1.9908725023269653 1.034616231918335 0.03916320204734802 6.0 8 -0.03173677995800972
-2.8580777645111084 1.485919713973999 -0.7436882257461548 33.0 1 -0.03173447400331497
-2.076681137084961 1.080130696296692 0.12267549335956573 35.0 9 -0.03173217177391052
-2.039397716522217 1.0611902475357056 -0.4468746781349182 1.0 2 -0.031729865819215775
-3.147509813308716 1.6384899616241455 0.3104487657546997 36.0 10 -0.031727563589811325
-2.0640687942504883 1.0744861364364624 -0.36855965852737427 9.0 3 -0.03172525763511658
-3.130415201187134 1.630285382270813 0.43336743116378784 64.0 11 -0.03172295540571213
-2.103771924972534 1.0960872173309326 -0.2912677526473999 1.0 4 -0.03172064945101738
-3.098762273788452 1.6151760816574097 0.5534651875495911 73.0 12 -0.03171834722161293
-2.0086567401885986 1.0474233627319336 -0.19819216430187225 11.0 5 -0.03171604126691818
-3.10731840133667 1.6203255653381348 0.68118816614151 72.0 13 -0.03171373903751373
-1.9921332597732544 1.0392487049102783 -0.11775590479373932 21.0 6 -0.03171143680810928
-3.1010608673095703 1.6184395551681519 0.8075743317604065 66.0 14 -0.031709130853414536
-1.9676105976104736 1.0273302793502808 -0.03874434158205986 8.0 7 -0.031706828624010086
-3.0907485485076904 1.614431381225586 0.93433678150177 78.0 15 -0.03170452266931534
-2.782463550567627 1.457729458808899 -0.841679573059082 9.0 0 -0.0316837877035141
-1.9872487783432007 1.0415593385696411 0.03916320204734802 6.0 8 -0.03168148174881935
-2.8459699153900146 1.492267370223999 -0.7418886423110962 36.0 1 -0.0316791795194149
-2.07820463180542 1.090156078338623 0.12298951297998428 33.0 9 -0.031676873564720154
-2.0254359245300293 1.0624754428863525 -0.44458499550819397 1.0 2 -0.031674571335315704
-3.1402950286865234 1.647992730140686 0.3102744519710541 35.0 10 -0.031672265380620956
-2.0690505504608154 1.0862758159637451 -0.3701240122318268 8.0 3 -0.03166996315121651
-3.1440372467041016 1.6513556241989136 0.4360485374927521 67.0 11 -0.03166766092181206
-2.099932909011841 1.1034246683120728 -0.2912677526473999 1.0 4 -0.03166535496711731
-3.098351001739502 1.6287405490875244 0.5544037818908691 68.0 12 -0.03166305273771286
-2.0085151195526123 1.0562827587127686 -0.19854077696800232 9.0 5 -0.03166074678301811
-3.103381633758545 1.632075548171997 0.6815698146820068 70.0 13 -0.03165844455361366
-1.9867258071899414 1.0452669858932495 -0.11765124648809433 15.0 6 -0.031656138598918915
-3.105739116668701 1.6347005367279053 0.8102737665176392 70.0 14 -0.031653836369514465
-1.9640127420425415 1.0341919660568237 -0.03874434158205986 8.0 7 -0.03165153041481972
-3.0816762447357178 1.6234087944030762 0.9333015084266663 78.0 15 -0.03164922818541527
-2.7634382247924805 1.4606963396072388 -0.8375384211540222 9.0 0 -0.03162848949432373
-1.9871363639831543 1.0503592491149902 0.0392330102622509 7.0 8 -0.03162618726491928
-2.821794271469116 1.492171287536621 -0.7369397282600403 36.0 1 -0.03162388503551483
-2.092040777206421 1.106743335723877 0.12403623014688492 38.0 9 -0.031621579080820084
-2.014586925506592 1.0662188529968262 -0.44305849075317383 1.0 2 -0.031619276851415634
-3.1412770748138428 1.6632198095321655 0.3109716773033142 35.0 10 -0.031616970896720886
-2.063309669494629 1.0929268598556519 -0.36981111764907837 9.0 3 -0.03161466866731644
-3.1487789154052734 1.6678955554962158 0.43751096725463867 67.0 11 -0.03161236271262169
-3.0978827476501465 1.642320990562439 0.555342435836792 67.0 12 -0.03160775452852249
-2.001295328140259 1.0614207983016968 -0.19819216430187225 9.0 5 -0.03160545229911804
-3.100847005844116 1.645280122756958 0.6823329925537109 70.0 13 -0.031603146344423294
-1.9899381399154663 1.0562868118286133 -0.11806992441415787 10.0 6 -0.031600844115018845
-3.1048903465270996 1.6488145589828491 0.8116234540939331 67.0 14 -0.0315985381603241
-1.965688943862915 1.0438554286956787 -0.038849055767059326 9.0 7 -0.03159623593091965
-3.0794026851654053 1.635968804359436 0.93433678150177 78.0 15 -0.0315939299762249
-2.771961212158203 1.4776029586791992 -0.841679573059082 10.0 0 -0.03157319501042366
-1.979744791984558 1.0557531118392944 0.03916320204734802 6.0 8 -0.03157089278101921
-2.7973928451538086 1.4924143552780151 -0.7319908142089844 31.0 1 -0.03156858682632446
-2.095018148422241 1.1181652545928955 0.12445490807294846 40.0 9 -0.03156628459692001
-2.0351011753082275 1.0861859321594238 -0.44840118288993835 1.0 2 -0.031563978642225266
-3.142482280731201 1.6779286861419678 0.31166893243789673 33.0 10 -0.031561676412820816
-2.0594818592071533 1.1001230478286743 -0.36981111764907837 9.0 3 -0.03155937045812607
-3.146146059036255 1.681296467781067 0.4379984438419342 67.0 11 -0.03155706822872162
-3.1110029220581055 1.6639131307601929 0.558784008026123 72.0 12 -0.03155246004462242
-2.0149590969085693 1.0781481266021729 -0.19993527233600616 9.0 5 -0.03155015408992767
-3.095085382461548 1.6560934782028198 0.6823329925537109 70.0 13 -0.031547851860523224
-1.989760398864746 1.065111756324768 -0.11827926337718964 11.0 6 -0.031545545905828476
-3.1197307109832764 1.6706825494766235 0.8170222640037537 72.0 14 -0.031543243676424026
-1.9830018281936646 1.0623852014541626 -0.03926791250705719 9.0 7 -0.03154093772172928
-3.0801968574523926 1.6508947610855103 0.9364073872566223 80.0 15 -0.03153863549232483
-2.759721279144287 1.4840930700302124 -0.8396090269088745 11.0 0 -0.03151790052652359
-1.983091950416565 1.0664457082748413 0.03930281847715378 6.0 8 -0.03151559457182884
-2.778437376022339 1.4947831630706787 -0.7283915877342224 13.0 1 -0.03151329234242439
-2.087584972381592 1.123578429222107 0.12424556910991669 43.0 9 -0.031510986387729645
-2.0380208492279053 1.0973608493804932 -0.4499276280403137 1.0 2 -0.031508684158325195
-3.148589849472046 1.6960493326187134 0.31288909912109375 32.0 10 -0.03150637820363045
-2.069347858428955 1.115160584449768 -0.37231406569480896 8.0 3 -0.031504075974226
-3.133268356323242 1.6885015964508057 0.4370235204696655 68.0 11 -0.03150177001953125
-3.106914758682251 1.6756994724273682 0.5590968132019043 63.0 12 -0.03149716183543205
-2.007676362991333 1.0832828283309937 -0.1995866596698761 10.0 5 -0.0314948596060276
-3.1062705516815186 1.6767528057098389 0.6861491799354553 70.0 13 -0.031492553651332855
-1.9963873624801636 1.078092098236084 -0.11890730261802673 12.0 6 -0.031490251421928406
-3.1067285537719727 1.6783998012542725 0.8152226805686951 67.0 14 -0.03148794546723366
-1.9810409545898438 1.0702508687973022 -0.03930281847715378 9.0 7 -0.03148564323782921
-3.0914106369018555 1.670822262763977 0.9415837526321411 78.0 15 -0.03148333728313446
-2.775165319442749 1.5042840242385864 -0.8458206653594971 11.0 0 -0.03144717216491699
-1.9828729629516602 1.075268030166626 0.039372626692056656 6.0 8 -0.03144486993551254
-2.7663512229919434 1.5007556676864624 -0.7265920042991638 7.0 1 -0.031442563980817795
-2.092625141143799 1.1352568864822388 0.124768927693367 49.0 9 -0.031440261751413345
-2.0378215312957764 1.1059861183166504 -0.450690895318985 1.0 2 -0.0314379557967186
-3.1499521732330322 1.7102839946746826 0.31358635425567627 32.0 10 -0.03143565356731415
-2.07084584236145 1.124845266342163 -0.3732526898384094 8.0 3 -0.0314333476126194
-3.1447970867156982 1.708906650543213 0.4394609034061432 68.0 11 -0.03143104538321495
-3.0996053218841553 1.6850498914718628 0.558784008026123 63.0 12 -0.03142643719911575
-2.0373282432556152 1.1080209016799927 -0.2028985619544983 8.0 5 -0.031424131244421005
-3.107591390609741 1.6907968521118164 0.6876756548881531 68.0 13 -0.031421829015016556
-1.989292860031128 1.0827969312667847 -0.11869796365499496 12.0 6 -0.03141952306032181
-3.101439952850342 1.6881524324417114 0.8152226805686951 67.0 14 -0.03141722083091736
-1.975724697113037 1.0758579969406128 -0.03926791250705719 10.0 7 -0.03141491487622261
-3.099424362182617 1.68845796585083 0.9457248449325562 76.0 15 -0.03141261264681816
-2.756598711013794 1.506068468093872 -0.841679573059082 11.0 0 -0.03139187768101692
-1.989824652671814 1.0875916481018066 0.039582058787345886 6.0 8 -0.031389571726322174
-2.74255108833313 1.4996367692947388 -0.7216430306434631 16.0 1 -0.031387269496917725
-2.094106435775757 1.1450648307800293 0.12508295476436615 47.0 9 -0.03138496354222298
-2.041032314300537 1.116506576538086 -0.45221734046936035 3.0 2 -0.03138266131281853
-3.147758722305298 1.7226332426071167 0.31393498182296753 31.0 10 -0.03138035535812378
-2.0705695152282715 1.1336034536361694 -0.3738784193992615 6.0 3 -0.03137805312871933
-3.149559259414673 1.7250475883483887 0.4409233331680298 66.0 11 -0.03137574717402458
-3.0991971492767334 1.6981676816940308 0.5597225427627563 61.0 12 -0.031371138989925385
-2.0126774311065674 1.1032785177230835 -0.20080682635307312 8.0 5 -0.031368836760520935
-3.1122958660125732 1.7067569494247437 0.6899653673171997 66.0 13 -0.03136653080582619
-2.004952907562256 1.0999550819396973 -0.11984935402870178 13.0 6 -0.03136422857642174
-3.112910032272339 1.707801342010498 0.8197216987609863 72.0 14 -0.03136192262172699
-1.9774051904678345 1.0852903127670288 -0.039372626692056656 10.0 7 -0.03135962039232254
-3.0870351791381836 1.6950069665908813 0.9436542987823486 78.0 15 -0.03135731443762779
-2.741436004638672 1.5096105337142944 -0.8385737538337708 11.0 0 -0.03133657947182655
-1.9862070083618164 1.0941842794418335 0.039582058787345886 6.0 8 -0.031334277242422104
-2.7170825004577637 1.4974360466003418 -0.7162442207336426 30.0 1 -0.031331971287727356
-2.10408878326416 1.1600823402404785 0.12592032551765442 35.0 9 -0.031329669058322906
-2.0441954135894775 1.1270604133605957 -0.4537437856197357 12.0 2 -0.03132736310362816
-3.1455185413360596 1.7349860668182373 0.3142836093902588 31.0 10 -0.03132506087422371
-2.070258140563965 1.1423723697662354 -0.3745041489601135 6.0 3 -0.03132275491952896
-3.1490347385406494 1.7383604049682617 0.4416545331478119 64.0 11 -0.03132045269012451
-3.110541343688965 1.7185277938842773 0.5628513097763062 61.0 12 -0.031315844506025314
-2.0055198669433594 1.1080198287963867 -0.20045821368694305 8.0 5 -0.031313538551330566
-3.1152102947235107 1.721816897392273 0.6918734312057495 66.0 13 -0.03131123632192612
-2.0117812156677246 1.112396478652954 -0.12047737836837769 11.0 6 -0.03130893036723137
-3.117161273956299 1.7243160009384155 0.8224210739135742 67.0 14 -0.03130662813782692
-1.9701056480407715 1.09024977684021 -0.03930281847715378 8.0 7 -0.03130432590842247
-3.0912399291992188 1.7113873958587646 0.9467601180076599 74.0 15 -0.03130201995372772
-2.746283769607544 1.5247966051101685 -0.841679573059082 11.0 0 -0.03128128498792648
-1.9928644895553589 1.1069368124008179 0.03979148715734482 6.0 8 -0.031278979033231735
-2.703321695327759 1.50217866897583 -0.7139947414398193 36.0 1 -0.031276676803827286
-2.117483377456665 1.1771236658096313 0.12696704268455505 24.0 9 -0.03127437084913254
-2.057408332824707 1.1437276601791382 -0.4575599730014801 23.0 2 -0.03127206861972809
-3.1464076042175293 1.749829649925232 0.3149808347225189 31.0 10 -0.03126976266503334
-2.0800673961639404 1.1572751998901367 -0.3770070970058441 6.0 3 -0.03126746043562889
-3.1464171409606934 1.7512723207473755 0.4421420395374298 64.0 11 -0.03126515448093414
-3.1166036128997803 1.7361042499542236 0.5650413632392883 65.0 12 -0.031260550022125244
-2.006861448287964 1.117922306060791 -0.20098112523555756 7.0 5 -0.031258244067430496
-3.1023213863372803 1.7288570404052734 0.6903470158576965 66.0 13 -0.03125594183802605
-1.9974195957183838 1.1135764122009277 -0.11984935402870178 10.0 6 -0.0312536358833313
-3.1162290573120117 1.7380342483520508 0.8237708210945129 66.0 14 -0.03125133365392685
-1.9785116910934448 1.1039406061172485 -0.0395471528172493 7.0 7 -0.0312490276992321
-3.093681812286377 1.7268747091293335 0.9493483304977417 70.0 15 -0.031246723607182503
-2.730830430984497 1.5287117958068848 -0.8385737538337708 11.0 0 -0.031225988641381264
-1.9942221641540527 1.1168181896209717 0.039896201342344284 5.0 8 -0.031223684549331665
-2.6844613552093506 1.5039854049682617 -0.7103955149650574 33.0 1 -0.031221380457282066
-2.1168458461761475 1.1864609718322754 0.12717638909816742 15.0 9 -0.031219076365232468
-2.0825178623199463 1.1672205924987793 -0.46404752135276794 51.0 2 -0.03121677227318287
-3.1559207439422607 1.7695720195770264 0.3165496587753296 30.0 10 -0.03121446818113327
-2.0725696086883545 1.1625956296920776 -0.37638136744499207 4.0 3 -0.03121216408908367
-3.147209405899048 1.7661305665969849 0.4431169629096985 64.0 11 -0.031209859997034073
-3.1174139976501465 1.7508411407470703 0.5662928223609924 63.0 12 -0.031205251812934875
-2.044438362121582 1.1486932039260864 -0.2051646113395691 3.0 5 -0.031202947720885277
-3.1133832931518555 1.749293327331543 0.6941632032394409 61.0 13 -0.031200643628835678
-1.9970022439956665 1.1224993467330933 -0.12005870044231415 10.0 6 -0.03119833953678608
-3.1135404109954834 1.7508116960525513 0.8246706128120422 66.0 14 -0.03119603544473648
-1.9938174486160278 1.1216250658035278 -0.03993110731244087 6.0 7 -0.031193731352686882
-3.0943689346313477 1.7414530515670776 0.9514188170433044 70.0 15 -0.031191427260637283
-2.710069179534912 1.5301622152328491 -0.8339149951934814 13.0 0 -0.031170692294836044
-2.004242420196533 1.1316375732421875 0.040175437927246094 4.0 8 -0.031168388202786446
-2.670711040496826 1.5085546970367432 -0.7081459760665894 38.0 1 -0.031166084110736847
-2.173550605773926 1.2282339334487915 0.13083989918231964 2.0 9 -0.031163780018687248
-2.0730984210968018 1.1719470024108887 -0.46290263533592224 64.0 2 -0.03116147592663765
-3.1667568683624268 1.790934443473816 0.3182927668094635 28.0 10 -0.03115917183458805
-2.0872063636779785 1.1808847188949585 -0.3798229396343231 3.0 3 -0.031156867742538452
-3.1479358673095703 1.7810165882110596 0.44409194588661194 61.0 11 -0.031154563650488853
-3.113002300262451 1.7626856565475464 0.5666056871414185 62.0 12 -0.031149955466389656
-2.0369491577148438 1.1538586616516113 -0.20481599867343903 1.0 5 -0.031147651374340057
-3.120615243911743 1.768436312675476 0.6972161531448364 63.0 13 -0.03114534728229046
-2.00677490234375 1.137690782546997 -0.12089607119560242 10.0 6 -0.03114304505288601
-3.1138827800750732 1.7660572528839111 0.8264702558517456 72.0 14 -0.03114074096083641
-1.977713942527771 1.12167227268219 -0.03968677297234535 5.0 7 -0.031138436868786812
-3.1084344387054443 1.7636840343475342 0.9576305150985718 70.0 15 -0.031136132776737213
-2.654344081878662 1.5109423398971558 -0.8183858394622803 27.0 0 -0.031115395948290825
-2.010507345199585 1.1449131965637207 0.040384870022535324 4.0 8 -0.031113091856241226
-2.6550045013427734 1.5125454664230347 -0.7054465413093567 43.0 1 -0.031110787764191628
-2.6306052207946777 1.4992533922195435 0.15868262946605682 2.0 9 -0.03110848367214203
-2.0707008838653564 1.1801486015319824 -0.46328428387641907 80.0 2 -0.03110617958009243
-3.1604857444763184 1.8019784688949585 0.3182927668094635 27.0 10 -0.03110387548804283
-2.1019461154937744 1.1989290714263916 -0.3832644820213318 4.0 3 -0.031101571395993233
-3.1620771884918213 1.8043476343154907 0.44701680541038513 66.0 11 -0.031099267303943634
-3.1133816242218018 1.7780028581619263 0.5678571462631226 67.0 12 -0.031094660982489586
-3.1246516704559326 1.7851611375808716 0.6995058059692383 59.0 13 -0.03109005279839039
-2.0201311111450195 1.1546000242233276 -0.12194279581308365 9.0 6 -0.03108774870634079
-3.1195411682128906 1.7836871147155762 0.8296195268630981 69.0 14 -0.03108544461429119
-1.9961551427841187 1.1418205499649048 -0.040140535682439804 3.0 7 -0.031083140522241592
-3.096919059753418 1.7721867561340332 0.9560776352882385 76.0 15 -0.031080836430191994
-2.6339735984802246 1.5115444660186768 -0.813727080821991 34.0 0 -0.031060099601745605
-2.016903877258301 1.15789794921875 0.040594298392534256 3.0 8 -0.031057795509696007
