# .PCD v0.7 - Point Cloud Data file format
VERSION 0.7
FIELDS x y z intensity ring time
SIZE 4 4 4 4 4 4
TYPE F F F F F F
COUNT 1 1 1 1 1 1
WIDTH 535
HEIGHT 1
VIEWPOINT 0 0 0 1 0 0 0
POINTS 535
DATA ascii
0.6395036578178406 0.0464010052382946 -0.0787276029586792 97.0 4 -0.08577722311019897
0.6560840010643005 0.04748925194144249 0.10418536514043808 80.0 12 -0.08577492088079453
0.6259729862213135 0.045199915766716 -0.05490811914205551 36.0 5 -0.08577261865139008
0.6892797350883484 0.04964987933635712 0.13432954251766205 38.0 13 -0.08577031642198563
0.6494320034980774 0.0466659739613533 -0.03412304446101189 27.0 6 -0.08576800674200058
0.7289074063301086 0.052248936146497726 0.1687133014202118 12.0 14 -0.08576570451259613
0.6442486047744751 0.046180494129657745 -0.011274254880845547 55.0 7 -0.08576340228319168
3.6207048892974854 0.2588995099067688 0.9726420044898987 120.0 15 -0.08576110005378723
3.1026670932769775 0.21750494837760925 -0.833397388458252 67.0 0 -0.08574036508798599
0.6323593258857727 0.04421881213784218 0.01106482557952404 91.0 8 -0.08573805540800095
3.1026508808135986 0.21641556918621063 -0.7180438041687012 76.0 1 -0.0857357531785965
0.6495283246040344 0.04530578479170799 0.03412304446101189 3.0 9 -0.08573345094919205
3.114046096801758 0.21666428446769714 -0.6067726016044617 76.0 2 -0.0857311487197876
0.655910849571228 0.045520614832639694 0.057522788643836975 100.0 10 -0.08572883903980255
0.6306114196777344 0.043654534965753555 -0.10011807084083557 98.0 3 -0.0857265368103981
0.6574850678443909 0.04539959132671356 0.0809212476015091 7.0 11 -0.08572423458099365
0.6535322666168213 0.0450117327272892 -0.08043377101421356 84.0 4 -0.0857219323515892
0.6621579527854919 0.045605823397636414 0.10512397438287735 82.0 12 -0.08571962267160416
0.624139130115509 0.042878154665231705 -0.05473380535840988 12.0 5 -0.08571732044219971
0.6757381558418274 0.046304501593112946 0.13165821135044098 36.0 13 -0.08571501821279526
0.6675244569778442 0.045624300837516785 -0.03506509214639664 61.0 6 -0.08571271598339081
0.729085385799408 0.04970405995845795 0.1687133014202118 17.0 14 -0.08571041375398636
0.6483960747718811 0.04420321434736252 -0.011344064027071 47.0 7 -0.08570810407400131
3.625441074371338 0.24652215838432312 0.9736772775650024 115.0 15 -0.08570580184459686
3.107262372970581 0.20692917704582214 -0.8344326615333557 67.0 0 -0.08568506687879562
0.6344977617263794 0.04225458949804306 0.011099730618298054 75.0 8 -0.08568276464939117
3.1072404384613037 0.20638304948806763 -0.7189435958862305 72.0 1 -0.08568045496940613
0.6536682844161987 0.04330209270119667 0.03433239087462425 3.0 9 -0.08567815274000168
3.118701696395874 0.20605094730854034 -0.6075358986854553 87.0 2 -0.08567585051059723
0.6580538749694824 0.04336192458868027 0.057697102427482605 100.0 10 -0.08567354828119278
0.636665940284729 0.04195258393883705 -0.10105667263269424 100.0 3 -0.08567123860120773
0.6774402260780334 0.044520631432533264 0.08335863798856735 6.0 11 -0.08566893637180328
0.6417928338050842 0.04206543043255806 -0.07897134125232697 88.0 4 -0.08566663414239883
0.6563995480537415 0.04290776327252388 0.10418536514043808 80.0 12 -0.08566433191299438
0.6302495002746582 0.04108792170882225 -0.055256739258766174 8.0 5 -0.08566202968358994
0.6758880019187927 0.04406323283910751 0.13165821135044098 36.0 13 -0.08565972000360489
0.6636859774589539 0.04315142333507538 -0.03485574945807457 100.0 6 -0.08565741777420044
0.713688850402832 0.046277426183223724 0.16511408984661102 21.0 14 -0.08565511554479599
0.6405643224716187 0.041423577815294266 -0.01120444480329752 34.0 7 -0.08565281331539154
3.633991003036499 0.2343636006116867 0.97574782371521 117.0 15 -0.0856505036354065
3.121427297592163 0.19747695326805115 -0.8380560874938965 32.0 0 -0.08562976866960526
0.6346414089202881 0.040039658546447754 0.011099730618298054 62.0 8 -0.0856274664402008
3.1196112632751465 0.19627034664154053 -0.7216430306434631 58.0 1 -0.08562516421079636
0.6498287916183472 0.04076980799436569 0.03412304446101189 6.0 9 -0.08562285453081131
3.117408514022827 0.19558404386043549 -0.6071542501449585 72.0 2 -0.08562055230140686
0.6502400040626526 0.04068198800086975 0.05699985474348068 87.0 10 -0.08561825007200241
0.6486378312110901 0.040468111634254456 -0.10293389111757278 97.0 3 -0.08561594784259796
0.6815540194511414 0.0424019955098629 0.08384611457586288 6.0 11 -0.08561364561319351
0.6340106725692749 0.03933337330818176 -0.0779963880777359 91.0 4 -0.08561133593320847
0.6486589312553406 0.0401281863451004 0.10293389111757278 80.0 12 -0.08560903370380402
0.6303823590278625 0.03899753466248512 -0.055256739258766174 8.0 5 -0.08560673147439957
0.6838757991790771 0.04218700900673866 0.13318468630313873 34.0 13 -0.08560442924499512
0.6498780846595764 0.039976220577955246 -0.03412304446101189 97.0 6 -0.08560211956501007
0.7060657143592834 0.04330848529934883 0.16331447660923004 20.0 14 -0.08559981733560562
0.6267331838607788 0.03833261504769325 -0.010960111394524574 13.0 7 -0.08559751510620117
3.638643264770508 0.2219131588935852 0.9767830967903137 120.0 15 -0.08559521287679672
0.6387696266174316 0.03806181997060776 0.01116954069584608 37.0 8 -0.08557216823101044
0.645979642868042 0.0382651649415493 0.03391370177268982 10.0 9 -0.08556756377220154
0.6503780484199524 0.038411807268857956 0.05699985474348068 94.0 10 -0.08556295186281204
0.6487751603126526 0.03820351883769035 -0.10293389111757278 100.0 3 -0.08556064963340759
0.6896246671676636 0.04048819839954376 0.08482106775045395 6.0 11 -0.08555834740400314
0.6420708298683167 0.0375838465988636 -0.07897134125232697 91.0 4 -0.0855560451745987
0.6507670879364014 0.03797892481088638 0.10324675589799881 82.0 12 -0.08555373549461365
0.6305146217346191 0.03679698705673218 -0.055256739258766174 8.0 5 -0.0855514332652092
0.6781390309333801 0.03945760801434517 0.13203983008861542 48.0 13 -0.08554913103580475
0.6500136852264404 0.03770730644464493 -0.03412304446101189 85.0 6 -0.0855468288064003
0.696485161781311 0.040281154215335846 0.1610649675130844 16.0 14 -0.08554451912641525
0.6228704452514648 0.0359145887196064 -0.010890301316976547 7.0 7 -0.0855422168970108
3.6239664554595947 0.2083226442337036 0.9726420044898987 117.0 15 -0.08553991466760635
0.6289157271385193 0.03527212515473366 0.010995016433298588 32.0 8 -0.08551687747240067
0.672033429145813 0.03745471313595772 0.035274438560009 40.0 9 -0.08551226556301117
0.6465295553207397 0.03592041879892349 0.05665123090147972 89.0 10 -0.08550766110420227
0.6390426754951477 0.03539258986711502 -0.10136953741312027 87.0 3 -0.08550535142421722
0.689761757850647 0.03808052837848663 0.08482106775045395 6.0 11 -0.08550304919481277
0.6501265168190002 0.035778529942035675 -0.07994629442691803 86.0 4 -0.08550074696540833
0.656812846660614 0.03603183850646019 0.10418536514043808 87.0 12 -0.08549844473600388
0.6425756216049194 0.03525080159306526 -0.05630260705947876 7.0 5 -0.08549613505601883
0.6841536164283752 0.037411630153656006 0.13318468630313873 58.0 13 -0.08549383282661438
0.6581186056137085 0.03587275370955467 -0.03454173356294632 100.0 6 -0.08549153059720993
0.7063508033752441 0.03837849944829941 0.16331447660923004 13.0 14 -0.08548922836780548
0.6249887943267822 0.033848121762275696 -0.010925207287073135 5.0 7 -0.08548691868782043
3.632388114929199 0.19608695805072784 0.974712610244751 117.0 15 -0.08548461645841599
1.4912474155426025 0.07867564260959625 -0.40013426542282104 0.0 0 -0.08546388149261475
0.6310319900512695 0.03318142145872116 0.011029920540750027 32.0 8 -0.0854615792632103
1.5257185697555542 0.07995953410863876 -0.35272327065467834 0.0 1 -0.08545927703380585
0.6601928472518921 0.034484025090932846 0.0346464067697525 55.0 9 -0.0854569673538208
1.462593913078308 0.07639605551958084 -0.2846870422363281 0.0 2 -0.08545466512441635
0.6526200771331787 0.03397395461797714 0.057174164801836014 60.0 10 -0.0854523628950119
0.6332442760467529 0.03285447880625725 -0.1004309356212616 94.0 3 -0.08545006066560745
0.6680836081504822 0.03454545512795448 0.08213994652032852 14.0 11 -0.0854477509856224
0.6462824940681458 0.03330475836992264 -0.0794588178396225 91.0 4 -0.08544544875621796
0.6569346189498901 0.03373873606324196 0.10418536514043808 82.0 12 -0.08544314652681351
0.6426947712898254 0.033007409423589706 -0.05630260705947876 7.0 5 -0.08544084429740906
0.6783979535102844 0.034722667187452316 0.13203983008861542 84.0 13 -0.08543853461742401
0.6502611041069031 0.03316843509674072 -0.03412304446101189 95.0 6 -0.08543623238801956
0.6986956596374512 0.03551672399044037 0.16151487827301025 11.0 14 -0.08543393015861511
0.6410802006721497 0.032475795596838 -0.01120444480329752 5.0 7 -0.08543162792921066
3.6330504417419434 0.18340712785720825 0.974712610244751 117.0 15 -0.08542932569980621
1.4413455724716187 0.0709981769323349 -0.3866756856441498 1.0 0 -0.08540858328342438
0.6331412196159363 0.031076369807124138 0.01106482557952404 39.0 8 -0.08540628105401993
1.4831671714782715 0.0725392997264862 -0.34282541275024414 1.0 1 -0.08540397882461548
0.6443500518798828 0.031401392072439194 0.033809032291173935 53.0 9 -0.08540167659521103
1.4746173620224 0.07186317443847656 -0.28697675466537476 0.0 2 -0.08539936691522598
0.6507446765899658 0.03159887343645096 0.05699985474348068 13.0 10 -0.08539706468582153
0.6412473320960999 0.031025834381580353 -0.10168241709470749 94.0 3 -0.08539476245641708
0.6543205976486206 0.03154390677809715 0.08043377101421356 43.0 11 -0.08539246022701263
0.6384636759757996 0.03066747635602951 -0.07848386466503143 93.0 4 -0.08539015054702759
0.6590215563774109 0.031539976596832275 0.1044982373714447 87.0 12 -0.08538784831762314
0.6587269902229309 0.031525880098342896 -0.057697102427482605 7.0 5 -0.08538554608821869
0.6745929718017578 0.03216720372438431 0.13127659261226654 84.0 13 -0.08538324385881424
0.6384028196334839 0.030329545959830284 -0.033495016396045685 97.0 6 -0.08538094162940979
0.685189425945282 0.032432783395051956 0.15836556255817413 11.0 14 -0.08537863194942474
0.6072326302528381 0.02863655984401703 -0.010611063800752163 5.0 7 -0.0853763297200203
3.6413872241973877 0.17108598351478577 0.9767830967903137 117.0 15 -0.08537402749061584
1.4724619388580322 0.06737905740737915 -0.39495787024497986 1.0 0 -0.0853532925248146
0.6412363648414612 0.029230788350105286 0.01120444480329752 43.0 8 -0.08535098284482956
1.4911983013153076 0.06771484762430191 -0.3446250259876251 1.0 1 -0.08534868061542511
0.6444557309150696 0.029151827096939087 0.033809032291173935 52.0 9 -0.08534637838602066
1.4630917310714722 0.06618266552686691 -0.2846870422363281 0.0 2 -0.08534407615661621
0.6349279880523682 0.02861011028289795 0.05560535937547684 7.0 10 -0.08534176647663116
0.6452985405921936 0.02896425686776638 -0.10230815410614014 91.0 3 -0.08533946424722672
0.6544266939163208 0.029259534552693367 0.08043377101421356 79.0 11 -0.08533716201782227
0.638566792011261 0.028439074754714966 -0.07848386466503143 91.0 4 -0.08533485978841782
0.6551807522773743 0.029064107686281204 0.10387250036001205 87.0 12 -0.08533255755901337
0.6309669613838196 0.02798997052013874 -0.055256739258766174 8.0 5 -0.08533024787902832
0.6747011542320251 0.029812058433890343 0.13127659261226654 88.0 13 -0.08532794564962387
0.6504768133163452 0.028628259897232056 -0.03412304446101189 92.0 6 -0.08532564342021942
0.6814047694206238 0.029869958758354187 0.15746575593948364 12.0 14 -0.08532334119081497
0.6273067593574524 0.027388837188482285 -0.010960111394524574 5.0 7 -0.08532103151082993
3.6419620513916016 0.15837661921977997 0.9767830967903137 120.0 15 -0.08531872928142548
1.4630376100540161 0.06183124706149101 -0.39236968755722046 1.0 0 -0.08529799431562424
0.6393365859985352 0.026908021420240402 0.01116954069584608 53.0 8 -0.08529569208621979
1.479743480682373 0.06201915815472603 -0.34192562103271484 1.0 1 -0.08529338240623474
0.6445488333702087 0.027014395222067833 0.033809032291173935 52.0 9 -0.08529108017683029
1.4750831127166748 0.06156665086746216 -0.28697675466537476 0.0 2 -0.08528877794742584
0.6589121222496033 0.027386315166950226 0.057697102427482605 6.0 10 -0.08528647571802139
0.647369384765625 0.02679308131337166 -0.10262101888656616 70.0 3 -0.08528417348861694
0.6545248627662659 0.02697511948645115 0.08043377101421356 100.0 11 -0.0852818638086319
0.6505627036094666 0.026698093861341476 -0.07994629442691803 67.0 4 -0.08527956157922745
0.653299868106842 0.026810424402356148 0.10355963557958603 95.0 12 -0.085277259349823
0.6529588103294373 0.026681970804929733 -0.057174164801836014 11.0 5 -0.08527495712041855
0.6904942393302917 0.028095407411456108 0.13432954251766205 85.0 13 -0.0852726474404335
0.6545640230178833 0.02651902474462986 -0.03433239087462425 100.0 6 -0.08527034521102905
0.6853991746902466 0.027648139744997025 0.15836556255817413 13.0 14 -0.0852680429816246
0.621399998664856 0.025066491216421127 -0.010855397209525108 5.0 7 -0.08526574075222015
3.6347463130950928 0.14598746597766876 0.974712610244751 117.0 15 -0.08526343107223511
1.4458708763122559 0.056050028651952744 -0.38771092891693115 0.0 0 -0.08524269610643387
0.6254349946975708 0.024245351552963257 0.010925207287073135 61.0 8 -0.08524039387702942
1.4916247129440308 0.05756370350718498 -0.3446250259876251 1.0 1 -0.08523809164762497
0.6486307978630066 0.024918120354413986 0.034018374979496 53.0 9 -0.08523578941822052
1.4556708335876465 0.05566665530204773 -0.28316056728363037 0.0 2 -0.08523347973823547
0.6510398387908936 0.024783095344901085 0.05699985474348068 6.0 10 -0.08523117750883102
0.6474546194076538 0.024646617472171783 -0.10262101888656616 87.0 3 -0.08522887527942657
0.662545382976532 0.025105280801653862 0.08140873163938522 100.0 11 -0.08522657305002213
0.654615044593811 0.024690061807632446 -0.08043377101421356 28.0 4 -0.08522426337003708
0.6553633809089661 0.024603748694062233 0.10387250036001205 100.0 12 -0.08522196114063263
0.6550390124320984 0.024477405473589897 -0.057348478585481644 22.0 5 -0.08521965891122818
0.672926664352417 0.02514582686126232 0.1308949738740921 96.0 13 -0.08521735668182373
0.6686195135116577 0.0248677097260952 -0.03506509214639664 100.0 6 -0.08521504700183868
0.6893818378448486 0.025519436225295067 0.15926535427570343 13.0 14 -0.08521274477243423
0.6254803538322449 0.023044930770993233 -0.010925207287073135 5.0 7 -0.08521044254302979
3.633303165435791 0.1332271695137024 0.9741949439048767 117.0 15 -0.08520814031362534
1.4576326608657837 0.05166592076420784 -0.3908167779445648 0.0 0 -0.0851874053478241
0.6255157589912415 0.022062459960579872 0.010925207287073135 68.0 8 -0.08518509566783905
1.5035017728805542 0.05276631563901901 -0.3473244309425354 1.0 1 -0.0851827934384346
0.6527059078216553 0.022793060168623924 0.03422771766781807 48.0 9 -0.08518049120903015
1.4872403144836426 0.05193572863936424 -0.289266437292099 0.0 2 -0.0851781889796257
0.6511183977127075 0.022624162957072258 0.05699985474348068 6.0 10 -0.08517587929964066
0.6416141390800476 0.02218150533735752 -0.10168241709470749 77.0 3 -0.0851735770702362
0.6626289486885071 0.022792236879467964 0.08140873163938522 100.0 11 -0.08517127484083176
0.6725525856018066 0.023016061633825302 -0.08262742310762405 8.0 4 -0.08516897261142731
0.6712391376495361 0.022853828966617584 0.10637544840574265 100.0 12 -0.08516666293144226
0.6571077704429626 0.022372694686055183 -0.057522788643836975 75.0 5 -0.08516436070203781
0.6631996631622314 0.02246422879397869 0.1289868950843811 86.0 13 -0.08516205847263336
0.6547293663024902 0.02206292562186718 -0.03433239087462425 97.0 6 -0.08515975624322891
0.6758332252502441 0.022655997425317764 0.1561160385608673 14.0 14 -0.08515744656324387
0.6175625920295715 0.02059468999505043 -0.010785587131977081 8.0 7 -0.08515514433383942
3.6376075744628906 0.12067090719938278 0.9752302169799805 117.0 15 -0.08515284210443497
1.4693893194198608 0.04694797843694687 -0.3939225971698761 0.0 0 -0.08513210713863373
0.6395797729492188 0.020323270931839943 0.01116954069584608 68.0 8 -0.08512980490922928
1.4803036451339722 0.046778783202171326 -0.34192562103271484 1.0 1 -0.08512749522924423
0.6507851481437683 0.020451953634619713 0.03412304446101189 45.0 9 -0.08512519299983978
1.4932993650436401 0.04692929610610008 -0.2904112935066223 1.0 2 -0.08512289077043533
0.6790733337402344 0.021222323179244995 0.05944021791219711 6.0 10 -0.08512058854103088
0.6436620354652405 0.020002905279397964 -0.10199528187513351 70.0 3 -0.08511827886104584
0.6507996320724487 0.020111339166760445 0.07994629442691803 100.0 11 -0.08511597663164139
0.6527873277664185 0.020058730617165565 -0.08019004017114639 7.0 4 -0.08511367440223694
0.6673659682273865 0.020389802753925323 0.1057497188448906 100.0 12 -0.08511137217283249
0.6671391725540161 0.020382873713970184 -0.05839434638619423 100.0 5 -0.08510906249284744
0.6770104765892029 0.020566526800394058 0.13165821135044098 80.0 13 -0.085106760263443
0.6448206901550293 0.019476011395454407 -0.033809032291173935 47.0 6 -0.08510445803403854
0.6622731685638428 0.01988714002072811 0.1529667228460312 18.0 14 -0.0851021558046341
0.6656019687652588 0.019871151074767113 -0.011623302474617958 17.0 7 -0.08509985357522964
3.645730495452881 0.10820429027080536 0.977300763130188 117.0 15 -0.0850975438952446
1.4618200063705444 0.0415983721613884 -0.3918520510196686 0.0 0 -0.08507680892944336
0.6496412754058838 0.018373088911175728 0.011344064027071 65.0 8 -0.08507450670003891
1.499937653541565 0.04215981811285019 -0.3464246392250061 0.0 1 -0.08507220447063446
0.6468596458435059 0.018068457022309303 0.03391370177268982 43.0 9 -0.08506989479064941
3.1439075469970703 0.08781744539737701 -0.6113520860671997 1.0 2 -0.08506759256124496
0.6671934723854065 0.01851990446448326 0.05839434638619423 6.0 10 -0.08506529033184052
0.6516265273094177 0.017973987385630608 -0.10324675589799881 70.0 3 -0.08506298810243607
0.6667406558990479 0.01827443391084671 0.08189620822668076 100.0 11 -0.08506067842245102
0.6568220853805542 0.017887864261865616 -0.08067751675844193 5.0 4 -0.08505837619304657
0.6674330830574036 0.01806027628481388 0.1057497188448906 100.0 12 -0.08505607396364212
0.6512729525566101 0.017622996121644974 -0.05699985474348068 100.0 5 -0.08505377173423767
0.681003212928772 0.01830853708088398 0.13242144882678986 76.0 13 -0.08505146950483322
0.6329053640365601 0.016904907301068306 -0.033180996775627136 7.0 6 -0.08504915982484818
0.654546320438385 0.017368625849485397 0.1511671245098114 18.0 14 -0.08504685759544373
0.659670352935791 0.017389385029673576 -0.011518588289618492 47.0 7 -0.08504455536603928
3.6499485969543457 0.09557783603668213 0.9783360362052917 113.0 15 -0.08504225313663483
1.4696812629699707 0.036688562482595444 -0.3939225971698761 0.0 0 -0.08502151072025299
0.6477023363113403 0.016055885702371597 0.011309158988296986 71.0 8 -0.08501920849084854
3.14041805267334 0.07729938626289368 -0.7252422571182251 2.0 1 -0.08501690626144409
0.6549054384231567 0.01600540243089199 0.03433239087462425 46.0 9 -0.08501460403203964
3.152045249938965 0.0770336464047432 -0.6128785014152527 1.0 2 -0.08501230180263519
0.6632704138755798 0.016094328835606575 0.05804572254419327 6.0 10 -0.08500999212265015
0.6516852974891663 0.015699412673711777 -0.10324675589799881 70.0 3 -0.0850076898932457
0.6747384667396545 0.01613662950694561 0.08287115395069122 100.0 11 -0.08500538766384125
0.6806948781013489 0.01616053842008114 -0.08360237628221512 7.0 4 -0.0850030854344368
0.6516934037208557 0.015358210541307926 0.10324675589799881 100.0 12 -0.08500077575445175
0.6433631777763367 0.015161894261837006 -0.05630260705947876 100.0 5 -0.0849984735250473
0.6849883794784546 0.016022922471165657 0.13318468630313873 81.0 13 -0.08499617129564285
0.6409474015235901 0.01488112099468708 -0.03359968587756157 7.0 6 -0.0849938690662384
0.6662923097610474 0.015353217720985413 0.15386652946472168 18.0 14 -0.08499155938625336
0.669722855091095 0.01531500555574894 -0.011693112552165985 92.0 7 -0.08498925715684891
3.6425344944000244 0.08266199380159378 0.9762654304504395 120.0 15 -0.08498695492744446
1.469800353050232 0.031557805836200714 -0.3939225971698761 0.0 0 -0.08496621996164322
0.639757513999939 0.013624408282339573 0.01116954069584608 56.0 8 -0.08496391773223877
3.1406688690185547 0.0663374662399292 -0.7252422571182251 2.0 1 -0.08496160805225372
0.6589509844779968 0.013803049921989441 0.03454173356294632 41.0 9 -0.08495930582284927
0.6771742105484009 0.014184773899614811 -0.13165821135044098 3.0 2 -0.08495700359344482
0.6473869681358337 0.013447785750031471 0.05665123090147972 6.0 10 -0.08495470136404037
0.6398863196372986 0.013180562295019627 -0.10136953741312027 73.0 3 -0.08495239168405533
0.6628826260566711 0.013538193888962269 0.08140873163938522 100.0 11 -0.08495008945465088
0.6767777800559998 0.013703816570341587 -0.08311489969491959 8.0 4 -0.08494778722524643
0.6695178747177124 0.013439920730888844 0.10606258362531662 100.0 12 -0.08494548499584198
0.6653240919113159 0.013355734758079052 -0.0582200363278389 100.0 5 -0.08494317531585693
0.6830772757530212 0.013592852279543877 0.1328030675649643 69.0 13 -0.08494087308645248
0.6469860672950745 0.01276170089840889 -0.03391370177268982 5.0 6 -0.08493857085704803
0.681928813457489 0.013331881724298 0.15746575593948364 18.0 14 -0.08493626862764359
0.6717716455459595 0.01301602367311716 -0.011728017590939999 99.0 7 -0.08493395894765854
3.6389379501342773 0.06987152993679047 0.9752302169799805 117.0 15 -0.08493165671825409
1.45444917678833 0.02614954113960266 -0.38978150486946106 0.0 0 -0.08491092175245285
0.6378017663955688 0.011355691589415073 0.011134634725749493 18.0 8 -0.0849086195230484
1.492503046989441 0.02631259709596634 -0.3446250259876251 1.0 1 -0.08490631729364395
0.66298907995224 0.01157265156507492 0.034751079976558685 28.0 9 -0.0849040076136589
0.6968491673469543 0.01216368842869997 -0.13547439873218536 3.0 2 -0.08490170538425446
0.6673508882522583 0.011532286182045937 0.05839434638619423 19.0 10 -0.08489940315485
0.6419035792350769 0.01098047848790884 -0.10168241709470749 77.0 3 -0.08489710092544556
0.6470473408699036 0.010955511592328548 0.0794588178396225 100.0 11 -0.08489479124546051
0.6688822507858276 0.01120844203978777 -0.08213994652032852 8.0 4 -0.08489248901605606
0.6636353731155396 0.011004669591784477 0.10512397438287735 100.0 12 -0.08489018678665161
0.6474376320838928 0.0107360715046525 -0.05665123090147972 100.0 5 -0.08488788455724716
0.6674166321754456 0.010950860567390919 0.1297501176595688 74.0 13 -0.08488557487726212
0.6470267176628113 0.010503355413675308 -0.03391370177268982 5.0 6 -0.08488327264785767
0.6761256456375122 0.010857697576284409 0.1561160385608673 14.0 14 -0.08488097041845322
0.6558173894882202 0.010417088866233826 -0.011448778212070465 95.0 7 -0.08487866818904877
3.646886110305786 0.0572892464697361 0.977300763130188 117.0 15 -0.08487635850906372
1.4390785694122314 0.02084883488714695 -0.385640412569046 0.0 0 -0.08485562354326248
0.6498344540596008 0.009300816804170609 0.011344064027071 9.0 8 -0.08485332131385803
1.4847917556762695 0.020992036908864975 -0.34282541275024414 1.0 1 -0.08485101908445358
0.6610267758369446 0.009345619939267635 0.0346464067697525 33.0 9 -0.08484871685504913
0.68510901927948 0.009566831402480602 -0.13318468630313873 3.0 2 -0.08484640717506409
0.6733636856079102 0.00928495917469263 0.05891728401184082 51.0 10 -0.08484410494565964
0.647863507270813 0.008820252493023872 -0.10262101888656616 67.0 3 -0.08484180271625519
0.6510515213012695 0.00875032041221857 0.07994629442691803 100.0 11 -0.08483950048685074
0.6689157485961914 0.008990420959889889 -0.08213994652032852 7.0 4 -0.08483719080686569
0.6676186919212341 0.008856134489178658 0.1057497188448906 97.0 12 -0.08483488857746124
0.6514555811882019 0.008528013713657856 -0.05699985474348068 100.0 5 -0.0848325863480568
0.6733401417732239 0.008697286248207092 0.1308949738740921 72.0 13 -0.08483028411865234
0.6410681009292603 0.008168235421180725 -0.03359968587756157 5.0 6 -0.0848279744386673
3.669180154800415 0.0467512384057045 0.8471657633781433 18.0 14 -0.08482567220926285
0.6638464331626892 0.008342593908309937 -0.01158839836716652 100.0 7 -0.0848233699798584
3.6509194374084473 0.04524577409029007 0.9783360362052917 115.0 15 -0.08482106775045395
1.396641731262207 0.01560143381357193 -0.3742523491382599 0.0 0 -0.08480033278465271
0.6738566756248474 0.007409817073494196 0.011762921698391438 8.0 8 -0.08479802310466766
1.4653668403625488 0.015857599675655365 -0.3383263945579529 1.0 1 -0.08479572087526321
0.65306556224823 0.007067207712680101 0.03422771766781807 43.0 9 -0.08479341864585876
1.2269644737243652 0.013063548132777214 -0.23851124942302704 24.0 2 -0.08479111641645432
0.6733907461166382 0.007052089087665081 0.05891728401184082 95.0 10 -0.08478880673646927
0.6498645544052124 0.006692281924188137 -0.10293389111757278 67.0 3 -0.08478650450706482
0.668941855430603 0.006771982181817293 0.08213994652032852 100.0 11 -0.08478420227766037
0.668941855430603 0.006771982181817293 -0.08213994652032852 12.0 4 -0.08478190004825592
0.669619619846344 0.0066619678400456905 0.10606258362531662 100.0 12 -0.08477959036827087
0.6514802575111389 0.006367792375385761 -0.05699985474348068 100.0 5 -0.08477728813886642
0.6655126214027405 0.006388791836798191 0.12936849892139435 61.0 13 -0.08477498590946198
0.6390945315361023 0.006023636553436518 -0.033495016396045685 5.0 6 -0.08477268368005753
3.663469076156616 0.034529171884059906 0.8458160161972046 13.0 14 -0.08477038145065308
0.6558720469474792 0.006066982634365559 -0.011448778212070465 100.0 7 -0.08476807177066803
3.6549129486083984 0.033172693103551865 0.9793713092803955 117.0 15 -0.08476576954126358
1.327141284942627 0.010423962958157063 -0.35561737418174744 3.0 0 -0.08474503457546234
0.6658788919448853 0.005113576073199511 0.011623302474617958 9.0 8 -0.08474273234605789
1.4537192583084106 0.010910719633102417 -0.3356269896030426 2.0 1 -0.08474042266607285
0.6510889530181885 0.004773036576807499 0.03412304446101189 46.0 9 -0.0847381204366684
1.1661417484283447 0.008548812009394169 -0.22668109834194183 72.0 2 -0.08473581820726395
0.6694257259368896 0.004790305159986019 0.05856866016983986 100.0 10 -0.0847335159778595
0.6637104749679565 0.004633569624274969 -0.10512397438287735 74.0 3 -0.08473120629787445
0.6689606308937073 0.004553787410259247 0.08213994652032852 56.0 11 -0.08472890406847
0.6749165654182434 0.004476215690374374 -0.08287115395069122 15.0 4 -0.08472660183906555
0.6597620844841003 0.0042605591006577015 0.1044982373714447 89.0 12 -0.0847242996096611
0.6475130915641785 0.004181458614766598 -0.05665123090147972 100.0 5 -0.08472199738025665
0.6792725920677185 0.004268323536962271 0.13203983008861542 52.0 13 -0.0847196877002716
0.6431055068969727 0.003928514197468758 -0.03370435908436775 5.0 6 -0.08471738547086716
0.6917906403541565 0.004105177707970142 0.15971526503562927 22.0 14 -0.08471508324146271
0.6518899202346802 0.003754938952624798 -0.011378969065845013 100.0 7 -0.08471278101205826
3.6511428356170654 0.020391913130879402 0.9783360362052917 117.0 15 -0.08471047133207321
1.2363733053207397 0.0053947786800563335 -0.3312883973121643 15.0 0 -0.08468973636627197
0.6498953104019165 0.002722633071243763 0.011344064027071 9.0 8 -0.08468743413686752
1.30564546585083 0.005241302773356438 -0.3014344274997711 4.0 1 -0.08468513190746307
0.6630851626396179 0.0025461234617978334 0.034751079976558685 46.0 9 -0.08468282967805862
1.232914686203003 0.0047341627068817616 -0.23965610563755035 55.0 2 -0.08468051999807358
0.6534993648529053 0.0023955756332725286 0.057174164801836014 100.0 10 -0.08467821776866913
0.663722574710846 0.0023168991319835186 -0.10512397438287735 94.0 3 -0.08467591553926468
0.6709575653076172 0.002225056290626526 0.08238368481397629 42.0 11 -0.08467361330986023
0.6630175709724426 0.0020833287853747606 -0.08140873163938522 36.0 4 -0.08467130362987518
0.6558221578598022 0.0019459499744698405 0.10387250036001205 53.0 12 -0.08466900140047073
0.6395542025566101 0.001897679641842842 -0.0559539832174778 100.0 5 -0.08466669917106628
0.6675038933753967 0.001864116289652884 0.1297501176595688 49.0 13 -0.08466439694166183
0.6391207575798035 0.0016730052884668112 -0.033495016396045685 5.0 6 -0.08466208726167679
0.6937494277954102 0.0016952604055404663 0.16016516089439392 31.0 14 -0.08465978503227234
0.6578981876373291 0.0014928348828107119 -0.011483684182167053 97.0 7 -0.08465748280286789
3.6511917114257812 0.0076459492556750774 0.9783360362052917 115.0 15 -0.08465518057346344
1.2441120147705078 0.0010860030306503177 -0.3333589434623718 29.0 0 -0.0846344456076622
0.6578996777534485 0.00045947168837301433 0.011483684182167053 9.0 8 -0.08463213592767715
1.239398717880249 0.0006486918427981436 -0.28613775968551636 19.0 1 -0.0846298336982727
0.6690817475318909 0.00023374157899525017 0.03506509214639664 52.0 9 -0.08462753146886826
1.1642098426818848 0.0004067129921168089 -0.2262994945049286 33.0 2 -0.0846252292394638
0.6554961800575256 0.00011459672532510012 0.057348478585481644 86.0 10 -0.08462291955947876
0.6439728140830994 -0.0 -0.10199528187513351 94.0 3 -0.08462061733007431
0.6769164800643921 -0.00011814421304734424 0.08311489969491959 20.0 11 -0.08461831510066986
0.6749313473701477 -0.0002355954929953441 -0.08287115395069122 64.0 4 -0.08461601287126541
0.6696527004241943 -0.00035062935785390437 0.10606258362531662 51.0 12 -0.08461370319128036
0.6475265622138977 -0.00033904414158314466 -0.05665123090147972 100.0 5 -0.08461140096187592
0.6557267904281616 -0.0004577837244141847 0.12746042013168335 51.0 13 -0.08460909873247147
0.6491090059280396 -0.0005664545460604131 -0.034018374979496 12.0 6 -0.08460679650306702
0.691802442073822 -0.0007244540029205382 0.15971526503562927 37.0 14 -0.08460448682308197
0.6598989963531494 -0.0008062191773205996 -0.011518588289618492 100.0 7 -0.08460218459367752
3.655059814453125 -0.005103429313749075 0.9793713092803955 115.0 15 -0.08459988236427307
1.2344491481781006 -0.003231787122786045 -0.3307707607746124 50.0 0 -0.08457914739847183
0.6578972935676575 -0.0018372004851698875 0.011483684182167053 9.0 8 -0.08457684516906738
1.22185480594635 -0.0036253267899155617 -0.28208863735198975 45.0 1 -0.08457453548908234
0.6531005501747131 -0.002051782561466098 0.03422771766781807 47.0 9 -0.08457223325967789
1.0503358840942383 -0.0032997385133057833 -0.20416563749313354 65.0 2 -0.08456993103027344
0.6794010996818542 -0.0022529878187924623 0.05944021791219711 100.0 10 -0.08456762880086899
0.6518704295158386 -0.002275465987622738 -0.10324675589799881 100.0 3 -0.08456531912088394
0.668971598148346 -0.002451920183375478 0.08213994652032852 21.0 11 -0.08456301689147949
0.6411800384521484 -0.0024619668256491423 -0.0787276029586792 80.0 4 -0.08456071466207504
0.6716226935386658 -0.0026960805989801884 0.10637544840574265 57.0 12 -0.0845584124326706
0.6515061259269714 -0.002615327015519142 -0.05699985474348068 71.0 5 -0.08455610275268555
0.6733903884887695 -0.002820707391947508 0.1308949738740921 48.0 13 -0.0845538005232811
0.6670781970024109 -0.002910696202889085 -0.03496042266488075 26.0 6 -0.08455149829387665
0.6742571592330933 -0.0030597029253840446 0.15566614270210266 30.0 14 -0.0845491960644722
0.6638915538787842 -0.0031285383738577366 -0.01158839836716652 95.0 7 -0.08454689383506775
3.6588833332061768 -0.017880819737911224 0.9804065823554993 115.0 15 -0.0845445841550827
1.2382938861846924 -0.007564400788396597 -0.3318060338497162 71.0 0 -0.08501267433166504
0.6698847413063049 -0.004209065344184637 0.011693112552165985 9.0 8 -0.08501037210226059
1.221834659576416 -0.007890373468399048 -0.28208863735198975 62.0 1 -0.08500806987285614
0.6530901193618774 -0.0042175306007266045 0.03422771766781807 52.0 9 -0.0850057601928711
1.1052879095077515 -0.00733065465465188 -0.21485093235969543 70.0 2 -0.08500345796346664
0.6714196801185608 -0.004570279270410538 0.05874297022819519 70.0 10 -0.0850011557340622
0.6518584489822388 -0.004550904035568237 -0.10324675589799881 94.0 3 -0.08499885350465775
0.6927794814109802 -0.004957511089742184 0.08506480604410172 13.0 11 -0.0849965438246727
0.6471226811408997 -0.004743741825222969 -0.0794588178396225 67.0 4 -0.08499424159526825
0.6617334485054016 -0.004850846249610186 0.10481110215187073 53.0 12 -0.0849919393658638
0.6534854173660278 -0.004904444795101881 -0.057174164801836014 11.0 5 -0.08498963713645935
0.6733764410018921 -0.005171261262148619 0.1308949738740921 52.0 13 -0.0849873274564743
0.6810443997383118 -0.005349019542336464 -0.035693127661943436 61.0 6 -0.08498502522706985
0.6625503301620483 -0.005319408141076565 0.1529667228460312 18.0 14 -0.0849827229976654
0.6458808183670044 -0.005185574293136597 -0.011274254880845547 82.0 7 -0.08498042076826096
3.6665313243865967 -0.030077403411269188 0.9824771285057068 113.0 15 -0.08497811108827591
1.2189422845840454 -0.011701365932822227 -0.3266296684741974 81.0 0 -0.08495737612247467
0.6778655648231506 -0.006507242564111948 0.011832731775939465 14.0 8 -0.08495507389307022
1.2081612348556519 -0.011808755807578564 -0.27893930673599243 73.0 1 -0.08495277166366577
0.6570658087730408 -0.006536953616887331 0.034437064081430435 52.0 9 -0.08495046943426132
1.1386291980743408 -0.011526633985340595 -0.2213384509086609 60.0 2 -0.08494815975427628
0.6634305119514465 -0.006831878796219826 0.05804572254419327 91.0 10 -0.08494585752487183
0.6656666994094849 -0.006854906678199768 -0.10543683916330338 100.0 3 -0.08494355529546738
0.6967291831970215 -0.0072963968850672245 0.08555228263139725 13.0 11 -0.08494125306606293
0.6530584096908569 -0.006953055039048195 -0.08019004017114639 80.0 4 -0.08493894338607788
0.6518362164497375 -0.007053821813315153 0.10324675589799881 48.0 12 -0.08493664115667343
0.6454951167106628 -0.007097875699400902 -0.05647691711783409 11.0 5 -0.08493433892726898
0.6772818565368652 -0.00744740292429924 0.13165821135044098 48.0 13 -0.08493203669786453
0.6830199956893921 -0.007629724219441414 -0.03579779714345932 100.0 6 -0.08492972701787949
3.6789848804473877 -0.04173854738473892 0.8494152426719666 15.0 14 -0.08492742478847504
0.6418597102165222 -0.007394019048660994 -0.01120444480329752 63.0 7 -0.08492512255907059
3.658676862716675 -0.042785435914993286 0.9804065823554993 115.0 15 -0.08492282032966614
1.2015115022659302 -0.015518908388912678 -0.3219709098339081 78.0 0 -0.0849020853638649
0.6698405742645264 -0.00876869447529316 0.011693112552165985 27.0 8 -0.08489977568387985
1.2120097875595093 -0.01607765071094036 -0.2798391282558441 75.0 1 -0.0848974734544754
0.6710184812545776 -0.009018383920192719 0.03516976535320282 58.0 9 -0.08489517122507095
1.1484001874923706 -0.015434320084750652 -0.22324654459953308 63.0 2 -0.0848928689956665
0.6594198942184448 -0.008977611549198627 0.057697102427482605 79.0 10 -0.08489055931568146
0.6498371958732605 -0.008960588835179806 -0.10293389111757278 97.0 3 -0.08488825708627701
0.6847901344299316 -0.009562094695866108 0.08408986032009125 27.0 11 -0.08488595485687256
0.656999945640564 -0.009288736619055271 -0.08067751675844193 78.0 4 -0.08488365262746811
0.6676090359687805 -0.00955527275800705 0.1057497188448906 46.0 12 -0.08488134294748306
0.6374993920326233 -0.009124322794377804 -0.055779676884412766 11.0 5 -0.08487904071807861
0.6733256578445435 -0.009754634462296963 0.1308949738740921 48.0 13 -0.08487673848867416
0.6829891800880432 -0.010013861581683159 -0.03579779714345932 100.0 6 -0.08487443625926971
3.680765151977539 -0.054609254002571106 0.8498651385307312 39.0 14 -0.08487213402986526
0.6458288431167603 -0.009694510139524937 -0.011274254880845547 17.0 7 -0.08486982434988022
3.654642105102539 -0.055497679859399796 0.9793713092803955 115.0 15 -0.08486752212047577
1.201449990272522 -0.019712872803211212 -0.3219709098339081 78.0 0 -0.08484678715467453
0.6538105607032776 -0.010841582901775837 0.011413874104619026 54.0 8 -0.08484448492527008
1.196358561515808 -0.020047055557370186 -0.27623990178108215 74.0 1 -0.08484217524528503
0.6709829568862915 -0.011360621079802513 0.03516976535320282 54.0 9 -0.08483987301588058
1.1503021717071533 -0.01947612501680851 -0.22362814843654633 70.0 2 -0.08483757078647614
0.6633686423301697 -0.0113475127145648 0.05804572254419327 84.0 10 -0.08483526855707169
0.655727207660675 -0.011331278830766678 -0.10387250036001205 100.0 3 -0.08483295887708664
0.6609350442886353 -0.01153666339814663 0.08116498589515686 49.0 11 -0.08483065664768219
0.6649025678634644 -0.011722002178430557 -0.08165246248245239 75.0 4 -0.08482835441827774
0.6774469017982483 -0.012061425484716892 0.10731405764818192 44.0 12 -0.08482605218887329
0.6514081358909607 -0.011597825214266777 -0.05699985474348068 11.0 5 -0.08482374995946884
0.6615098118782043 -0.011893171817064285 0.12860526144504547 49.0 13 -0.0848214402794838
0.6649777293205261 -0.012071617878973484 -0.03485574945807457 100.0 6 -0.08481913805007935
3.6922426223754883 -0.06767145544290543 0.8525645732879639 73.0 14 -0.0848168358206749
0.6497898101806641 -0.01202279981225729 -0.011344064027071 7.0 7 -0.08481453359127045
3.6621525287628174 -0.06839872151613235 0.9814419150352478 115.0 15 -0.0848122239112854
1.2090998888015747 -0.024060336872935295 -0.3240414559841156 76.0 0 -0.08479148894548416
0.6537687182426453 -0.013123742304742336 0.011413874104619026 100.0 8 -0.08478918671607971
1.1884880065917969 -0.024065198376774788 -0.27444028854370117 80.0 1 -0.08478688448667526
0.6529675722122192 -0.013335681520402431 0.03422771766781807 30.0 9 -0.08478457480669022
1.1561158895492554 -0.02361157350242138 -0.22477301955223083 73.0 2 -0.08478227257728577
0.6752768158912659 -0.013909213244915009 0.05909159407019615 76.0 10 -0.08477997034788132
0.6537087559700012 -0.013579102233052254 -0.10355963557958603 97.0 3 -0.08477766811847687
0.6608906984329224 -0.013843686319887638 0.08116498589515686 64.0 11 -0.08477536588907242
0.6569191217422485 -0.013875197619199753 -0.08067751675844193 75.0 4 -0.08477305620908737
0.6793755888938904 -0.01446814276278019 0.10762692242860794 44.0 12 -0.08477075397968292
0.6553451418876648 -0.014070816338062286 -0.057348478585481644 11.0 5 -0.08476845175027847
0.657538652420044 -0.014117913320660591 0.1278420239686966 42.0 13 -0.08476614952087402
0.6709219217300415 -0.014522415585815907 -0.03516976535320282 100.0 6 -0.08476383984088898
3.6763975620269775 -0.08021928369998932 0.8489653468132019 76.0 14 -0.08476153761148453
0.6357493996620178 -0.013983113691210747 -0.011099730618298054 5.0 7 -0.08475923538208008
3.669616460800171 -0.08135287463665009 0.9835124015808105 115.0 15 -0.08475693315267563
1.207072138786316 -0.02844623103737831 -0.3235238194465637 69.0 0 -0.08473619073629379
0.657717227935791 -0.015499966219067574 0.011483684182167053 100.0 8 -0.08473388850688934
1.188396692276001 -0.02821364998817444 -0.27444028854370117 84.0 1 -0.0847315862774849
0.6569104790687561 -0.015710387378931046 0.034437064081430435 8.0 9 -0.08472928404808044
1.140320062637329 -0.02747054025530815 -0.22172006964683533 76.0 2 -0.084726981818676
0.6732295155525208 -0.016335804015398026 0.05891728401184082 57.0 10 -0.08472467213869095
0.6595789194107056 -0.016119761392474174 -0.1044982373714447 100.0 3 -0.0847223699092865
0.6687764525413513 -0.016344543546438217 0.08213994652032852 77.0 11 -0.08472006767988205
0.6528976559638977 -0.016070494428277016 -0.08019004017114639 75.0 4 -0.0847177654504776
0.6832705140113831 -0.01693742163479328 0.10825265944004059 52.0 12 -0.08471545577049255
0.6473249793052673 -0.016159426420927048 -0.05665123090147972 11.0 5 -0.0847131535410881
0.6692583560943604 -0.016823839396238327 0.13013173639774323 33.0 13 -0.08471085131168365
0.6708642244338989 -0.016981370747089386 -0.03516976535320282 100.0 6 -0.0847085490822792
3.6760787963867188 -0.09369341284036636 0.8489653468132019 100.0 14 -0.08470623940229416
0.6336976289749146 -0.01615125685930252 -0.01106482557952404 7.0 7 -0.08470393717288971
3.6693103313446045 -0.09416172653436661 0.9835124015808105 115.0 15 -0.08470163494348526
1.191516399383545 -0.03224148601293564 -0.3193827271461487 64.0 0 -0.08468089997768402
0.645662248134613 -0.017583878710865974 0.011274254880845547 100.0 8 -0.08467859774827957
1.2019214630126953 -0.03294289857149124 -0.2775896191596985 83.0 1 -0.08467628806829453
0.6588481068611145 -0.018058057874441147 0.03454173356294632 7.0 9 -0.08467398583889008
1.1323671340942383 -0.03123430162668228 -0.22019359469413757 76.0 2 -0.08467168360948563
0.6671934723854065 -0.018519863486289978 0.05839434638619423 91.0 10 -0.08466938138008118
0.661493182182312 -0.018477177247405052 -0.10481110215187073 87.0 3 -0.08466707170009613
0.6746649742126465 -0.01896294392645359 0.08287115395069122 100.0 11 -0.08466476947069168
0.6508500576019287 -0.01840725727379322 -0.07994629442691803 69.0 4 -0.08466246724128723
0.671359658241272 -0.01898730732500553 0.10637544840574265 63.0 12 -0.08466016501188278
0.6412898898124695 -0.018248893320560455 -0.05612830072641373 11.0 5 -0.08465785533189774
0.6593832969665527 -0.01887894794344902 0.12822365760803223 24.0 13 -0.08465555310249329
0.6727972626686096 -0.01938052661716938 -0.035274438560009 100.0 6 -0.08465325087308884
3.677677631378174 -0.10658121109008789 0.8494152426719666 91.0 14 -0.08465094864368439
0.6436317563056946 -0.018652819097042084 -0.011239349842071533 5.0 7 -0.08464863896369934
3.668959140777588 -0.1069694310426712 0.9835124015808105 115.0 15 -0.08464633673429489
1.179810881614685 -0.036046482622623444 -0.316276878118515 67.0 0 -0.08462560176849365
0.6475991010665894 -0.019785942509770393 0.011309158988296986 100.0 8 -0.0846232995390892
1.1940141916275024 -0.03668902441859245 -0.2757900059223175 83.0 1 -0.08462099730968475
0.6747515201568604 -0.02085127867758274 0.035379111766815186 7.0 9 -0.08461868762969971
1.1263641119003296 -0.03500385954976082 -0.21904872357845306 83.0 2 -0.08461638540029526
0.6631419062614441 -0.0207242202013731 0.05804572254419327 91.0 10 -0.08461408317089081
0.6337865591049194 -0.019806819036602974 -0.1004309356212616 63.0 3 -0.08461178094148636
0.6686460375785828 -0.0210130475461483 0.08213994652032852 100.0 11 -0.08460947126150131
0.6567378044128418 -0.02075355313718319 -0.08067751675844193 58.0 4 -0.08460716903209686
0.6673405766487122 -0.021205199882388115 0.1057497188448906 51.0 12 -0.08460486680269241
0.6312653422355652 -0.020169172435998917 -0.055256739258766174 12.0 5 -0.08460256457328796
3.6831490993499756 -0.11767804622650146 0.7162970304489136 11.0 13 -0.08460025489330292
0.6747255325317383 -0.021675623953342438 -0.035379111766815186 100.0 6 -0.08459795266389847
3.681199312210083 -0.1189020499587059 0.8503150343894958 91.0 14 -0.08459565043449402
0.6335694193840027 -0.020574871450662613 -0.01106482557952404 5.0 7 -0.08459334820508957
3.6685633659362793 -0.11977584660053253 0.9835124015808105 115.0 15 -0.08459104597568512
1.1816157102584839 -0.04002407565712929 -0.3167945444583893 76.0 0 -0.08457030355930328
0.6415305137634277 -0.0218422319740057 0.01120444480329752 100.0 8 -0.08456800132989883
1.1860884428024292 -0.040590085089206696 -0.2739903926849365 87.0 1 -0.08456569910049438
0.6626981496810913 -0.02279452420771122 0.034751079976558685 7.0 9 -0.08456339687108994
1.12624192237854 -0.03873882442712784 -0.21904872357845306 76.0 2 -0.08456108719110489
0.6750167608261108 -0.023336194455623627 0.05909159407019615 100.0 10 -0.08455878496170044
0.6277909874916077 -0.02181324176490307 -0.09949233382940292 24.0 3 -0.08455648273229599
0.658649206161499 -0.023000534623861313 0.0809212476015091 100.0 11 -0.08455418050289154
0.6705484390258789 -0.02353324554860592 -0.08238368481397629 38.0 4 -0.0845518708229065
3.671917676925659 -0.12950952351093292 0.5819362998008728 28.0 12 -0.08454956859350204
0.667035698890686 -0.023526528850197792 -0.05839434638619423 14.0 5 -0.0845472663640976
3.6611335277557373 -0.12976892292499542 0.7120991945266724 22.0 13 -0.08454496413469315
0.6606738567352295 -0.02353304997086525 -0.0346464067697525 100.0 6 -0.0845426619052887
3.688551664352417 -0.1320299506187439 0.8521146178245544 91.0 14 -0.08454035222530365
0.6434858441352844 -0.023145725950598717 -0.011239349842071533 5.0 7 -0.0845380499958992
3.6681230068206787 -0.13258078694343567 0.9835124015808105 113.0 15 -0.08453574776649475
1.1853296756744385 -0.044292714446783066 -0.31782978773117065 85.0 0 -0.08451501280069351
0.6434487104415894 -0.024156479164958 0.011239349842071533 100.0 8 -0.08451270312070847
1.1820448637008667 -0.044583164155483246 -0.2730906009674072 90.0 1 -0.08451040089130402
0.6546311974525452 -0.024805130437016487 0.03433239087462425 6.0 9 -0.08450809866189957
1.112367033958435 -0.04214954376220703 -0.2163774073123932 58.0 2 -0.08450579643249512
0.6709492802619934 -0.025540724396705627 0.05874297022819519 95.0 10 -0.08450348675251007
0.6454764604568481 -0.024683881551027298 -0.10230815410614014 13.0 3 -0.08450118452310562
0.6585648655891418 -0.02529950998723507 0.0809212476015091 100.0 11 -0.08449888229370117
0.6565768718719482 -0.025337906554341316 -0.08067751675844193 43.0 4 -0.08449658006429672
3.671443462371826 -0.14232611656188965 0.5819362998008728 43.0 12 -0.08449427783489227
0.6749131083488464 -0.026163486763834953 -0.05909159407019615 25.0 5 -0.08449196815490723
3.660658121109009 -0.1425478756427765 0.7120991945266724 35.0 13 -0.08448966592550278
0.6645790934562683 -0.02599521353840828 -0.03485574945807457 100.0 6 -0.08448736369609833
3.6822264194488525 -0.14467507600784302 0.8507649302482605 94.0 14 -0.08448506146669388
0.6693769097328186 -0.026416899636387825 -0.011693112552165985 7.0 7 -0.08448275178670883
3.675359010696411 -0.1456901878118515 0.9855829477310181 113.0 15 -0.08448044955730438
1.1870980262756348 -0.0485088974237442 -0.31834742426872253 92.0 0 -0.08445971459150314
0.6553484797477722 -0.026894357055425644 0.011448778212070465 100.0 8 -0.0844574123620987
1.1896703243255615 -0.04902997612953186 -0.2748901844024658 87.0 1 -0.08445510268211365
0.666513979434967 -0.027585620060563087 0.03496042266488075 6.0 9 -0.0844528004527092
1.0827895402908325 -0.04481439292430878 -0.210653156042099 55.0 2 -0.08445049822330475
0.668865442276001 -0.027799881994724274 0.05856866016983986 100.0 10 -0.0844481959939003
0.6473599672317505 -0.027019238099455833 -0.10262101888656616 6.0 3 -0.08444589376449585
0.6584725379943848 -0.027598174288868904 0.0809212476015091 100.0 11 -0.0844435840845108
0.658467710018158 -0.027713099494576454 -0.0809212476015091 69.0 4 -0.08444128185510635
3.6669766902923584 -0.15497413277626038 0.581310510635376 48.0 12 -0.0844389796257019
0.6588879227638245 -0.027961192652583122 -0.057697102427482605 67.0 5 -0.08443667739629745
3.671907424926758 -0.15582454204559326 0.714388906955719 63.0 13 -0.08443436771631241
0.6644842624664307 -0.028314869850873947 -0.03485574945807457 100.0 6 -0.08443206548690796
3.671964406967163 -0.1571110337972641 0.8485153913497925 91.0 14 -0.08442976325750351
0.6512999534606934 -0.027980823069810867 -0.011378969065845013 7.0 7 -0.08442746102809906
3.686408758163452 -0.15901824831962585 0.9886887669563293 113.0 15 -0.08442515134811401
1.177262544631958 -0.052429743111133575 -0.31575924158096313 90.0 0 -0.08440441638231277
0.6552506685256958 -0.02918178401887417 0.011448778212070465 100.0 8 -0.08440211415290833
1.1933856010437012 -0.05335649102926254 -0.2757900059223175 83.0 1 -0.08439981192350388
0.6664136052131653 -0.02991202101111412 0.03496042266488075 6.0 9 -0.08439750969409943
0.9531745314598083 -0.04295000061392784 -0.18546634912490845 58.0 2 -0.08439520001411438
