# .PCD v0.7 - Point Cloud Data file format
VERSION 0.7
FIELDS x y z intensity ring time
SIZE 4 4 4 4 4 4
TYPE F F F F F F
COUNT 1 1 1 1 1 1
WIDTH 544
HEIGHT 1
VIEWPOINT 0 0 0 1 0 0 0
POINTS 544
DATA ascii
0.890878438949585 -2.1732664108276367 0.12309417873620987 9.0 9 -0.05314268916845322
0.764757513999939 -1.8655989170074463 -0.3919216990470886 7.0 2 -0.05314038321375847
0.8989033102989197 -2.1939339637756348 0.2074306607246399 8.0 10 -0.05313808098435402
0.914055347442627 -2.232024669647217 -0.3820130228996277 100.0 3 -0.05313577502965927
0.88582444190979 -2.164165496826172 0.2871242165565491 7.0 11 -0.05313347280025482
0.9155128002166748 -2.237811326980591 -0.2968737483024597 99.0 4 -0.053131166845560074
0.8912040591239929 -2.179478645324707 0.372939795255661 7.0 12 -0.053128864616155624
0.8747485280036926 -2.1392359733581543 -0.20220132172107697 67.0 5 -0.053126558661460876
0.887585461139679 -2.17171049118042 0.45603352785110474 6.0 13 -0.05312425643205643
0.8844463229179382 -2.1651086807250977 -0.12257081270217896 19.0 6 -0.05312195047736168
0.8869005441665649 -2.1722002029418945 0.5416821837425232 7.0 14 -0.05311964824795723
0.8847684860229492 -2.1680586338043213 -0.040873534977436066 28.0 7 -0.05311734229326248
0.8886775374412537 -2.1787242889404297 0.6304832100868225 8.0 15 -0.05311504006385803
0.513568639755249 -1.2635014057159424 -0.36545249819755554 13.0 0 -0.05309430509805679
0.8791038990020752 -2.1638879776000977 0.0407688245177269 12.0 8 -0.053091999143362045
0.6107250452041626 -1.5040345191955566 -0.3747684955596924 7.0 1 -0.053089696913957596
0.8817848563194275 -2.172661542892456 0.1228848323225975 9.0 9 -0.05308739095926285
0.7523343563079834 -1.8537038564682007 -0.3888687491416931 6.0 2 -0.0530850887298584
0.888244092464447 -2.18967342376709 0.20673342049121857 8.0 10 -0.05308278277516365
0.9047738313674927 -2.2315406799316406 -0.38138729333877563 100.0 3 -0.0530804805457592
0.8760281205177307 -2.161724805831909 0.2863929867744446 7.0 11 -0.05307817459106445
0.9076957702636719 -2.2409932613372803 -0.2968737483024597 100.0 4 -0.053075872361660004
0.8821085095405579 -2.1789143085479736 0.37231406569480896 7.0 12 -0.053073566406965256
0.8650330305099487 -2.136735677719116 -0.20167838037014008 68.0 5 -0.053071264177560806
0.888099730014801 -2.194814443588257 0.46023133397102356 6.0 13 -0.05306895822286606
0.8813762664794922 -2.1792922019958496 -0.12319885194301605 19.0 6 -0.05306665599346161
0.8749309778213501 -2.164442300796509 0.5389827489852905 7.0 14 -0.05306435003876686
0.8734496235847473 -2.161863327026367 -0.04069900885224342 26.0 7 -0.05306204780936241
0.8796199560165405 -2.1782307624816895 0.6294479370117188 8.0 15 -0.053059741854667664
0.5055490732192993 -1.2563254833221436 -0.36286431550979614 12.0 0 -0.05304241180419922
0.8722912669181824 -2.1687986850738525 0.04080372676253319 12.0 8 -0.05304010957479477
0.6069250702857971 -1.5097733736038208 -0.3756682872772217 7.0 1 -0.05303780362010002
0.874575138092041 -2.1755738258361816 0.1228848323225975 9.0 9 -0.05303550139069557
0.7458591461181641 -1.8563188314437866 -0.3888687491416931 7.0 2 -0.053033195436000824
0.8791102170944214 -2.1890625953674316 0.2063847929239273 8.0 10 -0.053030893206596375
0.9006580710411072 -2.2438511848449707 -0.38295161724090576 100.0 3 -0.05302858725190163
0.8714331984519958 -2.1721389293670654 0.28736793994903564 7.0 11 -0.05302628502249718
0.8983900547027588 -2.2404632568359375 -0.2963862717151642 97.0 4 -0.05302397906780243
0.8704668283462524 -2.1708264350891113 0.3704368472099304 7.0 12 -0.05302167683839798
0.8531221747398376 -2.128645896911621 -0.2006325125694275 68.0 5 -0.05301937088370323
0.8775126934051514 -2.1906113624572754 0.4587048292160034 6.0 13 -0.05301706865429878
0.8693094849586487 -2.1712303161621094 -0.12257081270217896 21.0 6 -0.053014762699604034
0.8717146515846252 -2.1783387660980225 0.5416821837425232 7.0 14 -0.053012460470199585
0.86627596616745 -2.164747953414917 -0.04069900885224342 28.0 7 -0.05301015451550484
0.869522213935852 -2.1739606857299805 0.6273773908615112 8.0 15 -0.05300785228610039
0.4975860118865967 -1.249109148979187 -0.36027613282203674 9.0 0 -0.05298711732029915
0.8606542348861694 -2.1605331897735596 0.040594298392534256 12.0 8 -0.0529848113656044
0.6004733443260193 -1.5081567764282227 -0.3747684955596924 7.0 1 -0.05298250913619995
0.8654989004135132 -2.1749019622802734 0.12267549335956573 9.0 9 -0.0529802031815052
0.7422770857810974 -1.8662079572677612 -0.3903951942920685 6.0 2 -0.052977900952100754
0.8655752539634705 -2.1773064136505127 0.20499029755592346 8.0 10 -0.052975594997406006
0.8866444230079651 -2.230304718017578 -0.38013577461242676 100.0 3 -0.052973292768001556
0.8693563342094421 -2.1879305839538574 0.2890741229057312 7.0 11 -0.05297098681330681
0.8909556865692139 -2.2434298992156982 -0.2963862717151642 99.0 4 -0.05296868458390236
0.8643418550491333 -2.1775240898132324 0.37106260657310486 7.0 12 -0.05296637862920761
0.8412778973579407 -2.1204993724823 -0.1995866596698761 66.0 5 -0.05296407639980316
0.8687955141067505 -2.189859390258789 0.45794162154197693 6.0 13 -0.052961770445108414
0.8635773062705994 -2.1778147220611572 -0.12278016656637192 21.0 6 -0.052959468215703964
0.8637681603431702 -2.179405689239502 0.5412322878837585 7.0 14 -0.052957162261009216
0.8565047383308411 -2.1621813774108887 -0.040594298392534256 31.0 7 -0.05295486003160477
0.854816734790802 -2.1590206623077393 0.6222009658813477 8.0 15 -0.05295255407691002
0.4962768852710724 -1.2579405307769775 -0.36234667897224426 8.0 0 -0.05293181911110878
0.8545746207237244 -2.1672449111938477 0.040664106607437134 13.0 8 -0.05292951688170433
0.592347264289856 -1.5029915571212769 -0.3729688823223114 7.0 1 -0.05292721092700958
0.862293541431427 -2.1890597343444824 0.12330353260040283 9.0 9 -0.05292490869760513
0.7368040084838867 -1.8704860210418701 -0.3907768428325653 7.0 2 -0.052922602742910385
0.8598099946975708 -2.183872699737549 0.20533892512321472 8.0 10 -0.052920300513505936
0.8759607076644897 -2.2260334491729736 -0.37888431549072266 100.0 3 -0.05291799455881119
0.8559014797210693 -2.176173210144043 0.2871242165565491 8.0 11 -0.05291569232940674
0.8831191062927246 -2.2465264797210693 -0.2963862717151642 100.0 4 -0.05291338637471199
0.8581801652908325 -2.1842048168182373 0.3716883361339569 7.0 12 -0.05291108414530754
0.8378846049308777 -2.132549524307251 -0.20045821368694305 77.0 5 -0.05290877819061279
0.8525348901748657 -2.170949935913086 0.45336219668388367 6.0 13 -0.052906475961208344
0.855970025062561 -2.1808156967163086 -0.12278016656637192 21.0 6 -0.052904170006513596
0.8518849015235901 -2.171522855758667 0.5385328531265259 7.0 14 -0.052901867777109146
0.8518720865249634 -2.172604560852051 -0.04073391854763031 31.0 7 -0.0528995655477047
0.8515046834945679 -2.172783374786377 0.6253068447113037 8.0 15 -0.05289725959300995
0.4897748529911041 -1.254266619682312 -0.3607937693595886 11.0 0 -0.05287652462720871
0.847004234790802 -2.1702146530151367 0.040664106607437134 13.0 8 -0.05287421867251396
0.5842643976211548 -1.4977880716323853 -0.3711692690849304 7.0 1 -0.05287191644310951
0.8517451286315918 -2.184612989425659 0.1228848323225975 9.0 9 -0.052869610488414764
0.7345494031906128 -1.8840214014053345 -0.39306655526161194 7.0 2 -0.052867308259010315
0.8565220236778259 -2.1979992389678955 0.2063847929239273 8.0 10 -0.05286500230431557
0.8689016103744507 -2.2309184074401855 -0.3791971802711487 100.0 3 -0.05286270007491112
0.8454196453094482 -2.171747922897339 0.2861492335796356 8.0 11 -0.05286039412021637
0.8723925948143005 -2.2421953678131104 -0.29541128873825073 100.0 4 -0.05285809189081192
0.8491187691688538 -2.1835052967071533 0.37106260657310486 7.0 12 -0.05285578966140747
0.8304355144500732 -2.1354610919952393 -0.20045821368694305 83.0 5 -0.05285348370671272
0.8506415486335754 -2.188551664352417 0.4564151465892792 6.0 13 -0.05285118147730827
0.8425663709640503 -2.1688966751098633 -0.12194279581308365 22.0 6 -0.052848875522613525
0.8457105159759521 -2.1781163215637207 0.5394326448440552 7.0 14 -0.052846573293209076
0.8450065851211548 -2.177429437637329 -0.0407688245177269 30.0 7 -0.05284426733851433
0.8481066823005676 -2.186549186706543 0.628412663936615 8.0 15 -0.05284196510910988
0.47634053230285645 -1.2325429916381836 -0.3540644645690918 15.0 0 -0.05282122641801834
0.8365414142608643 -2.165696382522583 0.04052448645234108 13.0 8 -0.05281892418861389
0.5818399786949158 -1.5070902109146118 -0.3729688823223114 7.0 1 -0.052816618233919144
0.8383618593215942 -2.17266583442688 0.12204745411872864 9.0 9 -0.052814316004514694
0.7216072678565979 -1.8700892925262451 -0.389631986618042 6.0 2 -0.052812010049819946
0.8502784967422485 -2.204693555831909 0.20673342049121857 8.0 10 -0.0528097078204155
0.8625301718711853 -2.237624168395996 -0.3798229396343231 100.0 3 -0.05280740559101105
0.8406880497932434 -2.182095527648926 0.2871242165565491 8.0 11 -0.0528050996363163
0.8631340861320496 -2.2415218353271484 -0.2949238419532776 100.0 4 -0.05280279740691185
0.8407823443412781 -2.1846120357513428 0.37074974179267883 8.0 12 -0.0528004914522171
0.8244076371192932 -2.1420657634735107 -0.20080682635307312 80.0 5 -0.05279818922281265
0.8401774168014526 -2.184178113937378 0.4548886716365814 7.0 13 -0.052795883268117905
0.837857186794281 -2.17928147315979 -0.12236147373914719 22.0 6 -0.052793581038713455
0.8346075415611267 -2.171959638595581 0.5371831059455872 7.0 14 -0.05279127508401871
0.8345328569412231 -2.172898769378662 -0.040629200637340546 34.0 7 -0.05278897285461426
0.8383920192718506 -2.1840856075286865 0.6268597841262817 8.0 15 -0.05278666689991951
0.4665142297744751 -1.219763159751892 -0.34992337226867676 19.0 0 -0.05276593193411827
0.8318326473236084 -2.176074981689453 0.040664106607437134 13.0 8 -0.05276362597942352
0.5779668688774109 -1.5127527713775635 -0.3738686740398407 7.0 1 -0.052761323750019073
0.830772876739502 -2.175579071044922 0.12204745411872864 9.0 9 -0.052759021520614624
0.7122737169265747 -1.8652604818344116 -0.3881055414676666 7.0 2 -0.052756715565919876
0.8354729413986206 -2.1890335083007812 0.20499029755592346 9.0 10 -0.05275441333651543
0.8547140955924988 -2.2406210899353027 -0.3798229396343231 100.0 3 -0.05275210738182068
0.8330662250518799 -2.185016632080078 0.2871242165565491 8.0 11 -0.05274980515241623
0.856718122959137 -2.2482309341430664 -0.29541128873825073 100.0 4 -0.05274749919772148
0.8275265693664551 -2.1727657318115234 0.36824676394462585 8.0 12 -0.05274519696831703
0.8140885829925537 -2.1374828815460205 -0.2001095712184906 80.0 5 -0.052742891013622284
0.8353421092033386 -2.19443678855896 0.4564151465892792 6.0 13 -0.052740588784217834
0.830955445766449 -2.1840593814849854 -0.12246615439653397 24.0 6 -0.05273828282952309
0.826327919960022 -2.1730387210845947 0.5367332696914673 7.0 14 -0.05273598060011864
0.8248118162155151 -2.1701908111572266 -0.04052448645234108 36.0 7 -0.05273367464542389
0.8273328542709351 -2.177969217300415 0.6242715716362 8.0 15 -0.05273137241601944
0.4547317922115326 -1.2015094757080078 -0.3442293405532837 22.0 0 -0.0527106374502182
0.8185716271400452 -2.1640024185180664 0.040384870022535324 13.0 8 -0.05270833149552345
0.5719934701919556 -1.5129382610321045 -0.37341877818107605 7.0 1 -0.052706029266119
0.8281158208847046 -2.1915442943573 0.12278016656637192 10.0 9 -0.052703723311424255
0.7071465253829956 -1.8714083433151245 -0.3888687491416931 6.0 2 -0.052701421082019806
0.8278266787528992 -2.191936492919922 0.20499029755592346 9.0 10 -0.05269911512732506
0.8440970778465271 -2.236198663711548 -0.37857145071029663 100.0 3 -0.05269681289792061
0.8212296366691589 -2.176767349243164 0.2856617569923401 8.0 11 -0.05269450694322586
0.8516666293144226 -2.2586376667022705 -0.2963862717151642 99.0 4 -0.05269220471382141
0.823420524597168 -2.1848833560943604 0.36981111764907837 8.0 12 -0.05268989875912666
0.8038120865821838 -2.1328537464141846 -0.19941233098506927 88.0 5 -0.052687596529722214
0.826292872428894 -2.193664789199829 0.4556518793106079 6.0 13 -0.052685290575027466
0.8240302205085754 -2.1888158321380615 -0.12257081270217896 21.0 6 -0.052682988345623016
0.8214828968048096 -2.1832051277160645 0.5385328531265259 7.0 14 -0.05268068239092827
0.8158232569694519 -2.1693131923675537 -0.0404546782374382 40.0 7 -0.05267838016152382
0.8183659315109253 -2.177227258682251 0.6232362985610962 8.0 15 -0.05267607420682907
0.4485023319721222 -1.1976622343063354 -0.34267643094062805 19.0 0 -0.05265533924102783
0.8082091808319092 -2.1593549251556396 0.04024524614214897 14.0 8 -0.05265303701162338
0.5626122951507568 -1.503974437713623 -0.37071937322616577 7.0 1 -0.052650731056928635
0.8225587606430054 -2.200033664703369 0.12309417873620987 10.0 9 -0.052648428827524185
0.7006094455718994 -1.8738654851913452 -0.3888687491416931 6.0 2 -0.05264612287282944
0.8173806667327881 -2.187347888946533 0.20429305732250214 9.0 10 -0.05264382064342499
0.8342129588127136 -2.2335798740386963 -0.37763282656669617 100.0 3 -0.05264151468873024
0.8164030313491821 -2.1870596408843994 0.28663671016693115 8.0 11 -0.05263921245932579
0.8423895239830017 -2.2578771114349365 -0.29589879512786865 100.0 4 -0.05263690650463104
0.8185498118400574 -2.195147752761841 0.37106260657310486 8.0 12 -0.05263460427522659
0.7963622808456421 -2.1356465816497803 -0.19941233098506927 85.0 5 -0.052632298320531845
0.813831090927124 -2.1836583614349365 0.45298057794570923 7.0 13 -0.052629996091127396
0.8122017979621887 -2.1804492473602295 -0.12194279581308365 25.0 6 -0.05262769013643265
0.8165764808654785 -2.1933648586273193 0.5403324961662292 7.0 14 -0.0526253879070282
0.8103383779525757 -2.1777703762054443 -0.04055939242243767 42.0 7 -0.05262308567762375
0.8107611536979675 -2.180070638656616 0.6232362985610962 8.0 15 -0.052620779722929
0.44096317887306213 -1.1901627779006958 -0.34008821845054626 18.0 0 -0.05260004475712776
0.8027498722076416 -2.1677887439727783 0.040349964052438736 15.0 8 -0.052597738802433014
0.5600646138191223 -1.5132395029067993 -0.37251898646354675 7.0 1 -0.052595436573028564
0.8065593838691711 -2.180413007736206 0.12183811515569687 10.0 9 -0.052593130618333817
0.6933832168579102 -1.8744581937789917 -0.3884871304035187 6.0 2 -0.05259082838892937
0.8125041723251343 -2.197662591934204 0.20499029755592346 9.0 10 -0.05258852243423462
0.8325731158256531 -2.253154754638672 -0.38044866919517517 100.0 3 -0.05258622020483017
0.8032622933387756 -2.1749987602233887 0.2846868336200714 8.0 11 -0.05258391425013542
0.8303786516189575 -2.2496299743652344 -0.29443636536598206 100.0 4 -0.05258161202073097
0.8074634075164795 -2.188725471496582 0.36949828267097473 8.0 12 -0.052579306066036224
0.7902815937995911 -2.1421520709991455 -0.19976095855236053 83.0 5 -0.052577003836631775
0.807561993598938 -2.1901698112487793 0.4537437856197357 7.0 13 -0.052574701607227325
0.8038948774337769 -2.181396961212158 -0.12183811515569687 24.0 6 -0.05257239565253258
0.8055477738380432 -2.187058448791504 0.5380829572677612 7.0 14 -0.05257009342312813
0.8034223318099976 -2.182462215423584 -0.040594298392534256 40.0 7 -0.05256778746843338
0.8031463027000427 -2.182887554168701 0.6232362985610962 8.0 15 -0.05256548523902893
0.43414679169654846 -1.1844394207000732 -0.33801770210266113 12.0 0 -0.05254474654793739
0.7951778769493103 -2.1705777645111084 0.040349964052438736 16.0 8 -0.052542444318532944
0.5534389019012451 -1.5115253925323486 -0.37161916494369507 7.0 1 -0.052540138363838196
0.8016889691352844 -2.190717935562134 0.1222568079829216 11.0 9 -0.052537836134433746
0.6881853342056274 -1.8805546760559082 -0.38925039768218994 7.0 2 -0.052535530179739
0.8034591674804688 -2.1967430114746094 0.2046416699886322 9.0 10 -0.05253322795033455
0.8206339478492737 -2.244915246963501 -0.37857145071029663 100.0 3 -0.0525309219956398
0.7943027019500732 -2.174060344696045 0.2841993272304535 8.0 11 -0.05252861976623535
0.8177545666694641 -2.23946213722229 -0.2927301824092865 100.0 4 -0.0525263175368309
0.7977868318557739 -2.1859636306762695 0.36855965852737427 8.0 12 -0.052524011582136154
0.7827994227409363 -2.1448974609375 -0.19976095855236053 80.0 5 -0.052521709352731705
0.8012574911117554 -2.196664333343506 0.45450708270072937 7.0 13 -0.05251940339803696
0.7962753772735596 -2.184189796447754 -0.12183811515569687 24.0 6 -0.05251710116863251
0.7945730686187744 -2.1807022094726562 0.535833477973938 7.0 14 -0.05251479521393776
0.7882722616195679 -2.1645846366882324 -0.04021034389734268 39.0 7 -0.05251249298453331
0.7928786873817444 -2.1784162521362305 0.6211657524108887 8.0 15 -0.05251018702983856
0.4267169237136841 -1.176866888999939 -0.33542948961257935 11.0 0 -0.05248945206403732
0.7882776260375977 -2.175220489501953 0.040384870022535324 18.0 8 -0.052487146109342575
0.5468322038650513 -1.5097835063934326 -0.37071937322616577 7.0 1 -0.052484843879938126
0.7899579405784607 -2.182234764099121 0.1216287761926651 10.0 9 -0.05248253792524338
0.6769388914108276 -1.8700231313705444 -0.3865790367126465 7.0 2 -0.05248023569583893
0.7930747866630554 -2.192039966583252 0.20394444465637207 9.0 10 -0.05247793346643448
0.8134647607803345 -2.2496237754821777 -0.37888431549072266 100.0 3 -0.05247562751173973
0.7907571792602539 -2.188021183013916 0.2856617569923401 8.0 11 -0.05247332528233528
0.8119555115699768 -2.2479043006896973 -0.293461412191391 100.0 4 -0.05247101932764053
0.7874681353569031 -2.181303024291992 0.3673081696033478 8.0 12 -0.052468717098236084
0.7712480425834656 -2.1363730430603027 -0.19871510565280914 85.0 5 -0.052466411143541336
0.7909197807312012 -2.192060947418213 0.45298057794570923 7.0 13 -0.05246410891413689
0.7900015115737915 -2.19071364402771 -0.12204745411872864 24.0 6 -0.05246180295944214
0.788938045501709 -2.18896222114563 0.5371831059455872 7.0 14 -0.05245950073003769
0.7800341248512268 -2.1654415130615234 -0.040175437927246094 40.0 7 -0.05245719477534294
0.7826523780822754 -2.1738998889923096 0.6190952062606812 8.0 15 -0.05245489254593849
0.4239107370376587 -1.1819860935211182 -0.3364647626876831 9.0 0 -0.05243415758013725
0.7779810428619385 -2.170428991317749 0.04024524614214897 18.0 8 -0.052431851625442505
0.5455018877983093 -1.5226905345916748 -0.37341877818107605 7.0 1 -0.052429549396038055
0.787722110748291 -2.200021743774414 0.12246615439653397 11.0 9 -0.05242724344134331
0.6710692048072815 -1.874222993850708 -0.3869606554508209 6.0 2 -0.05242494121193886
0.7827332615852356 -2.187291383743286 0.20324717462062836 10.0 10 -0.05242263525724411
0.8029457926750183 -2.245009660720825 -0.37763282656669617 100.0 3 -0.05242033302783966
0.779105544090271 -2.1795525550842285 0.2841993272304535 9.0 11 -0.05241802707314491
0.8067753314971924 -2.258202314376831 -0.29443636536598206 100.0 4 -0.05241572484374046
0.7805137038230896 -2.185899019241333 0.3676210343837738 8.0 12 -0.052413418889045715
0.763786256313324 -2.139052152633667 -0.19871510565280914 88.0 5 -0.052411116659641266
0.7832631468772888 -2.1948084831237793 0.45298057794570923 7.0 13 -0.05240881070494652
0.7830207347869873 -2.1953392028808594 -0.12215213477611542 25.0 6 -0.05240650847554207
0.7793295383453369 -2.1861960887908936 0.535833477973938 7.0 14 -0.05240420252084732
0.7738127708435059 -2.1719186305999756 -0.04024524614214897 38.0 7 -0.05240190029144287
0.7763550281524658 -2.1802587509155273 0.6201304793357849 8.0 15 -0.05239959433674812
0.41719892621040344 -1.176175832748413 -0.3343942165374756 8.0 0 -0.052378859370946884
0.7677274346351624 -2.1655924320220947 0.040105629712343216 18.0 8 -0.052376557141542435
0.5336753129959106 -1.5062168836593628 -0.3689197599887848 7.0 1 -0.05237425118684769
0.7790880799293518 -2.198856830596924 0.1222568079829216 11.0 9 -0.05237194895744324
0.6632120609283447 -1.8728529214859009 -0.38619744777679443 6.0 2 -0.05236964300274849
0.7777520418167114 -2.197523355484009 0.20394444465637207 9.0 10 -0.05236734077334404
0.7924695611000061 -2.240349531173706 -0.37638136744499207 100.0 3 -0.05236503481864929
0.7728160619735718 -2.186002254486084 0.2846868336200714 9.0 11 -0.05236273258924484
0.7995490431785583 -2.262876510620117 -0.294680118560791 100.0 4 -0.052360426634550095
0.7778672575950623 -2.2015128135681152 0.36981111764907837 8.0 12 -0.052358124405145645
0.7563151717185974 -2.141705274581909 -0.19871510565280914 85.0 5 -0.0523558184504509
0.7716765999794006 -2.1864211559295654 0.450690895318985 7.0 13 -0.05235351622104645
0.7720306515693665 -2.188641309738159 -0.1216287761926651 26.0 6 -0.0523512102663517
0.7749331593513489 -2.198092460632324 0.5380829572677612 7.0 14 -0.05234890803694725
0.7686007022857666 -2.1801304817199707 -0.040349964052438736 42.0 7 -0.0523466020822525
0.769120991230011 -2.182821035385132 0.6201304793357849 8.0 15 -0.05234429985284805
0.41181182861328125 -1.1739790439605713 -0.3333589434623718 8.0 0 -0.052323564887046814
0.7618656158447266 -2.171900510787964 0.040175437927246094 19.0 8 -0.052321258932352066
0.5286775231361389 -1.5079783201217651 -0.3689197599887848 7.0 1 -0.05231895670294762
0.7661244869232178 -2.186483860015869 0.12141943722963333 11.0 9 -0.05231665074825287
0.6553727388381958 -1.8714505434036255 -0.38543418049812317 6.0 2 -0.05231434851884842
0.7694185972213745 -2.1983442306518555 0.20377011597156525 10.0 10 -0.05231204256415367
0.7909089922904968 -2.2597453594207764 -0.3791971802711487 100.0 3 -0.05230974033474922
0.7622854113578796 -2.1791841983795166 0.2834681272506714 9.0 11 -0.052307434380054474
0.7874549627304077 -2.2523980140686035 -0.29297390580177307 100.0 4 -0.052305132150650024
0.7688748836517334 -2.2004849910736084 0.3691853880882263 8.0 12 -0.052302826195955276
0.7501479387283325 -2.1480941772460938 -0.1990637183189392 88.0 5 -0.05230052396655083
0.7631272673606873 -2.1852612495422363 0.4499276280403137 7.0 13 -0.05229821801185608
0.7601615190505981 -2.177989959716797 -0.12089607119560242 23.0 6 -0.05229591578245163
0.7618633508682251 -2.1840898990631104 0.5340338349342346 7.0 14 -0.05229361355304718
0.7616442441940308 -2.1846885681152344 -0.040384870022535324 38.0 7 -0.05229130759835243
0.7614967823028564 -2.185492515563965 0.6201304793357849 8.0 15 -0.05228900536894798
0.4161508083343506 -1.199064016342163 -0.34008821845054626 12.0 0 -0.052268266677856445
0.7542798519134521 -2.174546480178833 0.040175437927246094 18.0 8 -0.052265964448451996
0.522134006023407 -1.5061320066452026 -0.3680199384689331 7.0 1 -0.05226365849375725
0.7595237493515015 -2.19089937210083 0.12152409553527832 11.0 9 -0.0522613562643528
0.6543049812316895 -1.8884540796279907 -0.3884871304035187 6.0 2 -0.05225905030965805
0.7608204483985901 -2.1971182823181152 0.20342150330543518 10.0 10 -0.0522567480802536
0.7784937620162964 -2.2494254112243652 -0.3770070970058441 100.0 3 -0.05225444212555885
0.7533763647079468 -2.178079605102539 0.28298062086105347 9.0 11 -0.052252139896154404
0.7789391875267029 -2.2532570362091064 -0.2927301824092865 100.0 4 -0.052249833941459656
0.7596372365951538 -2.1974215507507324 0.36824676394462585 9.0 12 -0.052247531712055206
0.7443219423294067 -2.1543362140655518 -0.19941233098506927 88.0 5 -0.05224522948265076
0.7593395709991455 -2.1990458965301514 0.45221734046936035 7.0 13 -0.05224292352795601
0.7538576126098633 -2.18440580368042 -0.12110541760921478 24.0 6 -0.05224062129855156
0.7548698782920837 -2.1885783672332764 0.5344837307929993 7.0 14 -0.05223831534385681
0.7498310804367065 -2.1739695072174072 -0.040140535682439804 39.0 7 -0.05223601311445236
0.7580229640007019 -2.1989641189575195 0.6232362985610962 8.0 15 -0.052233707159757614
0.40882766246795654 -1.1913729906082153 -0.33750003576278687 20.0 0 -0.052212972193956375
0.7483626008033752 -2.180818557739258 0.04024524614214897 20.0 8 -0.05221066623926163
0.520929753780365 -1.5189152956008911 -0.37071937322616577 7.0 1 -0.05220836400985718
0.74992835521698 -2.1878693103790283 0.12121009081602097 11.0 9 -0.05220605805516243
0.638801634311676 -1.8647243976593018 -0.3831444978713989 7.0 2 -0.05220375582575798
0.7525009512901306 -2.197875738143921 0.20324717462062836 10.0 10 -0.05220145359635353
0.7729495763778687 -2.257601261138916 -0.3779457211494446 100.0 3 -0.05219914764165878
0.7487200498580933 -2.1880786418914795 0.2839556038379669 9.0 11 -0.052196845412254333
0.7708207368850708 -2.2539494037628174 -0.2924864590167999 100.0 4 -0.052194539457559586
0.7468511462211609 -2.1851065158843994 0.36574381589889526 9.0 12 -0.052192237228155136
0.7329329252243042 -2.14560866355896 -0.1983664631843567 85.0 5 -0.05218993127346039
0.7571201324462891 -2.2164146900177 0.45527029037475586 7.0 13 -0.05218762904405594
0.7485455274581909 -2.1925642490386963 -0.12141943722963333 26.0 6 -0.05218532308936119
0.7469789981842041 -2.189225196838379 0.5340338349342346 7.0 14 -0.05218302085995674
0.7422381639480591 -2.1765735149383545 -0.040140535682439804 43.0 7 -0.05218071490526199
0.7466029524803162 -2.1906251907348633 0.6201304793357849 8.0 15 -0.052178412675857544
0.4036327004432678 -1.189063549041748 -0.3364647626876831 18.0 0 -0.052157673984766006
0.7356059551239014 -2.1682682037353516 0.03996601328253746 20.0 8 -0.05215537175536156
0.5143730044364929 -1.517033338546753 -0.3698195517063141 7.0 1 -0.05215306952595711
0.7454919219017029 -2.1999318599700928 0.12173344939947128 11.0 9 -0.05215076357126236
0.6338746547698975 -1.870551347732544 -0.3839077055454254 7.0 2 -0.05214846134185791
0.739456295967102 -2.183375120162964 0.20167838037014008 10.0 10 -0.05214615538716316
0.7606313228607178 -2.247187852859497 -0.37575563788414 100.0 3 -0.05214385315775871
0.7410778999328613 -2.190678596496582 0.2839556038379669 9.0 11 -0.052141547203063965
0.7635837197303772 -2.2585067749023438 -0.2927301824092865 100.0 4 -0.052139244973659515
0.739219069480896 -2.187700033187866 0.36574381589889526 9.0 12 -0.05213693901896477
0.7228893041610718 -2.140603542327881 -0.19766922295093536 88.0 5 -0.05213463678956032
0.7456101179122925 -2.207883834838867 0.45298057794570923 7.0 13 -0.05213233083486557
0.743442177772522 -2.202733039855957 -0.12183811515569687 29.0 6 -0.05213002860546112
0.7418240904808044 -2.1992056369781494 0.535833477973938 7.0 14 -0.05212772265076637
0.7346361875534058 -2.1791512966156006 -0.040140535682439804 43.0 7 -0.05212542042136192
0.7352509498596191 -2.1822335720062256 0.6170246005058289 8.0 15 -0.052123114466667175
0.3992718458175659 -1.1905349493026733 -0.3364647626876831 16.0 0 -0.052102379500865936
0.7293044328689575 -2.174614667892456 0.04003582149744034 21.0 8 -0.05210007727146149
0.506597101688385 -1.511428713798523 -0.3680199384689331 7.0 1 -0.05209777131676674
0.7378084063529968 -2.2025206089019775 0.12173344939947128 12.0 9 -0.05209546908736229
0.6320006251335144 -1.8877555131912231 -0.3869606554508209 7.0 2 -0.05209316313266754
0.7339779138565063 -2.1936283111572266 0.2023756206035614 10.0 10 -0.05209086090326309
0.7498835325241089 -2.242466926574707 -0.3745041489601135 100.0 3 -0.052088554948568344
0.7334260940551758 -2.1932523250579834 0.2839556038379669 9.0 11 -0.052086252719163895
0.756324827671051 -2.2630412578582764 -0.29297390580177307 100.0 4 -0.05208394676446915
0.7353331446647644 -2.2015087604522705 0.3676210343837738 9.0 12 -0.0520816445350647
0.7166742086410522 -2.1468935012817383 -0.19801783561706543 88.0 5 -0.05207933858036995
0.7275715470314026 -2.1808042526245117 0.4468746781349182 7.0 13 -0.0520770363509655
0.7303099632263184 -2.1902854442596436 -0.121000736951828 29.0 6 -0.05207473039627075
0.7337585687637329 -2.2019097805023193 0.535833477973938 7.0 14 -0.0520724281668663
0.728289008140564 -2.1854965686798096 -0.04021034389734268 46.0 7 -0.052070122212171555
0.7300706505775452 -2.1921181678771973 0.6190952062606812 8.0 15 -0.052067819982767105
0.3975452482700348 -1.1992563009262085 -0.338535338640213 18.0 0 -0.052047085016965866
0.7219579219818115 -2.179171085357666 0.04007072374224663 22.0 8 -0.05204477906227112
0.4986039102077484 -1.5058754682540894 -0.3662203252315521 7.0 1 -0.05204247683286667
0.7263486385345459 -2.193706512451172 0.12110541760921478 12.0 9 -0.05204017087817192
0.6204732656478882 -1.8750392198562622 -0.3839077055454254 6.0 2 -0.05203786864876747
0.7288185358047485 -2.2037434577941895 0.20307287573814392 11.0 10 -0.05203556269407272
0.745151162147522 -2.254448413848877 -0.37606850266456604 100.0 3 -0.052033260464668274
0.7216469049453735 -2.1846163272857666 0.28249314427375793 9.0 11 -0.052030954509973526
0.7461583018302917 -2.2601430416107178 -0.29224270582199097 100.0 4 -0.05202865228056908
0.7288824319839478 -2.2078135013580322 0.36824676394462585 9.0 12 -0.05202634632587433
0.7116730809211731 -2.1569504737854004 -0.19871510565280914 83.0 5 -0.05202404409646988
0.7248732447624207 -2.198246717453003 0.4499276280403137 8.0 13 -0.05202173814177513
0.7207842469215393 -2.1871306896209717 -0.12068671733140945 28.0 6 -0.05201943591237068
0.7224103808403015 -2.1933517456054688 0.5331340432167053 7.0 14 -0.052017129957675934
0.7212815284729004 -2.189924478530884 -0.04024524614214897 49.0 7 -0.052014827728271484
0.7224141955375671 -2.194653272628784 0.6190952062606812 8.0 15 -0.052012525498867035
0.40297985076904297 -1.2300100326538086 -0.3468175232410431 14.0 0 -0.0519917868077755
0.7134823799133301 -2.177752733230591 0.04000091552734375 23.0 8 -0.05198948457837105
0.4911820590496063 -1.500112771987915 -0.36442074179649353 7.0 1 -0.0519871786236763
0.7174445986747742 -2.192432165145874 0.12089607119560242 14.0 9 -0.05198487639427185
0.6102625131607056 -1.8659976720809937 -0.3816179931163788 6.0 2 -0.0519825704395771
0.7211214900016785 -2.2062742710113525 0.20307287573814392 10.0 10 -0.05198026821017265
0.735829770565033 -2.251274347305298 -0.3751298785209656 100.0 3 -0.051977962255477905
0.7143986821174622 -2.186997175216675 0.28249314427375793 9.0 11 -0.051975660026073456
0.7337307333946228 -2.2475085258483887 -0.29029279947280884 100.0 4 -0.05197335407137871
0.7174948453903198 -2.1990768909454346 0.3663695454597473 9.0 12 -0.05197105184197426
0.7035220861434937 -2.157526969909668 -0.19854077696800232 57.0 5 -0.05196874588727951
0.7151452302932739 -2.1931722164154053 0.44840118288993835 7.0 13 -0.05196644365787506
0.7160030603408813 -2.1971049308776855 -0.12110541760921478 31.0 6 -0.05196414142847061
0.7145293951034546 -2.193882465362549 0.5326840877532959 7.0 14 -0.051961835473775864
0.7111568450927734 -2.1848230361938477 -0.040105629712343216 49.0 7 -0.051959533244371414
0.7159445285797119 -2.200835943222046 0.6201304793357849 8.0 15 -0.051957227289676666
0.407234251499176 -1.2570691108703613 -0.3540644645690918 10.0 0 -0.05193649232387543
0.7058764696121216 -2.180229902267456 0.04000091552734375 24.0 8 -0.05193418636918068
0.4895421862602234 -1.5129426717758179 -0.3671201467514038 7.0 1 -0.05193188413977623
0.7104013562202454 -2.1968233585357666 0.121000736951828 13.0 9 -0.05192957818508148
0.602863073348999 -1.8642750978469849 -0.3808547556400299 6.0 2 -0.05192727595567703
0.7113506197929382 -2.2010698318481445 0.2023756206035614 11.0 10 -0.051924970000982285
0.7291815280914307 -2.2575888633728027 -0.37575563788414 100.0 3 -0.051922667771577835
0.7079795598983765 -2.19325590133667 0.28298062086105347 9.0 11 -0.051920365542173386
0.7283190488815308 -2.257612705230713 -0.2912677526473999 100.0 4 -0.05191805958747864
0.708602249622345 -2.197807788848877 0.36574381589889526 9.0 12 -0.05191575735807419
0.6939180493354797 -2.1522631645202637 -0.197843536734581 63.0 5 -0.05191345140337944
0.7165166735649109 -2.223684787750244 0.45412543416023254 8.0 13 -0.05191114917397499
0.7089415788650513 -2.2014920711517334 -0.12121009081602097 32.0 6 -0.05190884321928024
0.7050759196281433 -2.190798282623291 0.5313344597816467 8.0 14 -0.05190654098987579
0.7029139399528503 -2.1853883266448975 -0.04007072374224663 51.0 7 -0.051904235035181046
0.7011633515357971 -2.1812517642974854 0.6139188408851624 8.0 15 -0.051901932805776596
0.4040214717388153 -1.2621628046035767 -0.35509976744651794 9.0 0 -0.05188119411468506
0.6958244442939758 -2.175062417984009 0.039861299097537994 23.0 8 -0.05187889188528061
0.48544490337371826 -1.5183545351028442 -0.3680199384689331 7.0 1 -0.05187658965587616
0.7045526504516602 -2.2049973011016846 0.12131475657224655 15.0 9 -0.05187428370118141
0.5963519811630249 -1.866368055343628 -0.3808547556400299 5.0 2 -0.05187198147177696
0.7036631107330322 -2.2035396099090576 0.2023756206035614 12.0 10 -0.051869675517082214
0.7176929712295532 -2.248828887939453 -0.3738784193992615 100.0 3 -0.051867373287677765
0.7003195285797119 -2.195713758468628 0.28298062086105347 10.0 11 -0.05186506733298302
0.7204340696334839 -2.260141372680664 -0.2912677526473999 100.0 4 -0.05186276510357857
0.6997265815734863 -2.1965036392211914 0.3651180863380432 9.0 12 -0.05186045914888382
0.6827720999717712 -2.143281936645508 -0.1967976689338684 59.0 5 -0.05185815691947937
0.6998165249824524 -2.1981112957000732 0.44840118288993835 8.0 13 -0.05185585096478462
0.7012524604797363 -2.203953266143799 -0.12121009081602097 32.0 6 -0.05185354873538017
0.6980147361755371 -2.195103168487549 0.5317842960357666 7.0 14 -0.051851242780685425
0.691041886806488 -2.1744883060455322 -0.03982638940215111 51.0 7 -0.051848940551280975
0.6947145462036133 -2.187368154525757 0.6149541139602661 8.0 15 -0.05184663459658623
0.39844831824302673 -1.2598814964294434 -0.3540644645690918 9.0 0 -0.05182589963078499
0.6846118569374084 -2.1660375595092773 0.039651867002248764 23.0 8 -0.05182359740138054
0.47896793484687805 -1.516323447227478 -0.3671201467514038 7.0 1 -0.05182129144668579
0.6956491470336914 -2.203634023666382 0.12110541760921478 15.0 9 -0.05181898921728134
0.5927887558937073 -1.8777992725372314 -0.3827628493309021 7.0 2 -0.051816683262586594
0.6911712884902954 -2.190781831741333 0.20098112523555756 12.0 10 -0.051814381033182144
0.7098386883735657 -2.2513206005096436 -0.3738784193992615 100.0 3 -0.051812075078487396
0.6914573311805725 -2.1943583488464355 0.28249314427375793 9.0 11 -0.05180977284908295
0.7149252891540527 -2.2702159881591797 -0.29224270582199097 100.0 4 -0.0518074668943882
0.6944274306297302 -2.2064695358276367 0.3663695454597473 9.0 12 -0.05180516466498375
0.6800717711448669 -2.160856246948242 -0.19819216430187225 84.0 5 -0.051802858710289
0.6927281618118286 -2.202413558959961 0.4487827718257904 8.0 13 -0.05180055648088455
0.6911594867706299 -2.198765993118286 -0.12079139798879623 33.0 6 -0.051798250526189804
0.6944366693496704 -2.210540294647217 0.5349336266517639 7.0 14 -0.051795948296785355
0.6846449971199036 -2.1807031631469727 -0.039896201342344284 50.0 7 -0.05179364234209061
0.6870748996734619 -2.1897799968719482 0.6149541139602661 8.0 15 -0.05179134011268616
0.399808794260025 -1.279704213142395 -0.3592408299446106 8.0 0 -0.05177060514688492
0.6788349747657776 -2.174140691757202 0.03975658118724823 25.0 8 -0.05176829919219017
0.47018933296203613 -1.5068244934082031 -0.36442074179649353 7.0 1 -0.05176599696278572
0.6885470747947693 -2.2079555988311768 0.12121009081602097 16.0 9 -0.05176369100809097
0.5844767093658447 -1.8742344379425049 -0.3816179931163788 6.0 2 -0.05176138877868652
0.6882625818252563 -2.2083983421325684 0.2023756206035614 12.0 10 -0.051759082823991776
0.7013885378837585 -2.251898765563965 -0.37356552481651306 100.0 3 -0.051756780594587326
0.6808435320854187 -2.187281608581543 0.2812744677066803 10.0 11 -0.05175447463989258
0.7034584283828735 -2.261324882507324 -0.29078027606010437 100.0 4 -0.05175217241048813
0.6878939867019653 -2.2126529216766357 0.36699530482292175 9.0 12 -0.05174986645579338
0.6683842539787292 -2.1498987674713135 -0.19697196781635284 72.0 5 -0.05174756422638893
0.6850362420082092 -2.2048182487487793 0.4487827718257904 8.0 13 -0.05174525827169418
0.6828877925872803 -2.1992578506469727 -0.12068671733140945 35.0 6 -0.051742956042289734
0.6809403300285339 -2.1943390369415283 0.5304346084594727 8.0 14 -0.051740650087594986
0.6799905896186829 -2.192629098892212 -0.04007072374224663 58.0 7 -0.051738347858190536
0.6805709600448608 -2.195855140686035 0.6159893274307251 8.0 15 -0.05173604190349579
0.39397725462913513 -1.2774689197540283 -0.3582055866718292 8.0 0 -0.05167651176452637
0.6732177138328552 -2.184257745742798 0.039896201342344284 29.0 8 -0.05167420953512192
0.4646633565425873 -1.508537769317627 -0.36442074179649353 7.0 1 -0.05167190358042717
0.6778961420059204 -2.2008016109466553 0.12068671733140945 17.0 9 -0.05166960135102272
0.576448380947113 -1.872611165046692 -0.3808547556400299 5.0 2 -0.05166729539632797
0.6789918541908264 -2.2070977687835693 0.20202700793743134 12.0 10 -0.05166499316692352
0.6937106847763062 -2.2563424110412598 -0.3738784193992615 100.0 3 -0.051662687212228775
0.6739882230758667 -2.1935572624206543 0.28176194429397583 10.0 11 -0.051660384982824326
0.6943945288658142 -2.2599716186523438 -0.29029279947280884 100.0 4 -0.05165807902812958
0.6755273342132568 -2.1999340057373047 0.36449235677719116 9.0 12 -0.05165577679872513
0.6622537970542908 -2.158048391342163 -0.19749490916728973 68.0 5 -0.05165347084403038
0.6763749122619629 -2.205437421798706 0.44840118288993835 7.0 13 -0.05165116861462593
0.6742372512817383 -2.199836492538452 -0.12058205902576447 39.0 6 -0.05164886265993118
0.6732767224311829 -2.196702480316162 0.5304346084594727 8.0 14 -0.05164656043052673
0.670575737953186 -2.189253807067871 -0.03996601328253746 66.0 7 -0.051644254475831985
0.6774255633354187 -2.212995767593384 0.6201304793357849 8.0 15 -0.051641952246427536
0.38635972142219543 -1.2676807641983032 -0.35509976744651794 9.0 0 -0.0516212172806263
0.6665533781051636 -2.1883914470672607 0.03993110731244087 31.0 8 -0.05161891132593155
0.45965826511383057 -1.5100703239440918 -0.36442074179649353 7.0 1 -0.0516166090965271
0.6694310307502747 -2.19921612739563 0.12047737836837769 17.0 9 -0.05161430314183235
0.5662354230880737 -1.861364722251892 -0.3781834542751312 6.0 2 -0.0516120009124279
0.6681920886039734 -2.197899580001831 0.20098112523555756 13.0 10 -0.051609694957733154
0.6873730421066284 -2.2624106407165527 -0.3745041489601135 100.0 3 -0.051607392728328705
0.6690173745155334 -2.203378200531006 0.2827368974685669 11.0 11 -0.05160508677363396
0.6880497932434082 -2.2660605907440186 -0.29078027606010437 100.0 4 -0.05160278454422951
0.6659342050552368 -2.1946005821228027 0.3632408678531647 9.0 12 -0.05160047858953476
0.6510463356971741 -2.146885871887207 -0.19627472758293152 75.0 5 -0.05159817636013031
0.6719046831130981 -2.21706223487854 0.45030924677848816 8.0 13 -0.05159587040543556
0.6646227836608887 -2.1944141387939453 -0.12016335874795914 40.0 6 -0.05159356817603111
0.6682479977607727 -2.206383466720581 0.532234251499176 7.0 14 -0.051591262221336365
0.6627331376075745 -2.18955135345459 -0.03993110731244087 72.0 7 -0.051588959991931915
0.6656084656715393 -2.20043683052063 0.6159893274307251 8.0 15 -0.05158665403723717
0.3776971697807312 -1.2541567087173462 -0.3509586453437805 9.0 0 -0.05156591907143593
0.6558347344398499 -2.179100513458252 0.03972167521715164 32.0 8 -0.05156361684203148
0.4580158293247223 -1.5227831602096558 -0.3671201467514038 7.0 1 -0.05156131088733673
0.6629002690315247 -2.205364942550659 0.12068671733140945 19.0 9 -0.05155900865793228
0.5591700077056885 -1.8614497184753418 -0.3778018355369568 6.0 2 -0.051556702703237534
0.657460629940033 -2.1886544227600098 0.19993527233600616 12.0 10 -0.051554400473833084
0.6798667311668396 -2.2646775245666504 -0.3745041489601135 100.0 3 -0.051552094519138336
0.6617072224617004 -2.205584764480591 0.2827368974685669 10.0 11 -0.05154979228973389
0.6812759637832642 -2.272251605987549 -0.2912677526473999 100.0 4 -0.05154748633503914
0.6594034433364868 -2.2006964683532715 0.3638666272163391 9.0 12 -0.05154518410563469
0.6441196203231812 -2.1510543823242188 -0.19644904136657715 66.0 5 -0.05154287815093994
0.6602218747138977 -2.206228256225586 0.4476379454135895 8.0 13 -0.05154057592153549
0.6598203182220459 -2.2062883377075195 -0.12068671733140945 44.0 6 -0.051538269966840744
0.6583088636398315 -2.2012345790863037 0.5304346084594727 7.0 14 -0.051535967737436295
0.651077389717102 -2.1784398555755615 -0.03968677297234535 77.0 7 -0.051533665508031845
0.6546064019203186 -2.191640615463257 0.6128835082054138 8.0 15 -0.0515313595533371
0.3775002360343933 -1.2703471183776855 -0.35509976744651794 10.0 0 -0.05151062458753586
0.6444281339645386 -2.1699881553649902 0.03951225057244301 32.0 8 -0.05150831863284111
0.4457780718803406 -1.5020332336425781 -0.36172130703926086 7.0 1 -0.05150601640343666
0.6570844054222107 -2.2154390811920166 0.12110541760921478 20.0 9 -0.05150371044874191
0.5523436665534973 -1.863486647605896 -0.3778018355369568 6.0 2 -0.05150140821933746
0.6528315544128418 -2.2025108337402344 0.20098112523555756 14.0 10 -0.051499102264642715
0.6687564253807068 -2.2576839923858643 -0.372939795255661 100.0 3 -0.051496800035238266
0.6496745347976685 -2.1946709156036377 0.28103071451187134 10.0 11 -0.05149449408054352
0.671816885471344 -2.2709262371063232 -0.29078027606010437 100.0 4 -0.05149219185113907
0.6518930792808533 -2.2049927711486816 0.36417946219444275 9.0 12 -0.05148988962173462
0.6362314820289612 -2.1534006595611572 -0.19644904136657715 68.0 5 -0.05148758366703987
0.6482394933700562 -2.19545316696167 0.444966584444046 8.0 13 -0.05148528143763542
0.6489031314849854 -2.1991138458251953 -0.12016335874795914 45.0 6 -0.051482975482940674
0.6524425745010376 -2.211108922958374 0.532234251499176 7.0 14 -0.051480673253536224
0.6430885791778564 -2.1808114051818848 -0.03968677297234535 77.0 7 -0.051478367298841476
0.6498454809188843 -2.205143451690674 0.6159893274307251 8.0 15 -0.05147606506943703
0.37012413144111633 -1.2624531984329224 -0.35251155495643616 12.0 0 -0.05145532637834549
0.638157069683075 -2.1780924797058105 0.039616964757442474 35.0 8 -0.05145302414894104
0.44246023893356323 -1.511137843132019 -0.36352092027664185 7.0 1 -0.05145071819424629
0.6461554765701294 -2.2082479000091553 0.12058205902576447 22.0 9 -0.05144841596484184
0.5436302423477173 -1.8578662872314453 -0.37627536058425903 6.0 2 -0.051446110010147095
0.6469916105270386 -2.212538003921509 0.20167838037014008 14.0 10 -0.051443807780742645
0.6599230170249939 -2.2582240104675293 -0.3726269602775574 100.0 3 -0.051441505551338196
0.641069769859314 -2.19513201713562 0.28078699111938477 10.0 11 -0.05143919959664345
0.6623769402503967 -2.269562005996704 -0.29029279947280884 100.0 4 -0.051436897367239
0.6454662084579468 -2.2130563259124756 0.3651180863380432 9.0 12 -0.05143459141254425
0.6292685866355896 -2.1575210094451904 -0.19662334024906158 88.0 5 -0.0514322891831398
0.6493619084358215 -2.2278597354888916 0.45107248425483704 8.0 13 -0.05142998322844505
0.6395469307899475 -2.195613145828247 -0.11984935402870178 48.0 6 -0.051427680999040604
0.6421554088592529 -2.206000804901123 0.5304346084594727 8.0 14 -0.051425375044345856
0.637884259223938 -2.1927545070648193 -0.039861299097537994 98.0 7 -0.051423072814941406
0.6417587995529175 -2.207510471343994 0.6159893274307251 9.0 15 -0.05142076686024666
0.3624928891658783 -1.2526031732559204 -0.3494057059288025 21.0 0 -0.05140003189444542
0.6311057209968567 -2.182227849960327 0.039651867002248764 41.0 8 -0.05139772593975067
0.43718281388282776 -1.5126731395721436 -0.36352092027664185 7.0 1 -0.05139542371034622
0.6345639228820801 -2.1970584392547607 0.11984935402870178 22.0 9 -0.05139312148094177
0.5344179272651672 -1.850321888923645 -0.37436726689338684 6.0 2 -0.051390815526247025
0.6381590962409973 -2.2109546661376953 0.20132976770401 13.0 10 -0.051388513296842575
0.6536789536476135 -2.266207695007324 -0.37356552481651306 100.0 3 -0.05138620734214783
0.6345033049583435 -2.2011711597442627 0.2812744677066803 10.0 11 -0.05138390511274338
0.6522522568702698 -2.264230251312256 -0.2893178462982178 100.0 4 -0.05138159915804863
0.633912205696106 -2.202008008956909 0.36292800307273865 9.0 12 -0.05137929692864418
0.622836172580719 -2.1635334491729736 -0.19697196781635284 88.0 5 -0.05137699097394943
0.641038715839386 -2.2282261848449707 0.450690895318985 8.0 13 -0.05137468874454498
0.632430911064148 -2.199751377105713 -0.11995401978492737 51.0 6 -0.051372382789850235
0.6322985887527466 -2.200737237930298 0.5286350250244141 8.0 14 -0.051370080560445786
0.628570556640625 -2.189201593399048 -0.03975658118724823 100.0 7 -0.05136777460575104
0.6340494155883789 -2.2097373008728027 0.6159893274307251 8.0 15 -0.05136547237634659
0.35758769512176514 -1.2520031929016113 -0.3488880693912506 31.0 0 -0.05134473741054535
0.6234844326972961 -2.184417486190796 0.039651867002248764 42.0 8 -0.0513424314558506
0.43083080649375916 -1.5104420185089111 -0.36262112855911255 7.0 1 -0.05134012922644615
0.6289179921150208 -2.2049124240875244 0.12016335874795914 21.0 9 -0.051337823271751404
0.5295703411102295 -1.8578401803970337 -0.37551212310791016 6.0 2 -0.051335521042346954
0.6282544136047363 -2.2055039405822754 0.2006325125694275 15.0 10 -0.051333215087652206
0.6457643508911133 -2.2684755325317383 -0.37356552481651306 100.0 3 -0.05133091285824776
0.6284453868865967 -2.2091007232666016 0.2820056974887848 11.0 11 -0.05132860690355301
0.6447404026985168 -2.266380786895752 -0.2893178462982178 100.0 4 -0.05132630467414856
0.6255261898040771 -2.2002980709075928 0.3623022735118866 10.0 12 -0.05132399871945381
0.6131019592285156 -2.1580286026000977 -0.19627472758293152 85.0 5 -0.05132169649004936
0.631111741065979 -2.222895860671997 0.44916439056396484 8.0 13 -0.051319390535354614
0.6258389353752136 -2.2057883739471436 -0.12016335874795914 49.0 6 -0.051317088305950165
0.6239334940910339 -2.1990725994110107 0.5277352333068848 8.0 14 -0.05131478235125542
0.622398316860199 -2.1951215267181396 -0.03982638940215111 100.0 7 -0.05131248012185097
0.6235581636428833 -2.2006754875183105 0.6128835082054138 8.0 15 -0.05131017416715622
0.3544826805591583 -1.2569009065628052 -0.34992337226867676 27.0 0 -0.05128943920135498
0.6140673160552979 -2.178774118423462 0.03951225057244301 44.0 8 -0.05128713697195053
0.42687639594078064 -1.5156139135360718 -0.36352092027664185 7.0 1 -0.05128483101725578
0.6216030120849609 -2.2069857120513916 0.12016335874795914 24.0 9 -0.051282528787851334
0.5223426818847656 -1.8558064699172974 -0.3747488856315613 5.0 2 -0.051280222833156586
0.6187793016433716 -2.1999034881591797 0.19993527233600616 16.0 10 -0.051277920603752136
0.6361002922058105 -2.26299786567688 -0.37231406569480896 100.0 3 -0.05127561464905739
0.6216530799865723 -2.2130837440490723 0.28224945068359375 11.0 11 -0.05127331241965294
0.6393685936927795 -2.276150941848755 -0.29029279947280884 100.0 4 -0.05127100646495819
0.6203616857528687 -2.209967613220215 0.3635537326335907 10.0 12 -0.05126870423555374
0.6027133464813232 -2.1485395431518555 -0.19522884488105774 85.0 5 -0.051266398280858994
0.620557427406311 -2.2136340141296387 0.4468746781349182 8.0 13 -0.051264096051454544
0.6185207366943359 -2.2078516483306885 -0.12016335874795914 49.0 6 -0.051261790096759796
0.6229459047317505 -2.223647356033325 0.5331340432167053 8.0 14 -0.05125948786735535
0.6086463332176208 -2.1740658283233643 -0.03940753638744354 100.0 7 -0.0512571856379509
0.6152162551879883 -2.1990106105804443 0.6118482351303101 8.0 15 -0.05125487968325615
0.35445863008499146 -1.2729578018188477 -0.3540644645690918 19.0 0 -0.05123414471745491
0.6046947240829468 -2.1730923652648926 0.039372626692056656 47.0 8 -0.05123183876276016
0.4166271388530731 -1.4982460737228394 -0.3590219020843506 7.0 1 -0.05122953653335571
