# .PCD v0.7 - Point Cloud Data file format
VERSION 0.7
FIELDS x y z intensity ring time
SIZE 4 4 4 4 4 4
TYPE F F F F F F
COUNT 1 1 1 1 1 1
WIDTH 533
HEIGHT 1
VIEWPOINT 0 0 0 1 0 0 0
POINTS 533
DATA ascii
0.6583959460258484 0.03035845048725605 -0.03454173356294632 100.0 6 -0.0684753954410553
3.6519858837127686 0.16775158047676086 0.8440163731575012 25.0 14 -0.06847308576107025
0.6192575693130493 0.028336890041828156 -0.01082049123942852 5.0 7 -0.0684707835316658
3.637763023376465 0.16582758724689484 0.97574782371521 117.0 15 -0.06846848130226135
1.4609750509262085 0.06480949372053146 -0.3918520510196686 1.0 0 -0.06844774633646011
0.6392788290977478 0.02824690192937851 0.01116954069584608 96.0 8 -0.06844543665647507
1.4835039377212524 0.06529077887535095 -0.34282541275024414 1.0 1 -0.06844313442707062
0.6604585647583008 0.02895176410675049 0.0346464067697525 39.0 9 -0.06844083219766617
0.6178318858146667 0.02708318829536438 -0.12020967900753021 35.0 2 -0.06843852996826172
0.6508913040161133 0.028418563306331635 0.05699985474348068 6.0 10 -0.06843622028827667
0.6334972381591797 0.0275486558675766 -0.1004309356212616 52.0 3 -0.06843391805887222
0.664383053779602 0.02877528965473175 0.08165246248245239 100.0 11 -0.06843161582946777
0.6425723433494568 0.027718285098671913 -0.07897134125232697 15.0 4 -0.06842931360006332
0.6591678261756897 0.028319217264652252 0.1044982373714447 100.0 12 -0.06842701137065887
0.6449392437934875 0.02770792879164219 -0.05647691711783409 31.0 5 -0.06842470169067383
0.6747421622276306 0.028870025649666786 0.13127659261226654 88.0 13 -0.06842239946126938
0.6624888777732849 0.02822991833090782 -0.034751079976558685 95.0 6 -0.06842009723186493
3.660337209701538 0.15533575415611267 0.8458160161972046 19.0 14 -0.06841779500246048
0.6193526983261108 0.026175234466791153 -0.01082049123942852 5.0 7 -0.06841548532247543
3.630598783493042 0.1528024971485138 0.9736772775650024 117.0 15 -0.06841318309307098
1.4534711837768555 0.059393446892499924 -0.38978150486946106 0.0 0 -0.06839244812726974
0.6353774070739746 0.025852767750620842 0.011099730618298054 100.0 8 -0.0683901458978653
1.495405673980713 0.060584906488657 -0.3455248177051544 2.0 1 -0.06838783621788025
0.6605509519577026 0.026761578395962715 0.0346464067697525 36.0 9 -0.0683855339884758
0.6277309060096741 0.025321874767541885 -0.12211776524782181 38.0 2 -0.06838323175907135
0.6708943247795105 0.02694607712328434 0.05874297022819519 6.0 10 -0.0683809295296669
0.6355633735656738 0.02541593462228775 -0.10074380785226822 45.0 3 -0.06837862730026245
0.6505948305130005 0.025902999565005302 0.07994629442691803 100.0 11 -0.0683763176202774
0.670430064201355 0.026692727580666542 -0.08238368481397629 12.0 4 -0.06837401539087296
0.6711010336875916 0.026602456346154213 0.10637544840574265 100.0 12 -0.0683717131614685
0.6589680314064026 0.026006318628787994 -0.057697102427482605 100.0 5 -0.06836941093206406
0.6689535975456238 0.026283154264092445 0.13013173639774323 86.0 13 -0.06836710125207901
0.6506089568138123 0.025448981672525406 -0.03412304446101189 72.0 6 -0.06836479902267456
3.6666738986968994 0.14342428743839264 0.8471657633781433 16.0 14 -0.06836249679327011
0.65140700340271 0.025366339832544327 -0.011378969065845013 12.0 7 -0.06836019456386566
3.6388072967529297 0.1410604864358902 0.97574782371521 117.0 15 -0.06835788488388062
1.461382269859314 0.054863426834344864 -0.3918520510196686 0.0 0 -0.06833714991807938
0.6434529423713684 0.0240444578230381 0.011239349842071533 96.0 8 -0.06833484768867493
1.4994932413101196 0.05577007681131363 -0.3464246392250061 1.0 1 -0.06833254545927048
0.642673134803772 0.02390269562602043 0.03370435908436775 24.0 9 -0.06833024322986603
0.6395828723907471 0.023675983771681786 -0.12440747022628784 37.0 2 -0.06832793354988098
0.6630157828330994 0.02442787028849125 0.05804572254419327 6.0 10 -0.06832563132047653
0.641566276550293 0.023525165393948555 -0.10168241709470749 52.0 3 -0.06832332909107208
0.6506771445274353 0.023745538666844368 0.07994629442691803 100.0 11 -0.06832102686166763
0.6586121916770935 0.024035118520259857 -0.0809212476015091 13.0 4 -0.06831871718168259
0.6711856126785278 0.024376992136240005 0.10637544840574265 100.0 12 -0.06831641495227814
0.6690060496330261 0.02418060228228569 -0.05856866016983986 100.0 5 -0.06831411272287369
0.6768850684165955 0.024347098544239998 0.13165821135044098 80.0 13 -0.06831181049346924
0.6347218751907349 0.02271990478038788 -0.03328566998243332 18.0 6 -0.06830950081348419
3.659339189529419 0.13098624348640442 0.8453661203384399 12.0 14 -0.06830719858407974
0.657482922077179 0.02341943047940731 -0.011483684182167053 30.0 7 -0.06830489635467529
3.6431162357330322 0.12913057208061218 0.9767830967903137 115.0 15 -0.06830259412527084
1.4770019054412842 0.05054588243365288 -0.395993173122406 0.0 0 -0.0682818591594696
0.6475260853767395 0.022046465426683426 0.011309158988296986 90.0 8 -0.06827954947948456
1.4957746267318726 0.05066562443971634 -0.3455248177051544 1.0 1 -0.06827724725008011
0.6527332663536072 0.02199566178023815 0.03422771766781807 22.0 9 -0.06827494502067566
0.6337714791297913 0.021356690675020218 -0.12326261401176453 45.0 2 -0.06827264279127121
0.6790234446525574 0.02276294305920601 0.05944021791219711 6.0 10 -0.06827033311128616
0.6436150670051575 0.02146349474787712 -0.10199528187513351 43.0 3 -0.06826803088188171
0.6547203660011292 0.021719137206673622 0.08043377101421356 100.0 11 -0.06826572865247726
0.65472412109375 0.02160518430173397 -0.08043377101421356 16.0 4 -0.06826342642307281
0.6732409000396729 0.022098595276474953 0.10668832063674927 100.0 12 -0.06826111674308777
0.6511644124984741 0.02125987596809864 -0.05699985474348068 100.0 5 -0.06825881451368332
0.680886447429657 0.022230273112654686 0.13242144882678986 80.0 13 -0.06825651228427887
0.6427786350250244 0.02087409980595112 -0.03370435908436775 7.0 6 -0.06825421005487442
3.6500356197357178 0.1178964376449585 0.8431165814399719 13.0 14 -0.06825190037488937
0.6675539612770081 0.021445101127028465 -0.011658207513391972 68.0 7 -0.06824959814548492
3.647406578063965 0.11653709411621094 0.9778183698654175 117.0 15 -0.06824729591608047
1.461729645729065 0.04465972259640694 -0.3918520510196686 0.0 0 -0.06822656095027924
0.6475991010665894 0.019785871729254723 0.011309158988296986 78.0 8 -0.06822425872087479
1.50373375415802 0.045681096613407135 -0.3473244309425354 1.0 1 -0.06822194904088974
0.6508097052574158 0.01965690217912197 0.03412304446101189 20.0 9 -0.06821964681148529
0.6318830847740173 0.01897456869482994 -0.12288100272417068 38.0 2 -0.06821734458208084
0.6472382545471191 0.019322911277413368 0.05665123090147972 13.0 10 -0.06821504235267639
0.6515874266624451 0.01933893747627735 -0.10324675589799881 43.0 3 -0.06821273267269135
0.6547921299934387 0.01943405345082283 0.08043377101421356 26.0 11 -0.0682104304432869
0.6508270502090454 0.019202375784516335 -0.07994629442691803 24.0 4 -0.06820812821388245
0.6515941619873047 0.019111502915620804 0.10324675589799881 99.0 12 -0.068205825984478
0.6432684659957886 0.018754946067929268 -0.05630260705947876 100.0 5 -0.06820351630449295
0.6809633374214172 0.0197346992790699 0.13242144882678986 76.0 13 -0.0682012140750885
0.6268793344497681 0.018057817593216896 -0.032866984605789185 5.0 6 -0.06819891184568405
3.6601827144622803 0.10479727387428284 0.8453661203384399 18.0 14 -0.0681966096162796
0.6676247119903564 0.019115231931209564 -0.011658207513391972 95.0 7 -0.06819430738687515
3.6400668621063232 0.10358379036188126 0.97574782371521 117.0 15 -0.0681919977068901
1.45415198802948 0.03934834524989128 -0.38978150486946106 0.0 0 -0.06817126274108887
0.6416704058647156 0.017251089215278625 0.01120444480329752 34.0 8 -0.06816896051168442
1.5272676944732666 0.04079333320260048 -0.35272327065467834 0.0 1 -0.06816665828227997
0.6508743762969971 0.017384858801960945 0.03412304446101189 25.0 9 -0.06816434860229492
0.6339080333709717 0.016820980235934258 -0.12326261401176453 45.0 2 -0.06816204637289047
0.6473017930984497 0.017063338309526443 0.05665123090147972 27.0 10 -0.06815974414348602
0.6398027539253235 0.016753923147916794 -0.10136953741312027 56.0 3 -0.06815744191408157
0.6766875982284546 0.01760161481797695 0.08311489969491959 100.0 11 -0.06815513223409653
0.6687529683113098 0.017278432846069336 -0.08213994652032852 28.0 4 -0.06815283000469208
0.6733787655830383 0.01739794947206974 0.10668832063674927 100.0 12 -0.06815052777528763
0.6473134756088257 0.016611460596323013 -0.05665123090147972 100.0 5 -0.06814822554588318
0.6751402020454407 0.01720765046775341 0.13127659261226654 72.0 13 -0.06814592331647873
0.6668709516525269 0.016880428418517113 -0.03496042266488075 4.0 6 -0.06814361363649368
3.6644225120544434 0.09211717545986176 0.8462659120559692 36.0 14 -0.06814131140708923
0.6536939144134521 0.01643272303044796 -0.011413874104619026 100.0 7 -0.06813900917768478
3.6365439891815186 0.0907813012599945 0.974712610244751 117.0 15 -0.06813670694828033
1.469731092453003 0.034636590629816055 -0.3939225971698761 0.0 0 -0.0681159645318985
0.6377257704734802 0.015029040165245533 0.011134634725749493 12.0 8 -0.06811366230249405
3.1171317100524902 0.07291445881128311 -0.7198433876037598 2.0 1 -0.0681113600730896
0.6788851618766785 0.015761936083436012 0.035588450729846954 53.0 9 -0.06810905784368515
0.6339629292488098 0.014608259312808514 -0.12326261401176453 41.0 2 -0.0681067556142807
0.6852028965950012 0.015668997541069984 0.05996314808726311 49.0 10 -0.06810444593429565
0.6319553852081299 0.014451351016759872 -0.10011807084083557 45.0 3 -0.0681021437048912
0.6608656048774719 0.014997378922998905 0.08116498589515686 100.0 11 -0.06809984147548676
0.6668220162391663 0.015016116201877594 -0.08189620822668076 26.0 4 -0.0680975392460823
0.6714605689048767 0.015003006905317307 0.10637544840574265 100.0 12 -0.06809522956609726
0.6473675966262817 0.014351950027048588 -0.05665123090147972 100.0 5 -0.06809292733669281
0.6653797626495361 0.01475127600133419 0.12936849892139435 70.0 13 -0.06809062510728836
0.6509490013122559 0.014317689463496208 -0.03412304446101189 7.0 6 -0.06808832287788391
3.6725010871887207 0.08013404160737991 0.8480655550956726 52.0 14 -0.06808601319789886
0.661744236946106 0.014324042946100235 -0.011553493328392506 95.0 7 -0.06808371096849442
3.6407012939453125 0.07816880941390991 0.97574782371521 117.0 15 -0.06808140873908997
1.4621120691299438 0.02960575371980667 -0.3918520510196686 0.0 0 -0.06806067377328873
0.6617659330368042 0.013284307904541492 0.011553493328392506 9.0 8 -0.06805837154388428
3.1290574073791504 0.06226647272706032 -0.7225428223609924 2.0 1 -0.06805606186389923
0.654973566532135 0.01291925273835659 0.03433239087462425 51.0 9 -0.06805375963449478
0.637933611869812 0.012583142146468163 -0.1240258514881134 41.0 2 -0.06805145740509033
0.6713069677352905 0.013124221935868263 0.05874297022819519 70.0 10 -0.06804915517568588
0.6359520554542542 0.01232199463993311 -0.10074380785226822 45.0 3 -0.06804684549570084
0.66091388463974 0.012690260075032711 0.08116498589515686 100.0 11 -0.06804454326629639
0.6569467186927795 0.012499392032623291 -0.08067751675844193 33.0 4 -0.06804224103689194
0.6675587892532349 0.012584757059812546 0.1057497188448906 93.0 12 -0.06803993880748749
0.6513977646827698 0.012166366912424564 -0.05699985474348068 100.0 5 -0.06803762912750244
0.6693530082702637 0.012501723133027554 0.13013173639774323 61.0 13 -0.06803532689809799
0.6330227255821228 0.011712656356394291 -0.033180996775627136 5.0 6 -0.06803302466869354
3.6649649143218994 0.06717205792665482 0.8462659120559692 40.0 14 -0.06803072243928909
0.6657888293266296 0.012086451053619385 -0.011623302474617958 95.0 7 -0.06802841275930405
3.6486783027648926 0.06559958308935165 0.9778183698654175 120.0 15 -0.0680261105298996
1.4428948163986206 0.023926662281155586 -0.3866756856441498 0.0 0 -0.06800537556409836
0.673804759979248 0.011173302307724953 0.011762921698391438 8.0 8 -0.06800307333469391
1.4964309930801392 0.024553190916776657 -0.3455248177051544 1.0 1 -0.06800077110528946
0.65501469373703 0.010633026249706745 0.03433239087462425 55.0 9 -0.06799846142530441
0.6301234364509583 0.010118961334228516 -0.12249937653541565 51.0 2 -0.06799615919589996
0.6633819937705994 0.010537246242165565 0.05804572254419327 78.0 10 -0.06799385696649551
0.6438933610916138 0.010114976204931736 -0.10199528187513351 57.0 3 -0.06799155473709106
0.6609541773796082 0.010382985696196556 0.08116498589515686 99.0 11 -0.06798924505710602
0.6550014615058899 0.010175446979701519 -0.08043377101421356 39.0 4 -0.06798694282770157
0.6656234860420227 0.010223948396742344 0.10543683916330338 80.0 12 -0.06798464059829712
0.6554206013679504 0.009952820837497711 -0.057348478585481644 100.0 5 -0.06798233836889267
0.6693943738937378 0.010048485361039639 0.13013173639774323 49.0 13 -0.06798002868890762
0.6490378379821777 0.00962930079549551 -0.034018374979496 5.0 6 -0.06797772645950317
3.6612892150878906 0.05368076264858246 0.8453661203384399 37.0 14 -0.06797542423009872
0.6558296084403992 0.009615584276616573 -0.011448778212070465 97.0 7 -0.06797312200069427
3.6527483463287354 0.0529196560382843 0.9788536429405212 117.0 15 -0.06797081232070923
1.4622864723205566 0.019142363220453262 -0.3918520510196686 0.0 0 -0.06795007735490799
0.6518463492393494 0.008419658988714218 0.011378969065845013 6.0 8 -0.06794777512550354
1.5120996236801147 0.01926657371222973 -0.3491240441799164 1.0 1 -0.06794547289609909
0.6590420007705688 0.008397252298891544 0.03454173356294632 55.0 9 -0.06794317066669464
0.6399703621864319 0.008042541332542896 -0.12440747022628784 49.0 2 -0.0679408609867096
0.6594303846359253 0.008172308094799519 0.057697102427482605 79.0 10 -0.06793855875730515
0.6617017984390259 0.008084642700850964 -0.10481110215187073 71.0 3 -0.0679362565279007
0.6709125638008118 0.0080800736322999 0.08238368481397629 56.0 11 -0.06793395429849625
0.6649590730667114 0.007892622612416744 -0.08165246248245239 42.0 4 -0.0679316446185112
0.6577540636062622 0.007807104382663965 0.10418536514043808 53.0 12 -0.06792934238910675
0.6454900503158569 0.007548562251031399 -0.05647691711783409 100.0 5 -0.0679270401597023
0.6772778630256653 0.007802083157002926 0.13165821135044098 48.0 13 -0.06792473793029785
0.6530617475509644 0.007409130223095417 -0.03422771766781807 7.0 6 -0.0679224282503128
3.6711974143981934 0.04100976139307022 0.8476155996322632 31.0 14 -0.06792012602090836
0.6618579626083374 0.0073934015817940235 -0.011553493328392506 100.0 7 -0.0679178237915039
3.649047374725342 0.04012540727853775 0.9778183698654175 113.0 15 -0.06791552156209946
1.390869140625 0.013352073729038239 -0.37269943952560425 1.0 0 -0.06789478659629822
0.6638683080673218 0.006373006850481033 0.01158839836716652 9.0 8 -0.06789247691631317
1.4848741292953491 0.013995335437357426 -0.34282541275024414 1.0 1 -0.06789017468690872
0.6630616784095764 0.00613348837941885 0.034751079976558685 66.0 9 -0.06788787245750427
0.8049011826515198 0.007305437698960304 -0.1564633846282959 100.0 2 -0.06788557022809982
0.6514855623245239 0.005799300502985716 0.05699985474348068 74.0 10 -0.06788326054811478
0.6656755805015564 0.005925615318119526 -0.10543683916330338 100.0 3 -0.06788095831871033
0.6788756847381592 0.0059243058785796165 0.08335863798856735 55.0 11 -0.06787865608930588
0.657041609287262 0.0056194039061665535 -0.08067751675844193 58.0 4 -0.06787635385990143
0.6656786203384399 0.005577088799327612 0.10543683916330338 53.0 12 -0.06787404417991638
0.643520176410675 0.005278820637613535 -0.05630260705947876 100.0 5 -0.06787174195051193
0.6674840450286865 0.005475396756082773 0.1297501176595688 49.0 13 -0.06786943972110748
0.6570771336555481 0.005275660194456577 -0.034437064081430435 7.0 6 -0.06786713749170303
3.67521071434021 0.028866752982139587 0.8485153913497925 27.0 14 -0.06786483526229858
0.6658788919448853 0.005113576073199511 -0.011623302474617958 100.0 7 -0.06786252558231354
3.649164915084839 0.027388380840420723 0.9778183698654175 117.0 15 -0.06786022335290909
1.2711334228515625 0.007987380027770996 -0.34060588479042053 6.0 0 -0.06783948838710785
0.6338916420936584 0.003872229717671871 0.01106482557952404 9.0 8 -0.0678371861577034
1.406965732574463 0.008349122479557991 -0.3248293697834015 1.0 1 -0.06783487647771835
0.6690700650215149 0.003970350604504347 0.03506509214639664 61.0 9 -0.0678325742483139
0.9501994252204895 0.005473226308822632 -0.18470311164855957 75.0 2 -0.06783027201890945
0.6634553074836731 0.0037054489366710186 0.05804572254419327 71.0 10 -0.067827969789505
0.6459387540817261 0.003494883654639125 -0.10230815410614014 97.0 3 -0.06782566010951996
0.661026656627655 0.0034614652395248413 0.08116498589515686 64.0 11 -0.06782335788011551
0.6669825315475464 0.00337592838332057 -0.08189620822668076 75.0 4 -0.06782105565071106
0.6577920317649841 0.0033294109161943197 0.10418536514043808 53.0 12 -0.06781875342130661
0.6495112180709839 0.0031741405837237835 -0.05682554095983505 89.0 5 -0.06781645119190216
0.661609411239624 0.003118111053481698 0.12860526144504547 49.0 13 -0.06781414151191711
0.6710721850395203 0.0030452688224613667 -0.03516976535320282 19.0 6 -0.06781183928251266
3.6772377490997314 0.01604522205889225 0.8489653468132019 25.0 14 -0.06780953705310822
0.6698915958404541 0.0029229980427771807 -0.011693112552165985 95.0 7 -0.06780723482370377
3.649235963821411 0.015287892892956734 0.9778183698654175 117.0 15 -0.06780492514371872
1.2518349885940552 0.0034959588665515184 -0.33542948961257935 23.0 0 -0.06778419017791748
0.6778941750526428 0.0018931330414488912 0.011832731775939465 8.0 8 -0.06778188794851303
1.2491382360458374 0.0032698281574994326 -0.288387268781662 7.0 1 -0.06777958571910858
0.6610908508300781 0.0016154551412910223 0.0346464067697525 63.0 9 -0.06777728348970413
0.8579399585723877 0.0019467491656541824 -0.16676706075668335 64.0 2 -0.06777497380971909
0.6654566526412964 0.0013935307506471872 0.0582200363278389 58.0 10 -0.06777267158031464
0.6538483500480652 0.0013692218344658613 -0.10355963557958603 100.0 3 -0.06777036935091019
0.6610345244407654 0.0012692197924479842 0.08116498589515686 64.0 11 -0.06776806712150574
0.6530944108963013 0.001139994477853179 -0.08019004017114639 61.0 4 -0.06776575744152069
0.6696519255638123 0.0010517071932554245 0.10606258362531662 53.0 12 -0.06776345521211624
0.6614726781845093 0.0009237347403541207 -0.057871412485837936 30.0 5 -0.06776115298271179
0.6694691181182861 0.0009349016472697258 0.13013173639774323 49.0 13 -0.06775885075330734
0.6770703196525574 0.0008273524581454694 -0.03548378124833107 33.0 6 -0.0677565410733223
3.671424627304077 0.0038438341580331326 0.8476155996322632 27.0 14 -0.06775423884391785
0.669897735118866 0.0005847632419317961 -0.011693112552165985 95.0 7 -0.0677519366145134
3.656994342803955 0.0025540145579725504 0.9798889756202698 115.0 15 -0.06774963438510895
1.2499078512191772 -0.0008726003579795361 -0.33491185307502747 34.0 0 -0.06772889941930771
0.681895911693573 -0.000595066521782428 0.011902541853487492 8.0 8 -0.06772658973932266
1.2316031455993652 -0.0012897321721538901 -0.2843381464481354 27.0 1 -0.06772428750991821
0.6570979356765747 -0.0006881115259602666 0.034437064081430435 63.0 9 -0.06772198528051376
0.7519258260726929 -0.0009186511742882431 -0.14615969359874725 100.0 2 -0.06771968305110931
0.6634650230407715 -0.0009263725369237363 0.05804572254419327 45.0 10 -0.06771737337112427
0.6577996015548706 -0.0010332700330764055 -0.10418536514043808 100.0 3 -0.06771507114171982
0.6669900417327881 -0.0011641182936728 0.08189620822668076 70.0 11 -0.06771276891231537
0.6530942320823669 -0.0012538523878902197 -0.08019004017114639 50.0 4 -0.06771046668291092
0.659774661064148 -0.001266677863895893 0.1044982373714447 48.0 12 -0.06770815700292587
0.6654566526412964 -0.0013937311014160514 -0.0582200363278389 18.0 5 -0.06770585477352142
0.6812475323677063 -0.0015457042027264833 0.13242144882678986 56.0 13 -0.06770355254411697
0.6730743050575256 -0.0016446341760456562 -0.035274438560009 78.0 6 -0.06770125031471252
3.6714141368865967 -0.009611760266125202 0.8476155996322632 37.0 14 -0.06769894063472748
0.6558979153633118 -0.0017171403160318732 -0.011448778212070465 80.0 7 -0.06769663840532303
3.6608450412750244 -0.010223032906651497 0.9809242486953735 115.0 15 -0.06769433617591858
1.2267160415649414 -0.004924379754811525 -0.3287002146244049 62.0 0 -0.06767360121011734
0.6878892183303833 -0.002881440334022045 0.012007256038486958 23.0 8 -0.06767129898071289
1.2374383211135864 -0.005399377550929785 -0.2856878638267517 67.0 1 -0.06766898930072784
0.657091498374939 -0.002981807105243206 0.034437064081430435 64.0 9 -0.0676666870713234
0.7676239609718323 -0.003617369569838047 -0.14921264350414276 74.0 2 -0.06766438484191895
0.6674425601959229 -0.0032617654651403427 0.05839434638619423 45.0 10 -0.0676620826125145
0.6716201305389404 -0.0032821809872984886 -0.10637544840574265 100.0 3 -0.06765977293252945
0.6709526777267456 -0.003396025625988841 0.08238368481397629 70.0 11 -0.067657470703125
0.6590415835380554 -0.0034507650416344404 -0.0809212476015091 46.0 4 -0.06765516847372055
0.653840184211731 -0.003537650452926755 0.10355963557958603 42.0 12 -0.0676528662443161
0.6574782729148865 -0.003672089660540223 -0.057522788643836975 11.0 5 -0.06765055656433105
0.6714224815368652 -0.0037499696481972933 0.13051335513591766 48.0 13 -0.0676482543349266
0.6890429854393005 -0.0039686462841928005 -0.03611181303858757 100.0 6 -0.06764595210552216
3.683054208755493 -0.02185594104230404 0.8503150343894958 61.0 14 -0.0676436498761177
0.6438899636268616 -0.003933348692953587 -0.011239349842071533 35.0 7 -0.06764134764671326
3.6569230556488037 -0.022977426648139954 0.9798889756202698 117.0 15 -0.06763903796672821
1.2189624309539795 -0.009361143223941326 -0.3266296684741974 81.0 0 -0.06760382652282715
0.667877733707428 -0.005245606414973736 0.011658207513391972 39.0 8 -0.0676015242934227
1.2257180213928223 -0.009840905666351318 -0.28298842906951904 66.0 1 -0.06759922206401825
0.6610714793205261 -0.005307535640895367 0.0346464067697525 59.0 9 -0.0675969123840332
0.7950913906097412 -0.006522317882627249 -0.1545553058385849 100.0 2 -0.06759461015462875
0.6594578623771667 -0.00552479038015008 0.057697102427482605 53.0 10 -0.0675923079252243
0.6577763557434082 -0.005625514779239893 -0.10418536514043808 97.0 3 -0.06759000569581985
0.6729207038879395 -0.005872489884495735 0.08262742310762405 75.0 11 -0.06758769601583481
0.65505450963974 -0.005830911919474602 -0.08043377101421356 46.0 4 -0.06758539378643036
0.6696262359619141 -0.005960620474070311 0.10606258362531662 46.0 12 -0.06758309155702591
0.6554691791534424 -0.005949012469500303 -0.057348478585481644 11.0 5 -0.06758078932762146
0.6635516285896301 -0.006138189230114222 0.1289868950843811 45.0 13 -0.06757847964763641
0.6710492968559265 -0.006324677728116512 -0.03516976535320282 100.0 6 -0.06757617741823196
3.6868464946746826 -0.03539227694272995 0.8512148261070251 73.0 14 -0.06757387518882751
0.6398730874061584 -0.006142530124634504 -0.01116954069584608 13.0 7 -0.06757157295942307
3.656820774078369 -0.03574233129620552 0.9798889756202698 115.0 15 -0.06756926327943802
1.209263801574707 -0.013508168049156666 -0.3240414559841156 78.0 0 -0.06754852831363678
0.6618579626083374 -0.007393332198262215 0.011553493328392506 81.0 8 -0.06754622608423233
1.2081412076950073 -0.013706514611840248 -0.27893930673599243 74.0 1 -0.06754392385482788
0.6730316877365112 -0.0077531104907393456 0.035274438560009 50.0 9 -0.06754162162542343
0.8500310778617859 -0.009940465912222862 -0.1652406007051468 100.0 2 -0.06753931194543839
0.6634189486503601 -0.00787398498505354 0.05804572254419327 45.0 10 -0.06753700971603394
0.6538037061691284 -0.007759863510727882 -0.10355963557958603 100.0 3 -0.06753470748662949
0.6669426560401917 -0.00803222693502903 0.08189620822668076 91.0 11 -0.06753240525722504
0.6550316214561462 -0.008003119379281998 -0.08043377101421356 46.0 4 -0.06753009557723999
0.6794774532318115 -0.008420404978096485 0.10762692242860794 44.0 12 -0.06752779334783554
0.6673977971076965 -0.008387208916246891 -0.05839434638619423 10.0 5 -0.06752549111843109
0.6596013903617859 -0.008289231918752193 0.12822365760803223 41.0 13 -0.06752318888902664
0.6630362272262573 -0.00844813697040081 -0.034751079976558685 100.0 6 -0.0675208792090416
3.682811975479126 -0.04756776615977287 0.8503150343894958 88.0 14 -0.06751857697963715
0.6578435301780701 -0.008611643686890602 -0.011483684182167053 7.0 7 -0.0675162747502327
3.6566736698150635 -0.04850680008530617 0.9798889756202698 115.0 15 -0.06751397252082825
1.2130755186080933 -0.017574124038219452 -0.32507672905921936 78.0 0 -0.06749323755502701
0.6578291654586792 -0.009644970297813416 0.011483684182167053 100.0 8 -0.06749092787504196
1.196394920349121 -0.017750177532434464 -0.27623990178108215 74.0 1 -0.06748862564563751
0.6749975681304932 -0.010132360272109509 0.035379111766815186 15.0 9 -0.06748632341623306
0.808769702911377 -0.012140408158302307 -0.15722662210464478 80.0 2 -0.06748402118682861
0.6653814315795898 -0.010104170069098473 0.0582200363278389 52.0 10 -0.06748171150684357
0.6577228307723999 -0.010102692060172558 -0.10418536514043808 100.0 3 -0.06747940927743912
0.6569863557815552 -0.010206072591245174 0.08067751675844193 100.0 11 -0.06747710704803467
0.6549996733665466 -0.010289556346833706 -0.08043377101421356 41.0 4 -0.06747480481863022
0.6853693127632141 -0.010886291041970253 0.10856552422046661 46.0 12 -0.06747249513864517
0.6673663258552551 -0.010600334033370018 -0.05839434638619423 21.0 5 -0.06747019290924072
0.651716411113739 -0.010465528815984726 0.12669718265533447 34.0 13 -0.06746789067983627
0.6570117473602295 -0.01066526398062706 -0.034437064081430435 100.0 6 -0.06746558845043182
3.6670355796813965 -0.06016713008284569 0.8467158079147339 91.0 14 -0.06746328622102737
0.6598088145256042 -0.010941047221422195 -0.011518588289618492 7.0 7 -0.06746097654104233
3.664208173751831 -0.061400141566991806 0.9819594621658325 113.0 15 -0.06745867431163788
1.213006854057312 -0.02180843986570835 -0.32507672905921936 76.0 0 -0.06743793934583664
0.6517933011054993 -0.011832275427877903 0.011378969065845013 100.0 8 -0.06743563711643219
1.196325659751892 -0.021926265209913254 -0.27623990178108215 77.0 1 -0.06743332743644714
0.6489981412887573 -0.012008151970803738 0.034018374979496 7.0 9 -0.0674310252070427
0.8303145170211792 -0.015362976118922234 -0.1614244133234024 100.0 2 -0.06742872297763824
0.6832704544067383 -0.012761573307216167 0.059788838028907776 73.0 10 -0.0674264207482338
0.663608729839325 -0.012510211206972599 -0.10512397438287735 100.0 3 -0.06742411106824875
0.6728245615959167 -0.012801419012248516 0.08262742310762405 100.0 11 -0.0674218088388443
0.6509903073310852 -0.012499652802944183 -0.07994629442691803 45.0 4 -0.06741950660943985
0.6754520535469055 -0.013087273575365543 0.10700118541717529 46.0 12 -0.0674172043800354
0.6673252582550049 -0.01292981207370758 -0.05839434638619423 32.0 5 -0.06741490215063095
0.6516759395599365 -0.012740381062030792 0.12669718265533447 21.0 13 -0.0674125924706459
0.6669548153877258 -0.01315553579479456 -0.03496042266488075 100.0 6 -0.06741029024124146
3.6668031215667725 -0.07296710461378098 0.8467158079147339 97.0 14 -0.067407988011837
0.6497701406478882 -0.013043474406003952 -0.011344064027071 7.0 7 -0.06740568578243256
3.6716978549957275 -0.07434667646884918 0.9840300679206848 115.0 15 -0.06740337610244751
1.1955405473709106 -0.025669271126389503 -0.32041797041893005 69.0 0 -0.06738264113664627
0.6577457785606384 -0.014237212017178535 0.011483684182167053 100.0 8 -0.06738033890724182
1.1962417364120483 -0.026102088391780853 -0.27623990178108215 80.0 1 -0.06737803667783737
0.6649289727210999 -0.014508802443742752 0.03485574945807457 6.0 9 -0.06737572699785233
0.7988513112068176 -0.017570490017533302 -0.15531852841377258 99.0 2 -0.06737342476844788
0.6732622981071472 -0.01492576114833355 0.05891728401184082 100.0 10 -0.06737112253904343
0.6596112251281738 -0.01473830733448267 -0.1044982373714447 78.0 3 -0.06736882030963898
0.6628528237342834 -0.0149264857172966 0.08140873163938522 100.0 11 -0.06736651808023453
0.6588810086250305 -0.014952100813388824 -0.0809212476015091 39.0 4 -0.06736420840024948
3.6554813385009766 -0.08295447379350662 0.5791204571723938 15.0 12 -0.06736190617084503
0.6613004207611084 -0.015122485347092152 -0.057871412485837936 45.0 5 -0.06735960394144058
3.6820878982543945 -0.08484421670436859 0.7159153819084167 13.0 13 -0.06735730171203613
0.6708983182907104 -0.015576278790831566 -0.03516976535320282 100.0 6 -0.06735499203205109
3.674318790435791 -0.08594846725463867 0.8485153913497925 91.0 14 -0.06735268980264664
0.6317309737205505 -0.014777245000004768 -0.011029920540750027 5.0 7 -0.06735038757324219
3.6675679683685303 -0.08643103390932083 0.9829947352409363 115.0 15 -0.06734808534383774
1.1877187490463257 -0.029649488627910614 -0.31834742426872253 64.0 0 -0.0673273429274559
0.657694935798645 -0.016418296843767166 0.011483684182167053 100.0 8 -0.06732504069805145
1.2000449895858765 -0.03016677126288414 -0.27713972330093384 84.0 1 -0.067322738468647
0.6688675880432129 -0.016930829733610153 0.03506509214639664 6.0 9 -0.06732043623924255
0.8262618184089661 -0.021059202030301094 -0.16066119074821472 100.0 2 -0.0673181340098381
0.665239155292511 -0.017071345821022987 0.0582200363278389 100.0 10 -0.06731582432985306
0.6437609195709229 -0.016520172357559204 -0.10199528187513351 43.0 3 -0.06731352210044861
0.6766906380653381 -0.01748339831829071 0.08311489969491959 100.0 11 -0.06731121987104416
0.6647810339927673 -0.017291799187660217 -0.08165246248245239 35.0 4 -0.06730891764163971
3.659118890762329 -0.09581740945577621 0.5797461867332458 28.0 12 -0.06730660796165466
0.6532768607139587 -0.0172207523137331 -0.057174164801836014 48.0 5 -0.06730430573225021
3.6660854816436768 -0.09664011746644974 0.7128624320030212 26.0 13 -0.06730200350284576
0.6748360991477966 -0.017906930297613144 -0.035379111766815186 100.0 6 -0.06729970127344131
3.6798579692840576 -0.09828858077526093 0.8498651385307312 94.0 14 -0.06729739159345627
0.6496663093566895 -0.0174659825861454 -0.011344064027071 7.0 7 -0.06729508936405182
3.6595194339752197 -0.09902368485927582 0.9809242486953735 115.0 15 -0.06729278713464737
1.187613844871521 -0.03358794376254082 -0.31834742426872253 67.0 0 -0.06727205216884613
0.643641471862793 -0.018315810710191727 0.011239349842071533 100.0 8 -0.06726974993944168
1.1901925802230835 -0.034076664596796036 -0.2748901844024658 87.0 1 -0.06726744025945663
0.6727972626686096 -0.01938052661716938 0.035274438560009 6.0 9 -0.06726513803005219
0.8104879260063171 -0.023346830159425735 -0.1576082408428192 94.0 2 -0.06726283580064774
0.6651788949966431 -0.019277265295386314 0.0582200363278389 100.0 10 -0.06726053357124329
0.6318521499633789 -0.018421808257699013 -0.10011807084083557 21.0 3 -0.06725822389125824
0.6686885356903076 -0.019612593576312065 0.08213994652032852 100.0 11 -0.06725592166185379
0.6726536154747009 -0.019846389070153236 -0.08262742310762405 40.0 4 -0.06725361943244934
3.6646857261657715 -0.10876532644033432 0.5806847810745239 50.0 12 -0.06725131720304489
0.6552076935768127 -0.019446108490228653 -0.057348478585481644 75.0 5 -0.06724900752305984
3.65395188331604 -0.10908505320549011 0.7105727195739746 42.0 13 -0.0672467052936554
0.6667840480804443 -0.020022645592689514 -0.03496042266488075 100.0 6 -0.06724440306425095
3.6892316341400146 -0.11142724752426147 0.8521146178245544 97.0 14 -0.0672421008348465
0.6555976867675781 -0.019915791228413582 -0.011448778212070465 5.0 7 -0.06723979115486145
3.6745991706848145 -0.11226916313171387 0.9850653409957886 113.0 15 -0.067237488925457
1.1894203424453735 -0.03779463842511177 -0.3188650906085968 74.0 0 -0.06721675395965576
0.6435735821723938 -0.0205624271184206 0.011239349842071533 100.0 8 -0.06721445173025131
1.1861709356307983 -0.038105856627225876 -0.2739903926849365 85.0 1 -0.06721214950084686
0.6727254986763 -0.021728908643126488 0.035274438560009 6.0 9 -0.06720983982086182
0.8319859504699707 -0.026872992515563965 -0.16180603206157684 100.0 2 -0.06720753759145737
0.6710814833641052 -0.021793056279420853 0.05874297022819519 100.0 10 -0.06720523536205292
0.6475785374641418 -0.021142954006791115 -0.10262101888656616 10.0 3 -0.06720293313264847
0.6765521168708801 -0.022207127884030342 0.08311489969491959 100.0 11 -0.06720062345266342
0.6646441221237183 -0.021932387724518776 -0.08165246248245239 68.0 4 -0.06719832122325897
3.6741552352905273 -0.121884286403656 0.5822491645812988 76.0 12 -0.06719601899385452
0.6611096858978271 -0.021931268274784088 -0.057871412485837936 78.0 5 -0.06719371676445007
3.659435510635376 -0.12203536927700043 0.7117176055908203 67.0 13 -0.06719140708446503
0.6607216596603394 -0.022149287164211273 -0.0346464067697525 100.0 6 -0.06718910485506058
3.679082155227661 -0.12397623062133789 0.8498651385307312 100.0 14 -0.06718680262565613
0.6555241942405701 -0.02220413275063038 -0.011448778212070465 7.0 7 -0.06718450039625168
3.6819076538085938 -0.12535816431045532 0.9871358871459961 113.0 15 -0.06718219816684723
1.1931424140930176 -0.04208245500922203 -0.31990036368370056 81.0 0 -0.0671614557504654
0.6474946737289429 -0.02295045740902424 0.011309158988296986 100.0 8 -0.06715915352106094
1.1899256706237793 -0.04238487780094147 -0.2748901844024658 90.0 1 -0.0671568512916565
0.6566777229309082 -0.023505467921495438 0.034437064081430435 6.0 9 -0.06715454906225204
0.7573311924934387 -0.027108309790492058 -0.14730454981327057 100.0 2 -0.067152239382267
0.6829479336738586 -0.02456514909863472 0.059788838028907776 100.0 10 -0.06714993715286255
0.6277599334716797 -0.022689780220389366 -0.09949233382940292 7.0 3 -0.0671476349234581
0.664567768573761 -0.02413630671799183 0.08165246248245239 100.0 11 -0.06714533269405365
0.6546447277069092 -0.02389032207429409 -0.08043377101421356 93.0 4 -0.0671430230140686
3.665811061859131 -0.13441918790340424 0.5809977054595947 93.0 12 -0.06714072078466415
0.6769574284553528 -0.02482290007174015 -0.059265900403261185 100.0 5 -0.0671384185552597
3.6727206707000732 -0.13531441986560822 0.714388906955719 78.0 13 -0.06713611632585526
0.658644437789917 -0.024381615221500397 -0.03454173356294632 95.0 6 -0.0671338140964508
3.6688897609710693 -0.1364557296037674 0.8476155996322632 91.0 14 -0.06713150441646576
0.6574410200119019 -0.024566875770688057 -0.011483684182167053 15.0 7 -0.06712920218706131
3.6853086948394775 -0.1383545845746994 0.9881711006164551 113.0 15 -0.06712689995765686
1.1794754266738892 -0.04572320356965065 -0.316276878118515 89.0 0 -0.06710616499185562
0.6653942465782166 -0.025910789147019386 0.011623302474617958 100.0 8 -0.06710385531187057
1.1897704601287842 -0.04653823748230934 -0.2748901844024658 89.0 1 -0.06710155308246613
0.666570246219635 -0.026189617812633514 0.03496042266488075 7.0 9 -0.06709925085306168
0.7003414630889893 -0.027516493573784828 -0.13623763620853424 100.0 2 -0.06709694862365723
0.6748946905136108 -0.026634657755494118 0.05909159407019615 100.0 10 -0.06709463894367218
0.6434674263000488 -0.025506867095828056 -0.10199528187513351 6.0 3 -0.06709233671426773
0.6743971109390259 -0.026850799098610878 0.08287115395069122 100.0 11 -0.06709003448486328
0.6624913215637207 -0.026492590084671974 -0.08140873163938522 87.0 4 -0.06708773225545883
3.661371946334839 -0.14705589413642883 0.5803719758987427 100.0 12 -0.06708543002605438
0.6549680829048157 -0.026306236162781715 -0.057348478585481644 100.0 5 -0.06708312034606934
3.6722257137298584 -0.1481337696313858 0.714388906955719 88.0 13 -0.06708081811666489
0.6705290079116821 -0.027165666222572327 -0.03516976535320282 35.0 6 -0.06707851588726044
3.6761796474456787 -0.14957861602306366 0.8494152426719666 91.0 14 -0.06707621365785599
0.659349262714386 -0.02694327011704445 -0.011518588289618492 25.0 7 -0.06707390397787094
3.673222064971924 -0.15074260532855988 0.9850653409957886 115.0 15 -0.06707160174846649
1.1735183000564575 -0.04959534853696823 -0.3147239685058594 85.0 0 -0.06705086678266525
0.6473186612129211 -0.02747022733092308 0.011309158988296986 100.0 8 -0.0670485645532608
1.1973886489868164 -0.051022883504629135 -0.2766897976398468 83.0 1 -0.06704625487327576
0.6744565367698669 -0.02885773405432701 0.035379111766815186 7.0 9 -0.06704395264387131
0.6590505242347717 -0.02819856069982052 -0.12822365760803223 100.0 2 -0.06704165041446686
0.6688259840011597 -0.028733765706419945 0.05856866016983986 100.0 10 -0.06703934818506241
0.6275862455368042 -0.02707178331911564 -0.09949233382940292 7.0 3 -0.06703704595565796
0.6703328490257263 -0.029032930731773376 0.08238368481397629 100.0 11 -0.06703473627567291
0.6584283709526062 -0.028632469475269318 -0.0809212476015091 100.0 4 -0.06703243404626846
3.6608364582061768 -0.1598355621099472 0.5803719758987427 98.0 12 -0.06703013181686401
0.6528818011283875 -0.028505433350801468 -0.057174164801836014 97.0 5 -0.06702782958745956
3.6716864109039307 -0.16095134615898132 0.714388906955719 92.0 13 -0.06702551990747452
0.6584581136703491 -0.028979189693927765 -0.03454173356294632 17.0 6 -0.06702321767807007
3.689263105392456 -0.16301211714744568 0.8525645732879639 94.0 14 -0.06702091544866562
0.6872193813323975 -0.03048534505069256 -0.012007256038486958 76.0 7 -0.06701861321926117
3.668813705444336 -0.16339172422885895 0.9840300679206848 115.0 15 -0.06701630353927612
1.1733380556106567 -0.05369139462709427 -0.3147239685058594 85.0 0 -0.06699556857347488
0.6392285823822021 -0.029362592846155167 0.01116954069584608 96.0 8 -0.06699326634407043
1.197203278541565 -0.05520223453640938 -0.2766897976398468 78.0 1 -0.06699096411466599
0.6823320984840393 -0.03158121928572655 0.03579779714345932 10.0 9 -0.06698866188526154
0.6628703474998474 -0.030680445954203606 -0.1289868950843811 100.0 2 -0.06698635220527649
0.6766824722290039 -0.031438086181879044 0.059265900403261185 100.0 10 -0.06698404997587204
0.6235414147377014 -0.02907826192677021 -0.09886659681797028 7.0 3 -0.06698174774646759
0.6583297848701477 -0.030815735459327698 0.0809212476015091 100.0 11 -0.06697944551706314
0.6622902750968933 -0.031116969883441925 -0.08140873163938522 96.0 4 -0.0669771358370781
3.666175365447998 -0.17289245128631592 0.581310510635376 96.0 12 -0.06697483360767365
0.6627291440963745 -0.03125351294875145 -0.05804572254419327 100.0 5 -0.0669725313782692
3.667180061340332 -0.1735813021659851 0.7136256694793701 90.0 13 -0.06697022914886475
0.6583529710769653 -0.03127746284008026 -0.03454173356294632 15.0 6 -0.0669679194688797
3.6945111751556396 -0.17616751790046692 0.8539142608642578 97.0 14 -0.06696561723947525
0.6811165809631348 -0.03259722515940666 -0.011902541853487492 100.0 7 -0.0669633150100708
3.6759393215179443 -0.17656803131103516 0.9861006140708923 113.0 15 -0.06696101278066635
1.184720516204834 -0.05835704132914543 -0.31782978773117065 89.0 0 -0.06694027781486511
0.6491084098815918 -0.03208739310503006 0.011344064027071 62.0 8 -0.06693796813488007
1.1833789348602295 -0.05870503932237625 -0.2735404968261719 74.0 1 -0.06693566590547562
0.6882021427154541 -0.03426073119044304 0.03611181303858757 27.0 9 -0.06693336367607117
0.6686417460441589 -0.03328695520758629 -0.13013173639774323 100.0 2 -0.06693106144666672
0.6845283508300781 -0.0341976061463356 0.05996314808726311 100.0 10 -0.06692875176668167
0.6471109390258789 -0.03244153410196304 -0.10262101888656616 6.0 3 -0.06692644953727722
0.650287926197052 -0.032714590430259705 0.07994629442691803 100.0 11 -0.06692414730787277
0.658212423324585 -0.03322842717170715 -0.0809212476015091 95.0 4 -0.06692184507846832
3.673441171646118 -0.18608850240707397 0.5825620293617249 96.0 12 -0.06691953539848328
0.6626160144805908 -0.0335666798055172 -0.05804572254419327 86.0 5 -0.06691723316907883
3.670473337173462 -0.18658040463924408 0.714388906955719 93.0 13 -0.06691493093967438
0.6582397818565369 -0.03357534855604172 -0.03454173356294632 15.0 6 -0.06691262871026993
3.691927671432495 -0.18896307051181793 0.8534643650054932 100.0 14 -0.06691031903028488
0.6829956769943237 -0.03507712855935097 -0.01193744596093893 100.0 7 -0.06690801680088043
3.6868762969970703 -0.1899949163198471 0.9892064332962036 111.0 15 -0.06690571457147598
1.1922262907028198 -0.06289924681186676 -0.31990036368370056 79.0 0 -0.06688497960567474
0.6789459586143494 -0.035938531160354614 0.011867635883390903 17.0 8 -0.0668826773762703
1.2065186500549316 -0.06407561898231506 -0.27893930673599243 75.0 1 -0.06688036769628525
0.6681340336799622 -0.03560010716319084 0.03506509214639664 76.0 9 -0.0668780654668808
0.6626400351524353 -0.035307370126247406 -0.1289868950843811 100.0 2 -0.06687576323747635
0.6983315944671631 -0.03733134642243385 0.06118332967162132 100.0 10 -0.0668734610080719
0.6430485844612122 -0.03448859229683876 -0.10199528187513351 6.0 3 -0.06687115132808685
0.6580986380577087 -0.035410959273576736 0.0809212476015091 26.0 11 -0.0668688490986824
0.6541280746459961 -0.035311806946992874 -0.08043377101421356 95.0 4 -0.06686654686927795
3.666851758956909 -0.19858957827091217 0.5816234350204468 98.0 12 -0.0668642446398735
0.6704527139663696 -0.03631041944026947 -0.05874297022819519 54.0 5 -0.06686193495988846
3.6815619468688965 -0.20003068447113037 0.7166786193847656 96.0 13 -0.06685963273048401
0.6481471061706543 -0.03532930463552475 -0.034018374979496 17.0 6 -0.06685733050107956
3.681516170501709 -0.20131713151931763 0.8512148261070251 91.0 14 -0.06685502827167511
0.6688922643661499 -0.03669426962733269 -0.011693112552165985 100.0 7 -0.06685272604227066
3.693906307220459 -0.20328795909881592 0.9912769794464111 113.0 15 -0.06685041636228561
1.1804267168045044 -0.06640944629907608 -0.3167945444583893 78.0 0 -0.06682968139648438
0.6688337922096252 -0.0377449207007885 0.011693112552165985 15.0 8 -0.06682737916707993
1.2160156965255737 -0.06883745640516281 -0.28118881583213806 84.0 1 -0.06682507693767548
0.6700063943862915 -0.03792840614914894 0.03516976535320282 81.0 9 -0.06682276725769043
0.654672384262085 -0.03717498853802681 -0.12746042013168335 100.0 2 -0.06682046502828598
0.6723378896713257 -0.03829583898186684 0.05891728401184082 57.0 10 -0.06681816279888153
0.6409521698951721 -0.0366203598678112 -0.10168241709470749 7.0 3 -0.06681586056947708
0.6678802371025085 -0.0382758304476738 0.08213994652032852 100.0 11 -0.06681355088949203
0.661928117275238 -0.03805062174797058 -0.08140873163938522 92.0 4 -0.06681124866008759
3.662229061126709 -0.21052148938179016 0.5809977054595947 98.0 12 -0.06680894643068314
0.6603764891624451 -0.03807706758379936 -0.057871412485837936 52.0 5 -0.06680664420127869
3.688680648803711 -0.21333394944667816 0.7182050943374634 93.0 13 -0.06680434197187424
0.6679588556289673 -0.038748208433389664 -0.03506509214639664 23.0 6 -0.06680203229188919
3.694409132003784 -0.21495915949344635 0.8543641567230225 94.0 14 -0.06679973006248474
0.6647741794586182 -0.038679879158735275 -0.011623302474617958 100.0 7 -0.06679742783308029
3.685497760772705 -0.21508607268333435 0.9892064332962036 113.0 15 -0.06679512560367584
1.178259253501892 -0.07041424512863159 -0.316276878118515 69.0 0 -0.066774383187294
0.656728208065033 -0.039246898144483566 0.011483684182167053 18.0 8 -0.06677208095788956
1.225507140159607 -0.07345249503850937 -0.2834383547306061 96.0 1 -0.06676977872848511
0.6658825874328613 -0.04002724960446358 0.03496042266488075 68.0 9 -0.06676747649908066
0.6623774170875549 -0.03993256762623787 -0.1289868950843811 100.0 2 -0.06676517426967621
0.6682226061820984 -0.040402013808488846 0.05856866016983986 19.0 10 -0.06676286458969116
0.654629647731781 -0.03958015516400337 -0.10387250036001205 23.0 3 -0.06676056236028671
0.6915270686149597 -0.041932184249162674 0.08506480604410172 100.0 11 -0.06675826013088226
0.6578354239463806 -0.04000445082783699 -0.0809212476015091 100.0 4 -0.06675595790147781
3.6654152870178223 -0.22354426980018616 0.5816234350204468 100.0 12 -0.06675364822149277
0.6582509279251099 -0.040260352194309235 -0.057697102427482605 45.0 5 -0.06675134599208832
3.6918723583221436 -0.22580458223819733 0.7189683318138123 93.0 13 -0.06674904376268387
0.6738072633743286 -0.04132986068725586 -0.035379111766815186 28.0 6 -0.06674674153327942
3.6917312145233154 -0.22708944976329803 0.8539142608642578 97.0 14 -0.06674443185329437
0.6726188063621521 -0.04149263724684715 -0.011762921698391438 100.0 7 -0.06674212962388992
3.680868148803711 -0.22771099209785461 0.9881711006164551 113.0 15 -0.06673982739448547
1.1972994804382324 -0.07553749531507492 -0.3214532732963562 64.0 0 -0.06671909242868423
0.6525957584381104 -0.04128654673695564 0.011413874104619026 15.0 8 -0.06671679019927979
1.2135741710662842 -0.07698957622051239 -0.2807389199733734 89.0 1 -0.06671448051929474
0.6677394509315491 -0.04236162453889847 0.03506509214639664 73.0 9 -0.06671217828989029
0.6681191921234131 -0.04250279814004898 -0.13013173639774323 100.0 2 -0.06670987606048584
0.6581432819366455 -0.041983503848314285 0.057697102427482605 13.0 10 -0.06670757383108139
0.6505448222160339 -0.04161280021071434 -0.10324675589799881 54.0 3 -0.06670526415109634
0.6755282878875732 -0.043329279869794846 0.08311489969491959 100.0 11 -0.0667029619216919
0.6656157970428467 -0.04281012713909149 -0.08189620822668076 92.0 4 -0.06670065969228745
3.6764814853668213 -0.2364586889743805 0.5835006237030029 98.0 12 -0.066698357462883
0.6601020097732544 -0.04257119074463844 -0.057871412485837936 52.0 5 -0.06669604778289795
3.679306745529175 -0.2379300743341446 0.7166786193847656 92.0 13 -0.0666937455534935
0.6756519675254822 -0.04381086677312851 -0.03548378124833107 40.0 6 -0.06669144332408905
3.7025835514068604 -0.24073323607444763 0.8566136360168457 97.0 14 -0.0666891410946846
0.6824548840522766 -0.044371604919433594 -0.01193744596093893 100.0 7 -0.06668683141469955
3.6878039836883545 -0.24041864275932312 0.9902417063713074 113.0 15 -0.0666845291852951
1.2008836269378662 -0.07997312396764755 -0.32248854637145996 72.0 0 -0.06666379421949387
0.6644268035888672 -0.04424766078591347 0.011623302474617958 12.0 8 -0.06666149199008942
1.2133122682571411 -0.0810135081410408 -0.2807389199733734 92.0 1 -0.06665918976068497
0.6636018753051758 -0.044425398111343384 0.03485574945807457 76.0 9 -0.06665688008069992
0.6660078763961792 -0.044703222811222076 -0.1297501176595688 100.0 2 -0.06665457785129547
0.677871584892273 -0.04561838507652283 0.05944021791219711 12.0 10 -0.06665227562189102
0.6681415438652039 -0.04496358335018158 -0.10606258362531662 100.0 3 -0.06664997339248657
0.6634973883628845 -0.04476737231016159 0.08165246248245239 100.0 11 -0.06664766371250153
0.663489580154419 -0.04488316923379898 -0.08165246248245239 70.0 4 -0.06664536148309708
3.6776044368743896 -0.2494242638349533 0.583813488483429 96.0 12 -0.06664305925369263
0.6619371771812439 -0.0450102798640728 -0.05804572254419327 41.0 5 -0.06664075702428818
3.6863324642181396 -0.25066253542900085 0.7182050943374634 92.0 13 -0.06663844734430313
0.6615545153617859 -0.04510026425123215 -0.034751079976558685 45.0 6 -0.06663614511489868
3.6998207569122314 -0.25287720561027527 0.8561637997627258 100.0 14 -0.06663384288549423
0.6822957992553711 -0.04675354063510895 -0.01193744596093893 100.0 7 -0.06663154065608978
3.6985063552856445 -0.2540844678878784 0.9933475852012634 111.0 15 -0.06662923097610474
1.2141019105911255 -0.08489827066659927 -0.3261120319366455 74.0 0 -0.0666084960103035
