# .PCD v0.7 - Point Cloud Data file format
VERSION 0.7
FIELDS x y z intensity ring time
SIZE 4 4 4 4 4 4
TYPE F F F F F F
COUNT 1 1 1 1 1 1
WIDTH 545
HEIGHT 1
VIEWPOINT 0 0 0 1 0 0 0
POINTS 545
DATA ascii
-3.402928352355957 4.0411057472229 1.2196847200393677 47.0 14 -0.0048963893204927444
-3.379502058029175 4.016129970550537 1.4064228534698486 63.0 15 -0.004891781136393547
-2.0779147148132324 2.4754831790924072 -0.8660085797309875 6.0 0 -0.004871045239269733
-2.3469326496124268 2.7979576587677 -0.8431165814399719 3.0 1 -0.004866437055170536
-3.439189910888672 4.1015706062316895 0.2805207371711731 2.0 9 -0.004864132963120937
-3.462085723876953 4.130344390869141 0.4715125560760498 34.0 10 -0.004859525244683027
-1.6239243745803833 1.9380643367767334 -0.4004722833633423 1.0 3 -0.004857221152633429
-3.4454216957092285 4.113375186920166 0.658825695514679 54.0 11 -0.00485491706058383
-1.8657209873199463 2.228214740753174 -0.35683348774909973 1.0 4 -0.004852612968534231
-3.4360034465789795 4.105044841766357 0.8478748798370361 51.0 12 -0.00485030934214592
-3.414205312728882 4.080449104309082 1.0341848134994507 39.0 13 -0.004845701158046722
-1.8003789186477661 2.1524658203125 -0.14706405997276306 1.0 6 -0.004843397065997124
-3.4088008403778076 4.07688045501709 1.2268831729888916 47.0 14 -0.004841092973947525
-3.3828024864196777 4.0486578941345215 1.4136697053909302 58.0 15 -0.004836485255509615
-2.0742077827453613 2.4886579513549805 -0.8680790662765503 5.0 0 -0.004815748892724514
-2.335905075073242 2.8046352863311768 -0.842666745185852 3.0 1 -0.004811141174286604
-3.4146275520324707 4.1012725830078125 0.279683381319046 1.0 9 -0.004808837082237005
-3.4718644618988037 4.171499729156494 0.4748244881629944 38.0 10 -0.004804228898137808
-3.4450042247772217 4.1421661376953125 0.6615068912506104 51.0 11 -0.004799621179699898
-3.446906089782715 4.147396564483643 0.8541322350502014 52.0 12 -0.0047950129956007
-3.4212703704833984 4.11801290512085 1.0406723022460938 42.0 13 -0.00479040527716279
-1.7966829538345337 2.1633460521698 -0.147378072142601 2.0 6 -0.004788101185113192
-3.40948748588562 4.106746196746826 1.2322819232940674 47.0 14 -0.004785797093063593
-3.3883867263793945 4.084229946136475 1.4219518899917603 63.0 15 -0.0047811889089643955
-2.0642757415771484 2.4943954944610596 -0.8675615191459656 6.0 0 -0.004760453011840582
-2.327343225479126 2.814272880554199 -0.8431165814399719 3.0 1 -0.004755845293402672
-3.2946667671203613 3.985400915145874 0.2709956169128418 1.0 9 -0.004753541201353073
-3.4864745140075684 4.218916893005371 0.4788336455821991 52.0 10 -0.004748933017253876
-3.453275203704834 4.181718349456787 0.6658941507339478 60.0 11 -0.004744325298815966
-1.7970433235168457 2.1768882274627686 -0.34659644961357117 2.0 4 -0.004742021206766367
-3.4474945068359375 4.177687644958496 0.8578866720199585 57.0 12 -0.004739717114716768
-2.2077972888946533 2.67541766166687 -0.3034762740135193 1.0 5 -0.00473741302266717
-3.4281117916107178 4.155677318572998 1.0471597909927368 46.0 13 -0.004735108930617571
-1.7751435041427612 2.1526541709899902 -0.1462266743183136 1.0 6 -0.0047328053042292595
-3.4124836921691895 4.139674663543701 1.238580584526062 50.0 14 -0.004730501212179661
-1.766382098197937 2.1435554027557373 -0.04848278686404228 2.0 7 -0.004728197120130062
-3.396218776702881 4.122870922088623 1.4312694072723389 63.0 15 -0.004725893028080463
-2.053103446960449 2.4986000061035156 -0.866526186466217 6.0 0 -0.00470515713095665
-2.3150312900543213 2.819368362426758 -0.8422167897224426 4.0 1 -0.004700548946857452
-3.204704523086548 3.9042487144470215 0.2647152841091156 0.0 9 -0.004698244854807854
-3.480571985244751 4.2418437004089355 0.4800538420677185 44.0 10 -0.004693637136369944
-3.4688658714294434 4.230587959289551 0.6717438697814941 66.0 11 -0.004689028952270746
-1.7969835996627808 2.1923601627349854 -0.34805887937545776 4.0 4 -0.004686725325882435
-3.4466629028320312 4.206502914428711 0.8613282442092896 56.0 12 -0.004684421233832836
-2.261582851409912 2.7601640224456787 -0.3121918737888336 1.0 5 -0.0046821171417832375
-3.4434421062469482 4.204068660736084 1.0563186407089233 59.0 13 -0.004679813049733639
-2.2130022048950195 2.7027969360351562 -0.18307119607925415 1.0 6 -0.00467750895768404
-3.430105447769165 4.190769195556641 1.2502779960632324 52.0 14 -0.004675204865634441
-1.7829489707946777 2.1791133880615234 -0.049145977944135666 5.0 7 -0.00467290123924613
-3.3915905952453613 4.146665096282959 1.435410499572754 64.0 15 -0.004670597147196531
-2.045591115951538 2.5072479248046875 -0.8670438528060913 6.0 0 -0.004649861250072718
-2.3187220096588135 2.844045877456665 -0.8471657633781433 4.0 1 -0.00464525306597352
-3.1986281871795654 3.9247000217437744 0.2653433084487915 0.0 9 -0.004642948973923922
-3.4078545570373535 4.1829142570495605 0.4720354974269867 7.0 10 -0.0046383412554860115
-3.4490652084350586 4.236512184143066 0.6707689166069031 52.0 11 -0.004633733071386814
-2.1890339851379395 2.689767837524414 -0.4258115291595459 32.0 4 -0.004631428979337215
-3.429466485977173 4.215443134307861 0.8607025146484375 45.0 12 -0.004629124887287617
-2.2469053268432617 2.7618589401245117 -0.3114946186542511 1.0 5 -0.004626821260899305
-3.4324631690979004 4.2206315994262695 1.057463526725769 53.0 13 -0.004624517168849707
-3.4252891540527344 4.21481466293335 1.2538772821426392 47.0 14 -0.004619908984750509
-1.7652448415756226 2.1729066371917725 -0.04886673763394356 4.0 7 -0.004617605358362198
-3.400233030319214 4.186972141265869 1.445245623588562 68.0 15 -0.004615301266312599
-2.0404741764068604 2.5188770294189453 -0.8685967326164246 6.0 0 -0.004594564903527498
-2.3026487827301025 2.8445498943328857 -0.8449162244796753 3.0 1 -0.004589957185089588
-3.1874208450317383 3.938947916030884 0.26555266976356506 0.0 9 -0.0045876530930399895
-2.2785441875457764 2.815777063369751 -0.7040852308273315 1.0 2 -0.004585349000990391
-3.430510997772217 4.243895530700684 0.6700376868247986 38.0 11 -0.004578437190502882
-2.199594497680664 2.7220964431762695 -0.42971134185791016 60.0 4 -0.004576133098453283
-3.4271421432495117 4.242755889892578 0.8638312220573425 42.0 12 -0.004573829006403685
-2.211733102798462 2.7390739917755127 -0.3080084025859833 1.0 5 -0.004571524914354086
-3.401674509048462 4.21273136138916 1.0525025129318237 39.0 13 -0.0045692212879657745
-3.4093313217163086 4.225229740142822 1.253427267074585 41.0 14 -0.004564613103866577
-3.3831729888916016 4.195807456970215 1.444210410118103 64.0 15 -0.00456000491976738
-2.0360710620880127 2.532360792160034 -0.8706672787666321 6.0 0 -0.004539269022643566
-1.7316696643829346 2.153761863708496 0.04823845252394676 1.0 8 -0.0045369649305939674
-2.2853810787200928 2.8434557914733887 -0.8422167897224426 3.0 1 -0.004534660838544369
-3.1736528873443604 3.9500491619110107 0.26555266976356506 0.0 9 -0.004532357212156057
-3.0811960697174072 3.8390889167785645 -0.779669463634491 1.0 3 -0.004525444936007261
-3.4305875301361084 4.274421215057373 0.6729626059532166 40.0 11 -0.00452314130961895
-2.182626247406006 2.7204673290252686 -0.42824891209602356 62.0 4 -0.004520837217569351
-3.4308505058288574 4.277807712554932 0.8685241937637329 41.0 12 -0.0045185331255197525
-2.217114210128784 2.7654309272766113 -0.31010010838508606 1.0 5 -0.004516229033470154
-3.4070847034454346 4.251213550567627 1.0589900016784668 37.0 13 -0.004513924941420555
-3.397477149963379 4.242259502410889 1.2547770738601685 36.0 14 -0.004509317222982645
-2.18503999710083 2.7283499240875244 -0.061013612896203995 1.0 7 -0.004507013130933046
-3.3817880153656006 4.224179744720459 1.4499043226242065 57.0 15 -0.004504709038883448
-2.0296287536621094 2.5424726009368896 -0.8717026114463806 6.0 0 -0.004483973141759634
-1.7462158203125 2.188228130340576 0.04886673763394356 2.0 8 -0.004481669049710035
-2.281019449234009 2.8594307899475098 -0.8444663286209106 3.0 1 -0.004479364957660437
-3.144209861755371 3.9429168701171875 0.26429659128189087 0.0 9 -0.004477061331272125
-2.2583365440368652 2.832009792327881 -0.7040852308273315 1.0 2 -0.0044747572392225266
-3.441370725631714 4.317109107971191 0.48301711678504944 2.0 10 -0.004472453147172928
-3.0591580867767334 3.839008092880249 -0.7774794101715088 5.0 3 -0.004470149055123329
-3.429738998413086 4.305599689483643 0.6758874654769897 42.0 11 -0.0044678449630737305
-2.172639846801758 2.7284493446350098 -0.42824891209602356 58.0 4 -0.004465540871024132
-3.427449941635132 4.305809020996094 0.8716529011726379 37.0 12 -0.00446323724463582
-2.2173736095428467 2.7856242656707764 -0.3114946186542511 1.0 5 -0.004460933152586222
-3.4178943634033203 4.295342922210693 1.0670039653778076 34.0 13 -0.004458629060536623
-3.392350196838379 4.266296863555908 1.2583762407302856 31.0 14 -0.004454021342098713
-2.1750247478485107 2.7363409996032715 -0.061013612896203995 1.0 7 -0.004451717250049114
-3.3843090534210205 4.259234428405762 1.4576690196990967 52.0 15 -0.0044494131579995155
-2.0135421752929688 2.5404574871063232 -0.8685967326164246 6.0 0 -0.004428677260875702
-1.7658865451812744 2.228792905807495 0.04963464289903641 1.0 8 -0.004426373168826103
-2.273444652557373 2.8704304695129395 -0.8453661203384399 3.0 1 -0.0044240690767765045
-3.1304280757904053 3.9538676738739014 0.26429659128189087 0.0 9 -0.004421764984726906
-2.2289392948150635 2.8152477741241455 -0.6979793310165405 1.0 2 -0.004419460892677307
-3.4584295749664307 4.36971378326416 0.48754921555519104 6.0 10 -0.004417157266288996
-3.0579960346221924 3.8651537895202637 -0.780608057975769 8.0 3 -0.004414853174239397
-3.4380860328674316 4.347127437591553 0.6805184483528137 40.0 11 -0.004412549082189798
-2.168027639389038 2.7422449588775635 -0.4292238652706146 56.0 4 -0.0044102449901402
-3.4246482849121094 4.333244800567627 0.8747816681861877 35.0 12 -0.004407940898090601
-2.207636833190918 2.793346881866455 -0.3114946186542511 1.0 5 -0.00440563727170229
-3.41748309135437 4.3257341384887695 1.0715833902359009 28.0 13 -0.004403333179652691
-3.3991732597351074 4.305643081665039 1.2664744853973389 33.0 14 -0.0043987249955534935
-2.7377943992614746 3.469139814376831 -0.07713963836431503 1.0 7 -0.004396420903503895
-3.3861730098724365 4.292255401611328 1.4649158716201782 50.0 15 -0.004394117277115583
-1.999883770942688 2.5413975715637207 -0.866526186466217 6.0 0 -0.0043733809143304825
-2.9573588371276855 3.759483814239502 0.08349231630563736 1.0 8 -0.004371076822280884
-2.269434690475464 2.886007308959961 -0.8476155996322632 4.0 1 -0.004368773195892572
-3.0993263721466064 3.942788600921631 0.2628312110900879 0.0 9 -0.004366469103842974
-2.2190980911254883 2.823011636734009 -0.6979793310165405 1.0 2 -0.004364165011793375
-3.456695318222046 4.398993015289307 0.4894666373729706 9.0 10 -0.004361861385405064
-3.0457065105438232 3.8773574829101562 -0.7809209227561951 9.0 3 -0.004359557293355465
-3.452312707901001 4.396574020385742 0.6863682270050049 38.0 11 -0.004357253201305866
-2.1682469844818115 2.762288808822632 -0.43117377161979675 52.0 4 -0.0043549491092562675
-3.435110569000244 4.377807140350342 0.881351888179779 34.0 12 -0.004352645017206669
-2.2052531242370605 2.8104403018951416 -0.3125405013561249 1.0 5 -0.00435034092515707
-3.4193265438079834 4.359262466430664 1.0769259929656982 30.0 13 -0.0043480368331074715
-3.4033589363098145 4.342021465301514 1.2736729383468628 31.0 14 -0.004343429114669561
-3.3842718601226807 4.320779323577881 1.4706099033355713 45.0 15 -0.004338820930570364
-1.9969468116760254 2.5559751987457275 -0.8691143989562988 6.0 0 -0.00431808503344655
-2.936833381652832 3.7603275775909424 0.08328288793563843 1.0 8 -0.004315780941396952
-2.261744499206543 2.896984338760376 -0.8485153913497925 4.0 1 -0.00431347731500864
-3.083087921142578 3.9504334926605225 0.26262184977531433 0.0 9 -0.004311173222959042
-2.2285571098327637 2.8555030822753906 -0.7040852308273315 1.0 2 -0.004308869130909443
-3.460928440093994 4.436166286468506 0.49225562810897827 15.0 10 -0.004306565038859844
-3.0248637199401855 3.878619909286499 -0.7790436744689941 9.0 3 -0.0043042609468102455
-3.4430482387542725 4.416424751281738 0.6875869035720825 33.0 11 -0.004301956854760647
-2.16957426071167 2.7839319705963135 -0.43336743116378784 47.0 4 -0.0042996532283723354
-3.436802864074707 4.411588668823242 0.8857320547103882 35.0 12 -0.004297349136322737
-2.212570905685425 2.8401260375976562 -0.3149808347225189 1.0 5 -0.004295045044273138
-3.4161531925201416 4.386661052703857 1.0807421207427979 28.0 13 -0.004292740952223539
-3.414510726928711 4.387710094451904 1.2835707664489746 33.0 14 -0.004288133233785629
-2.7577121257781982 3.5449881553649902 -0.07839620858430862 1.0 7 -0.004285829141736031
-3.3845865726470947 4.352390766143799 1.4773391485214233 42.0 15 -0.004283525049686432
-1.990381121635437 2.5659825801849365 -0.8701496720314026 6.0 0 -0.004262789152562618
-2.2360973358154297 2.8848395347595215 -0.842666745185852 3.0 1 -0.004258180968463421
-3.0675222873687744 3.957479476928711 0.26241251826286316 0.0 9 -0.004255876876413822
-2.4133784770965576 3.114673137664795 -0.7659074068069458 1.0 2 -0.004253573250025511
-3.4661641120910645 4.474996566772461 0.4952189028263092 20.0 10 -0.004251269157975912
-3.011305332183838 3.889155864715576 -0.7790436744689941 8.0 3 -0.004248965065926313
-3.4434075355529785 4.44882345199585 0.6907554864883423 30.0 11 -0.004246660973876715
-2.157414674758911 2.7883477210998535 -0.4328799545764923 40.0 4 -0.004244357347488403
-3.4451231956481934 4.4526448249816895 0.8916765451431274 35.0 12 -0.004242053255438805
-2.170950174331665 2.806856632232666 -0.3104487657546997 1.0 5 -0.004239749163389206
-3.4272396564483643 4.432727336883545 1.0891377925872803 30.0 13 -0.004237445071339607
-3.412278652191162 4.416566371917725 1.2885197401046753 30.0 14 -0.00423283688724041
-2.137089967727661 2.7660696506500244 -0.061013612896203995 1.0 7 -0.0042305332608520985
-3.3949317932128906 4.395699501037598 1.48820960521698 43.0 15 -0.0042282291688025
-1.9873050451278687 2.580568313598633 -0.8727378845214844 6.0 0 -0.004207493271678686
-2.239595413208008 2.909224271774292 -0.8476155996322632 3.0 1 -0.004202885087579489
-3.0390737056732178 3.9491682052612305 0.26115643978118896 0.0 9 -0.00420058099552989
-3.473597288131714 4.517077922821045 0.4985308349132538 20.0 10 -0.00419597327709198
-2.9983925819396973 3.8991198539733887 -0.7790436744689941 9.0 3 -0.004193669185042381
-3.4552507400512695 4.494843006134033 0.6961177587509155 30.0 11 -0.004191365092992783
-2.149364948272705 2.7970612049102783 -0.4331236779689789 30.0 4 -0.004189061000943184
-3.447608709335327 4.488142490386963 0.8963696360588074 34.0 12 -0.004186756908893585
-2.1926891803741455 2.8555033206939697 -0.3149808347225189 1.0 5 -0.0041844528168439865
-3.436434030532837 4.475212097167969 1.096770167350769 28.0 13 -0.004182149190455675
-3.416595935821533 4.4525933265686035 1.2957181930541992 30.0 14 -0.004177541006356478
-3.4007272720336914 4.435117244720459 1.497527003288269 43.0 15 -0.004172933287918568
-1.9763898849487305 2.5840749740600586 -0.8717026114463806 6.0 0 -0.004152196925133467
-2.9295356273651123 3.831672191619873 0.08419041335582733 1.0 8 -0.004149893298745155
-2.2306106090545654 2.918571949005127 -0.8480655550956726 3.0 1 -0.004147589206695557
-3.0453667640686035 3.9846136569976807 0.2628312110900879 0.0 9 -0.004145285114645958
-3.480367422103882 4.557072639465332 0.5016684532165527 20.0 10 -0.0041406769305467606
-2.982367515563965 3.9064218997955322 -0.7784180045127869 8.0 3 -0.004138372838497162
-3.4636268615722656 4.538436412811279 0.7009925246238708 32.0 11 -0.0041360692121088505
-2.148016929626465 2.81559419631958 -0.43482983112335205 22.0 4 -0.004133765120059252
-3.4542734622955322 4.5278191566467285 0.9020012617111206 34.0 12 -0.004131461028009653
-2.2122037410736084 2.9007816314697266 -0.31916433572769165 1.0 5 -0.004129156935960054
-3.4434075355529785 4.516844272613525 1.1040209531784058 27.0 13 -0.004126853309571743
-3.419926166534424 4.4892964363098145 1.3029166460037231 30.0 14 -0.004122245125472546
-2.1182124614715576 2.7805521488189697 -0.061013612896203995 1.0 7 -0.004119941033422947
-3.404728412628174 4.47096061706543 1.5058093070983887 45.0 15 -0.004117636941373348
-1.9603474140167236 2.5817270278930664 -0.8685967326164246 6.0 0 -0.004096901044249535
-2.907137632369995 3.828625440597534 0.08391116559505463 1.0 8 -0.004094596952199936
-2.2327027320861816 2.941474676132202 -0.8525645732879639 4.0 1 -0.004092292860150337
-3.4800868034362793 4.5898332595825195 0.5039345026016235 20.0 10 -0.0040853810496628284
-2.971782684326172 3.9194390773773193 -0.7790436744689941 6.0 3 -0.00408307695761323
-3.4749367237091064 4.584702968597412 0.7063547968864441 37.0 11 -0.004080773331224918
-2.154252052307129 2.843271255493164 -0.4379984438419342 10.0 4 -0.00407846923917532
-3.459914445877075 4.568194389343262 0.9076328277587891 33.0 12 -0.004076165147125721
-2.153959035873413 2.84494686126709 -0.3121918737888336 1.0 5 -0.004073861055076122
-3.444999933242798 4.55015230178833 1.1093635559082031 27.0 13 -0.004071556963026524
-3.42500901222229 4.527030944824219 1.3105648756027222 32.0 14 -0.0040669492445886135
-2.1084940433502197 2.787928581237793 -0.061013612896203995 1.0 7 -0.004064645152539015
-3.4019155502319336 4.499770164489746 1.5115032196044922 41.0 15 -0.004062341060489416
-1.9613358974456787 2.6027796268463135 -0.8732554912567139 6.0 0 -0.004003523848950863
-2.1103570461273193 2.8015549182891846 0.06122304126620293 1.0 8 -0.004001219756901264
-2.2155299186706543 2.9422428607940674 -0.8503150343894958 3.0 1 -0.0039989156648516655
-3.487200975418091 4.634397983551025 0.5074207186698914 25.0 10 -0.003992003854364157
-2.9412758350372314 3.9102981090545654 -0.7749764919281006 5.0 3 -0.003989699762314558
-3.4728171825408936 4.618636608123779 0.7095233798027039 35.0 11 -0.003987395670264959
-2.167677164077759 2.8828797340393066 -0.4428732097148895 2.0 4 -0.003985092043876648
-3.4668867588043213 4.612425804138184 0.9138903021812439 34.0 12 -0.003982787951827049
-2.114792823791504 2.814594268798828 -0.3080084025859833 1.0 5 -0.0039804838597774506
-3.441652774810791 4.582182884216309 1.1139429807662964 27.0 13 -0.003978179767727852
-3.4388163089752197 4.580070972442627 1.3222624063491821 33.0 14 -0.003973572049289942
-2.1750850677490234 2.897995948791504 -0.06324751675128937 1.0 7 -0.003971267957240343
-3.4062700271606445 4.540022850036621 1.5208208560943604 41.0 15 -0.003968963865190744
-1.9515368938446045 2.607722520828247 -0.8727378845214844 6.0 0 -0.003948227968066931
-2.925185441970825 3.9101767539978027 0.08523755520582199 1.0 8 -0.003945923876017332
-2.19759202003479 2.9386489391326904 -0.8471657633781433 4.0 1 -0.003943619783967733
-2.991513252258301 4.000290393829346 0.26178449392318726 0.0 9 -0.003941315691918135
-3.4956653118133545 4.677857398986816 0.510906994342804 25.0 10 -0.003936707973480225
-2.9342041015625 3.9279425144195557 -0.7765407562255859 6.0 3 -0.003934403881430626
-3.466982364654541 4.642853260040283 0.711473286151886 35.0 11 -0.003932099789381027
-2.932504177093506 3.9270999431610107 -0.6017908453941345 19.0 4 -0.0039297956973314285
-3.471658945083618 4.650808811187744 0.9192090630531311 38.0 12 -0.003927492070943117
-2.9371438026428223 3.936174154281616 -0.429677814245224 1.0 5 -0.0039251879788935184
-3.4463930130004883 4.62032413482666 1.1204304695129395 30.0 13 -0.00392288388684392
-3.4410815238952637 4.614884376525879 1.3290109634399414 35.0 14 -0.003918275702744722
-2.148732900619507 2.8827462196350098 -0.06275885552167892 1.0 7 -0.003915972076356411
-3.420050859451294 4.590022087097168 1.533761739730835 43.0 15 -0.003913667984306812
-1.9520968198776245 2.62658429145813 -0.8768789768218994 6.0 0 -0.003892931854352355
-2.1251213550567627 2.8604347705841064 0.06220037490129471 1.0 8 -0.0038906277623027563
-2.195967435836792 2.95687198638916 -0.8503150343894958 4.0 1 -0.0038883239030838013
-2.982292413711548 4.017123699188232 0.2622031569480896 0.0 9 -0.0038860198110342026
-3.499131917953491 4.71502161026001 0.5136958956718445 22.0 10 -0.003881411859765649
-2.9258687496185303 3.943997621536255 -0.77779221534729 8.0 3 -0.00387910776771605
-3.4728519916534424 4.6830244064331055 0.7158605456352234 35.0 11 -0.003876803908497095
-2.9329652786254883 3.9564483165740967 -0.6047157645225525 1.0 4 -0.0038744998164474964
-3.470693826675415 4.683530330657959 0.9232763648033142 39.0 12 -0.0038721959572285414
-2.92338490486145 3.9464032649993896 -0.429677814245224 1.0 5 -0.0038698918651789427
-3.4520885944366455 4.660122871398926 1.1272996664047241 31.0 13 -0.003867587773129344
-3.4435036182403564 4.651927471160889 1.3362092971801758 35.0 14 -0.0038629798218607903
-2.195751905441284 2.9673871994018555 -0.06443428248167038 1.0 7 -0.0038606757298111916
-3.4246881008148193 4.629888534545898 1.5430792570114136 45.0 15 -0.0038583718705922365
-1.9286973476409912 2.6150643825531006 -0.8706672787666321 6.0 0 -0.0038376357406377792
-2.874764919281006 3.8978095054626465 0.08453945815563202 1.0 8 -0.003835331881418824
-2.1891026496887207 2.969224691390991 -0.8516647815704346 3.0 1 -0.0038330277893692255
-2.9564015865325928 4.01143217086792 0.26115643978118896 0.0 9 -0.0038307239301502705
-3.4948246479034424 4.745461463928223 0.5156133770942688 21.0 10 -0.003826115746051073
-2.9113926887512207 3.954695701599121 -0.77779221534729 8.0 3 -0.003823811886832118
-3.4859046936035156 4.7350850105285645 0.7219540476799011 30.0 11 -0.0038215077947825193
-3.4695425033569336 4.716301441192627 0.9273436665534973 38.0 12 -0.0038168998435139656
-2.909590482711792 3.9565844535827637 -0.429677814245224 1.0 5 -0.003814595751464367
-3.4628918170928955 4.710709571838379 1.136458396911621 30.0 13 -0.003812291892245412
-3.4414265155792236 4.684935569763184 1.3420580625534058 31.0 14 -0.003807683940976858
-2.8199210166931152 3.838858127593994 -0.08314327150583267 1.0 7 -0.0038053798489272594
-3.4222254753112793 4.660501003265381 1.5492907762527466 45.0 15 -0.0038030757568776608
-1.9241217374801636 2.628016233444214 -0.8727378845214844 6.0 0 -0.003782339859753847
-2.843924045562744 3.8857293128967285 0.08405079692602158 1.0 8 -0.0037800357677042484
-2.1183698177337646 2.8954453468322754 -0.8282698392868042 1.0 1 -0.0037777319084852934
-2.9405007362365723 4.020628452301025 0.2610517740249634 5.0 9 -0.0037754278164356947
-2.4743711948394775 3.3832767009735107 -0.8147544264793396 1.0 2 -0.0037731239572167397
-3.5017549991607666 4.789800643920898 0.5190995931625366 21.0 10 -0.003770819865167141
-2.895240545272827 3.961643934249878 -0.7771665453910828 8.0 3 -0.0037685157731175423
-3.490776777267456 4.778284072875977 0.7265850901603699 30.0 11 -0.0037662119138985872
-3.479020118713379 4.765683174133301 0.9345396161079407 35.0 12 -0.0037616039626300335
-2.8957624435424805 3.9667162895202637 -0.429677814245224 1.0 5 -0.003759299870580435
-3.466102123260498 4.749727725982666 1.1429458856582642 27.0 13 -0.003756995778530836
-3.448017120361328 4.728410243988037 1.3510562181472778 32.0 14 -0.0037523878272622824
-2.805832862854004 3.8491668701171875 -0.08314327150583267 1.0 7 -0.0037500839680433273
-3.4278762340545654 4.704238414764404 1.5596437454223633 39.0 15 -0.0037477798759937286
-1.9194800853729248 2.6409668922424316 -0.8748083710670471 6.0 0 -0.003727043978869915
-2.835043430328369 3.902104377746582 0.08419041335582733 1.0 8 -0.0037247398868203163
-2.115121603012085 2.9122822284698486 -0.8309692740440369 1.0 1 -0.0037224357947707176
-2.9264490604400635 4.030867576599121 0.2610517740249634 3.0 9 -0.0037201319355517626
-2.4625470638275146 3.391892671585083 -0.8147544264793396 1.0 2 -0.003717827843502164
-3.5037364959716797 4.827795505523682 0.5218886137008667 21.0 10 -0.003715523751452565
-2.881394863128662 3.9717254638671875 -0.7771665453910828 4.0 3 -0.00371321989223361
-3.4880619049072266 4.809722900390625 0.7295099496841431 30.0 11 -0.0037109158001840115
-2.1752891540527344 3.0006325244903564 -0.4550601840019226 1.0 4 -0.0037086119409650564
-3.4867067337036133 4.811387538909912 0.941109836101532 25.0 12 -0.0037063078489154577
-2.180422782897949 3.0088162422180176 -0.3250909149646759 1.0 5 -0.003704003756865859
-3.4621691703796387 4.779287338256836 1.1471437215805054 23.0 13 -0.003701699897646904
-2.0909841060638428 2.8875210285186768 -0.18683938682079315 1.0 6 -0.0036993958055973053
-3.4623444080352783 4.783038139343262 1.363203525543213 35.0 14 -0.0036970919463783503
-2.164034843444824 2.9905965328216553 -0.06443428248167038 1.0 7 -0.0036947878543287516
-3.432945489883423 4.74591588973999 1.5694787502288818 36.0 15 -0.003692483762279153
-1.9102503061294556 2.647650718688965 -0.8748083710670471 6.0 0 -0.0036717478651553392
-2.826085090637207 3.918463945388794 0.08433002978563309 1.0 8 -0.0036694437731057405
-2.0616352558135986 2.8595798015594482 -0.8138729929924011 1.0 1 -0.0036671399138867855
-2.8901727199554443 4.010272979736328 0.2590630054473877 0.0 9 -0.003664835821837187
-2.471353054046631 3.429137945175171 -0.8216235637664795 1.0 2 -0.003662531729787588
-3.5124855041503906 4.875560283660889 0.525723397731781 20.0 10 -0.003660227870568633
-2.8513505458831787 3.9593183994293213 -0.7727863192558289 2.0 3 -0.0036579237785190344
-3.4932861328125 4.852480411529541 0.7341409921646118 25.0 11 -0.0036556199193000793
-2.116102933883667 2.9405341148376465 -0.44482314586639404 2.0 4 -0.0036533158272504807
-3.4987282752990723 4.863619327545166 0.9489316344261169 28.0 12 -0.003651011735200882
-3.469536781311035 4.82481575012207 1.1551576852798462 23.0 13 -0.0036464037839323282
-2.0902187824249268 2.907775640487671 -0.18767675757408142 9.0 6 -0.003644099924713373
-3.4592721462249756 4.814085960388184 1.3686022758483887 35.0 14 -0.0036417958326637745
-2.153583288192749 2.998131513595581 -0.06443428248167038 1.0 7 -0.003639491740614176
-3.438894510269165 4.7892537117004395 1.5798314809799194 33.0 15 -0.0036371878813952208
-1.9099947214126587 2.666867971420288 -0.8789495229721069 6.0 0 -0.0036164517514407635
-2.074370861053467 2.897449254989624 0.06220037490129471 1.0 8 -0.0036141478922218084
-2.0629827976226807 2.882605791091919 -0.8183720111846924 1.0 1 -0.0036118438001722097
-2.805270195007324 3.9212493896484375 0.2526780068874359 5.0 9 -0.0036095399409532547
-2.4456610679626465 3.4185822010040283 -0.8170441389083862 1.0 2 -0.003607235848903656
-3.531374454498291 4.938029766082764 0.5311270952224731 22.0 10 -0.0036049317568540573
-2.842109203338623 3.975675106048584 -0.7740378379821777 2.0 3 -0.0036026278976351023
-3.502873420715332 4.901791095733643 0.7397469878196716 25.0 11 -0.0036003238055855036
-2.992003917694092 4.1884446144104 -0.6320144534111023 1.0 4 -0.0035980199463665485
-3.5000956058502197 4.901524543762207 0.9539375305175781 28.0 12 -0.00359571585431695
-3.4800496101379395 4.875246524810791 1.1643165349960327 26.0 13 -0.003591107903048396
-2.0730960369110107 2.905299186706543 -0.18704871833324432 1.0 6 -0.0035888038109987974
-3.462815046310425 4.854690074920654 1.376700520515442 35.0 14 -0.0035864999517798424
-3.444582462310791 4.832690715789795 1.590184211730957 35.0 15 -0.003581891767680645
-1.8917183876037598 2.6609232425689697 -0.8748083710670471 6.0 0 -0.0035611558705568314
-2.0642433166503906 2.9046733379364014 0.06220037490129471 1.0 8 -0.0035588517785072327
-2.1296513080596924 2.997819185256958 -0.8489653468132019 2.0 1 -0.0035565479192882776
-2.7899370193481445 3.9272749423980713 0.25246867537498474 23.0 9 -0.003554243827238679
-2.4291653633117676 3.420696258544922 -0.8155176639556885 2.0 2 -0.003551939968019724
-3.531414270401001 4.974697113037109 0.5337417125701904 23.0 10 -0.003549635875970125
-2.844217300415039 4.0081257820129395 -0.7784180045127869 2.0 3 -0.0035473317839205265
-3.515601634979248 4.956086158752441 0.7460841536521912 27.0 11 -0.0035450279247015715
-3.0324792861938477 4.276590347290039 -0.6437138915061951 12.0 4 -0.0035427238326519728
-3.499819755554199 4.935662746429443 0.9583176374435425 30.0 12 -0.0035404199734330177
-3.486845016479492 4.921004772186279 1.1723304986953735 26.0 13 -0.0035358117893338203
-3.466118812561035 4.895374298095703 1.3847987651824951 35.0 14 -0.0035312038380652666
-3.447510004043579 4.870894432067871 1.5989841222763062 36.0 15 -0.003526595886796713
-1.8857606649398804 2.6722450256347656 -0.8763613104820251 6.0 0 -0.0035058599896728992
-2.054600477218628 2.9115021228790283 0.06220037490129471 1.0 8 -0.0035035558976233006
-2.133178949356079 3.023973226547241 -0.8543641567230225 3.0 1 -0.003501251805573702
-2.7900240421295166 3.956575870513916 0.25372472405433655 7.0 9 -0.003498947713524103
-2.425128698348999 3.440387010574341 -0.8181890249252319 2.0 2 -0.003496643854305148
-3.532390832901001 5.013051986694336 0.5365307331085205 23.0 10 -0.0034943397622555494
-2.8354620933532715 4.023993968963623 -0.779669463634491 1.0 3 -0.0034920359030365944
-3.5220110416412354 5.000174045562744 0.7509589195251465 32.0 11 -0.0034897318109869957
-3.0354247093200684 4.31096887588501 -0.6473699808120728 27.0 4 -0.003487427718937397
-3.510995388031006 4.988232612609863 0.9661393165588379 31.0 12 -0.003485123859718442
-3.4919731616973877 4.963047504425049 1.1795812845230103 26.0 13 -0.0034805159084498882
-2.9724762439727783 4.226267337799072 -0.27078625559806824 12.0 6 -0.0034782118164002895
-3.474524974822998 4.941912651062012 1.394696593284607 30.0 14 -0.003475907724350691
-3.4449243545532227 4.903448104858398 1.6057134866714478 34.0 15 -0.003471299773082137
-1.8746708631515503 2.6753201484680176 -0.8753260374069214 6.0 0 -0.0034505638759583235
-2.0444254875183105 2.9186558723449707 0.06220037490129471 1.0 8 -0.003448259783908725
-2.125962972640991 3.0361905097961426 -0.8557138442993164 3.0 1 -0.0034459559246897697
-2.8128442764282227 4.018651485443115 0.257074236869812 7.0 9 -0.003443651832640171
-2.413705587387085 3.448410749435425 -0.8181890249252319 2.0 2 -0.0034413477405905724
-3.535166025161743 5.052489280700684 0.5394940376281738 22.0 10 -0.0034390438813716173
-2.816869020462036 4.027392864227295 -0.7784180045127869 1.0 3 -0.0034367397893220186
-3.5215964317321777 5.036842346191406 0.754615068435669 30.0 11 -0.0034344359301030636
-3.040828227996826 4.350825309753418 -0.6517572999000549 4.0 4 -0.003432131838053465
-3.5173187255859375 5.0344648361206055 0.9727096557617188 28.0 12 -0.003429827746003866
-3.0151150226593018 4.3172478675842285 -0.4607052505016327 9.0 5 -0.003427523886784911
-3.492611885070801 5.000960350036621 1.1856871843338013 23.0 13 -0.0034252197947353125
-2.973710775375366 4.25954532623291 -0.2722516655921936 36.0 6 -0.0034229159355163574
-3.489593982696533 5.0003557205200195 1.4077438116073608 36.0 14 -0.0034206118434667587
-2.798511266708374 4.011572360992432 -0.08537717163562775 1.0 7 -0.00341830775141716
-3.4543063640594482 4.953474044799805 1.6181367635726929 33.0 15 -0.003416003892198205
-1.8692646026611328 2.6885175704956055 -0.8773965835571289 5.0 0 -0.0033952677622437477
-2.034224271774292 2.9257750511169434 0.06220037490129471 1.0 8 -0.0033929639030247927
-2.112015724182129 3.0387918949127197 -0.8543641567230225 3.0 1 -0.003390659810975194
-2.83184814453125 4.076013088226318 0.26010972261428833 0.0 9 -0.003388355951756239
-2.3999314308166504 3.4556212425231934 -0.8178074359893799 2.0 2 -0.0033860518597066402
-3.5427560806274414 5.103055953979492 0.5435031652450562 23.0 10 -0.0033837477676570415
-2.7975847721099854 4.031198501586914 -0.7771665453910828 1.0 3 -0.0033814439084380865
-3.5232343673706055 5.0768280029296875 0.7587586045265198 28.0 11 -0.003379139816388488
-3.4544589519500732 4.979580402374268 -0.7441343069076538 3.0 4 -0.0033768359571695328
-3.5233638286590576 5.080799579620361 0.9792798757553101 30.0 12 -0.003374531865119934
-3.538057565689087 5.103890895843506 -0.5433288812637329 43.0 5 -0.0033722277730703354
-3.496624231338501 5.0460004806518555 1.19331955909729 26.0 13 -0.0033699239138513803
-2.971727132797241 4.2901177406311035 -0.2735077440738678 28.0 6 -0.0033676198218017817
-3.487884998321533 5.037143707275391 1.4144922494888306 38.0 14 -0.0033653159625828266
-3.460084915161133 4.99885892868042 1.62900710105896 32.0 15 -0.0033607077784836292
-1.8576732873916626 2.6918466091156006 -0.8763613104820251 5.0 0 -0.0033399718813598156
-2.76157283782959 4.003125190734863 0.0848885104060173 8.0 8 -0.003337667789310217
-2.1119275093078613 3.0625545978546143 -0.8588631749153137 3.0 1 -0.003335363930091262
-2.8142025470733643 4.080939769744873 0.2597957253456116 3.0 9 -0.003333059838041663
-2.3934245109558105 3.472059965133667 -0.8197154402732849 2.0 2 -0.003330755978822708
-3.550924062728882 5.153124809265137 0.5475123524665833 24.0 10 -0.0033284518867731094
-2.7879793643951416 4.047445774078369 -0.7784180045127869 1.0 3 -0.0033261477947235107
-3.527117967605591 5.122407913208008 0.7636333703994751 26.0 11 -0.0033238439355045557
-3.4224188327789307 4.970354080200195 -0.7409656643867493 3.0 4 -0.003321539843454957
-3.516808032989502 5.109338283538818 0.9824085235595703 31.0 12 -0.003319235984236002
-3.5134425163269043 5.106362342834473 -0.5422829985618591 43.0 5 -0.0033169318921864033
-3.502351760864258 5.092145919799805 1.2013335227966309 27.0 13 -0.0033146278001368046
-2.970313310623169 4.320213794708252 -0.274763822555542 25.0 6 -0.003312323708087206
-3.4877238273620605 5.072768688201904 1.4212408065795898 36.0 14 -0.003310019848868251
-3.469961404800415 5.050714492797852 1.6419481039047241 33.0 15 -0.003305411897599697
-1.849829077720642 2.699585199356079 -0.8768789768218994 6.0 0 -0.00328467576764524
-2.7595818042755127 4.028759479522705 0.08523755520582199 12.0 8 -0.003282371908426285
-2.103961229324341 3.0727577209472656 -0.8597630262374878 3.0 1 -0.003280067816376686
-3.5036373138427734 5.1169328689575195 0.3250063359737396 6.0 9 -0.0032777637243270874
-2.3719186782836914 3.4653966426849365 -0.8162809610366821 2.0 2 -0.0032754598651081324
-3.552941083908081 5.192826747894287 0.5504756569862366 23.0 10 -0.0032731557730585337
-2.7834625244140625 4.069713592529297 -0.7809209227561951 1.0 3 -0.0032708519138395786
-3.5302798748016357 5.163572311401367 0.7680206894874573 26.0 11 -0.00326854782178998
-3.401437520980835 4.975120544433594 -0.739990770816803 3.0 4 -0.0032662437297403812
-3.519906997680664 5.15032958984375 0.9880402088165283 30.0 12 -0.003263939870521426
-3.4852519035339355 5.101532936096191 -0.5405399203300476 37.0 5 -0.0032616357784718275
-3.50980544090271 5.13939905166626 1.2097290754318237 26.0 13 -0.0032593319192528725
-3.4795982837677 5.097075939178467 -0.3234362304210663 46.0 6 -0.0032570278272032738
-3.49505352973938 5.119715690612793 1.4311387538909912 32.0 14 -0.003254723735153675
-3.468435525894165 5.084535121917725 1.6491949558258057 34.0 15 -0.0032501157838851213
-1.8365204334259033 2.699315309524536 -0.8748083710670471 6.0 0 -0.0032293798867613077
-2.7428340911865234 4.0329270362854 0.08513283729553223 9.0 8 -0.003227075794711709
-2.0981431007385254 3.0861637592315674 -0.8615626096725464 3.0 1 -0.003224771935492754
-3.5632164478302 5.243111610412598 0.3322286903858185 5.0 9 -0.0032224678434431553
-2.360414505004883 3.47324275970459 -0.8162809610366821 2.0 2 -0.0032201637513935566
-3.551377058029175 5.227652072906494 0.5529160499572754 21.0 10 -0.0032178598921746016
-2.7699520587921143 4.078920841217041 -0.7809209227561951 1.0 3 -0.003215555800125003
-3.543238878250122 5.219596862792969 0.7746016383171082 26.0 11 -0.003213251940906048
-3.3539555072784424 4.942612171173096 -0.7334097623825073 2.0 4 -0.003210947848856449
-3.52852201461792 5.201818466186523 0.9955490827560425 25.0 12 -0.0032086437568068504
-3.454895257949829 5.093276500701904 -0.5384481549263 40.0 5 -0.0032063398975878954
-3.513676404953003 5.181884288787842 1.2169798612594604 25.0 13 -0.0032040358055382967
-3.095118284225464 4.566315174102783 -0.28910383582115173 16.0 6 -0.0032017319463193417
-3.4990243911743164 5.164149761199951 1.4401367902755737 33.0 14 -0.003199427854269743
-2.7429347038269043 4.049776554107666 -0.08537717163562775 1.0 7 -0.0031971237622201443
-3.4701623916625977 5.1254048347473145 1.6585125923156738 34.0 15 -0.0031948199030011892
-1.8357352018356323 2.7185182571411133 -0.8789495229721069 6.0 0 -0.003174083773046732
-2.0808167457580566 3.0837769508361816 -0.8588631749153137 3.0 1 -0.003169475821778178
-3.620837688446045 5.368113040924072 0.33934637904167175 5.0 9 -0.003167171962559223
-2.3614492416381836 3.5009925365448 -0.8208603262901306 2.0 2 -0.0031648678705096245
-3.564293384552002 5.2862725257873535 0.5577967166900635 21.0 10 -0.003162563778460026
-2.757904052734375 4.091841697692871 -0.7815467119216919 1.0 3 -0.0031602599192410707
-3.5438547134399414 5.2599196434021 0.778745174407959 21.0 11 -0.003157955827191472
-3.070545196533203 4.559133052825928 -0.6749124526977539 9.0 4 -0.003155651967972517
-3.535715103149414 5.251792907714844 1.0027450323104858 19.0 12 -0.0031533478759229183
-3.430418014526367 5.095389366149902 -0.537402331829071 41.0 5 -0.0031510437838733196
-3.5196828842163086 5.229949474334717 1.2253754138946533 21.0 13 -0.0031487399246543646
-3.0691254138946533 4.562178134918213 -0.2881617844104767 39.0 6 -0.003146435832604766
-3.5103368759155273 5.219995021820068 1.4522840976715088 35.0 14 -0.003144131973385811
-3.4791858196258545 5.177574157714844 1.6714534759521484 31.0 15 -0.0031395237892866135
-1.8305370807647705 2.731328248977661 -0.8810200095176697 6.0 0 -0.0031187878921628
-3.3879785537719727 5.0570807456970215 0.10625024884939194 0.0 8 -0.003116483800113201
-2.0667874813079834 3.0861637592315674 -0.8575134873390198 3.0 1 -0.0031141797080636024
-3.622077703475952 5.410593032836914 0.34123048186302185 5.0 9 -0.0031118758488446474
-2.3568599224090576 3.5206339359283447 -0.8235316276550293 1.0 2 -0.0031095719896256924
-3.5768465995788574 5.34504508972168 0.5626774430274963 20.0 10 -0.0031072678975760937
-2.7545883655548096 4.117861747741699 -0.7846753597259521 1.0 3 -0.003104963805526495
-3.566300630569458 5.33331298828125 0.7877634763717651 18.0 11 -0.0031026597134768963
-3.0259311199188232 4.526913166046143 -0.6685752272605896 33.0 4 -0.0031003558542579412
-3.554675817489624 5.319945812225342 1.0133825540542603 18.0 12 -0.0030980517622083426
-3.412611961364746 5.107332229614258 -0.537402331829071 40.0 5 -0.0030957479029893875
-3.5253961086273193 5.2781195640563965 1.2337709665298462 17.0 13 -0.003093443810939789
-3.0465285778045654 4.562897205352783 -0.28753378987312317 56.0 6 -0.00309113971889019
-3.5115678310394287 5.2613911628723145 1.460382342338562 30.0 14 -0.003088835859671235
-3.4868180751800537 5.228259563446045 1.683876872062683 25.0 15 -0.0030842279084026814
-1.8199212551116943 2.736093521118164 -0.880502462387085 6.0 0 -0.003063491778448224
-3.3858070373535156 5.092187881469727 0.10673891752958298 44.0 8 -0.003061187919229269
-2.0538437366485596 3.090113878250122 -0.8566136360168457 4.0 1 -0.0030588838271796703
-3.6097991466522217 5.433185577392578 0.34185850620269775 5.0 9 -0.0030565797351300716
-2.344555139541626 3.5288400650024414 -0.8235316276550293 1.0 2 -0.0030542758759111166
-3.614384412765503 5.442141532897949 0.5715673565864563 26.0 10 -0.003051971783861518
-2.753307342529297 4.1472015380859375 -0.788429856300354 1.0 3 -0.003049667924642563
-3.5893726348876953 5.4085822105407715 0.7970255613327026 36.0 11 -0.003047363832592964
-3.004624843597412 4.529176712036133 -0.6673566102981567 41.0 4 -0.0030450597405433655
-3.578660011291504 5.3965277671813965 1.0255844593048096 34.0 12 -0.0030427558813244104
-3.388155221939087 5.109251499176025 -0.5363564491271973 42.0 5 -0.0030404517892748117
-3.5644404888153076 5.377122402191162 1.2539968490600586 30.0 13 -0.0030381479300558567
-3.0261683464050293 4.566844463348389 -0.28711506724357605 65.0 6 -0.003035843838006258
-3.5286922454833984 5.327230930328369 1.475229024887085 25.0 14 -0.0030335397459566593
-3.4984004497528076 5.285506248474121 1.6983705759048462 24.0 15 -0.0030289317946881056
-1.8124886751174927 2.7456533908843994 -0.881537675857544 5.0 0 -0.003008195897564292
-3.3625030517578125 5.095631122589111 0.10656439512968063 48.0 8 -0.0030058918055146933
-2.048410415649414 3.1053974628448486 -0.8588631749153137 3.0 1 -0.0030035879462957382
-3.6336915493011475 5.510781288146973 0.3459407091140747 4.0 9 -0.0030012838542461395
-2.3300623893737793 3.533724308013916 -0.8227684497833252 1.0 2 -0.002998979762196541
-3.6063292026519775 5.4713616371154785 0.5733104944229126 29.0 10 -0.002996675902977586
-2.7453360557556152 4.166683673858643 -0.7903069853782654 1.0 3 -0.002994371810927987
-3.5923097133636475 5.4542341232299805 0.8019003868103027 33.0 11 -0.002992067951709032
-2.982245922088623 4.529689788818359 -0.6658941507339478 45.0 4 -0.0029897638596594334
-3.5782630443573 5.437037467956543 1.0309032201766968 34.0 12 -0.0029874597676098347
-3.357156753540039 5.101074695587158 -0.5342646837234497 42.0 5 -0.002985155675560236
-3.5747835636138916 5.433815002441406 1.2643004655838013 42.0 13 -0.002982851816341281
-3.005819797515869 4.570704460144043 -0.2866964042186737 68.0 6 -0.002980547957122326
-3.5614588260650635 5.4176788330078125 1.4968243837356567 56.0 14 -0.002978243865072727
-3.5170528888702393 5.354198455810547 1.716488003730774 27.0 15 -0.00297363568097353
-1.7965420484542847 2.742267370223999 -0.8784318566322327 5.0 0 -0.002952899783849716
-2.918527603149414 4.456583499908447 0.09298641979694366 9.0 8 -0.0029505956918001175
-2.0407609939575195 3.117419719696045 -0.8602128624916077 3.0 1 -0.0029482918325811625
-3.624277114868164 5.5384721755981445 0.34688276052474976 5.0 9 -0.0029459879733622074
-2.319863796234131 3.545121192932129 -0.8235316276550293 1.0 2 -0.0029436838813126087
-3.6024763584136963 5.507260322570801 0.5757508277893066 25.0 10 -0.00294137978926301
-2.7632076740264893 4.225839614868164 -0.7996931076049805 1.0 3 -0.0029390756972134113
-3.589538812637329 5.491665363311768 0.8055564165115356 29.0 11 -0.0029367718379944563
-2.9664151668548584 4.540072917938232 -0.6658941507339478 42.0 4 -0.0029344679787755013
-3.578707456588745 5.479263782501221 1.0365349054336548 34.0 12 -0.0029321638867259026
-3.3360629081726074 5.107757091522217 -0.5337417125701904 23.0 5 -0.002929859794676304
-3.541840076446533 5.424890518188477 1.259339451789856 35.0 13 -0.002927555702626705
-2.9887537956237793 4.57949686050415 -0.2865917384624481 49.0 6 -0.00292525184340775
-3.53507399559021 5.418652057647705 1.4936751127243042 51.0 14 -0.002922947984188795
-2.977691411972046 4.566027641296387 -0.09515051543712616 1.0 7 -0.0029206438921391964
-3.517329692840576 5.395573139190674 1.725805401802063 31.0 15 -0.0029183398000895977
-1.7911701202392578 2.7550010681152344 -0.880502462387085 5.0 0 -0.002897603902965784
-2.902954339981079 4.466742992401123 0.09298641979694366 26.0 8 -0.0028952998109161854
-2.024557590484619 3.116353988647461 -0.8579633831977844 3.0 1 -0.0028929957188665867
-3.6560466289520264 5.629817485809326 0.3518023192882538 3.0 9 -0.0028906918596476316
-2.311751365661621 3.559784412384033 -0.8250581622123718 1.0 2 -0.0028883880004286766
-3.633134603500366 5.596673488616943 0.5837691426277161 32.0 10 -0.002886083908379078
-2.726933002471924 4.2023186683654785 -0.7934356927871704 1.0 3 -0.0028837798163294792
-3.6059980392456055 5.559119701385498 0.8135997653007507 27.0 11 -0.0028814757242798805
-2.9581103324890137 4.562058925628662 -0.6676003336906433 12.0 4 -0.0028791718650609255
-3.5950140953063965 5.5464253425598145 1.046859622001648 36.0 12 -0.0028768680058419704
-2.9649338722229004 4.574331283569336 -0.47691619396209717 17.0 5 -0.0028745639137923717
-3.574125051498413 5.516306400299072 1.2776570320129395 37.0 13 -0.002872259821742773
-2.9575510025024414 4.566431999206543 -0.28512632846832275 30.0 6 -0.0028699557296931744
-3.5754449367523193 5.522566318511963 1.5188696384429932 51.0 14 -0.0028676518704742193
-2.9356603622436523 4.536102294921875 -0.09431280940771103 2.0 7 -0.0028653480112552643
-3.5268070697784424 5.4516119956970215 1.7397816181182861 37.0 15 -0.0028630439192056656
-1.7815431356430054 2.7612361907958984 -0.880502462387085 5.0 0 -0.002842308022081852
-2.8797590732574463 4.465085029602051 0.09274208545684814 48.0 8 -0.0028400039300322533
-2.014723777770996 3.125039577484131 -0.8584132790565491 4.0 1 -0.0028376998379826546
-3.6590940952301025 5.677799701690674 0.354000449180603 3.0 9 -0.002835395745933056
-2.3078198432922363 3.581033229827881 -0.8281110525131226 1.0 2 -0.002833091886714101
-3.643789291381836 5.656218528747559 0.5886498689651489 29.0 10 -0.002830787794664502
-2.6951346397399902 4.185239791870117 -0.788429856300354 1.0 3 -0.002828483935445547
-3.6091365814208984 5.606724739074707 0.8187183141708374 27.0 11 -0.0028261798433959484
-2.9357235431671143 4.562339782714844 -0.6661378741264343 4.0 4 -0.0028238757513463497
-3.6076886653900146 5.608782768249512 1.0562456846237183 35.0 12 -0.0028215718921273947
-2.9511027336120605 4.588005065917969 -0.4772648513317108 28.0 5 -0.002819267800077796
-3.5824527740478516 5.571684837341309 1.2875791788101196 37.0 13 -0.002816963940858841
-2.929715156555176 4.5582451820373535 -0.28397491574287415 31.0 6 -0.0028146598488092422
-3.5740509033203125 5.5628862380981445 1.5265179872512817 52.0 14 -0.0028123557567596436
-2.9273715019226074 4.558100700378418 -0.09455713629722595 7.0 7 -0.0028100518975406885
-3.546373128890991 5.524039268493652 1.7589343786239624 36.0 15 -0.00280774780549109
-1.77189302444458 2.7674384117126465 -0.880502462387085 5.0 0 -0.0027870116755366325
-2.8566083908081055 4.463321208953857 0.09249775111675262 53.0 8 -0.0027847078163176775
-2.0174548625946045 3.1533937454223633 -0.864262044429779 3.0 1 -0.0027824039570987225
-3.5488617420196533 5.549200534820557 0.34520798921585083 1.0 9 -0.0027800998650491238
-2.2868430614471436 3.5758368968963623 -0.8250581622123718 1.0 2 -0.002777795772999525
-3.645484685897827 5.702477931976318 0.5921360850334167 26.0 10 -0.0027754916809499264
-2.6720001697540283 4.181304931640625 -0.7859268188476562 1.0 3 -0.0027731878217309713
-3.621600866317749 5.669476509094238 0.8260304927825928 27.0 11 -0.0027708839625120163
-2.9347357749938965 4.595983505249023 -0.6695502400398254 2.0 4 -0.0027685798704624176
-3.6061577796936035 5.649647235870361 1.0615644454956055 34.0 12 -0.002766275778412819
-2.936142683029175 4.59995698928833 -0.47743913531303406 37.0 5 -0.00276397168636322
-3.5925519466400146 5.630497455596924 1.298264503479004 36.0 13 -0.002761667827144265
-2.901970863342285 4.549921989440918 -0.2828235328197479 37.0 6 -0.00275936396792531
-3.576613187789917 5.60983419418335 1.535965919494629 55.0 14 -0.0027570598758757114
-2.9125185012817383 4.569976806640625 -0.09459204226732254 8.0 7 -0.0027547557838261127
-3.5582070350646973 5.585264682769775 1.774463415145874 35.0 15 -0.002752451691776514
-1.763258457183838 2.7752366065979004 -0.8810200095176697 6.0 0 -0.0027317157946527004
-2.8324356079101562 4.4597601890563965 0.09221851825714111 51.0 8 -0.0027294117026031017
-1.9949467182159424 3.1423192024230957 -0.8593130707740784 3.0 1 -0.0027271078433841467
-3.279047727584839 5.16694974899292 0.3207147717475891 1.0 9 -0.0027248039841651917
-2.2827632427215576 3.597057580947876 -0.8281110525131226 1.0 2 -0.002722499892115593
-3.654372453689575 5.760594844818115 0.5968425273895264 23.0 10 -0.0027201958000659943
-2.653157949447632 4.183933258056641 -0.7846753597259521 1.0 3 -0.0027178917080163956
