# .PCD v0.7 - Point Cloud Data file format
VERSION 0.7
FIELDS x y z intensity ring time
SIZE 4 4 4 4 4 4
TYPE F F F F F F
COUNT 1 1 1 1 1 1
WIDTH 533
HEIGHT 1
VIEWPOINT 0 0 0 1 0 0 0
POINTS 533
DATA ascii
-0.03841410204768181 -2.2924599647521973 0.28151822090148926 13.0 11 -0.0791701227426529
-0.03965431824326515 -2.342073440551758 -0.2876116633415222 100.0 4 -0.07916782051324844
-0.03915748372673988 -2.2891266345977783 0.3626151382923126 11.0 12 -0.079165518283844
-0.04034518450498581 -2.3347320556640625 -0.20429305732250214 100.0 5 -0.07916321605443954
-0.03985697031021118 -2.3064796924591064 0.44840118288993835 9.0 13 -0.0791609063744545
-0.03963225707411766 -2.2705376148223877 -0.11901197582483292 30.0 6 -0.07915860414505005
-0.04043012112379074 -2.2933108806610107 0.5295348167419434 9.0 14 -0.0791563019156456
-0.040046922862529755 -2.249300956726074 -0.03926791250705719 100.0 7 -0.07915399968624115
-0.041255537420511246 -2.2946691513061523 0.6149541139602661 10.0 15 -0.0791516900062561
-0.02321617119014263 -1.2091163396835327 -0.3240414559841156 9.0 0 -0.07913095504045486
-0.04369660094380379 -2.2552332878112793 0.039372626692056656 51.0 8 -0.07912865281105042
-0.027958659455180168 -1.4301021099090576 -0.33022817969322205 7.0 1 -0.07912635058164597
-0.04509890452027321 -2.286417007446289 0.11984935402870178 25.0 9 -0.07912404835224152
-0.034109748899936676 -1.7292907238006592 -0.33620548248291016 0.0 2 -0.07912173867225647
-0.04542691633105278 -2.2828264236450195 0.19976095855236053 19.0 10 -0.07911943644285202
-0.04657658189535141 -2.300250768661499 0.28249314427375793 13.0 11 -0.07911483198404312
-0.047829508781433105 -2.341920852661133 -0.2876116633415222 100.0 4 -0.07911252230405807
-0.047432608902454376 -2.3028006553649902 0.3648051917552948 11.0 12 -0.07911022007465363
-0.048577215522527695 -2.3385608196258545 -0.2046416699886322 100.0 5 -0.07910791784524918
-0.04782608896493912 -2.302400827407837 0.4476379454135895 9.0 13 -0.07910561561584473
-0.04764138534665108 -2.274379014968872 -0.11922132223844528 24.0 6 -0.07910330593585968
-0.04859969764947891 -2.3009493350982666 0.5313344597816467 9.0 14 -0.07910100370645523
-0.04777080938220024 -2.243149995803833 -0.03916320204734802 100.0 7 -0.07909870147705078
-0.04893321171402931 -2.279059886932373 0.6108129620552063 10.0 15 -0.07909639924764633
-0.02755933627486229 -1.20516037940979 -0.32300618290901184 9.0 0 -0.07907566428184509
-0.051431212574243546 -2.2490694522857666 0.03926791250705719 50.0 8 -0.07907335460186005
-0.032681167125701904 -1.4183064699172974 -0.32752877473831177 8.0 1 -0.0790710523724556
-0.05307977646589279 -2.286245822906494 0.11984935402870178 24.0 9 -0.07906875014305115
-0.05412193015217781 -2.2965872287750244 0.20098112523555756 20.0 10 -0.07906413823366165
-0.04425865784287453 -1.8642305135726929 -0.29534831643104553 0.0 3 -0.0790618360042572
-0.05432331934571266 -2.2881667613983154 0.28103071451187134 14.0 11 -0.07905953377485275
-0.05614620819687843 -2.3476929664611816 -0.2883428931236267 37.0 4 -0.0790572315454483
-0.05561310797929764 -2.3085458278656006 0.36574381589889526 11.0 12 -0.07905492186546326
-0.05674036592245102 -2.338376998901367 -0.2046416699886322 100.0 5 -0.07905261963605881
-0.05616886913776398 -2.2982847690582275 0.4468746781349182 10.0 13 -0.07905031740665436
-0.05563310906291008 -2.2602128982543945 -0.1184886172413826 16.0 6 -0.07904801517724991
-0.057032808661460876 -2.300755739212036 0.5313344597816467 9.0 14 -0.07904571294784546
-0.05594724789261818 -2.256963014602661 -0.03940753638744354 100.0 7 -0.07904340326786041
-0.05746690556406975 -2.3020501136779785 0.6170246005058289 11.0 15 -0.07904110103845596
-0.03217310830950737 -1.2205063104629517 -0.3271472752094269 10.0 0 -0.07902036607265472
-0.06009851023554802 -2.264857769012451 0.0395471528172493 48.0 8 -0.07901806384325027
-0.03777526319026947 -1.4142810106277466 -0.3266289532184601 7.0 1 -0.07901575416326523
-0.060846686363220215 -2.2780601978302 0.11943066120147705 24.0 9 -0.07901345193386078
-0.06235382333397865 -2.3043510913848877 0.20167838037014008 18.0 10 -0.07900884747505188
-0.0627092719078064 -2.287952184677124 0.28103071451187134 14.0 11 -0.07900423556566238
-0.06378009170293808 -2.312286615371704 0.3663695454597473 11.0 12 -0.07899963110685349
-0.06528924405574799 -2.3521060943603516 -0.2058618664741516 100.0 5 -0.07899732887744904
-0.06424591690301895 -2.300036907196045 0.44725629687309265 10.0 13 -0.07899501919746399
-0.06369078904390335 -2.2659943103790283 -0.11880263686180115 12.0 6 -0.07899271696805954
-0.06528375297784805 -2.3083343505859375 0.5331340432167053 9.0 14 -0.07899041473865509
-0.06382497400045395 -2.256753921508789 -0.03940753638744354 98.0 7 -0.07898811250925064
-0.06550227850675583 -2.301835536956787 0.6170246005058289 12.0 15 -0.0789858028292656
-0.036318160593509674 -1.2165247201919556 -0.3261120319366455 10.0 0 -0.07896506786346436
-0.06748946011066437 -2.260648488998413 0.03947734460234642 49.0 8 -0.0789627656340599
-0.04258201643824577 -1.4180437326431274 -0.32752877473831177 7.0 1 -0.07896046340465546
-0.06915980577468872 -2.2898120880126953 0.12005870044231415 25.0 9 -0.07895816117525101
-0.07033634930849075 -2.3021278381347656 0.20150406658649445 18.0 10 -0.07895354926586151
-0.07047876715660095 -2.2936840057373047 0.28176194429397583 13.0 11 -0.07894894480705261
-0.07160572707653046 -2.304152250289917 0.3651180863380432 11.0 12 -0.07894433289766312
-0.07387298345565796 -2.3638124465942383 -0.206907719373703 84.0 5 -0.07894203066825867
-0.07217947393655777 -2.3096227645874023 0.44916439056396484 9.0 13 -0.07893972843885422
-0.07145550847053528 -2.2737555503845215 -0.11922132223844528 13.0 6 -0.07893741875886917
-0.07275354117155075 -2.3022618293762207 0.5317842960357666 10.0 14 -0.07893511652946472
-0.07195649296045303 -2.264512062072754 -0.0395471528172493 98.0 7 -0.07893281430006027
-0.07304303348064423 -2.2861456871032715 0.6128835082054138 11.0 15 -0.07893051207065582
-0.03996783867478371 -1.2048126459121704 -0.32300618290901184 10.0 0 -0.07890977710485458
-0.07604645937681198 -2.2803847789764404 0.03982638940215111 46.0 8 -0.07890746742486954
-0.047923266887664795 -1.429572343826294 -0.33022817969322205 7.0 1 -0.07890516519546509
-0.07668588310480118 -2.28757381439209 0.11995401978492737 23.0 9 -0.07890286296606064
-0.07776755839586258 -2.295908212661743 0.20098112523555756 17.0 10 -0.07889825105667114
-0.07868881523609161 -2.2993760108947754 0.28249314427375793 13.0 11 -0.07889364659786224
-0.07911045104265213 -2.2999539375305176 0.36449235677719116 12.0 12 -0.07888903468847275
-0.0805136114358902 -2.3172051906585693 0.450690895318985 9.0 13 -0.07888443022966385
-0.07925261557102203 -2.269500255584717 -0.11901197582483292 10.0 6 -0.0788821280002594
-0.08044780045747757 -2.2922561168670654 0.5295348167419434 9.0 14 -0.07887981832027435
-0.07932502776384354 -2.2602639198303223 -0.03947734460234642 91.0 7 -0.0788775160908699
-0.08089623600244522 -2.2936136722564697 0.6149541139602661 10.0 15 -0.07887521386146545
-0.04431464895606041 -1.2085270881652832 -0.3240414559841156 11.0 0 -0.07885447889566422
-0.08309523016214371 -2.266131639480591 0.039582058787345886 42.0 8 -0.07885217666625977
-0.05252019315958023 -1.4255107641220093 -0.32932838797569275 7.0 1 -0.07884986698627472
-0.08481837064027786 -2.2912840843200684 0.12016335874795914 23.0 9 -0.07884756475687027
-0.08570697903633118 -2.2936320304870605 0.20080682635307312 18.0 10 -0.07884296029806137
-0.08668583631515503 -2.309020757675171 0.28371185064315796 12.0 11 -0.07883834838867188
-0.08736275881528854 -2.3055856227874756 0.3654309809207916 12.0 12 -0.07883374392986298
-0.07328751683235168 -1.9252463579177856 -0.1685592085123062 0.0 5 -0.07883143424987793
-0.08789867162704468 -2.3090782165527344 0.44916439056396484 9.0 13 -0.07882913202047348
-0.08685425668954849 -2.2712206840515137 -0.1191166415810585 8.0 6 -0.07882682979106903
-0.08842288702726364 -2.301713228225708 0.5317842960357666 8.0 14 -0.07882452756166458
-0.08729152381420135 -2.2619717121124268 -0.03951225057244301 77.0 7 -0.07882222533226013
-0.0884530171751976 -2.2817349433898926 0.6118482351303101 8.0 15 -0.07881991565227509
-0.048588111996650696 -1.2044957876205444 -0.32300618290901184 10.0 0 -0.0790247917175293
-0.09147213399410248 -2.257803440093994 0.03944243863224983 44.0 8 -0.07902248948812485
-0.05799320340156555 -1.4252985715866089 -0.32932838797569275 7.0 1 -0.0790201872587204
-0.0939418226480484 -2.298923969268799 0.12058205902576447 23.0 9 -0.07901787757873535
-0.0946848914027214 -2.307237386703491 0.20202700793743134 18.0 10 -0.07901327311992645
-0.0951404795050621 -2.2987542152404785 0.28249314427375793 13.0 11 -0.07900866121053696
-0.09629730135202408 -2.307206869125366 0.36574381589889526 11.0 12 -0.07900405675172806
-0.0961887538433075 -2.2949929237365723 0.44649308919906616 8.0 13 -0.07899944484233856
-0.0948186069726944 -2.25291109085083 -0.11817460507154465 2.0 6 -0.07899714261293411
-0.09742473810911179 -2.305250644683838 0.5326840877532959 7.0 14 -0.07899484038352966
-0.09623057395219803 -2.267613410949707 -0.039616964757442474 75.0 7 -0.07899253815412521
-0.09721331298351288 -2.2813785076141357 0.6118482351303101 5.0 15 -0.07899022847414017
-0.05313059315085411 -1.2120388746261597 -0.32507672905921936 9.0 0 -0.07896949350833893
-0.09952843189239502 -2.2614662647247314 0.03951225057244301 42.0 8 -0.07896719127893448
-0.06219407916069031 -1.4075658321380615 -0.32527926564216614 7.0 1 -0.07896488904953003
-0.10196606069803238 -2.298582077026367 0.12058205902576447 22.0 9 -0.07896258682012558
-0.10282651335000992 -2.3088834285736084 0.20220132172107697 15.0 10 -0.07895797491073608
-0.10271905362606049 -2.288492441177368 0.2812744677066803 10.0 11 -0.07895337045192719
-0.10443942248821259 -2.3088300228118896 0.3660567104816437 9.0 12 -0.07894875854253769
-0.10375367850065231 -2.284836769104004 0.44458499550819397 7.0 13 -0.07894415408372879
-0.10286438465118408 -2.256556749343872 -0.11838394403457642 1.0 6 -0.07894184440374374
-0.10457996279001236 -2.2854294776916504 0.5281850695610046 5.0 14 -0.0789395421743393
-0.10451225936412811 -2.275254011154175 -0.03975658118724823 67.0 7 -0.07893723994493484
-0.10695619136095047 -2.3196210861206055 0.6222009658813477 1.0 15 -0.0789349377155304
-0.057543788105249405 -1.2157055139541626 -0.3261120319366455 9.0 0 -0.07891420274972916
-0.10818132013082504 -2.2770845890045166 0.03979148715734482 39.0 8 -0.07891189306974411
-0.06757098436355591 -1.4170727729797363 -0.32752877473831177 2.0 1 -0.07890959084033966
-0.10911205410957336 -2.2882564067840576 0.12005870044231415 21.0 9 -0.07890728861093521
-0.11059895157814026 -2.302539825439453 0.20167838037014008 13.0 10 -0.07890267670154572
-0.11080276221036911 -2.290102958679199 0.28151822090148926 9.0 11 -0.07889807224273682
-0.11132883280515671 -2.2926864624023438 0.3635537326335907 8.0 12 -0.07889346033334732
-0.11259181052446365 -2.3021087646484375 0.44801953434944153 4.0 13 -0.07888885587453842
-0.10995709151029587 -2.240224838256836 -0.11754656583070755 1.0 6 -0.07888655364513397
-0.11166325956583023 -2.2669060230255127 -0.039616964757442474 60.0 7 -0.07888194173574448
-0.11235842108726501 -2.2729458808898926 0.6097776889801025 1.0 15 -0.07887963950634003
-0.061002474278211594 -1.2000622749328613 -0.3219709098339081 9.0 0 -0.07885890454053879
-0.11603616923093796 -2.2827045917510986 0.039896201342344284 36.0 8 -0.07885660231113434
-0.07772979885339737 -1.523882508277893 -0.3522733747959137 0.0 1 -0.07885429263114929
-0.1169971227645874 -2.2858667373657227 0.11995401978492737 20.0 9 -0.07885199040174484
-0.11822527647018433 -2.2941806316375732 0.20098112523555756 10.0 10 -0.07884738594293594
-0.11808896064758301 -2.2837753295898438 0.28078699111938477 8.0 11 -0.07884277403354645
-0.11871473491191864 -2.280447483062744 0.36167651414871216 2.0 12 -0.07883816957473755
-0.12278550863265991 -2.3507373332977295 0.4575599730014801 1.0 13 -0.07883355766534805
-0.12010317295789719 -2.291705846786499 -0.12026803940534592 1.0 6 -0.0788312554359436
-0.11890578269958496 -2.261312246322632 0.5227862596511841 1.0 14 -0.07882895320653915
-0.1197863221168518 -2.270496129989624 -0.03968677297234535 58.0 7 -0.0788266509771347
-0.12110879272222519 -2.287973165512085 0.6139188408851624 3.0 15 -0.07882434129714966
-0.06456384807825089 -1.1921372413635254 -0.31990036368370056 10.0 0 -0.07880360633134842
-0.12324423342943192 -2.268308401107788 0.039651867002248764 29.0 8 -0.07880130410194397
-0.08304852247238159 -1.5236018896102905 -0.3522733747959137 0.0 1 -0.07879900187253952
-0.12497536838054657 -2.285444498062134 0.11995401978492737 15.0 9 -0.07879669219255447
-0.12528681755065918 -2.2838292121887207 0.2001095712184906 9.0 10 -0.07879208773374557
-0.1266070306301117 -2.293259620666504 0.2820056974887848 3.0 11 -0.07878748327493668
-0.12623627483844757 -2.272130012512207 0.36042505502700806 1.0 12 -0.07878287136554718
-0.12694793939590454 -2.2777669429779053 0.44344013929367065 5.0 13 -0.07877826690673828
-0.12810178101062775 -2.2912726402282715 -0.12026803940534592 1.0 6 -0.07877595722675323
-0.1272353231906891 -2.2686660289764404 0.5245858430862427 1.0 14 -0.07877365499734879
-0.1275988519191742 -2.2680675983428955 -0.039651867002248764 50.0 7 -0.07877135276794434
-0.13236010074615479 -2.345400094985962 0.6294479370117188 16.0 15 -0.07876905053853989
-0.06915591657161713 -1.1957498788833618 -0.32093560695648193 9.0 0 -0.07874830812215805
-0.13104596734046936 -2.2658681869506836 0.039616964757442474 25.0 8 -0.0787460058927536
-0.0809180736541748 -1.3949016332626343 -0.32257983088493347 0.0 1 -0.07874370366334915
-0.13341616094112396 -2.2929699420928955 0.1203727126121521 10.0 9 -0.0787414014339447
-0.13354025781154633 -2.2813658714294434 0.19993527233600616 2.0 10 -0.0787367895245552
-0.1375199258327484 -2.342345714569092 0.28809913992881775 1.0 11 -0.07873218506574631
-0.13439945876598358 -2.2756195068359375 0.3610507845878601 10.0 12 -0.07872757315635681
-0.10638616979122162 -1.7959797382354736 -0.15740327537059784 0.0 5 -0.07872527092695236
-0.13552868366241455 -2.281205654144287 0.44420334696769714 5.0 13 -0.07872296869754791
-0.13649889826774597 -2.290787696838379 -0.12026803940534592 1.0 6 -0.07872066646814346
-0.14124593138694763 -2.3635027408599854 0.5466310977935791 9.0 14 -0.07871835678815842
-0.13515730202198029 -2.261620044708252 -0.0395471528172493 45.0 7 -0.07871605455875397
-0.07356588542461395 -1.1993576288223267 -0.3219709098339081 9.0 0 -0.07869301736354828
-0.13959521055221558 -2.269364356994629 0.03968677297234535 21.0 8 -0.07869071513414383
-0.08531021326780319 -1.3829255104064941 -0.3198804259300232 2.0 1 -0.07868840545415878
-0.14366956055164337 -2.3223674297332764 0.12194279581308365 1.0 9 -0.07868610322475433
-0.1437232941389084 -2.3166799545288086 0.20307287573814392 1.0 10 -0.07868149876594543
-0.1406654268503189 -2.2546513080596924 0.27737462520599365 10.0 11 -0.07867688685655594
-0.1431102156639099 -2.2810261249542236 0.36198940873146057 6.0 12 -0.07867228239774704
-0.10816348344087601 -1.724012017250061 -0.15112805366516113 0.0 5 -0.078669972717762
-0.1481749415397644 -2.355175256729126 0.4587048292160034 11.0 13 -0.07866767048835754
-0.14449474215507507 -2.290297269821167 -0.12026803940534592 1.0 6 -0.0786653682589531
-0.14924892783164978 -2.3591055870056152 0.5457313060760498 60.0 14 -0.07866306602954865
-0.1452178955078125 -2.2890491485595703 -0.04003582149744034 46.0 7 -0.0786607563495636
-0.1499985307455063 -2.3578882217407227 0.6330714225769043 100.0 15 -0.07865845412015915
-0.07800201326608658 -1.2029491662979126 -0.32300618290901184 9.0 0 -0.07863771915435791
-0.08988332748413086 -1.3787301778793335 -0.3189806342124939 2.0 1 -0.07863311469554901
-0.14825749397277832 -2.268040180206299 0.1191166415810585 4.0 9 -0.07863080501556396
-0.092844158411026 -1.420328140258789 -0.2766730487346649 0.0 2 -0.07862850278615952
-0.14894269406795502 -2.2724251747131348 0.19923801720142365 14.0 10 -0.07862620055675507
-0.14918717741966248 -2.2640504837036133 0.2785933315753937 7.0 11 -0.07862158864736557
-0.15733914077281952 -2.3751235008239746 0.3770070970058441 39.0 12 -0.07861698418855667
-0.1157611683011055 -1.7474803924560547 -0.1532198041677475 0.0 5 -0.07861468195915222
-0.15248829126358032 -2.2897789478302 -0.12026803940534592 1.0 6 -0.07861007004976273
-0.1593005210161209 -2.3857920169830322 0.5520299673080444 100.0 14 -0.07860776782035828
-0.15965111553668976 -2.3785533905029297 0.6387654542922974 100.0 15 -0.07860316336154938
-0.08167371898889542 -1.194960117340088 -0.32093560695648193 9.0 0 -0.07858242094516754
-0.15570838749408722 -2.272324562072754 0.03975658118724823 5.0 8 -0.07858011871576309
-0.09603110700845718 -1.3978495597839355 -0.32347965240478516 0.0 1 -0.07857781648635864
-0.15576189756393433 -2.261531352996826 0.11880263686180115 7.0 9 -0.0785755142569542
-0.09267536550760269 -1.3455681800842285 -0.26217156648635864 0.0 2 -0.07857320457696915
-0.15824629366397858 -2.2917680740356445 0.20098112523555756 7.0 10 -0.0785709023475647
-0.16354912519454956 -2.3565914630889893 0.29004907608032227 29.0 11 -0.0785662978887558
-0.16507916152477264 -2.3666775226593018 0.37575563788414 100.0 12 -0.0785616859793663
-0.16721560060977936 -2.391294240951538 0.46595558524131775 98.0 13 -0.0785570815205574
-0.16790083050727844 -2.3891093730926514 0.5529297590255737 100.0 14 -0.07855246961116791
-0.15866529941558838 -2.2520740032196045 -0.03940753638744354 2.0 7 -0.07855016738176346
-0.1670001894235611 -2.3644919395446777 0.6351419687271118 100.0 15 -0.07854786515235901
-0.08529061079025269 -1.1869603395462036 -0.3188650906085968 9.0 0 -0.07852713018655777
-0.1620587557554245 -2.2498273849487305 0.039372626692056656 11.0 8 -0.07852482050657272
-0.16495293378829956 -2.278902292251587 0.1197446808218956 6.0 9 -0.07852021604776382
-0.09793867915868759 -1.3530689477920532 -0.2636980414390564 1.0 2 -0.07851791381835938
-0.17085909843444824 -2.3547911643981934 0.20655910670757294 36.0 10 -0.07851560413837433
-0.10661336779594421 -1.4658082723617554 -0.2327745109796524 0.0 3 -0.07851330190896988
-0.17292873561382294 -2.371845006942749 0.2919989824295044 87.0 11 -0.07851099967956543
-0.17492680251598358 -2.3877577781677246 0.3791971802711487 100.0 12 -0.07850639522075653
-0.1746988296508789 -2.378948211669922 0.4636658728122711 99.0 13 -0.07850178331136703
-0.16612423956394196 -2.256788492202759 -0.11859328299760818 4.0 6 -0.07849948108196259
-0.1749487966299057 -2.3710174560546875 0.5488805770874023 100.0 14 -0.07849717885255814
-0.16578783094882965 -2.241535186767578 -0.0392330102622509 11.0 7 -0.07849486917257309
-0.17525283992290497 -2.3638947010040283 0.6351419687271118 100.0 15 -0.07849256694316864
-0.08899769932031631 -1.1808761358261108 -0.3173121511936188 6.0 0 -0.0784718319773674
-0.17412911355495453 -2.3050801753997803 0.040349964052438736 13.0 8 -0.07846952974796295
-0.17959631979465485 -2.371946334838867 0.12466426193714142 25.0 9 -0.07846491783857346
-0.10771238803863525 -1.4192780256271362 -0.2766730487346649 0.0 2 -0.078462615609169
-0.18058905005455017 -2.374046802520752 0.20830221474170685 95.0 10 -0.07846031337976456
-0.10542208701372147 -1.3827013969421387 -0.219634011387825 1.0 3 -0.07845801115036011
-0.18029947578907013 -2.3593509197235107 0.2905365228652954 96.0 11 -0.07845570147037506
-0.18284401297569275 -2.38716459274292 0.3791971802711487 100.0 12 -0.07845109701156616
-0.18239973485469818 -2.3704941272735596 0.46213942766189575 97.0 13 -0.07844648510217667
-0.17369355261325836 -2.2522122859954834 -0.11838394403457642 7.0 6 -0.07844418287277222
-0.18355944752693176 -2.380139112472534 0.5511301159858704 100.0 14 -0.07844188064336777
-0.17768938839435577 -2.2987916469573975 -0.04024524614214897 10.0 7 -0.07843957841396332
-0.18338936567306519 -2.367152690887451 0.6361772418022156 100.0 15 -0.07843726873397827
-0.09185218065977097 -1.1670931577682495 -0.3136886954307556 1.0 0 -0.07841653376817703
-0.1861746609210968 -2.3603081703186035 0.04132729768753052 100.0 8 -0.07841423153877258
-0.18714626133441925 -2.3673553466796875 0.12445490807294846 88.0 9 -0.07840962707996368
-0.18830305337905884 -2.371448516845703 0.20812790095806122 72.0 10 -0.07840501517057419
-0.10875296592712402 -1.366590976715088 -0.21713104844093323 0.0 3 -0.07840271294116974
-0.18828031420707703 -2.3607189655303955 0.29078027606010437 100.0 11 -0.07840041071176529
-0.11599834263324738 -1.454424500465393 -0.17914794385433197 0.0 4 -0.07839810103178024
-0.1904444396495819 -2.3826067447662354 0.37857145071029663 100.0 12 -0.0783957988023758
-0.190573588013649 -2.3737900257110596 0.46290263533592224 97.0 13 -0.0783911943435669
-0.18804892897605896 -2.3372292518615723 -0.1228848323225975 16.0 6 -0.07838888466358185
-0.1902010440826416 -2.3639776706695557 0.5475308895111084 100.0 14 -0.0783865824341774
-0.19077610969543457 -2.365959644317627 -0.041432011872529984 84.0 7 -0.07838428020477295
-0.1915491372346878 -2.37038254737854 0.6372125148773193 100.0 15 -0.0783819779753685
-0.19416464865207672 -2.361670970916748 0.041362203657627106 96.0 8 -0.07835893332958221
-0.19458705186843872 -2.3567352294921875 0.12393154948949814 73.0 9 -0.07835432887077332
-0.19450506567955017 -2.3557422161102295 -0.4594680964946747 9.0 2 -0.07835202664136887
-0.1964944452047348 -2.3747825622558594 0.20847654342651367 80.0 10 -0.07834971696138382
-0.11818121373653412 -1.4252815246582031 -0.22651712596416473 0.0 3 -0.07834741473197937
-0.19577902555465698 -2.3561251163482666 0.29029279947280884 100.0 11 -0.07834511250257492
-0.11580311506986618 -1.3907067775726318 -0.17134830355644226 1.0 4 -0.07834281027317047
-0.19843140244483948 -2.377990484237671 0.3779457211494446 100.0 12 -0.07834050059318542
-0.19909878075122833 -2.3809707164764404 0.46442911028862 95.0 13 -0.07833589613437653
-0.1982884407043457 -2.3613574504852295 0.5470809936523438 100.0 14 -0.07833128422498703
-0.19853068888187408 -2.3593010902404785 -0.04132729768753052 100.0 7 -0.07832898199558258
-0.20063383877277374 -2.3793246746063232 0.6398007273674011 100.0 15 -0.07832667976617813
-0.19942376017570496 -2.3309571743011475 -0.6268597841262817 1.0 0 -0.07830594480037689
-0.20291973650455475 -2.3669559955596924 0.04146691784262657 100.0 8 -0.07830364257097244
-0.20265476405620575 -2.3590307235717773 -0.5466310977935791 6.0 1 -0.0783013328909874
-0.2038402408361435 -2.36798095703125 0.12455958873033524 81.0 9 -0.07829903066158295
-0.202053502202034 -2.347224712371826 -0.45794162154197693 77.0 2 -0.0782967284321785
-0.20529653131961823 -2.380037307739258 0.20899945497512817 81.0 10 -0.07829442620277405
-0.20310454070568085 -2.3498387336730957 -0.37356552481651306 1.0 3 -0.078292116522789
-0.2057148814201355 -2.375204086303711 0.2927301824092865 100.0 11 -0.07828981429338455
-0.11928387731313705 -1.3744728565216064 -0.16939841210842133 1.0 4 -0.0782875120639801
-0.20656011998653412 -2.3753154277801514 0.37763282656669617 100.0 12 -0.07828520983457565
-0.2077493667602539 -2.3841731548309326 0.46519237756729126 99.0 13 -0.07828059792518616
-0.2077753096818924 -2.3796684741973877 -0.12518762052059174 100.0 6 -0.07827829569578171
-0.20720961689949036 -2.3684163093566895 0.5488805770874023 100.0 14 -0.07827599346637726
-0.20693941414356232 -2.360585927963257 -0.041362203657627106 100.0 7 -0.07827369123697281
-0.2077544927597046 -2.3651387691497803 0.6361772418022156 100.0 15 -0.07827138155698776
-0.20755891501903534 -2.330246925354004 -0.6268597841262817 20.0 0 -0.07825064659118652
-0.21011394262313843 -2.3542826175689697 0.04125748947262764 100.0 8 -0.07824834436178207
-0.21262413263320923 -2.377718925476074 -0.5511301159858704 78.0 1 -0.07824604213237762
-0.21174810826778412 -2.363276720046997 0.12435024976730347 84.0 9 -0.07824373245239258
-0.21147184073925018 -2.3601930141448975 -0.4606129229068756 100.0 2 -0.07824143022298813
-0.2132469266653061 -2.3753373622894287 0.2086508423089981 79.0 10 -0.07823912799358368
-0.21201401948928833 -2.356985330581665 -0.37481701374053955 14.0 3 -0.07823682576417923
-0.21400471031665802 -2.374471426010132 0.2927301824092865 100.0 11 -0.07823451608419418
-0.21538406610488892 -2.3804819583892822 0.37857145071029663 100.0 12 -0.07822991162538528
-0.21571595966815948 -2.3795225620269775 0.46442911028862 95.0 13 -0.07822530716657639
-0.2164420485496521 -2.382906675338745 -0.1253969669342041 100.0 6 -0.07822299748659134
-0.2161819487810135 -2.375441551208496 0.5506802201271057 100.0 14 -0.07822069525718689
-0.2157229632139206 -2.36582350730896 -0.04146691784262657 100.0 7 -0.07821839302778244
-0.21636097133159637 -2.3682467937469482 0.6372125148773193 100.0 15 -0.07821609079837799
-0.21770434081554413 -2.346782684326172 -0.6315184831619263 92.0 0 -0.07819534838199615
-0.21833071112632751 -2.353534698486328 0.04125748947262764 100.0 8 -0.0781930461525917
-0.21893863379955292 -2.3556182384490967 -0.5461812019348145 100.0 1 -0.07819074392318726
-0.221107617020607 -2.3744547367095947 0.12497827410697937 90.0 9 -0.0781884416937828
-0.22103284299373627 -2.369176149368286 -0.4625210165977478 100.0 2 -0.07818613946437836
-0.22195129096508026 -2.374539852142334 0.2086508423089981 99.0 10 -0.07818382978439331
-0.21936212480068207 -2.3424248695373535 -0.3726269602775574 70.0 3 -0.07818152755498886
-0.2215515673160553 -2.365804433822632 0.29175522923469543 100.0 11 -0.07817922532558441
-0.22437508404254913 -2.3914589881896973 -0.2949238419532776 3.0 4 -0.07817692309617996
-0.22461630403995514 -2.3895492553710938 0.38013577461242676 100.0 12 -0.07817461341619492
-0.22369827330112457 -2.3708977699279785 0.46290263533592224 99.0 13 -0.07817000895738602
-0.224610835313797 -2.3761322498321533 -0.12508295476436615 100.0 6 -0.07816770672798157
-0.22507068514823914 -2.376573085784912 0.5511301159858704 100.0 14 -0.07816539704799652
-0.2247341126203537 -2.373018980026245 -0.041606537997722626 100.0 7 -0.07816309481859207
-0.2249910831451416 -2.371323347091675 0.6382477879524231 100.0 15 -0.07816079258918762
-0.22811679542064667 -2.369084119796753 -0.6377301812171936 100.0 0 -0.07814005762338638
-0.2269551306962967 -2.3527188301086426 0.04125748947262764 100.0 8 -0.07813775539398193
-0.2262587696313858 -2.341221809387207 -0.5430318713188171 100.0 1 -0.07813544571399689
-0.22862598299980164 -2.3657166957855225 0.12455958873033524 100.0 9 -0.07813314348459244
-0.2293015420436859 -2.3683900833129883 -0.4625210165977478 100.0 2 -0.07813084125518799
-0.23081600666046143 -2.37969970703125 0.209173783659935 100.0 10 -0.07812853902578354
-0.22925660014152527 -2.359339952468872 -0.375442773103714 100.0 3 -0.07812622934579849
-0.2302209436893463 -2.364976406097412 0.29175522923469543 100.0 11 -0.07812392711639404
-0.23005591332912445 -2.359009027481079 -0.29102399945259094 30.0 4 -0.0781216248869896
-0.23295637965202332 -2.3887505531311035 0.38013577461242676 100.0 12 -0.07811932265758514
-0.23331135511398315 -2.383780002593994 0.4655739665031433 100.0 13 -0.07811471074819565
-0.23251371085643768 -2.3713583946228027 -0.12487360835075378 100.0 6 -0.0781124085187912
-0.2327936589717865 -2.3699545860290527 0.5497803688049316 100.0 14 -0.07811010628938675
-0.23223426938056946 -2.364259719848633 -0.04146691784262657 100.0 7 -0.0781077966094017
-0.23364561796188354 -2.374368906021118 0.6392830610275269 100.0 15 -0.07810549437999725
-0.2350420206785202 -2.3548171520233154 -0.6341066956520081 100.0 0 -0.07808475941419601
-0.23535197973251343 -2.3579225540161133 0.041362203657627106 100.0 8 -0.07808245718479156
-0.23499082028865814 -2.350153923034668 -0.5452813506126404 97.0 1 -0.07808015495538712
-0.23668347299098969 -2.362916946411133 0.12445490807294846 100.0 9 -0.07807784527540207
-0.23658736050128937 -2.3578078746795654 -0.4606129229068756 100.0 2 -0.07807554304599762
-0.2395196259021759 -2.3828444480895996 0.20952239632606506 100.0 10 -0.07807324081659317
-0.23806710541248322 -2.368394136428833 -0.3770070970058441 100.0 3 -0.07807093858718872
-0.23846007883548737 -2.368150234222412 0.29224270582199097 100.0 11 -0.07806862890720367
-0.2382756918668747 -2.3621833324432373 -0.29151150584220886 96.0 4 -0.07806632667779922
-0.24049866199493408 -2.380061388015747 0.37888431549072266 100.0 12 -0.07806402444839478
-0.1538996398448944 -1.5203933715820312 -0.13369689881801605 0.0 5 -0.07806172221899033
-0.24101735651493073 -2.381040096282959 0.46519237756729126 99.0 13 -0.07805941253900528
-0.24017472565174103 -2.368587017059326 -0.124768927693367 100.0 6 -0.07805711030960083
-0.24084818363189697 -2.3711085319519043 0.5502303242683411 100.0 14 -0.07805480808019638
-0.2402833104133606 -2.361445426940918 -0.041432011872529984 100.0 7 -0.07805250585079193
-0.24232415854930878 -2.377382755279541 0.6403183937072754 100.0 15 -0.07805019617080688
-0.2424531877040863 -2.3501815795898438 -0.6330714225769043 100.0 0 -0.07802946120500565
-0.24419794976711273 -2.363054037094116 0.04146691784262657 100.0 8 -0.0780271589756012
-0.24379470944404602 -2.3551347255706787 -0.5466310977935791 100.0 1 -0.07802485674619675
-0.24513621628284454 -2.364062786102295 0.12455958873033524 100.0 9 -0.0780225545167923
-0.24440491199493408 -2.3570103645324707 -0.4606129229068756 100.0 2 -0.07802024483680725
-0.24639101326465607 -2.372128486633301 0.2086508423089981 100.0 10 -0.0780179426074028
-0.24735480546951294 -2.3773725032806396 -0.37857145071029663 100.0 3 -0.07801564037799835
-0.24713660776615143 -2.3712522983551025 0.2927301824092865 100.0 11 -0.0780133381485939
-0.2450770139694214 -2.3475165367126465 -0.2898053228855133 84.0 4 -0.07801102846860886
-0.248600035905838 -2.3772425651550293 0.37857145071029663 100.0 12 -0.0780087262392044
-0.24970626831054688 -2.3838016986846924 -0.2096967101097107 6.0 5 -0.07800642400979996
-0.25014543533325195 -2.3879942893981934 0.4667188227176666 99.0 13 -0.07800412178039551
-0.2484409362077713 -2.367734432220459 -0.124768927693367 49.0 6 -0.07800181210041046
-0.24892006814479828 -2.3683152198791504 0.5497803688049316 100.0 14 -0.07799950987100601
-0.2483152449131012 -2.3586034774780273 -0.041397109627723694 100.0 7 -0.07799720764160156
-0.24981066584587097 -2.368837356567383 0.6382477879524231 100.0 15 -0.07799490541219711
-0.25127044320106506 -2.351198196411133 -0.6335890889167786 100.0 0 -0.07797417044639587
-0.25201988220214844 -2.358210802078247 0.041397109627723694 100.0 8 -0.07797186076641083
-0.252221941947937 -2.3562071323394775 -0.5470809936523438 91.0 1 -0.07796955853700638
-0.25487715005874634 -2.377094030380249 0.12529228627681732 97.0 9 -0.07796725630760193
-0.252832293510437 -2.354146957397461 -0.46023133397102356 100.0 2 -0.07796495407819748
-0.2552967965602875 -2.373190402984619 0.20882515609264374 93.0 10 -0.07796264439821243
-0.25310423970222473 -2.3489537239074707 -0.3741912841796875 97.0 3 -0.07796034216880798
-0.25626304745674133 -2.378269672393799 0.29370513558387756 100.0 11 -0.07795803993940353
-0.2551867663860321 -2.3644096851348877 -0.2919989824295044 71.0 4 -0.07795573770999908
-0.25753337144851685 -2.3822522163391113 0.3795100450515747 100.0 12 -0.07795342803001404
-0.24687258899211884 -2.2799134254455566 -0.2006325125694275 1.0 5 -0.07795112580060959
-0.25847285985946655 -2.383157968521118 0.46595558524131775 99.0 13 -0.07794882357120514
-0.2586524784564972 -2.3770737648010254 0.5520299673080444 100.0 14 -0.07794421911239624
-0.25676316022872925 -2.359710454940796 -0.041432011872529984 100.0 7 -0.0779419094324112
-0.2578689754009247 -2.36603045463562 0.6377301812171936 100.0 15 -0.07793960720300674
-0.25990018248558044 -2.354146957397461 -0.6346243023872375 93.0 0 -0.0779188722372055
-0.2597823441028595 -2.349320650100708 0.04125748947262764 100.0 8 -0.07791657000780106
-0.2633931338787079 -2.3781747817993164 0.1253969669342041 100.0 9 -0.07791195809841156
-0.2601824700832367 -2.345444917678833 -0.4587048292160034 19.0 2 -0.07790965586900711
-0.2633589506149292 -2.370304584503174 0.2086508423089981 99.0 10 -0.07790735363960266
-0.264098584651947 -2.3694231510162354 0.2927301824092865 100.0 11 -0.07790274173021317
-0.2671622335910797 -2.393117904663086 0.38138729333877563 100.0 12 -0.07789813727140427
-0.23800326883792877 -2.128554105758667 -0.18738484382629395 2.0 5 -0.07789583504199982
-0.265916109085083 -2.374436855316162 0.46442911028862 95.0 13 -0.07789352536201477
-0.24177870154380798 -2.155505895614624 -0.11367370933294296 1.0 6 -0.07789122313261032
-0.2671854794025421 -2.3820126056671143 0.5533795952796936 100.0 14 -0.07788892090320587
-0.2654450535774231 -2.362773895263672 -0.04150182008743286 100.0 7 -0.07788661867380142
-0.2667742073535919 -2.370875120162964 0.6392830610275269 100.0 15 -0.07788430899381638
-0.2684771418571472 -2.356393814086914 0.041397109627723694 100.0 8 -0.07786127179861069
-0.23927947878837585 -2.0968775749206543 -0.48724400997161865 1.0 1 -0.07785896956920624
-0.2708249092102051 -2.373319625854492 0.12518762052059174 100.0 9 -0.07785666733980179
-0.24254518747329712 -2.1222057342529297 -0.415200412273407 1.0 2 -0.07785435765981674
-0.27303045988082886 -2.38525390625 0.21004533767700195 100.0 10 -0.07785205543041229
-0.24051354825496674 -2.0979361534118652 -0.3344569206237793 2.0 3 -0.07784975320100784
-0.2719542384147644 -2.3685340881347656 0.2927301824092865 100.0 11 -0.0778474509716034
-0.2438756823539734 -2.1239893436431885 -0.2625065743923187 2.0 4 -0.07784514129161835
-0.27487102150917053 -2.390256404876709 0.3810743987560272 100.0 12 -0.0778428390622139
-0.24870799481868744 -2.159421920776367 -0.19017383456230164 3.0 5 -0.07784053683280945
-0.2746882736682892 -2.381343364715576 0.46595558524131775 99.0 13 -0.077838234603405
-0.2500711679458618 -2.1646125316619873 -0.11419706791639328 1.0 6 -0.07783592492341995
-0.2741882801055908 -2.3733701705932617 0.551580011844635 100.0 14 -0.0778336226940155
-0.2746579945087433 -2.3737993240356445 -0.04171125218272209 100.0 7 -0.07783132046461105
-0.2759692072868347 -2.3814916610717773 0.6423888802528381 100.0 15 -0.0778290182352066
-0.2519121468067169 -2.1509041786193848 -0.5802723169326782 1.0 0 -0.07780828326940536
-0.2772213816642761 -2.3634347915649414 0.04153672605752945 100.0 8 -0.07780597358942032
-0.2516883909702301 -2.1425228118896484 -0.49804162979125977 1.0 1 -0.07780367136001587
-0.2786937355995178 -2.372408628463745 0.12518762052059174 99.0 9 -0.07780136913061142
-0.24269956350326538 -2.0628955364227295 -0.4037518799304962 1.0 2 -0.07779906690120697
-0.2804725766181946 -2.380378007888794 0.2096967101097107 100.0 10 -0.07779675722122192
-0.24515387415885925 -2.0775094032287598 -0.33132821321487427 3.0 3 -0.07779445499181747
-0.28027310967445374 -2.3715620040893555 0.29321765899658203 100.0 11 -0.07779215276241302
-0.2495199739933014 -2.1113409996032715 -0.2610441744327545 2.0 4 -0.07778985053300858
-0.2820994257926941 -2.383446455001831 0.38013577461242676 100.0 12 -0.07778754085302353
-0.25539830327033997 -2.154628276824951 -0.18982520699501038 2.0 5 -0.07778523862361908
-0.2828150987625122 -2.382368803024292 0.4663371741771698 100.0 13 -0.07778293639421463
-0.255833238363266 -2.1518714427948 -0.11356903612613678 1.0 6 -0.07778063416481018
-0.2815971374511719 -2.368577480316162 0.5506802201271057 100.0 14 -0.07777832448482513
-0.2811098098754883 -2.360961437225342 -0.04150182008743286 100.0 7 -0.07777602225542068
-0.28432226181030273 -2.384399652481079 0.6434241533279419 100.0 15 -0.07777372002601624
-0.2502621114253998 -2.0771737098693848 -0.560602068901062 1.0 0 -0.077752985060215
-0.2855364680290222 -2.3664729595184326 0.041606537997722626 100.0 8 -0.07775068283081055
-0.2545839548110962 -2.1068525314331055 -0.4899434447288513 1.0 1 -0.0777483731508255
-0.287038654088974 -2.375437021255493 0.1253969669342041 99.0 9 -0.07774607092142105
-0.25048255920410156 -2.069875478744507 -0.4052783250808716 1.0 2 -0.0777437686920166
-0.2888438403606415 -2.383390426635742 0.21004533767700195 99.0 10 -0.07774146646261215
-0.25465986132621765 -2.0982558727264404 -0.3347697854042053 2.0 3 -0.0777391567826271
-0.28861507773399353 -2.374560832977295 0.29370513558387756 100.0 11 -0.07773685455322266
-0.2589152753353119 -2.1302077770233154 -0.2634815573692322 2.0 4 -0.0777345523238182
-0.29047882556915283 -2.3864195346832275 0.3807615041732788 100.0 12 -0.07773225009441376
-0.2649528384208679 -2.1735470294952393 -0.19156832993030548 3.0 5 -0.07772994041442871
-0.2916654944419861 -2.3892133235931396 0.46786367893218994 100.0 13 -0.07772763818502426
-0.26417961716651917 -2.160923957824707 -0.1140923947095871 1.0 6 -0.07772533595561981
-0.29063254594802856 -2.377302408218384 0.5529297590255737 100.0 14 -0.07772303372621536
-0.28772225975990295 -2.3500919342041016 -0.04132729768753052 100.0 7 -0.07772073149681091
-0.291287362575531 -2.3757739067077637 0.6413536071777344 100.0 15 -0.07771842181682587
-0.2588258683681488 -2.0839107036590576 -0.5626726150512695 1.0 0 -0.07770919799804688
-0.2932208776473999 -2.3574728965759277 0.04146691784262657 100.0 8 -0.07770689576864243
-0.26423120498657227 -2.121375560760498 -0.4935426115989685 1.0 1 -0.07770459353923798
-0.2966519594192505 -2.3782808780670166 0.12560631334781647 99.0 9 -0.07770228385925293
-0.26146915555000305 -2.096217632293701 -0.4106209874153137 1.0 2 -0.07769998162984848
-0.29683664441108704 -2.376384973526001 0.20952239632606506 100.0 10 -0.07769767940044403
-0.26063239574432373 -2.083587884902954 -0.33257973194122314 3.0 3 -0.07769537717103958
-0.29879680275917053 -2.385305166244507 0.29516759514808655 100.0 11 -0.07769306749105453
-0.27302268147468567 -2.176469326019287 -0.26933127641677856 3.0 4 -0.07769076526165009
-0.3001323342323303 -2.389206886291504 0.38138729333877563 100.0 12 -0.07768846303224564
-0.2890588641166687 -2.3010566234588623 -0.2028985619544983 12.0 5 -0.07768616080284119
-0.3006654977798462 -2.390076160430908 0.46824532747268677 97.0 13 -0.07768385112285614
-0.2740951180458069 -2.1757941246032715 -0.11492977291345596 1.0 6 -0.07768154889345169
-0.30097782611846924 -2.385836124420166 0.555179238319397 100.0 14 -0.07767924666404724
-0.29899951815605164 -2.3668253421783447 -0.041641443967819214 100.0 7 -0.07767694443464279
-0.3004075288772583 -2.3746378421783447 0.6413536071777344 100.0 15 -0.07767463475465775
-0.26854678988456726 -2.1021573543548584 -0.5678489804267883 1.0 0 -0.0776538997888565
-0.3009408116340637 -2.3524680137634277 0.041397109627723694 100.0 8 -0.07765159755945206
-0.27163439989089966 -2.1204402446746826 -0.4935426115989685 1.0 1 -0.07764929533004761
-0.3059685230255127 -2.385155200958252 0.1260250061750412 100.0 9 -0.07764699310064316
-0.2652875781059265 -2.0680301189422607 -0.4052783250808716 1.0 2 -0.07764468342065811
-0.30589157342910767 -2.3812625408172607 0.21004533767700195 99.0 10 -0.07764238119125366
-0.27748093008995056 -2.157116174697876 -0.34446874260902405 4.0 3 -0.07764007896184921
-0.3061065673828125 -2.3763723373413086 0.2941926121711731 100.0 11 -0.07763777673244476
-0.2978869378566742 -2.309380531311035 -0.28590551018714905 9.0 4 -0.07763546705245972
-0.3089768588542938 -2.3920629024505615 0.3820130228996277 100.0 12 -0.07763316482305527
-0.2983658015727997 -2.309913396835327 -0.20377011597156525 11.0 5 -0.07763086259365082
-0.3074953258037567 -2.3773295879364014 0.46595558524131775 95.0 13 -0.07762856036424637
-0.29169347882270813 -2.2520718574523926 -0.11901197582483292 3.0 6 -0.07762625068426132
-0.3098057508468628 -2.3886358737945557 0.5560790300369263 100.0 14 -0.07762394845485687
-0.3072595000267029 -2.365767240524292 -0.041641443967819214 100.0 7 -0.07762164622545242
-0.30969110131263733 -2.381237745285034 0.6434241533279419 100.0 15 -0.07761934399604797
-0.2748769521713257 -2.09354567527771 -0.5657784342765808 1.0 0 -0.07759860903024673
-0.3101930618286133 -2.3593337535858154 0.04153672605752945 100.0 8 -0.07759629935026169
-0.27954351902008057 -2.1233434677124023 -0.4944424629211426 2.0 1 -0.07759399712085724
-0.313770055770874 -2.3801121711730957 0.12581564486026764 99.0 9 -0.07759169489145279
-0.27404412627220154 -2.0787699222564697 -0.4075680375099182 1.0 2 -0.07758939266204834
-0.3155057430267334 -2.390056848526001 0.2109168916940689 100.0 10 -0.0775870829820633
-0.3036472499370575 -2.2971351146698 -0.36699530482292175 13.0 3 -0.07758478075265884
-0.31335797905921936 -2.367417573928833 0.29321765899658203 100.0 11 -0.0775824785232544
-0.3051639497280121 -2.3024230003356934 -0.28517428040504456 10.0 4 -0.07758017629384995
-0.31810426712036133 -2.3968441486358643 0.38295161724090576 100.0 12 -0.0775778666138649
-0.30852392315864563 -2.3246583938598633 -0.2051646113395691 11.0 5 -0.07757556438446045
-0.31656786799430847 -2.382080316543579 0.46710047125816345 100.0 13 -0.077573262155056
-0.30561256408691406 -2.2965755462646484 -0.12141943722963333 8.0 6 -0.07757095992565155
-0.3171119689941406 -2.3798134326934814 0.5542794466018677 100.0 14 -0.0775686576962471
-0.3163091838359833 -2.37062668800354 -0.04174615815281868 100.0 7 -0.07756634801626205
-0.3180016279220581 -2.3801422119140625 0.6434241533279419 100.0 15 -0.0775640457868576
-0.2811504900455475 -2.0849156379699707 -0.5637079477310181 1.0 0 -0.07754331082105637
-0.31949716806411743 -2.3661632537841797 0.041676346212625504 100.0 8 -0.07754100859165192
-0.30966952443122864 -2.2903664112091064 -0.53358393907547 8.0 1 -0.07753869891166687
-0.3215407729148865 -2.375044107437134 0.12560631334781647 99.0 9 -0.07753639668226242
-0.28077223896980286 -2.0739097595214844 -0.4068048298358917 1.0 2 -0.07753409445285797
-0.3241143822669983 -2.3909151554107666 0.21109120547771454 100.0 10 -0.07753179222345352
-0.3151177763938904 -2.3215079307556152 -0.37106260657310486 23.0 3 -0.07752948254346848
-0.32268932461738586 -2.3741774559020996 0.2941926121711731 100.0 11 -0.07752718031406403
-0.3140021562576294 -2.3072445392608643 -0.28590551018714905 12.0 4 -0.07752487808465958
-0.32566845417022705 -2.38984751701355 0.3820130228996277 100.0 12 -0.07752257585525513
-0.31556031107902527 -2.315670967102051 -0.20446737110614777 11.0 5 -0.07752027362585068
-0.3262081444263458 -2.3906869888305664 0.46900853514671326 99.0 13 -0.07751796394586563
-0.316871702671051 -2.3192410469055176 -0.12267549335956573 10.0 6 -0.07751566171646118
-0.3248891830444336 -2.3748302459716797 0.5533795952796936 100.0 14 -0.07751335948705673
-0.3240393102169037 -2.3655457496643066 -0.041676346212625504 100.0 7 -0.07751105725765228
-0.32735779881477356 -2.3866734504699707 0.6454947590827942 100.0 15 -0.07750874757766724
-0.29266417026519775 -2.1145389080047607 -0.5719900727272034 1.0 0 -0.077488012611866
-0.3283037543296814 -2.368995428085327 0.04174615815281868 100.0 8 -0.07748571038246155
-0.3203412592411041 -2.3085739612579346 -0.5380829572677612 9.0 1 -0.0774834081530571
-0.3303787410259247 -2.377863883972168 0.12581564486026764 100.0 9 -0.07748109847307205
-0.2853078544139862 -2.053471088409424 -0.40298861265182495 1.0 2 -0.0774787962436676
-0.33163440227508545 -2.3838489055633545 0.21056827902793884 100.0 10 -0.07747649401426315
-0.3226746916770935 -2.3164803981781006 -0.3704368472099304 17.0 3 -0.0774741917848587
-0.3320714235305786 -2.3809008598327637 0.29516759514808655 100.0 11 -0.07747188955545425
-0.3209556043148041 -2.2982702255249023 -0.284930557012558 10.0 4 -0.07746957987546921
-0.3334618806838989 -2.3847835063934326 0.38138729333877563 100.0 12 -0.07746727764606476
-0.3250214755535126 -2.3244211673736572 -0.20533892512321472 14.0 5 -0.07746497541666031
-0.33536791801452637 -2.395366668701172 0.47015342116355896 100.0 13 -0.07746267318725586
-0.3260743021965027 -2.3260324001312256 -0.12309417873620987 11.0 6 -0.07746036350727081
-0.33398932218551636 -2.3794713020324707 0.5547293424606323 100.0 14 -0.07745806127786636
-0.33145979046821594 -2.35845947265625 -0.041571635752916336 100.0 7 -0.07745575904846191
-0.33514848351478577 -2.38169002532959 0.6444594264030457 100.0 15 -0.07745345681905746
-0.2956988513469696 -2.082901954650879 -0.5637079477310181 1.0 0 -0.07743271440267563
-0.33600831031799316 -2.363875150680542 0.041676346212625504 100.0 8 -0.07743041217327118
-0.3300449848175049 -2.3190174102783203 -0.5407823324203491 9.0 1 -0.07742810994386673
-0.33980414271354675 -2.3846051692962646 0.12623433768749237 99.0 9 -0.07742580771446228
-0.29385894536972046 -2.062180995941162 -0.40489673614501953 2.0 2 -0.07742350548505783
-0.3396722078323364 -2.380704402923584 0.21039395034313202 100.0 10 -0.07742119580507278
-0.32684755325317383 -2.2879629135131836 -0.3660567104816437 9.0 3 -0.07741889357566833
-0.34094253182411194 -2.383657455444336 0.2956550419330597 100.0 11 -0.07741659134626389
-0.33207207918167114 -2.318751573562622 -0.2876116633415222 10.0 4 -0.07741428911685944
-0.3426251709461212 -2.3894708156585693 0.3823258578777313 100.0 12 -0.07741197943687439
-0.3353953957557678 -2.33905029296875 -0.20673342049121857 15.0 5 -0.07740967720746994
-0.34289032220840454 -2.3883512020111084 0.46900853514671326 99.0 13 -0.07740737497806549
-0.33646541833877563 -2.34069561958313 -0.12393154948949814 14.0 6 -0.07740507274866104
-0.34423625469207764 -2.3917927742004395 0.5578786134719849 100.0 14 -0.077402763068676
-0.34054601192474365 -2.3632259368896484 -0.041676346212625504 100.0 7 -0.07740046083927155
-0.34346017241477966 -2.3805055618286133 0.6444594264030457 100.0 15 -0.0773981586098671
-0.30630651116371155 -2.104797601699829 -0.5699195861816406 1.0 0 -0.07737742364406586
-0.34339284896850586 -2.3567514419555664 0.041571635752916336 100.0 8 -0.07737512141466141
-0.3353245258331299 -2.298567771911621 -0.5362833142280579 9.0 1 -0.07737281173467636
-0.3487032949924469 -2.387357234954834 0.12644368410110474 99.0 9 -0.07737050950527191
-0.30247431993484497 -2.0708558559417725 -0.4068048298358917 2.0 2 -0.07736820727586746
-0.3476921319961548 -2.377532958984375 0.21021965146064758 100.0 10 -0.07736590504646301
-0.3362627327442169 -2.2965807914733887 -0.3676210343837738 10.0 3 -0.07736359536647797
-0.34926101565361023 -2.3824527263641357 0.2956550419330597 100.0 11 -0.07736129313707352
-0.3441995680332184 -2.3450746536254883 -0.29102399945259094 15.0 4 -0.07735899090766907
-0.3524003028869629 -2.3980321884155273 0.3838902413845062 100.0 12 -0.07735668867826462
-0.34384816884994507 -2.339836359024048 -0.206907719373703 18.0 5 -0.07735437899827957
-0.34951022267341614 -2.37548565864563 0.4667188227176666 97.0 13 -0.07735207676887512
-0.3440515697002411 -2.335555076599121 -0.12372221052646637 14.0 6 -0.07734977453947067
-0.3528677523136139 -2.3925046920776367 0.5583285689353943 100.0 14 -0.07734747231006622
-0.3499617278575897 -2.3699357509613037 -0.04181596636772156 100.0 7 -0.07734516263008118
-0.3523325026035309 -2.3831145763397217 0.6454947590827942 100.0 15 -0.07734286040067673
-0.3147910535335541 -2.111358404159546 -0.5719900727272034 1.0 0 -0.07732212543487549
-0.35191234946250916 -2.357516288757324 0.041606537997722626 100.0 8 -0.07731982320547104
-0.3450745940208435 -2.3089475631713867 -0.5389827489852905 9.0 1 -0.07731752097606659
-0.35644325613975525 -2.3821749687194824 0.12623433768749237 100.0 9 -0.07731521129608154
-0.31057247519493103 -2.0756120681762695 -0.40794962644577026 2.0 2 -0.0773129090666771
-0.35835039615631104 -2.3920681476593018 0.21161414682865143 100.0 10 -0.07731060683727264
-0.3445705771446228 -2.297346353530884 -0.36793389916419983 11.0 3 -0.0773083046078682
