# .PCD v0.7 - Point Cloud Data file format
VERSION 0.7
FIELDS x y z intensity ring time
SIZE 4 4 4 4 4 4
TYPE F F F F F F
COUNT 1 1 1 1 1 1
WIDTH 550
HEIGHT 1
VIEWPOINT 0 0 0 1 0 0 0
POINTS 550
DATA ascii
1.4223781824111938 -2.1095566749572754 0.4029752314090729 5.0 12 -0.07460328936576843
1.4680434465408325 -2.177283525466919 -0.22974254190921783 1.0 5 -0.07460098713636398
1.4264507293701172 -2.1163933277130127 0.4961034059524536 4.0 13 -0.07459868490695953
1.417302131652832 -2.103611946105957 -0.1329333484172821 9.0 6 -0.07459638267755508
1.4140831232070923 -2.0996246337890625 0.5844228863716125 6.0 14 -0.07459407299757004
1.4194124937057495 -2.1083319187164307 -0.04436401650309563 6.0 7 -0.07459177076816559
1.4194377660751343 -2.109163761138916 0.6812117695808411 6.0 15 -0.07458946853876114
0.801021158695221 -1.1933941841125488 -0.38512274622917175 6.0 0 -0.0745687335729599
1.4082999229431152 -2.09893536567688 0.04411968216300011 6.0 8 -0.07456643134355545
0.9595718383789062 -1.4306888580322266 -0.3977135121822357 6.0 1 -0.0745641216635704
1.411413311958313 -2.10516357421875 0.13282866775989532 5.0 9 -0.07456181943416595
1.2069904804229736 -1.8002610206604004 -0.421306312084198 6.0 2 -0.0745595172047615
1.4209163188934326 -2.1201369762420654 0.2232930064201355 6.0 10 -0.07455721497535706
1.4589918851852417 -2.1777710914611816 -0.4151771068572998 118.0 3 -0.07455490529537201
1.4094518423080444 -2.104619264602661 0.31101056933403015 4.0 11 -0.07455260306596756
1.452152132987976 -2.169198751449585 -0.3205164074897766 94.0 4 -0.07455030083656311
1.4084142446517944 -2.104658365249634 0.40109801292419434 5.0 12 -0.07454799860715866
1.413596510887146 -2.1132004261016846 0.4941953420639038 4.0 13 -0.07454338669776917
1.4132812023162842 -2.113527297973633 -0.13324734568595886 10.0 6 -0.07454108446836472
1.4024137258529663 -2.09806752204895 0.582623302936554 5.0 14 -0.07453878223896027
1.4009348154067993 -2.096647024154663 -0.04401496797800064 6.0 7 -0.07453648000955582
1.4120666980743408 -2.114105701446533 0.6812117695808411 7.0 15 -0.07453417032957077
0.7882822155952454 -1.1833209991455078 -0.3809816539287567 7.0 0 -0.07451343536376953
1.4031814336776733 -2.1071672439575195 0.04418949410319328 6.0 8 -0.07451113313436508
0.9502525925636292 -1.4275407791137695 -0.39591389894485474 6.0 1 -0.07450883090496063
1.4110651016235352 -2.1198079586029053 0.13345670700073242 5.0 9 -0.07450652122497559
1.182210087776184 -1.776676893234253 -0.41481876373291016 5.0 2 -0.07450421899557114
1.407989740371704 -2.1167895793914795 0.22242143750190735 5.0 10 -0.07450191676616669
1.453568696975708 -2.186140775680542 -0.41580286622047424 114.0 3 -0.07449961453676224
1.4042943716049194 -2.112833023071289 0.31149807572364807 4.0 11 -0.07449730485677719
1.4489654302597046 -2.180868148803711 -0.3214913308620453 94.0 4 -0.07449500262737274
1.3970545530319214 -2.102735996246338 0.39984655380249023 5.0 12 -0.07449270039796829
1.4094690084457397 -2.1230287551879883 0.4953401982784271 4.0 13 -0.0744880959391594
1.401477336883545 -2.1117911338806152 -0.13282866775989532 10.0 6 -0.07448578625917435
1.3993905782699585 -2.109445571899414 0.5844228863716125 5.0 14 -0.0744834840297699
1.397290825843811 -2.1062803268432617 -0.04411968216300011 7.0 7 -0.07448118180036545
1.3911687135696411 -2.097846508026123 0.6744824647903442 7.0 15 -0.074478879570961
0.7777543067932129 -1.1763962507247925 -0.37787580490112305 6.0 0 -0.07445813715457916
1.385157823562622 -2.095127582550049 0.0438404455780983 6.0 8 -0.07445583492517471
0.9541090726852417 -1.443690299987793 -0.3995131254196167 6.0 1 -0.07445353269577026
1.399253249168396 -2.1180546283721924 0.1330380141735077 6.0 9 -0.07445123046636581
1.177083134651184 -1.7824310064315796 -0.415200412273407 6.0 2 -0.07444892823696136
1.40059232711792 -2.1216914653778076 0.22242143750190735 6.0 10 -0.07444661855697632
1.4354283809661865 -2.1744630336761475 -0.4126741588115692 118.0 3 -0.07444431632757187
1.3994669914245605 -2.1207919120788574 0.3119855523109436 4.0 11 -0.07444201409816742
1.4439116716384888 -2.1889755725860596 -0.3219788372516632 97.0 4 -0.07443971186876297
1.3875312805175781 -2.1043014526367188 0.3992207944393158 6.0 12 -0.07443740218877792
1.4013404846191406 -2.126051902770996 0.4949585497379303 4.0 13 -0.07443279772996902
1.3933676481246948 -2.1147589683532715 -0.13272398710250854 10.0 6 -0.07443049550056458
1.39667546749115 -2.120584487915039 0.5862225294113159 5.0 14 -0.07442818582057953
1.3899298906326294 -2.111144781112671 -0.04411968216300011 7.0 7 -0.07442588359117508
1.3848992586135864 -2.1043033599853516 0.6750000715255737 7.0 15 -0.07442358136177063
0.7802094221115112 -1.1886591911315918 -0.3809816539287567 6.0 0 -0.07440284639596939
1.373448133468628 -2.0932626724243164 0.04370082914829254 6.0 8 -0.07440054416656494
0.9362386465072632 -1.4274576902389526 -0.39411428570747375 6.0 1 -0.0743982344865799
1.387471079826355 -2.1162450313568115 0.13261932134628296 6.0 9 -0.07439593225717545
1.172242283821106 -1.7879666090011597 -0.4155820310115814 5.0 2 -0.074393630027771
1.3848117589950562 -2.112993001937866 0.2210269570350647 5.0 10 -0.07439132779836655
1.4278292655944824 -2.1794605255126953 -0.4126741588115692 114.0 3 -0.0743890181183815
1.3757425546646118 -2.1007540225982666 0.3083294630050659 3.0 11 -0.07438671588897705
1.4319127798080444 -2.1873586177825928 -0.32100388407707214 94.0 4 -0.0743844136595726
1.3823405504226685 -2.1124379634857178 0.39984655380249023 5.0 12 -0.07438211143016815
1.381014347076416 -2.1112148761749268 0.4903791546821594 4.0 13 -0.07437749952077866
1.3848845958709717 -2.11793851852417 -0.13261932134628296 10.0 6 -0.0743751972913742
1.3892645835876465 -2.1254467964172363 0.5862225294113159 5.0 14 -0.07437289506196976
1.3738017082214355 -2.1025915145874023 -0.0438404455780983 7.0 7 -0.07437058538198471
1.3775454759597778 -2.1091248989105225 0.6750000715255737 7.0 15 -0.07436828315258026
0.7760553956031799 -1.1913753747940063 -0.3809816539287567 7.0 0 -0.07434754818677902
1.3683152198791504 -2.10139536857605 0.04377063736319542 6.0 8 -0.07434524595737457
0.9269979000091553 -1.4241842031478882 -0.3923146724700928 6.0 1 -0.07434294372797012
1.375718593597412 -2.1143786907196045 0.13220062851905823 5.0 9 -0.07434063404798508
1.1756302118301392 -1.806857705116272 -0.419016569852829 6.0 2 -0.07433833181858063
1.3817726373672485 -2.124495029449463 0.22172421216964722 5.0 10 -0.07433602958917618
1.41913640499115 -2.1827750205993652 -0.4123612940311432 118.0 3 -0.07433372735977173
1.3673192262649536 -2.1038787364959717 0.30808573961257935 4.0 11 -0.07433141767978668
1.41994309425354 -2.185685157775879 -0.3200289309024811 97.0 4 -0.07432911545038223
1.3771101236343384 -2.1205639839172363 0.4004722833633423 5.0 12 -0.07432681322097778
1.369360327720642 -2.109435796737671 0.4888526499271393 4.0 13 -0.07432220131158829
1.3687855005264282 -2.10935640335083 -0.1317819505929947 10.0 6 -0.07431989908218384
1.3733528852462769 -2.117204189300537 0.582623302936554 5.0 14 -0.07431759685277939
1.3708059787750244 -2.1140854358673096 -0.04398006573319435 7.0 7 -0.07431529462337494
1.3659719228744507 -2.107436180114746 0.6729295253753662 6.0 15 -0.07431298494338989
0.7760870456695557 -1.2005665302276611 -0.38305220007896423 6.0 0 -0.07429224997758865
1.3588011264801025 -2.102799892425537 0.04370082914829254 7.0 8 -0.0742899477481842
0.9304798245429993 -1.4405068159103394 -0.39591389894485474 6.0 1 -0.07428764551877975
1.3553287982940674 -2.0990335941314697 0.13094457983970642 6.0 9 -0.0742853432893753
1.162926197052002 -1.8010544776916504 -0.41672685742378235 6.0 2 -0.07428303360939026
1.3754290342330933 -2.130979299545288 0.22189851105213165 6.0 10 -0.07428073137998581
1.3986570835113525 -2.167797327041626 -0.4086068868637085 103.0 3 -0.07427842915058136
1.35996675491333 -2.1086387634277344 0.30808573961257935 4.0 11 -0.07427612692117691
1.4037001132965088 -2.177281141281128 -0.31807902455329895 101.0 4 -0.07427381724119186
1.3632793426513672 -2.1153950691223145 0.39859506487846375 5.0 12 -0.07427151501178741
1.3694312572479248 -2.125756025314331 0.49152401089668274 4.0 13 -0.07426691055297852
1.3624955415725708 -2.115800619125366 -0.13188663125038147 10.0 6 -0.07426460087299347
1.3596253395080566 -2.1121535301208496 0.5799238681793213 4.0 14 -0.07426229864358902
1.3547616004943848 -2.1054046154022217 -0.04370082914829254 7.0 7 -0.07425999641418457
1.3586070537567139 -2.1121914386749268 0.6729295253753662 7.0 15 -0.07425769418478012
0.7656329274177551 -1.1935120820999146 -0.37994638085365295 6.0 0 -0.07423695921897888
1.3514525890350342 -2.107530355453491 0.04370082914829254 7.0 8 -0.07423464953899384
0.9212391972541809 -1.4371834993362427 -0.39411428570747375 6.0 1 -0.07423234730958939
1.3587689399719238 -2.12056827545166 0.13199129700660706 6.0 9 -0.07423004508018494
1.1502772569656372 -1.795184850692749 -0.4144371747970581 6.0 2 -0.07422774285078049
1.3593851327896118 -2.1223459243774414 0.220504030585289 4.0 10 -0.07422543317079544
1.4049283266067505 -2.1942927837371826 -0.4126741588115692 118.0 3 -0.07422313094139099
1.354738473892212 -2.1167168617248535 0.3085731863975525 4.0 11 -0.07422082871198654
1.3982306718826294 -2.185512065887451 -0.3185664713382721 103.0 4 -0.07421852648258209
1.3431156873703003 -2.1001710891723633 0.39484065771102905 5.0 12 -0.07421621680259705
1.355657935142517 -2.120598554611206 0.4892342984676361 4.0 13 -0.07421161234378815
1.3475732803344727 -2.1087629795074463 -0.1311539113521576 11.0 6 -0.0742093101143837
1.3449008464813232 -2.105390787124634 0.576774537563324 6.0 14 -0.07420700788497925
1.3452513217926025 -2.106750011444092 -0.04363101348280907 7.0 7 -0.0742046982049942
1.3439502716064453 -2.1055221557617188 0.6693060994148254 7.0 15 -0.07420239597558975
0.7593873739242554 -1.192918062210083 -0.3789111077785492 7.0 0 -0.07418166100978851
1.3354991674423218 -2.098738193511963 0.04342158883810043 7.0 8 -0.07417935878038406
0.9204005599021912 -1.446967601776123 -0.39591389894485474 6.0 1 -0.07417704910039902
1.351358413696289 -2.125298261642456 0.13199129700660706 6.0 9 -0.07417474687099457
1.1482173204421997 -1.8058158159255981 -0.41596361994743347 6.0 2 -0.07417244464159012
1.344487190246582 -2.115307092666626 0.2192838340997696 5.0 10 -0.07417014241218567
1.3866668939590454 -2.1825106143951416 -0.4095454514026642 114.0 3 -0.07416783273220062
1.343084454536438 -2.1147303581237793 0.3075982630252838 4.0 11 -0.07416553050279617
1.3905935287475586 -2.1903793811798096 -0.3185664713382721 101.0 4 -0.07416322827339172
1.3400102853775024 -2.111517906188965 0.39609211683273315 5.0 12 -0.07416092604398727
1.3387821912765503 -2.1103973388671875 0.4857997000217438 4.0 13 -0.07415631413459778
1.3466216325759888 -2.1235742568969727 -0.1317819505929947 12.0 6 -0.07415401190519333
1.3438036441802979 -2.119947910308838 0.5794739723205566 6.0 14 -0.07415170967578888
1.3400299549102783 -2.114811420440674 -0.04370082914829254 7.0 7 -0.07414940744638443
1.3303900957107544 -2.1004085540771484 0.6662002205848694 7.0 15 -0.07414709776639938
0.7552187442779541 -1.1955615282058716 -0.3789111077785492 6.0 0 -0.07412636280059814
1.3238943815231323 -2.096623659133911 0.04328196495771408 6.0 8 -0.0741240605711937
0.9111835956573486 -1.443579912185669 -0.39411428570747375 6.0 1 -0.07412175834178925
1.3375369310379028 -2.1198678016662598 0.13136327266693115 5.0 9 -0.0741194561123848
1.13771653175354 -1.8031715154647827 -0.4144371747970581 6.0 2 -0.07411714643239975
1.342409610748291 -2.128413677215576 0.22015538811683655 6.0 10 -0.0741148442029953
1.3748260736465454 -2.1806535720825195 -0.4082939922809601 118.0 3 -0.07411254197359085
1.3293440341949463 -2.1093292236328125 0.30613580346107483 4.0 11 -0.0741102397441864
1.382939100265503 -2.1952202320098877 -0.3185664713382721 101.0 4 -0.07410793006420135
1.3326314687728882 -2.116182804107666 0.39609211683273315 5.0 12 -0.0741056278347969
1.3324533700942993 -2.1167190074920654 0.4861813485622406 4.0 13 -0.074101023375988
1.329627513885498 -2.1130478382110596 -0.13083989918231964 11.0 6 -0.07409871369600296
1.337432861328125 -2.1262753009796143 0.5799238681793213 6.0 14 -0.07409641146659851
1.3273175954818726 -2.1110117435455322 -0.0435263030230999 8.0 7 -0.07409410923719406
1.325106143951416 -2.1083109378814697 0.6672354936599731 7.0 15 -0.07409180700778961
0.7571969032287598 -1.2080116271972656 -0.3820169270038605 7.0 0 -0.07407107204198837
1.3208147287368774 -2.1080105304718018 0.04342158883810043 7.0 8 -0.07406876236200333
0.9020012617111206 -1.4401456117630005 -0.3923146724700928 6.0 1 -0.07406646013259888
1.3237700462341309 -2.1143665313720703 0.13073523342609406 6.0 9 -0.07406415790319443
1.1314154863357544 -1.8071317672729492 -0.4144371747970581 6.0 2 -0.07406185567378998
1.3307439088821411 -2.126330852508545 0.21945816278457642 6.0 10 -0.07405954599380493
1.3651106357574463 -2.1820898056030273 -0.40766826272010803 118.0 3 -0.07405724376440048
1.3177629709243774 -2.107224464416504 0.30516088008880615 4.0 11 -0.07405494153499603
1.3710590600967407 -2.193301200866699 -0.3175915479660034 99.0 4 -0.07405263930559158
1.3273299932479858 -2.1241719722747803 0.3967178463935852 5.0 12 -0.07405032962560654
1.3229763507843018 -2.1180272102355957 0.4854181110858917 5.0 13 -0.07404572516679764
1.3211857080459595 -2.1159822940826416 -0.13073523342609406 11.0 6 -0.07404342293739319
1.3248436450958252 -2.1226649284362793 0.5776743292808533 6.0 14 -0.07404111325740814
1.3188824653625488 -2.1139352321624756 -0.04349139705300331 7.0 7 -0.07403881102800369
1.319783329963684 -2.116201877593994 0.6682707667350769 7.0 15 -0.07403650879859924
0.746853768825531 -1.2008048295974731 -0.3789111077785492 8.0 0 -0.074015773832798
1.313448429107666 -2.112607955932617 0.04342158883810043 6.0 8 -0.07401347160339355
0.8969687223434448 -1.443285346031189 -0.3923146724700928 6.0 1 -0.07401116192340851
1.31216561794281 -2.1121881008148193 0.13031654059886932 6.0 9 -0.07400885969400406
1.120956301689148 -1.8043993711471558 -0.41291067004203796 6.0 2 -0.07400655746459961
1.3191094398498535 -2.124192714691162 0.2187609225511551 6.0 10 -0.07400425523519516
1.3585270643234253 -2.1885201930999756 -0.40798112750053406 111.0 3 -0.07400194555521011
1.3145856857299805 -2.118558406829834 0.30613580346107483 4.0 11 -0.07399964332580566
1.352931022644043 -2.181204319000244 -0.31515416502952576 103.0 4 -0.07399734109640121
1.3074160814285278 -2.1086456775665283 0.3929634094238281 6.0 12 -0.07399503886699677
1.3155748844146729 -2.1226322650909424 0.4854181110858917 4.0 13 -0.07399042695760727
1.311687707901001 -2.117185592651367 -0.1305258870124817 11.0 6 -0.07398812472820282
1.3163999319076538 -2.125620126724243 0.5772244930267334 6.0 14 -0.07398582249879837
1.3051798343658447 -2.1083245277404785 -0.04328196495771408 7.0 7 -0.07398352026939392
1.312388300895691 -2.120795965194702 0.6682707667350769 7.0 15 -0.07398121058940887
0.7426576018333435 -1.2034045457839966 -0.3789111077785492 8.0 0 -0.07448291778564453
1.3039662837982178 -2.113776206970215 0.043351780623197556 7.0 8 -0.07448061555624008
0.8919252157211304 -1.4464075565338135 -0.3923146724700928 6.0 1 -0.07447831332683563
1.307250738143921 -2.1199281215667725 0.1305258870124817 5.0 9 -0.07447600364685059
1.1115604639053345 -1.8032876253128052 -0.41176581382751465 6.0 2 -0.07447370141744614
1.3075058460235596 -2.121999502182007 0.21806366741657257 6.0 10 -0.07447139918804169
1.3550232648849487 -2.199976682662964 -0.40923261642456055 118.0 3 -0.07446909695863724
1.307182788848877 -2.123134136199951 0.30613580346107483 5.0 11 -0.07446678727865219
1.349470853805542 -2.192675828933716 -0.31612908840179443 101.0 4 -0.07446448504924774
1.3004162311553955 -2.1129698753356934 0.3929634094238281 6.0 12 -0.07446218281984329
1.306100606918335 -2.1238670349121094 0.48465490341186523 4.0 13 -0.0744575709104538
1.30428946018219 -2.121751546859741 -0.1305258870124817 11.0 6 -0.07445526868104935
1.307951807975769 -2.128541946411133 0.576774537563324 6.0 14 -0.0744529664516449
1.292946457862854 -2.1041224002838135 -0.04310744255781174 8.0 7 -0.07445066422224045
1.2962483167648315 -2.110321521759033 0.6636120676994324 6.0 15 -0.0744483545422554
0.7364346981048584 -1.2026944160461426 -0.37787580490112305 8.0 0 -0.07442761957645416
1.2906841039657593 -2.107856273651123 0.043142348527908325 7.0 8 -0.07442531734704971
0.8911932110786438 -1.4560058116912842 -0.39411428570747375 6.0 1 -0.07442301511764526
1.2998430728912354 -2.124478340148926 0.1305258870124817 6.0 9 -0.07442071288824081
1.1052589416503906 -1.8071568012237549 -0.41176581382751465 6.0 2 -0.07441840320825577
1.298012137413025 -2.1231508255004883 0.2177150398492813 6.0 10 -0.07441610097885132
1.3384469747543335 -2.1892898082733154 -0.40641677379608154 107.0 3 -0.07441379874944687
1.2980647087097168 -2.1240696907043457 0.3056483268737793 4.0 11 -0.07441149652004242
1.3401226997375488 -2.1937508583068848 -0.3156416416168213 103.0 4 -0.07440918684005737
1.2899442911148071 -2.112438440322876 0.39202481508255005 6.0 12 -0.07440688461065292
1.2990506887435913 -2.1281864643096924 0.48465490341186523 5.0 13 -0.07440228015184402
1.2993268966674805 -2.129474639892578 -0.13073523342609406 11.0 6 -0.07439997047185898
1.2917536497116089 -2.117893934249878 0.5727254152297974 6.0 14 -0.07439766824245453
1.2897579669952393 -2.115452289581299 -0.04324706271290779 8.0 7 -0.07439536601305008
1.2858577966690063 -2.109884262084961 0.6620591282844543 7.0 15 -0.07439306378364563
0.7324424982070923 -1.205129861831665 -0.37787580490112305 8.0 0 -0.07437232881784439
1.2853951454162598 -2.1157665252685547 0.0432121567428112 7.0 8 -0.07437001913785934
0.8800362348556519 -1.4491139650344849 -0.3914148807525635 6.0 1 -0.0743677169084549
1.2948641777038574 -2.1321914196014404 0.13073523342609406 6.0 9 -0.07436541467905045
1.1012979745864868 -1.8141685724258423 -0.4125290811061859 6.0 2 -0.074363112449646
1.2878633737564087 -2.122333526611328 0.21719209849834442 6.0 10 -0.07436080276966095
1.325674295425415 -2.1855037212371826 -0.40485242009162903 111.0 3 -0.0743585005402565
1.282408595085144 -2.1150083541870117 0.30369842052459717 4.0 11 -0.07435619831085205
1.3345146179199219 -2.201810598373413 -0.31612908840179443 101.0 4 -0.0743538960814476
1.2900992631912231 -2.1285297870635986 0.394214928150177 5.0 12 -0.07435158640146255
1.279409646987915 -2.1125564575195312 0.4800754487514496 4.0 13 -0.07434698194265366
1.2825766801834106 -2.118619918823242 -0.129793182015419 11.0 6 -0.0743446797132492
1.2873797416687012 -2.127391815185547 0.5740751028060913 6.0 14 -0.07434237748384476
1.2744532823562622 -2.1060309410095215 -0.04296782612800598 8.0 7 -0.07434006780385971
1.2788543701171875 -2.1141366958618164 0.6620591282844543 7.0 15 -0.07433776557445526
0.7322215437889099 -1.2142966985702515 -0.37994638085365295 7.0 0 -0.07431703060865402
1.2721762657165527 -2.109743118286133 0.04300273209810257 7.0 8 -0.07431472837924957
0.8732138276100159 -1.4486862421035767 -0.3905150592327118 6.0 1 -0.07431241869926453
1.2791675329208374 -2.1230123043060303 0.1298978626728058 6.0 9 -0.07431011646986008
1.0969843864440918 -1.8213651180267334 -0.4132923185825348 6.0 2 -0.07430781424045563
1.2825028896331787 -2.130229949951172 0.21754072606563568 6.0 10 -0.07430551201105118
1.3184198141098022 -2.189887762069702 -0.40485242009162903 111.0 3 -0.07430320233106613
1.277435302734375 -2.1226508617401123 0.3041858971118927 5.0 11 -0.07430090010166168
1.3190196752548218 -2.192615509033203 -0.3141791820526123 101.0 4 -0.07429859787225723
1.284697413444519 -2.1364059448242188 0.39484065771102905 6.0 12 -0.07429629564285278
1.274420142173767 -2.1201529502868652 0.48083871603012085 5.0 13 -0.07429168373346329
1.2704006433486938 -2.1143016815185547 -0.1292698234319687 11.0 6 -0.07428938150405884
1.278311014175415 -2.1283082962036133 0.573175311088562 6.0 14 -0.07428707927465439
1.2773873805999756 -2.1276113986968994 -0.04331687465310097 8.0 7 -0.07428477704524994
1.2714667320251465 -2.1185877323150635 0.6620591282844543 7.0 15 -0.07428246736526489
0.7281907200813293 -1.216718077659607 -0.37994638085365295 8.0 0 -0.07426173239946365
1.2689107656478882 -2.121034860610962 0.043142348527908325 7.0 8 -0.0742594301700592
0.8661513924598694 -1.4483805894851685 -0.3896152675151825 6.0 1 -0.07425712794065475
1.2676498889923096 -2.120607376098633 0.12947916984558105 6.0 9 -0.07425481826066971
1.0929529666900635 -1.828363060951233 -0.4140555262565613 6.0 2 -0.07425251603126526
1.268277645111084 -2.1224989891052246 0.21632054448127747 6.0 10 -0.07425021380186081
1.3077287673950195 -2.1893889904022217 -0.40391382575035095 107.0 3 -0.07424791157245636
1.2700179815292358 -2.1270968914031982 0.3041858971118927 5.0 11 -0.07424560934305191
1.3022018671035767 -2.1818652153015137 -0.3119855523109436 106.0 4 -0.07424329966306686
1.2640750408172607 -2.118824005126953 0.39077335596084595 6.0 12 -0.07424099743366241
1.269022822380066 -2.127960681915283 0.4816019535064697 5.0 13 -0.07423639297485352
1.2640354633331299 -2.120438814163208 -0.12937450408935547 11.0 6 -0.07423408329486847
1.2688789367675781 -2.1294093132019043 0.5722755193710327 6.0 14 -0.07423178106546402
1.2638128995895386 -2.121748924255371 -0.04310744255781174 8.0 7 -0.07422947883605957
1.2640637159347534 -2.1230132579803467 0.6620591282844543 7.0 15 -0.07422717660665512
0.7199941277503967 -1.2126080989837646 -0.37787580490112305 8.0 0 -0.07420643419027328
1.2553753852844238 -2.11513352394104 0.04293292015790939 7.0 8 -0.07420413196086884
0.8630788326263428 -1.4547470808029175 -0.3905150592327118 6.0 1 -0.07420182973146439
1.264314889907837 -2.1318907737731934 0.1298978626728058 6.0 9 -0.07419952750205994
1.0785526037216187 -1.8186579942703247 -0.41100257635116577 6.0 2 -0.07419722527265549
1.2567970752716064 -2.1200578212738037 0.21562331914901733 6.0 10 -0.07419491559267044
1.302092432975769 -2.1973392963409424 -0.4045395851135254 107.0 3 -0.07419261336326599
1.2605618238449097 -2.128101348876953 0.30369842052459717 4.0 11 -0.07419031113386154
1.2976118326187134 -2.1915218830108643 -0.3127167820930481 103.0 4 -0.07418800890445709
1.252647042274475 -2.1164238452911377 0.38952183723449707 6.0 12 -0.07418569922447205
1.261587142944336 -2.1323776245117188 0.4816019535064697 5.0 13 -0.07418109476566315
1.259676218032837 -2.129995584487915 -0.12968851625919342 11.0 6 -0.0741787925362587
1.2624297142028809 -2.135503053665161 0.5727254152297974 6.0 14 -0.07417648285627365
1.2421563863754272 -2.102045774459839 -0.042618777602910995 8.0 7 -0.0741741806268692
1.2468199729919434 -2.110779285430908 0.6568827629089355 7.0 15 -0.07417187839746475
0.7118349075317383 -1.2084558010101318 -0.3758052587509155 9.0 0 -0.07415114343166351
1.2479844093322754 -2.1195027828216553 0.04293292015790939 7.0 8 -0.07414884120225906
0.8619494438171387 -1.4644687175750732 -0.3923146724700928 6.0 1 -0.07414653152227402
1.2528146505355835 -2.1294054985046387 0.12947916984558105 6.0 9 -0.07414422929286957
1.0662246942520142 -1.8122591972351074 -0.40871289372444153 6.0 2 -0.07414192706346512
1.2514092922210693 -2.127866506576538 0.2159719318151474 6.0 10 -0.07413962483406067
1.2894089221954346 -2.19335675239563 -0.4029752314090729 111.0 3 -0.07413731515407562
1.2491028308868408 -2.125643014907837 0.3027234971523285 5.0 11 -0.07413501292467117
1.2919647693634033 -2.1994614601135254 -0.31320425868034363 107.0 4 -0.07413271069526672
1.249252200126648 -2.1275970935821533 0.39077335596084595 6.0 12 -0.07413040846586227
1.2461856603622437 -2.123223066329956 0.4785490036010742 5.0 13 -0.07412579655647278
1.2512224912643433 -2.132657051086426 -0.12958383560180664 11.0 6 -0.07412349432706833
1.2579256296157837 -2.144939422607422 0.5740751028060913 6.0 14 -0.07412119209766388
1.236833930015564 -2.109819173812866 -0.04268858581781387 8.0 7 -0.07411888241767883
1.2365145683288574 -2.1101181507110596 0.6553298234939575 7.0 15 -0.07411658018827438
0.7132472991943359 -1.221065640449524 -0.3789111077785492 8.0 0 -0.07409584522247314
1.2325094938278198 -2.110032558441162 0.042653679847717285 7.0 8 -0.0740935429930687
0.8470063805580139 -1.4506397247314453 -0.3878156542778015 6.0 1 -0.07409124076366425
1.2554415464401245 -2.151015043258667 0.1305258870124817 6.0 9 -0.0740889310836792
1.0714471340179443 -1.8365038633346558 -0.4132923185825348 6.0 2 -0.07408662885427475
1.2395867109298706 -2.1255545616149902 0.21527467668056488 6.0 10 -0.0740843266248703
1.274397373199463 -2.1861214637756348 -0.4007851481437683 107.0 3 -0.07408202439546585
1.2396758794784546 -2.1265599727630615 0.30223599076271057 5.0 11 -0.0740797147154808
1.2842793464660645 -2.203958034515381 -0.31320425868034363 109.0 4 -0.07407741248607635
1.2358524799346924 -2.1217031478881836 0.388896107673645 6.0 12 -0.0740751102566719
1.2304948568344116 -2.1142020225524902 0.4754960536956787 5.0 13 -0.07407049834728241
1.236367106437683 -2.1251444816589355 -0.12885113060474396 11.0 6 -0.07406819611787796
1.2422181367874146 -2.136059045791626 0.5704758763313293 6.0 14 -0.07406589388847351
1.2314722537994385 -2.1175808906555176 -0.04275839403271675 8.0 7 -0.07406359165906906
1.230112075805664 -2.1160919666290283 0.6558474898338318 7.0 15 -0.07406128942966461
0.7051063179969788 -1.2168617248535156 -0.3768405616283417 8.0 0 -0.07404054701328278
1.2307811975479126 -2.124917984008789 0.042863111943006516 7.0 8 -0.07403824478387833
0.8377780318260193 -1.446988582611084 -0.38601604104042053 6.0 1 -0.07403594255447388
1.2335429191589355 -2.131401300430298 0.12906047701835632 6.0 9 -0.07403364032506943
1.0610963106155396 -1.8334360122680664 -0.41176581382751465 6.0 2 -0.07403133064508438
1.2311620712280273 -2.128143787384033 0.21510037779808044 6.0 10 -0.07402902841567993
1.2707140445709229 -2.197396993637085 -0.4020366370677948 114.0 3 -0.07402672618627548
1.2298864126205444 -2.127652168273926 0.30174851417541504 5.0 11 -0.07402442395687103
1.2702337503433228 -2.1983373165130615 -0.31174179911613464 103.0 4 -0.07402211427688599
1.2339959144592285 -2.136481761932373 0.39077335596084595 6.0 12 -0.07401981204748154
1.2270338535308838 -2.1252853870391846 0.4770224988460541 5.0 13 -0.07401520758867264
1.2249480485916138 -2.122527837753296 -0.12843245267868042 11.0 6 -0.07401290535926819
1.2298853397369385 -2.1319422721862793 0.5682263970375061 6.0 14 -0.07401059567928314
1.2257004976272583 -2.125545024871826 -0.042828209698200226 8.0 7 -0.07400829344987869
1.2184888124465942 -2.113891363143921 0.6537768840789795 7.0 15 -0.07400599122047424
0.7047053575515747 -1.2260150909423828 -0.3789111077785492 8.0 0 -0.073985256254673
1.2193714380264282 -2.1222660541534424 0.04272349178791046 7.0 8 -0.07398294657468796
0.8404862880706787 -1.4634231328964233 -0.3896152675151825 6.0 1 -0.07398064434528351
1.2241066694259644 -2.132230043411255 0.12885113060474396 6.0 9 -0.07397834211587906
1.0507800579071045 -1.8303182125091553 -0.4102393686771393 6.0 2 -0.07397603988647461
1.2237259149551392 -2.1324286460876465 0.21510037779808044 6.0 10 -0.07397373020648956
1.2640187740325928 -2.2035324573516846 -0.40234947204589844 111.0 3 -0.07397142797708511
1.2224520444869995 -2.131932258605957 0.30174851417541504 5.0 11 -0.07396912574768066
1.2595913410186768 -2.1975910663604736 -0.31101056933403015 106.0 4 -0.07396682351827621
1.212782382965088 -2.1167805194854736 0.38639315962791443 6.0 12 -0.07396452128887177
1.2196080684661865 -2.1295552253723145 0.4770224988460541 5.0 13 -0.07395990937948227
1.2185239791870117 -2.128523826599121 -0.128537118434906 11.0 6 -0.07395760715007782
1.223404049873352 -2.137913703918457 0.5686762928962708 6.0 14 -0.07395530492067337
1.2103303670883179 -2.115924119949341 -0.04254896938800812 8.0 7 -0.07395299524068832
1.2149382829666138 -2.124840259552002 0.6558474898338318 7.0 15 -0.07395069301128387
0.6908528804779053 -1.2116851806640625 -0.3737347424030304 8.0 0 -0.07392995804548264
1.21393620967865 -2.1299843788146973 0.04279330000281334 7.0 8 -0.07392765581607819
0.8315144181251526 -1.4595749378204346 -0.3878156542778015 6.0 1 -0.07392534613609314
1.2110973596572876 -2.1258649826049805 0.12822310626506805 6.0 9 -0.07392304390668869
1.0366123914718628 -1.820326805114746 -0.4071864187717438 6.0 2 -0.07392074167728424
1.2152891159057617 -2.134955644607544 0.21492604911327362 6.0 10 -0.07391843944787979
1.2514349222183228 -2.1993467807769775 -0.4007851481437683 107.0 3 -0.07391613721847534
1.2130398750305176 -2.13273549079895 0.3012610375881195 5.0 11 -0.0739138275384903
1.2532782554626465 -2.203481435775757 -0.3112543225288391 103.0 4 -0.07391152530908585
1.2018508911132812 -2.113921642303467 0.3851417005062103 6.0 12 -0.0739092230796814
1.2102274894714355 -2.130385398864746 0.4762592613697052 4.0 13 -0.0739046111702919
1.2120728492736816 -2.1345012187957764 -0.12864179909229279 11.0 6 -0.07390230894088745
1.2095718383789062 -2.130096912384033 0.5655270218849182 6.0 14 -0.073900006711483
1.205281376838684 -2.1234042644500732 -0.042618777602910995 9.0 7 -0.07389770448207855
1.2059786319732666 -2.1254971027374268 0.654812216758728 7.0 15 -0.0738953948020935
0.6830257773399353 -1.2072439193725586 -0.3716641664505005 8.0 0 -0.07387465983629227
1.1970224380493164 -2.1165919303894043 0.04244425520300865 7.0 8 -0.07387235760688782
0.8305057883262634 -1.469110131263733 -0.3896152675151825 6.0 1 -0.07387005537748337
1.2119041681289673 -2.1437788009643555 0.12906047701835632 6.0 9 -0.07386775314807892
1.0305705070495605 -1.8237543106079102 -0.4071864187717438 6.0 2 -0.07386544346809387
1.204283356666565 -2.1320347785949707 0.2142288237810135 6.0 10 -0.07386314123868942
1.2383073568344116 -2.193164110183716 -0.39890795946121216 107.0 3 -0.07386083900928497
1.2118152379989624 -2.1471188068389893 0.3027234971523285 5.0 11 -0.07385853677988052
1.2440131902694702 -2.2041678428649902 -0.3107668459415436 99.0 4 -0.07385622709989548
1.1967754364013672 -2.1213364601135254 0.3857674300670624 6.0 12 -0.07385392487049103
1.2031561136245728 -2.134387254714966 0.4762592613697052 5.0 13 -0.07384932041168213
1.20498788356781 -2.1385087966918945 -0.12864179909229279 12.0 6 -0.07384701073169708
1.2015447616577148 -2.1323983669281006 0.5650770664215088 6.0 14 -0.07384470850229263
1.1943076848983765 -2.12041974067688 -0.04247915744781494 8.0 7 -0.07384240627288818
1.193237066268921 -2.1193840503692627 0.6517063975334167 7.0 15 -0.07384010404348373
0.680910050868988 -1.2128713130950928 -0.37269943952560425 8.0 0 -0.0738193690776825
1.1899971961975098 -2.1205496788024902 0.04244425520300865 7.0 8 -0.07381705939769745
0.8208624720573425 -1.4633580446243286 -0.38736575841903687 7.0 1 -0.073814757168293
1.2063671350479126 -2.1514804363250732 0.1292698234319687 6.0 9 -0.07381245493888855
1.032198429107666 -1.8408613204956055 -0.4102393686771393 6.0 2 -0.0738101527094841
1.1991547346115112 -2.1394927501678467 0.21457743644714355 6.0 10 -0.07380784302949905
1.2271655797958374 -2.1903648376464844 -0.3976564407348633 107.0 3 -0.0738055408000946
1.2027482986450195 -2.1476614475250244 0.30223599076271057 5.0 11 -0.07380323857069016
1.2401901483535767 -2.2154252529144287 -0.31174179911613464 103.0 4 -0.0738009363412857
1.1893632411956787 -2.1255011558532715 0.3857674300670624 6.0 12 -0.07379862666130066
1.1864879131317139 -2.1212308406829834 0.4724431037902832 5.0 13 -0.07379402220249176
1.1930164098739624 -2.1337764263153076 -0.12811844050884247 11.0 6 -0.07379171997308731
1.1969460248947144 -2.1416828632354736 0.5664268136024475 6.0 14 -0.07378941029310226
1.1878740787506104 -2.126321792602539 -0.04251406341791153 9.0 7 -0.07378710806369781
1.186773657798767 -2.12522292137146 0.652224063873291 6.0 15 -0.07378480583429337
0.6804314255714417 -1.2219921350479126 -0.37476998567581177 8.0 0 -0.07376407086849213
1.1825878620147705 -2.124690532684326 0.04244425520300865 8.0 8 -0.07376176863908768
0.8119595646858215 -1.4594027996063232 -0.3855661451816559 7.0 1 -0.07375945895910263
1.1949667930603027 -2.1486964225769043 0.12885113060474396 6.0 9 -0.07375715672969818
1.0238579511642456 -1.8410217761993408 -0.4094761312007904 6.0 2 -0.07375485450029373
1.1916792392730713 -2.1436655521392822 0.21457743644714355 6.0 10 -0.07375255227088928
1.2233502864837646 -2.2015421390533447 -0.39890795946121216 107.0 3 -0.07375024259090424
1.1856051683425903 -2.134493112564087 0.2997986078262329 6.0 11 -0.07374794036149979
1.2237768173217773 -2.2041213512420654 -0.30954816937446594 106.0 4 -0.07374563813209534
1.1896055936813354 -2.1434576511383057 0.38827037811279297 6.0 12 -0.07374333590269089
1.180980920791626 -2.1287930011749268 0.4732063114643097 5.0 13 -0.07373872399330139
1.1787805557250977 -2.1257009506225586 -0.1273857206106186 11.0 6 -0.07373642176389694
1.1875733137130737 -2.142439365386963 0.5655270218849182 6.0 14 -0.07373411953449249
1.177537202835083 -2.1252076625823975 -0.042409345507621765 9.0 7 -0.07373181730508804
1.1793478727340698 -2.1293528079986572 0.652224063873291 7.0 15 -0.073729507625103
0.6817653775215149 -1.234506368637085 -0.37787580490112305 8.0 0 -0.07370877265930176
1.175163984298706 -2.128805637359619 0.04244425520300865 7.0 8 -0.07370647042989731
0.8078019618988037 -1.4639344215393066 -0.38601604104042053 6.0 1 -0.07370416820049286
1.1797423362731934 -2.1388633251190186 0.1280137598514557 7.0 9 -0.07370185852050781
1.0136325359344482 -1.837707757949829 -0.40794962644577026 6.0 2 -0.07369955629110336
1.1851513385772705 -2.149556875228882 0.21475175023078918 6.0 10 -0.07369725406169891
1.213750958442688 -2.202338933944702 -0.39828217029571533 114.0 3 -0.07369495183229446
1.1781470775604248 -2.1386187076568604 0.2997986078262329 4.0 11 -0.07369264215230942
1.213202953338623 -2.2031631469726562 -0.30881693959236145 103.0 4 -0.07369033992290497
1.1687804460525513 -2.1233692169189453 0.3838902413845062 6.0 12 -0.07368803769350052
1.1773285865783691 -2.1397829055786133 0.47473281621932983 6.0 13 -0.07368343323469162
1.1742407083511353 -2.1350529193878174 -0.12769974768161774 12.0 6 -0.07368112355470657
1.169760823249817 -2.127786874771118 0.5605780482292175 6.0 14 -0.07367882132530212
1.167222499847412 -2.1240475177764893 -0.0423046313226223 9.0 7 -0.07367651909589767
1.1746982336044312 -2.138535737991333 0.6537768840789795 7.0 15 -0.07367421686649323
0.6661034226417542 -1.2166627645492554 -0.3716641664505005 8.0 0 -0.07365347445011139
1.1715668439865112 -2.1399104595184326 0.04258387163281441 7.0 8 -0.07365117222070694
0.8008159399032593 -1.463326334953308 -0.38511624932289124 7.0 1 -0.07364886999130249
1.1751445531845093 -2.1482250690460205 0.12832777202129364 6.0 9 -0.07364656776189804
0.9974712133407593 -1.8241851329803467 -0.40413346886634827 6.0 2 -0.07364426553249359
1.1724867820739746 -2.1451451778411865 0.21388019621372223 6.0 10 -0.07364195585250854
1.2075653076171875 -2.2102396488189697 -0.39890795946121216 118.0 3 -0.0736396536231041
1.1725785732269287 -2.146202325820923 0.30028611421585083 5.0 11 -0.07363735139369965
1.2036023139953613 -2.203900098800659 -0.3083294630050659 101.0 4 -0.0736350491642952
1.165147304534912 -2.134371519088745 0.3851417005062103 6.0 12 -0.07363273948431015
1.165717363357544 -2.1371893882751465 0.4732063114643097 5.0 13 -0.07362813502550125
1.1664074659347534 -2.1393425464630127 -0.12769974768161774 12.0 6 -0.0736258327960968
1.1656843423843384 -2.138904333114624 0.5623776316642761 6.0 14 -0.07362352311611176
1.1569303274154663 -2.1228415966033936 -0.04219992086291313 8.0 7 -0.0736212208867073
1.1579844951629639 -2.1256587505340576 0.6486005187034607 7.0 15 -0.07361891865730286
0.6636959910392761 -1.2223759889602661 -0.37269943952560425 8.0 0 -0.07359818369150162
1.1560850143432617 -2.1301300525665283 0.0423046313226223 7.0 8 -0.07359588146209717
0.7982348799705505 -1.4713902473449707 -0.3864659368991852 7.0 1 -0.07359357178211212
1.165733814239502 -2.1488029956817627 0.12811844050884247 6.0 9 -0.07359126955270767
0.9948410987854004 -1.8345593214035034 -0.405659943819046 6.0 2 -0.07358896732330322
1.1535981893539429 -2.1282050609588623 0.21178844571113586 6.0 10 -0.07358666509389877
1.1951375007629395 -2.2057576179504395 -0.39734360575675964 104.0 3 -0.07358435541391373
1.164704442024231 -2.1504857540130615 0.30028611421585083 6.0 11 -0.07358205318450928
1.1974064111709595 -2.2117881774902344 -0.30881693959236145 103.0 4 -0.07357975095510483
1.1539280414581299 -2.131477117538452 0.3838902413845062 6.0 12 -0.07357744872570038
1.1601183414459229 -2.1446993350982666 0.47396957874298096 5.0 13 -0.07357283681631088
1.1617825031280518 -2.148671865463257 -0.1280137598514557 12.0 6 -0.07357053458690643
1.1572844982147217 -2.1412460803985596 0.5619277954101562 6.0 14 -0.07356823235750198
1.1485623121261597 -2.125108003616333 -0.042165014892816544 9.0 7 -0.07356592267751694
1.150557518005371 -2.129688024520874 0.6486005187034607 7.0 15 -0.07356362044811249
0.6630886197090149 -1.2314889430999756 -0.37476998567581177 8.0 0 -0.07354288548231125
1.139534592628479 -2.116345167160034 0.04195558279752731 7.0 8 -0.0735405832529068
0.7896568179130554 -1.4671653509140015 -0.3846663236618042 7.0 1 -0.07353828102350235
1.160118579864502 -2.156376838684082 0.12832777202129364 6.0 9 -0.0735359713435173
0.9902908802032471 -1.841478943824768 -0.4064231812953949 6.0 2 -0.07353366911411285
1.1527657508850098 -2.144503593444824 0.21300862729549408 6.0 10 -0.0735313668847084
1.1784634590148926 -2.1923091411590576 -0.394214928150177 104.0 3 -0.07352906465530396
1.1519291400909424 -2.1438441276550293 0.29882365465164185 6.0 11 -0.07352675497531891
1.1900655031204224 -2.2157466411590576 -0.30881693959236145 109.0 4 -0.07352445274591446
1.144612193107605 -2.1320111751556396 0.3832644820213318 6.0 12 -0.07352215051651001
1.1446449756622314 -2.132965326309204 0.470535010099411 6.0 13 -0.07351753860712051
1.14804208278656 -2.1401922702789307 -0.127281054854393 12.0 6 -0.07351523637771606
1.1538609266281128 -2.1519417762756348 0.5637273788452148 6.0 14 -0.07351293414831161
1.1430267095565796 -2.132628917694092 -0.04223482310771942 9.0 7 -0.07351063191890717
1.1422041654586792 -2.131988525390625 0.6480829119682312 6.0 15 -0.07350832223892212
0.6608216166496277 -1.2370890378952026 -0.3758052587509155 8.0 0 -0.07348758727312088
1.137791633605957 -2.1308939456939697 0.042165014892816544 8.0 8 -0.07348528504371643
0.7799426913261414 -1.4613168239593506 -0.38241681456565857 7.0 1 -0.07348298281431198
1.1450635194778442 -2.146315813064575 0.12749040126800537 6.0 9 -0.07348068058490753
0.986027181148529 -1.8482168912887573 -0.4071864187717438 6.0 2 -0.07347837090492249
1.1475229263305664 -2.1518306732177734 0.21335725486278534 6.0 10 -0.07347606867551804
1.1754497289657593 -2.205125331878662 -0.39577925205230713 107.0 3 -0.07347376644611359
1.1369708776474 -2.1338369846343994 0.2968737483024597 5.0 11 -0.07347146421670914
1.1748583316802979 -2.2058706283569336 -0.3068670332431793 99.0 4 -0.07346915453672409
1.142732858657837 -2.146455764770508 0.3851417005062103 6.0 12 -0.07346685230731964
1.1436485052108765 -2.1490797996520996 0.4732063114643097 6.0 13 -0.07346224784851074
1.1368125677108765 -2.1371333599090576 -0.12686236202716827 12.0 6 -0.0734599381685257
1.1371935606002808 -2.138749837875366 0.5592283606529236 7.0 14 -0.07345763593912125
1.1355754137039185 -2.136605978012085 -0.04223482310771942 9.0 7 -0.0734553337097168
1.1356613636016846 -2.1376686096191406 0.6486005187034607 7.0 15 -0.07345303148031235
0.6583078503608704 -1.2428025007247925 -0.3768405616283417 8.0 0 -0.07343229651451111
1.1359606981277466 -2.145456314086914 0.042374443262815475 7.0 8 -0.07342998683452606
0.7793950438499451 -1.4726423025131226 -0.3846663236618042 7.0 1 -0.07342768460512161
1.13289475440979 -2.141472816467285 0.12696704268455505 7.0 9 -0.07342538237571716
0.9740613698959351 -1.8412353992462158 -0.40489673614501953 7.0 2 -0.07342308014631271
1.1381421089172363 -2.1523003578186035 0.21300862729549408 6.0 10 -0.07342077046632767
1.1677451133728027 -2.2092151641845703 -0.39577925205230713 107.0 3 -0.07341846823692322
1.1313703060150146 -2.1413025856018066 0.29736122488975525 5.0 11 -0.07341616600751877
1.1634430885314941 -2.202936887741089 -0.30589208006858826 103.0 4 -0.07341386377811432
1.1297000646591187 -2.1399500370025635 0.3832644820213318 6.0 12 -0.07341155409812927
1.1324748992919922 -2.146113634109497 0.4716798663139343 6.0 13 -0.07340694963932037
1.1293455362319946 -2.1410884857177734 -0.12686236202716827 12.0 6 -0.07340464740991592
1.1288121938705444 -2.1409828662872314 0.5587784647941589 7.0 14 -0.07340234518051147
1.1281102895736694 -2.140556812286377 -0.04223482310771942 9.0 7 -0.07340003550052643
1.1299936771392822 -2.14503812789917 0.6496358513832092 7.0 15 -0.07339773327112198
0.6467792391777039 -1.2314106225967407 -0.37269943952560425 8.0 0 -0.07337699830532074
1.1266056299209595 -2.145867347717285 0.0423046313226223 8.0 8 -0.07337469607591629
0.7778719663619995 -1.482256293296814 -0.3864659368991852 7.0 1 -0.07337238639593124
1.1272681951522827 -2.148951530456543 0.12717638909816742 7.0 9 -0.0733700841665268
0.9703642129898071 -1.8498399257659912 -0.40604156255722046 7.0 2 -0.07336778193712234
1.130622148513794 -2.1562600135803223 0.21300862729549408 6.0 10 -0.0733654797077179
1.15819251537323 -2.2097785472869873 -0.3951534926891327 107.0 3 -0.07336317002773285
1.1238888502120972 -2.1452388763427734 0.29736122488975525 6.0 11 -0.0733608677983284
1.1612719297409058 -2.2175357341766357 -0.30735450983047485 103.0 4 -0.07335856556892395
1.1185588836669922 -2.1368801593780518 0.3820130228996277 6.0 12 -0.0733562633395195
1.1213361024856567 -2.1430954933166504 0.47015342116355896 6.0 13 -0.07335165143013
1.1227905750274658 -2.146787643432617 -0.12696704268455505 12.0 6 -0.07334934920072556
1.1150118112564087 -2.1328210830688477 0.5556291341781616 6.0 14 -0.0733470469713211
1.115074634552002 -2.133848190307617 -0.04202539846301079 9.0 7 -0.07334474474191666
1.117132544517517 -2.138695478439331 0.646530032157898 7.0 15 -0.07334243506193161
0.6404774188995361 -1.2303457260131836 -0.3716641664505005 8.0 0 -0.07332170009613037
1.1080279350280762 -2.1285018920898438 0.041885774582624435 7.0 8 -0.07331939786672592
0.7681955099105835 -1.4763189554214478 -0.38421642780303955 7.0 1 -0.07331709563732147
1.120681643486023 -2.1546454429626465 0.127281054854393 7.0 9 -0.07331479340791702
0.9590495228767395 -1.8446744680404663 -0.40413346886634827 6.0 2 -0.07331248372793198
1.1153615713119507 -2.1462464332580566 0.21161414682865143 6.0 10 -0.07331018149852753
1.1482641696929932 -2.2105026245117188 -0.39452776312828064 107.0 3 -0.07330787926912308
1.120054006576538 -2.156195640563965 0.2983361780643463 6.0 11 -0.07330557703971863
1.148950219154358 -2.2127671241760254 -0.30613580346107483 106.0 4 -0.07330326735973358
1.1074531078338623 -2.133758068084717 0.3807615041732788 6.0 12 -0.07330096513032913
1.1062431335449219 -2.1332483291625977 0.46710047125816345 5.0 13 -0.07329636067152023
1.1121573448181152 -2.145568609237671 -0.1266530305147171 12.0 6 -0.07329405099153519
1.1062909364700317 -2.1351630687713623 0.555179238319397 6.0 14 -0.07329174876213074
1.1057795286178589 -2.134176015853882 -0.04195558279752731 9.0 7 -0.07328944653272629
1.1025527715682983 -2.1288585662841797 0.6423888802528381 7.0 15 -0.07328714430332184
0.6361789107322693 -1.2325738668441772 -0.3716641664505005 8.0 0 -0.0732664093375206
1.1002191305160522 -2.1325488090515137 0.041885774582624435 8.0 8 -0.07326409965753555
0.7627795338630676 -1.4791245460510254 -0.38421642780303955 7.0 1 -0.0732617974281311
1.1155222654342651 -2.164064407348633 0.12759508192539215 7.0 9 -0.07325949519872665
0.9526044726371765 -1.8480108976364136 -0.40413346886634827 6.0 2 -0.0732571929693222
1.1087753772735596 -2.151897668838501 0.21178844571113586 7.0 10 -0.07325488328933716
1.1378276348114014 -2.209228992462158 -0.3935891389846802 111.0 3 -0.07325258105993271
1.1103262901306152 -2.1567561626434326 0.2978487014770508 6.0 11 -0.07325027883052826
1.1435571908950806 -2.2222588062286377 -0.3068670332431793 101.0 4 -0.07324797660112381
1.0978180170059204 -2.1342897415161133 0.38013577461242676 6.0 12 -0.07324566692113876
1.1005855798721313 -2.1405887603759766 0.46786367893218994 6.0 13 -0.07324106246232986
1.1074000597000122 -2.1547670364379883 -0.12696704268455505 13.0 6 -0.07323876023292542
1.098831057548523 -2.139011859893799 0.555179238319397 7.0 14 -0.07323645055294037
1.0997766256332397 -2.141772747039795 -0.04202539846301079 9.0 7 -0.07323414832353592
1.09650719165802 -2.136322259902954 0.6434241533279419 7.0 15 -0.07323184609413147
0.6334165334701538 -1.2383371591567993 -0.37269943952560425 8.0 0 -0.07321111112833023
1.092768669128418 -2.136376142501831 0.041885774582624435 8.0 8 -0.07320880889892578
0.7540631890296936 -1.4748377799987793 -0.38241681456565857 7.0 1 -0.07320649921894073
1.104325771331787 -2.1608312129974365 0.12717638909816742 7.0 9 -0.07320419698953629
0.9476110935211182 -1.8549869060516357 -0.40489673614501953 6.0 2 -0.07320189476013184
1.1035993099212646 -2.1612703800201416 0.21231138706207275 6.0 10 -0.07319959253072739
1.1279265880584717 -2.2098655700683594 -0.3929634094238281 111.0 3 -0.07319728285074234
1.093766450881958 -2.1429381370544434 0.29541128873825073 6.0 11 -0.07319498062133789
1.1312824487686157 -2.217395782470703 -0.3056483268737793 106.0 4 -0.07319267839193344
1.1011302471160889 -2.159226179122925 0.3838902413845062 6.0 12 -0.07319037616252899
1.0927324295043945 -2.14460825920105 0.46786367893218994 5.0 13 -0.0731857642531395
1.0949627161026 -2.1499128341674805 -0.12644368410110474 12.0 6 -0.07318346202373505
1.0847951173782349 -2.130868434906006 0.5520299673080444 6.0 14 -0.0731811597943306
1.0932011604309082 -2.1473805904388428 -0.04206030070781708 9.0 7 -0.07317885756492615
1.0916718244552612 -2.1453022956848145 0.6449770927429199 7.0 15 -0.0731765478849411
0.6330203413963318 -1.2472116947174072 -0.37476998567581177 8.0 0 -0.07316923141479492
1.085677981376648 -2.1399881839752197 0.041885774582624435 8.0 8 -0.07316692918539047
0.7500496506690979 -1.4790681600570679 -0.3828667104244232 7.0 1 -0.07316462695598602
1.0921121835708618 -2.153601884841919 0.12654836475849152 7.0 9 -0.07316231727600098
0.9382284283638 -1.8509501218795776 -0.4033702313899994 6.0 2 -0.07316001504659653
1.096803903579712 -2.164726734161377 0.21231138706207275 6.0 10 -0.07315771281719208
1.1209787130355835 -2.213397979736328 -0.3929634094238281 111.0 3 -0.07315541058778763
1.0902408361434937 -2.153637647628784 0.2963862717151642 6.0 11 -0.07315310090780258
1.1194415092468262 -2.2122788429260254 -0.30442965030670166 100.0 4 -0.07315079867839813
1.0836386680603027 -2.141524076461792 0.38013577461242676 6.0 12 -0.07314849644899368
1.0868754386901855 -2.149782657623291 0.46824532747268677 6.0 13 -0.07314388453960419
1.0909056663513184 -2.1586899757385254 -0.1267576962709427 13.0 6 -0.07314158231019974
1.07985258102417 -2.137744665145874 0.5529297590255737 7.0 14 -0.07313928008079529
1.0837445259094238 -2.14544939994812 -0.04195558279752731 10.0 7 -0.07313697785139084
1.0857974290847778 -2.1504459381103516 0.6454947590827942 7.0 15 -0.07313466817140579
0.6234530806541443 -1.2390594482421875 -0.3716641664505005 8.0 0 -0.07311393320560455
1.085766315460205 -2.157867193222046 0.042165014892816544 8.0 8 -0.0731116309762001
0.74251389503479 -1.4763245582580566 -0.3815170228481293 7.0 1 -0.07310932874679565
