# .PCD v0.7 - Point Cloud Data file format
VERSION 0.7
FIELDS x y z intensity ring time
SIZE 4 4 4 4 4 4
TYPE F F F F F F
COUNT 1 1 1 1 1 1
WIDTH 550
HEIGHT 1
VIEWPOINT 0 0 0 1 0 0 0
POINTS 550
DATA ascii
1.6759873628616333 -2.13669753074646 0.047400735318660736 94.0 8 -0.09457612037658691
1.0870082378387451 -1.3863128423690796 -0.40671154856681824 6.0 1 -0.09457381069660187
1.6830569505691528 -2.14725399017334 0.14298184216022491 90.0 9 -0.09457150846719742
1.324974775314331 -1.6904107332229614 -0.4174901247024536 6.0 2 -0.09456920623779297
1.6920970678329468 -2.1595630645751953 0.24002692103385925 85.0 10 -0.09456690400838852
1.673620343208313 -2.1367502212524414 -0.4298819601535797 97.0 3 -0.09456459432840347
1.6778056621551514 -2.1428639888763428 0.3341657519340515 96.0 11 -0.09456229209899902
1.6811022758483887 -2.147846221923828 -0.334896981716156 91.0 4 -0.09455998986959457
1.6871081590652466 -2.1562952995300293 0.4336363673210144 86.0 12 -0.09455768764019012
1.6770837306976318 -2.1434829235076904 -0.23810948431491852 85.0 5 -0.09455537796020508
1.6921045780181885 -2.163459062576294 0.5338835716247559 85.0 13 -0.09455307573080063
1.6792021989822388 -2.1477348804473877 -0.14287716150283813 100.0 6 -0.09455077350139618
1.6824455261230469 -2.1526570320129395 0.6307628154754639 92.0 14 -0.09454847127199173
1.681731104850769 -2.152517557144165 -0.047679975628852844 91.0 7 -0.09454616904258728
1.6801997423171997 -2.1513314247131348 0.7314226627349854 86.0 15 -0.09454385936260223
0.8904300332069397 -1.1429842710494995 -0.3882285952568054 6.0 0 -0.0928802490234375
1.666061282157898 -2.1393795013427734 0.04733092710375786 94.0 8 -0.09287794679403305
1.0845565795898438 -1.393174171447754 -0.40761134028434753 5.0 1 -0.0928756445646286
1.6755515336990356 -2.15311598777771 0.14298184216022491 93.0 9 -0.09287333488464355
1.3094203472137451 -1.6826303005218506 -0.4144371747970581 6.0 2 -0.0928710326552391
1.684548258781433 -2.165456533432007 0.24002692103385925 87.0 10 -0.09286873042583466
1.6661516427993774 -2.1425793170928955 -0.4298819601535797 104.0 3 -0.0928664281964302
1.6727519035339355 -2.1518421173095703 0.33465322852134705 100.0 11 -0.09286411851644516
1.6626319885253906 -2.139594078063965 -0.3327033221721649 88.0 4 -0.09286181628704071
1.6735119819641113 -2.154371500015259 0.4320720434188843 88.0 12 -0.09285951405763626
1.6695911884307861 -2.1493239402770996 -0.23810948431491852 85.0 5 -0.09285721182823181
1.6821341514587402 -2.1662511825561523 0.5331203937530518 85.0 13 -0.09285490214824677
1.6729196310043335 -2.1551613807678223 -0.14298184216022491 100.0 6 -0.09285259991884232
1.6677528619766235 -2.1492793560028076 0.6280633807182312 92.0 14 -0.09285029768943787
1.6656279563903809 -2.1473143100738525 -0.047435641288757324 95.0 7 -0.09284799546003342
1.6738635301589966 -2.158709764480591 0.7319402694702148 50.0 15 -0.09284568578004837
0.8769794702529907 -1.13386070728302 -0.384087473154068 6.0 0 -0.09282495081424713
1.661029577255249 -2.148345947265625 0.047400735318660736 94.0 8 -0.09282264858484268
1.0773035287857056 -1.3938677310943604 -0.40671154856681824 5.0 1 -0.09282034635543823
1.6582567691802979 -2.1463074684143066 0.14214447140693665 90.0 9 -0.09281804412603378
1.3023386001586914 -1.6856369972229004 -0.4140555262565613 6.0 2 -0.09281573444604874
1.6684541702270508 -2.160285472869873 0.23880673944950104 93.0 10 -0.09281343221664429
1.6598695516586304 -2.1499457359313965 -0.4301948547363281 93.0 3 -0.09281112998723984
1.665230631828308 -2.157667875289917 0.33465322852134705 99.0 11 -0.09280882775783539
1.658790946006775 -2.150099754333496 -0.3334345519542694 91.0 4 -0.09280651807785034
1.6575371026992798 -2.1492505073547363 0.4298819601535797 86.0 12 -0.09280421584844589
1.6499109268188477 -2.13936185836792 -0.2363663762807846 88.0 5 -0.09280191361904144
1.6769596338272095 -2.1752192974090576 0.5338835716247559 81.0 13 -0.092799611389637
1.666605830192566 -2.162569761276245 -0.1430865228176117 100.0 6 -0.09279730170965195
1.6520215272903442 -2.145193576812744 -0.04726111888885498 98.0 7 -0.09279269725084305
0.8777225017547607 -1.1430439949035645 -0.3861580491065979 6.0 0 -0.09276966005563736
1.6437795162200928 -2.1414408683776855 0.04712149500846863 94.0 8 -0.09276735037565231
1.070058822631836 -1.3945276737213135 -0.40581172704696655 6.0 1 -0.09276504814624786
1.6531857252120972 -2.155252456665039 0.14235380291938782 90.0 9 -0.09276274591684341
1.3060057163238525 -1.7026350498199463 -0.4171084761619568 6.0 2 -0.09276044368743896
1.653629183769226 -2.1566097736358643 0.23776087164878845 90.0 10 -0.09275813400745392
1.6451444625854492 -2.14631986618042 -0.4283176064491272 100.0 3 -0.09275583177804947
1.6552741527557373 -2.160316228866577 0.3341657519340515 99.0 11 -0.09275352954864502
1.6524828672409058 -2.1574532985687256 -0.33367830514907837 95.0 4 -0.09275122731924057
1.6536277532577515 -2.159728527069092 0.4308205842971802 66.0 12 -0.09274891763925552
1.6424334049224854 -2.1451079845428467 -0.2363663762807846 88.0 5 -0.09274661540985107
1.6517651081085205 -2.1588566303253174 -0.1424584835767746 100.0 6 -0.09274201095104218
1.6254780292510986 -2.1252682209014893 0.61771559715271 1.0 14 -0.09273970872163773
1.6433088779449463 -2.1493587493896484 -0.04722621291875839 98.0 7 -0.09273739904165268
1.5789819955825806 -2.065969944000244 0.6967409253120422 1.0 15 -0.09273509681224823
0.8760696053504944 -1.149173378944397 -0.3871932923793793 7.0 0 -0.09271436184644699
1.6290221214294434 -2.1376230716705322 0.046912070363759995 91.0 8 -0.09271205961704254
1.065184473991394 -1.39825439453125 -0.40581172704696655 5.0 1 -0.0927097499370575
1.645652413368225 -2.1610100269317627 0.14235380291938782 90.0 9 -0.09270744770765305
1.3000544309616089 -1.7071834802627563 -0.4171084761619568 6.0 2 -0.0927051454782486
1.647297978401184 -2.163954019546509 0.2379351705312729 81.0 10 -0.09270284324884415
1.6280723810195923 -2.1394734382629395 -0.4258146584033966 100.0 3 -0.0927005335688591
1.6377323865890503 -2.1537272930145264 -0.3322158455848694 97.0 4 -0.0926959291100502
1.6325242519378662 -2.147655963897705 -0.23601774871349335 91.0 5 -0.0926913246512413
1.5524553060531616 -2.043062210083008 0.4987747371196747 1.0 13 -0.09268901497125626
1.6381787061691284 -2.1566569805145264 -0.14193512499332428 100.0 6 -0.0926867127418518
1.5779815912246704 -2.078160524368286 0.6024189591407776 1.0 14 -0.09268441051244736
1.6357961893081665 -2.1550817489624023 -0.04722621291875839 105.0 7 -0.09268210828304291
0.8673896193504333 -1.1460628509521484 -0.38512274622917175 6.0 0 -0.09265906363725662
1.620343804359436 -2.1417014598846436 0.046877164393663406 97.0 8 -0.09265676140785217
1.0485422611236572 -1.3864210844039917 -0.4013127088546753 5.0 1 -0.09265445917844772
1.6324535608291626 -2.158489942550659 0.1418304443359375 46.0 9 -0.09265214949846268
1.2917193174362183 -1.7085789442062378 -0.4163452684879303 6.0 2 -0.09264984726905823
1.6182129383087158 -2.141991376876831 -0.42518892884254456 107.0 3 -0.09264524281024933
1.6230283975601196 -2.1499252319335938 -0.3307534456253052 92.0 4 -0.09264063090085983
1.5591459274291992 -2.0653040409088135 0.4098583459854126 2.0 12 -0.09263832867145538
1.6202168464660645 -2.146980047225952 -0.23532049357891083 83.0 5 -0.09263602644205093
1.622222900390625 -2.1511995792388916 -0.1412024199962616 100.0 6 -0.09263141453266144
1.6274371147155762 -2.158897638320923 -0.0471913106739521 102.0 7 -0.09262681007385254
1.5765092372894287 -2.0920984745025635 0.701917290687561 3.0 15 -0.09262450784444809
0.8680256605148315 -1.1552613973617554 -0.3871932923793793 7.0 0 -0.09260376542806625
1.6252450942993164 -2.1630501747131348 0.04722621291875839 28.0 8 -0.0926014631986618
1.0462795495986938 -1.3930070400238037 -0.402212530374527 5.0 1 -0.09259916096925735
1.2810333967208862 -1.706796646118164 -0.41481876373291016 6.0 2 -0.09259455651044846
1.5938876867294312 -2.124403238296509 0.2323572039604187 1.0 10 -0.09259224683046341
1.6122864484786987 -2.14892578125 -0.4255017936229706 104.0 3 -0.09258994460105896
1.5519492626190186 -2.0692574977874756 0.3175915479660034 2.0 11 -0.09258764237165451
1.6111267805099487 -2.148942232131958 -0.3297784626483917 90.0 4 -0.09258534014225006
1.61510169506073 -2.1558117866516113 -0.23566913604736328 88.0 5 -0.09258072823286057
1.6150803565979004 -2.156567096710205 -0.1412024199962616 100.0 6 -0.09257612377405167
1.557960033416748 -2.0810532569885254 0.6001694798469543 3.0 14 -0.09257381409406662
1.6031171083450317 -2.142151117324829 -0.046702638268470764 42.0 7 -0.09257151186466217
1.562253475189209 -2.0883071422576904 0.698811411857605 6.0 15 -0.09256920963525772
0.8595685362815857 -1.1519404649734497 -0.38512274622917175 7.0 0 -0.09254847466945648
1.044905424118042 -1.4013373851776123 -0.4035622179508209 6.0 1 -0.09254386276006699
1.5349854230880737 -2.0593409538269043 0.13460808992385864 3.0 9 -0.09254156053066254
1.280059576034546 -1.7173316478729248 -0.4163452684879303 6.0 2 -0.09253925830125809
1.5820727348327637 -2.123286485671997 0.23165996372699738 1.0 10 -0.09253695607185364
1.6035956144332886 -2.152956485748291 -0.42518892884254456 100.0 3 -0.09253464639186859
1.6071715354919434 -2.1593306064605713 -0.3305096924304962 91.0 4 -0.09253004193305969
1.5494060516357422 -2.0824778079986572 0.4111098051071167 1.0 12 -0.09252773970365524
1.6028103828430176 -2.155041217803955 -0.23497188091278076 80.0 5 -0.0925254300236702
1.5512529611587524 -2.0857203006744385 0.5052622556686401 3.0 13 -0.09252312779426575
1.549523949623108 -2.0849146842956543 0.5997195243835449 5.0 14 -0.09251852333545685
1.5503472089767456 -2.0875442028045654 0.6967409253120422 6.0 15 -0.09251391142606735
0.853041410446167 -1.1519781351089478 -0.384087473154068 6.0 0 -0.09249317646026611
1.5196627378463745 -2.0522077083587646 0.04457344859838486 4.0 8 -0.09249087423086166
1.0423262119293213 -1.4081089496612549 -0.4044620394706726 6.0 1 -0.09248857200145721
1.2632490396499634 -1.7078062295913696 -0.41291067004203796 6.0 2 -0.09248396009206772
1.592171311378479 -2.1540536880493164 -0.4242503345012665 104.0 3 -0.09247935563325882
1.558704137802124 -2.1087758541107178 0.3219788372516632 2.0 11 -0.09247704595327377
1.5984444618225098 -2.163330554962158 -0.33026593923568726 92.0 4 -0.09247474372386932
1.5409539937973022 -2.086284637451172 0.41079697012901306 3.0 12 -0.09247244149446487
1.5424320697784424 -2.0898122787475586 0.5048806071281433 3.0 13 -0.09246782958507538
1.526089072227478 -2.068424701690674 -0.13471277058124542 3.0 6 -0.09246552735567093
1.5441852807998657 -2.093716621398926 0.6006193161010742 4.0 14 -0.09246322512626648
1.5169068574905396 -2.0567305088043213 -0.044608354568481445 6.0 7 -0.09246092289686203
1.5384650230407715 -2.0867233276367188 0.6946703195571899 6.0 15 -0.09245862066745758
0.8490149974822998 -1.1549487113952637 -0.384087473154068 6.0 0 -0.09243787825107574
1.0279288291931152 -1.399355411529541 -0.40086281299591064 6.0 1 -0.09243327379226685
1.548949122428894 -2.108638286590576 0.13712021708488464 2.0 9 -0.0924309715628624
1.2654141187667847 -1.723282814025879 -0.4155820310115814 6.0 2 -0.09242866188287735
1.547974944114685 -2.1088550090789795 0.22887097299098969 2.0 10 -0.0924263596534729
1.5787993669509888 -2.15163516998291 -0.42268598079681396 100.0 3 -0.09242405742406845
1.5368757247924805 -2.095266580581665 0.3190539479255676 4.0 11 -0.092421755194664
1.590504765510559 -2.1691746711730957 -0.33026593923568726 90.0 4 -0.09241944551467896
1.5418384075164795 -2.102802276611328 0.41298702359199524 5.0 12 -0.0924171432852745
1.5076335668563843 -2.056905508041382 -0.22311870753765106 3.0 5 -0.09241484105587006
1.5304863452911377 -2.088848829269409 0.5033541321754456 3.0 13 -0.0924125388264656
1.511778712272644 -2.0640711784362793 -0.13408473134040833 1.0 6 -0.09241023659706116
1.541472315788269 -2.1053833961486816 0.6024189591407776 4.0 14 -0.09240792691707611
1.5311716794967651 -2.092080593109131 0.6946703195571899 6.0 15 -0.09240332245826721
0.8472558856010437 -1.1610262393951416 -0.38512274622917175 6.0 0 -0.09238258749246597
1.5288740396499634 -2.0950729846954346 0.04527154192328453 3.0 8 -0.09238027781248093
1.0209858417510986 -1.39960777759552 -0.39996302127838135 5.0 1 -0.09237797558307648
1.5368720293045044 -2.107577323913574 0.1367015391588211 5.0 9 -0.09237567335367203
1.259390950202942 -1.727689504623413 -0.4155820310115814 6.0 2 -0.09237337112426758
1.5370839834213257 -2.109414577484131 0.228348046541214 5.0 10 -0.09237106144428253
1.5716556310653687 -2.1568586826324463 -0.42268598079681396 107.0 3 -0.09236875921487808
1.5205689668655396 -2.0875155925750732 0.3171040713787079 4.0 11 -0.09236645698547363
1.5681124925613403 -2.1535751819610596 -0.3270973265171051 91.0 4 -0.09236415475606918
1.529839038848877 -2.101783037185669 0.41173556447029114 4.0 12 -0.09236185252666473
1.525861382484436 -2.097087860107422 0.5041174292564392 3.0 13 -0.09235724061727524
1.544869065284729 -2.123990058898926 -0.13764357566833496 1.0 6 -0.09235493838787079
1.5172922611236572 -2.086841344833374 0.5956704616546631 4.0 14 -0.09235263615846634
1.5283759832382202 -2.1028571128845215 -0.045376256108284 3.0 7 -0.09235032647848129
1.5147756338119507 -2.0849099159240723 0.6905292868614197 6.0 15 -0.09234802424907684
0.8479354977607727 -1.1700867414474487 -0.3871932923793793 6.0 0 -0.0923272892832756
1.51568603515625 -2.092299699783325 0.04509701952338219 6.0 8 -0.09232498705387115
1.0229518413543701 -1.4126332998275757 -0.4026624262332916 6.0 1 -0.09232267737388611
1.524821162223816 -2.1064577102661133 0.13628284633159637 5.0 9 -0.09232037514448166
1.246747612953186 -1.7223141193389893 -0.4132923185825348 8.0 2 -0.09231807291507721
1.5254085063934326 -2.108043909072876 0.22765080630779266 6.0 10 -0.09231577068567276
1.5629594326019287 -2.160731077194214 -0.42237308621406555 104.0 3 -0.09231346845626831
1.519088625907898 -2.100853443145752 0.3183227777481079 4.0 11 -0.09231115877628326
1.5617485046386719 -2.160645008087158 -0.32734107971191406 84.0 4 -0.09230885654687881
1.5167083740234375 -2.099104642868042 0.410171240568161 4.0 12 -0.09230655431747437
1.5139338970184326 -2.0960350036621094 0.5025908946990967 3.0 13 -0.09230194240808487
1.5140622854232788 -2.0969839096069336 -0.1355501413345337 7.0 6 -0.09229964017868042
1.5042959451675415 -2.084223985671997 0.5934209227561951 4.0 14 -0.09229733794927597
1.5069862604141235 -2.088719606399536 -0.04495739936828613 6.0 7 -0.09229503571987152
1.5120090246200562 -2.096451997756958 0.6925997734069824 6.0 15 -0.09229272603988647
0.8393335342407227 -1.1667665243148804 -0.38512274622917175 7.0 0 -0.09227199107408524
1.5083732604980469 -2.0975778102874756 0.04509701952338219 6.0 8 -0.09226968884468079
1.0134648084640503 -1.4098660945892334 -0.40086281299591064 6.0 1 -0.09226738661527634
1.5104659795761108 -2.1020357608795166 0.13565480709075928 5.0 9 -0.09226508438587189
1.2453105449676514 -1.7330329418182373 -0.41481876373291016 11.0 2 -0.09226277470588684
1.5180410146713257 -2.1133556365966797 0.22765080630779266 5.0 10 -0.09226047247648239
1.5531033277511597 -2.1629645824432373 -0.4217473566532135 104.0 3 -0.09225817024707794
1.5129034519195557 -2.1077558994293213 0.3185664713382721 3.0 11 -0.09225586801767349
1.548410415649414 -2.1580190658569336 -0.3261224031448364 91.0 4 -0.09225355833768845
1.5082205533981323 -2.102780818939209 0.4098583459854126 4.0 12 -0.092251256108284
1.5130815505981445 -2.109557867050171 -0.22712786495685577 1.0 5 -0.09224895387887955
1.5134718418121338 -2.110880136489868 0.5048806071281433 4.0 13 -0.0922466516494751
1.504406213760376 -2.0990095138549805 -0.13534079492092133 10.0 6 -0.09224434196949005
1.497011661529541 -2.0894620418548584 0.5934209227561951 5.0 14 -0.0922420397400856
1.4985216856002808 -2.092341184616089 -0.044922493398189545 7.0 7 -0.09223973751068115
1.4956849813461304 -2.0891506671905518 0.6884586811065674 6.0 15 -0.0922374352812767
0.8307649493217468 -1.163400411605835 -0.38305220007896423 7.0 0 -0.09221670031547546
1.4940712451934814 -2.093064785003662 0.04488758742809296 7.0 8 -0.09221439063549042
1.0062735080718994 -1.4102226495742798 -0.39996302127838135 6.0 1 -0.09221208840608597
1.5100781917572021 -2.117051601409912 0.13628284633159637 5.0 9 -0.09220978617668152
1.242673635482788 -1.7421642541885376 -0.41596361994743347 12.0 2 -0.09220748394727707
1.5048712491989136 -2.1105306148529053 0.2267792522907257 4.0 10 -0.09220517426729202
1.5398107767105103 -2.160329818725586 -0.4201830327510834 107.0 3 -0.09220287203788757
1.5009292364120483 -2.1065573692321777 0.3175915479660034 3.0 11 -0.09220056980848312
1.5431715250015259 -2.166644334793091 -0.32660984992980957 90.0 4 -0.09219826757907867
1.4962886571884155 -2.1015963554382324 0.4086068868637085 4.0 12 -0.09219595789909363
1.4872193336486816 -2.088858127593994 -0.22433887422084808 1.0 5 -0.09219365566968918
1.4924336671829224 -2.096956253051758 0.5003012418746948 3.0 13 -0.09219135344028473
1.4935966730117798 -2.0993661880493164 -0.13502678275108337 9.0 6 -0.09218905121088028
1.4851912260055542 -2.088322639465332 0.5916213393211365 5.0 14 -0.09218674153089523
1.4888914823532104 -2.094299793243408 -0.04485268518328667 7.0 7 -0.09218443930149078
1.4883832931518555 -2.0943589210510254 0.6884586811065674 6.0 15 -0.09218213707208633
0.8311675786972046 -1.1725976467132568 -0.38512274622917175 7.0 0 -0.0921614021062851
1.479819416999817 -2.088477849960327 0.04467816278338432 6.0 8 -0.09215909987688065
0.992333710193634 -1.4010045528411865 -0.3963637948036194 6.0 1 -0.0921567901968956
1.4934462308883667 -2.109269380569458 0.1354454606771469 5.0 9 -0.09215448796749115
1.2467952966690063 -1.7609119415283203 -0.4193982183933258 16.0 2 -0.0921521857380867
1.489437460899353 -2.104386568069458 0.2255590558052063 6.0 10 -0.09214988350868225
1.5276968479156494 -2.1592414379119873 -0.4189315736293793 107.0 3 -0.0921475738286972
1.4775192737579346 -2.0890936851501465 0.3141791820526123 3.0 11 -0.09214527159929276
1.534453272819519 -2.1703970432281494 -0.326366126537323 91.0 4 -0.0921429693698883
1.4912235736846924 -2.110032796859741 0.40923261642456055 4.0 12 -0.09214066714048386
1.496017336845398 -2.1168158054351807 -0.2267792522907257 1.0 5 -0.09213835746049881
1.478308081626892 -2.09253191947937 0.4980114996433258 3.0 13 -0.09213605523109436
1.4770421981811523 -2.091515064239502 -0.1341894119977951 9.0 6 -0.09213375300168991
1.4823880195617676 -2.0998623371124268 0.5934209227561951 4.0 14 -0.09213145077228546
1.478113055229187 -2.0945825576782227 -0.0447479709982872 6.0 7 -0.09212914854288101
1.481063723564148 -2.099541425704956 0.6884586811065674 6.0 15 -0.09212683886289597
0.8248460292816162 -1.1723319292068481 -0.384087473154068 7.0 0 -0.09210610389709473
1.4725204706192017 -2.09363055229187 0.04467816278338432 6.0 8 -0.09210380166769028
0.991920530796051 -1.4108365774154663 -0.39816340804100037 6.0 1 -0.09210149943828583
1.4837775230407715 -2.111201524734497 0.13523612916469574 6.0 9 -0.09209918975830078
1.2485432624816895 -1.7764971256256104 -0.4220695197582245 18.0 2 -0.09209688752889633
1.4923908710479736 -2.1242456436157227 0.22712786495685577 4.0 10 -0.09209458529949188
1.5201505422592163 -2.1645610332489014 -0.4189315736293793 114.0 3 -0.09209228307008743
1.4724990129470825 -2.0974879264831543 0.31466665863990784 3.0 11 -0.09208997339010239
1.5211660861968994 -2.1676156520843506 -0.32514744997024536 90.0 4 -0.09208767116069794
1.4827147722244263 -2.11360764503479 0.40891972184181213 4.0 12 -0.09208536893129349
1.488619327545166 -2.1220247745513916 -0.2267792522907257 1.0 5 -0.09208306670188904
1.4755034446716309 -2.104109287261963 0.49953794479370117 3.0 13 -0.09208076447248459
1.4743183851242065 -2.1031999588012695 -0.13460808992385864 9.0 6 -0.09207845479249954
1.4661026000976562 -2.092256784439087 0.5898216962814331 6.0 14 -0.09207615256309509
1.473087191581726 -2.1030049324035645 -0.04481777921319008 6.0 7 -0.09207385033369064
1.4715098142623901 -2.101533889770508 0.6874234080314636 6.0 15 -0.0920715481042862
0.8185365200042725 -1.1720362901687622 -0.38305220007896423 6.0 0 -0.09205080568790436
1.4537564516067505 -2.0823612213134766 0.04432911425828934 6.0 8 -0.09204850345849991
0.989220142364502 -1.4174866676330566 -0.39906319975852966 6.0 1 -0.09204620122909546
1.4649715423583984 -2.099987506866455 0.1341894119977951 5.0 9 -0.09204389899969101
1.2468273639678955 -1.7872850894927979 -0.42359596490859985 18.0 2 -0.09204159677028656
1.4826875925064087 -2.126173496246338 0.2267792522907257 4.0 10 -0.09203928709030151
1.5137149095535278 -2.1714744567871094 -0.4192444086074829 111.0 3 -0.09203698486089706
1.4583591222763062 -2.0928430557250977 0.31320425868034363 3.0 11 -0.09203468263149261
1.502244234085083 -2.156623601913452 -0.3227100670337677 88.0 4 -0.09203238040208817
1.4674263000488281 -2.1074228286743164 0.40672966837882996 4.0 12 -0.09203007072210312
1.499419093132019 -2.1533687114715576 -0.229568213224411 1.0 5 -0.09202776849269867
1.4681496620178223 -2.1092469692230225 0.49953794479370117 3.0 13 -0.09202546626329422
1.4669678211212158 -2.1083335876464844 -0.13460808992385864 9.0 6 -0.09202316403388977
1.4521139860153198 -2.0877625942230225 0.5871223211288452 5.0 14 -0.09202085435390472
1.461171269416809 -2.101567029953003 -0.04467816278338432 6.0 7 -0.09201855212450027
1.4619601964950562 -2.103484869003296 0.6863881349563599 6.0 15 -0.09201624989509583
0.8144403100013733 -1.1748863458633423 -0.38305220007896423 7.0 0 -0.09199551492929459
1.4555903673171997 -2.100572347640991 0.044608354568481445 6.0 8 -0.09199321269989014
0.9842663407325745 -1.4209308624267578 -0.39906319975852966 5.0 1 -0.09199090301990509
1.4602744579315186 -2.1081173419952393 0.13439874351024628 5.0 9 -0.09198860079050064
1.2450517416000366 -1.798082947731018 -0.42512246966362 17.0 2 -0.09198629856109619
1.4616496562957764 -2.111677408218384 0.22468750178813934 4.0 10 -0.09198399633169174
1.5072499513626099 -2.1783697605133057 -0.4195573031902313 118.0 3 -0.0919816866517067
1.4555617570877075 -2.1044514179229736 0.3141791820526123 3.0 11 -0.09197938442230225
1.492825984954834 -2.158328056335449 -0.3222225606441498 95.0 4 -0.0919770821928978
1.4514424800872803 -2.0992789268493652 0.404226690530777 4.0 12 -0.09197477996349335
1.4488469362258911 -2.096306800842285 -0.22294437885284424 1.0 5 -0.0919724702835083
1.4585461616516113 -2.111128568649292 0.4987747371196747 3.0 13 -0.09197016805410385
1.459599494934082 -2.1134414672851562 -0.13460808992385864 9.0 6 -0.0919678658246994
1.4451828002929688 -2.092566728591919 0.5871223211288452 4.0 14 -0.09196556359529495
1.442833423614502 -2.08994460105896 -0.04432911425828934 6.0 7 -0.0919632539153099
1.4461983442306519 -2.0956013202667236 0.6822470426559448 6.0 15 -0.09196095168590546
0.8105397820472717 -1.1775805950164795 -0.38305220007896423 6.0 0 -0.09194021672010422
1.4418154954910278 -2.095503091812134 0.044398922473192215 6.0 8 -0.09193791449069977
0.9817574620246887 -1.427398443222046 -0.39996302127838135 6.0 1 -0.09193561226129532
1.4487481117248535 -2.1063661575317383 0.13398006558418274 5.0 9 -0.09193330258131027
1.2446436882019043 -1.8102905750274658 -0.4270305633544922 15.0 2 -0.09193100035190582
1.4512534141540527 -2.111586809158325 0.22416456043720245 6.0 10 -0.09192869812250137
1.4899506568908691 -2.1687023639678955 -0.4167414605617523 111.0 3 -0.09192639589309692
1.4440797567367554 -2.1027214527130127 0.31320425868034363 4.0 11 -0.09192408621311188
1.4924030303955078 -2.1730847358703613 -0.3236849904060364 92.0 4 -0.09192178398370743
1.4422370195388794 -2.100823402404785 0.4036009609699249 5.0 12 -0.09191948175430298
1.4509062767028809 -2.1142420768737793 -0.22433887422084808 1.0 5 -0.09191717952489853
1.4470950365066528 -2.1094777584075928 0.4972482919692993 4.0 13 -0.09191486984491348
1.454842209815979 -2.1215643882751465 -0.134817436337471 9.0 6 -0.09191256761550903
1.434929370880127 -2.0925259590148926 0.5857725739479065 5.0 14 -0.09191026538610458
1.4426785707473755 -2.104613780975342 -0.04453853890299797 6.0 7 -0.09190796315670013
1.4305052757263184 -2.087636709213257 0.6781059503555298 6.0 15 -0.09190565347671509
0.8022702932357788 -1.173882246017456 -0.3809816539287567 6.0 0 -0.09188491851091385
1.4303464889526367 -2.093668222427368 0.04425930231809616 6.0 8 -0.0918826162815094
0.9726226925849915 -1.4242089986801147 -0.39816340804100037 6.0 1 -0.09188031405210495
1.4436389207839966 -2.1147093772888184 0.1341894119977951 5.0 9 -0.0918780118227005
1.2508095502853394 -1.8322439193725586 -0.4312283396720886 13.0 2 -0.09187570214271545
1.4487353563308716 -2.1229705810546875 0.22486181557178497 5.0 10 -0.091873399913311
1.4782981872558594 -2.1671037673950195 -0.4154900014400482 111.0 3 -0.09187109768390656
1.432625651359558 -2.100938081741333 0.3122292757034302 3.0 11 -0.0918687954545021
1.475864052772522 -2.165158748626709 -0.32173508405685425 88.0 4 -0.09186648577451706
1.4348950386047363 -2.1058452129364014 0.4036009609699249 5.0 12 -0.09186418354511261
1.4928683042526245 -2.1917483806610107 -0.23200859129428864 1.0 5 -0.09186188131570816
1.4334605932235718 -2.1045291423797607 0.4949585497379303 3.0 13 -0.09185957908630371
1.434309720993042 -2.1065659523010254 -0.133561372756958 9.0 6 -0.09185726940631866
1.429809331893921 -2.1007440090179443 0.5866723656654358 5.0 14 -0.09185496717691422
1.4308236837387085 -2.1030237674713135 -0.044398922473192215 6.0 7 -0.09185266494750977
1.427554965019226 -2.0990071296691895 0.6801764369010925 6.0 15 -0.09185036271810532
0.8022990226745605 -1.1832104921340942 -0.38305220007896423 6.0 0 -0.09182962775230408
1.4230294227600098 -2.0986483097076416 0.04425930231809616 6.0 8 -0.09182731807231903
0.9610850811004639 -1.4179168939590454 -0.3954640030860901 6.0 1 -0.09182501584291458
1.429526448249817 -2.1098148822784424 0.133561372756958 5.0 9 -0.09182271361351013
1.2352780103683472 -1.8238122463226318 -0.4281754195690155 9.0 2 -0.09182041138410568
1.4320085048675537 -2.115067481994629 0.22346732020378113 6.0 10 -0.09181810170412064
1.4692381620407104 -2.1708717346191406 -0.4151771068572998 118.0 3 -0.09181579947471619
1.4208327531814575 -2.0993502140045166 0.3112543225288391 3.0 11 -0.09181349724531174
1.4616230726242065 -2.1604321002960205 -0.32027265429496765 88.0 4 -0.09181119501590729
1.4253222942352295 -2.1075685024261475 0.4029752314090729 5.0 12 -0.09180888533592224
1.4539647102355957 -2.1507294178009033 -0.22712786495685577 1.0 5 -0.09180658310651779
1.4125465154647827 -2.0902490615844727 0.4903791546821594 3.0 13 -0.09180428087711334
1.4243431091308594 -2.1084988117218018 -0.13335202634334564 9.0 6 -0.09180197864770889
1.4221000671386719 -2.1059703826904297 0.5866723656654358 4.0 14 -0.09179967641830444
1.42571222782135 -2.1113197803497314 -0.04446873068809509 6.0 7 -0.0917973667383194
1.4223812818527222 -2.107179641723633 0.6812117695808411 6.0 15 -0.09179506450891495
0.8003212809562683 -1.1892093420028687 -0.384087473154068 6.0 0 -0.09177432954311371
1.4130955934524536 -2.100531578063965 0.04418949410319328 6.0 8 -0.09177202731370926
0.9602315425872803 -1.4278981685638428 -0.3972635865211487 6.0 1 -0.09176971763372421
1.4065496921539307 -2.0915889739990234 0.13209596276283264 5.0 9 -0.09176741540431976
1.2102842330932617 -1.8004142045974731 -0.42168790102005005 6.0 2 -0.09176511317491531
1.4268392324447632 -2.1233606338500977 0.2238159328699112 5.0 10 -0.09176281094551086
1.46165132522583 -2.1759870052337646 -0.4151771068572998 114.0 3 -0.09176050126552582
1.404275894165039 -2.0913596153259277 0.309304416179657 4.0 11 -0.09175819903612137
1.4470572471618652 -2.1558854579925537 -0.31881022453308105 85.0 4 -0.09175589680671692
1.420158863067627 -2.1158111095428467 0.4036009609699249 5.0 12 -0.09175359457731247
1.418364405632019 -2.1147327423095703 0.4949585497379303 4.0 13 -0.09174898266792297
1.411413311958313 -2.10516357421875 -0.13282866775989532 10.0 6 -0.09174668043851852
1.4082307815551758 -2.1012089252471924 0.5839729905128479 5.0 14 -0.09174437820911407
1.413880705833435 -2.1096394062042236 -0.04432911425828934 7.0 7 -0.09174207597970963
1.4150171279907227 -2.1121320724487305 0.6812117695808411 6.0 15 -0.09173976629972458
0.787581205368042 -1.179144024848938 -0.37994638085365295 6.0 0 -0.09171903133392334
1.4039008617401123 -2.1018803119659424 0.04411968216300011 6.0 8 -0.09171672910451889
0.9554911255836487 -1.431074619293213 -0.3972635865211487 6.0 1 -0.09171442687511444
1.4081100225448608 -2.109776020050049 0.1329333484172821 6.0 9 -0.09171212464570999
1.1832903623580933 -1.7735981941223145 -0.4144371747970581 6.0 2 -0.09170981496572495
1.4161021709442139 -2.1233556270599365 0.2232930064201355 6.0 10 -0.0917075127363205
1.4544275999069214 -2.1808221340179443 -0.4151771068572998 114.0 3 -0.09170521050691605
1.4094455242156982 -2.114173412322998 0.3119855523109436 4.0 11 -0.0917029082775116
1.4421015977859497 -2.163975954055786 -0.3192977011203766 85.0 4 -0.09170059859752655
1.4018129110336304 -2.104315757751465 0.4004722833633423 5.0 12 -0.0916982963681221
1.4059029817581177 -2.1112542152404785 0.4930504560470581 4.0 13 -0.0916936919093132
1.4132784605026245 -2.1231329441070557 -0.1336660534143448 10.0 6 -0.09169138222932816
1.398016333580017 -2.1010000705718994 0.582623302936554 6.0 14 -0.0916890799999237
1.4020779132843018 -2.1079015731811523 -0.04418949410319328 7.0 7 -0.09168677777051926
1.4012179374694824 -2.1074061393737793 0.6781059503555298 7.0 15 -0.09168447554111481
0.7879374623298645 -1.1881893873214722 -0.3820169270038605 6.0 0 -0.09166374057531357
1.3855067491531372 -2.0901005268096924 0.04377063736319542 6.0 8 -0.09166143089532852
0.9547957181930542 -1.4408988952636719 -0.39906319975852966 6.0 1 -0.09165912866592407
1.3966931104660034 -2.107774019241333 0.13251465559005737 6.0 9 -0.09165682643651962
1.1806548833847046 -1.782422661781311 -0.4155820310115814 6.0 2 -0.09165452420711517
1.4002535343170166 -2.1147501468658447 0.22189851105213165 6.0 10 -0.09165221452713013
1.4402644634246826 -2.1760025024414062 -0.41329991817474365 118.0 3 -0.09164991229772568
1.404247760772705 -2.12239146232605 0.31247302889823914 4.0 11 -0.09164761006832123
1.4345390796661377 -2.168996810913086 -0.3192977011203766 85.0 4 -0.09164530783891678
1.392647385597229 -2.1056573390960693 0.39984655380249023 5.0 12 -0.09164299815893173
1.3985248804092407 -2.1161489486694336 0.4930504560470581 4.0 13 -0.09163839370012283
1.399253249168396 -2.1180546283721924 -0.1330380141735077 10.0 6 -0.09163609147071838
1.398191213607788 -2.1172502040863037 0.5857725739479065 5.0 14 -0.09163378179073334
1.3807547092437744 -2.090846538543701 -0.04373573139309883 7.0 7 -0.09163147956132889
1.383578896522522 -2.095918655395508 0.6729295253753662 6.0 15 -0.09162917733192444
0.7859090566635132 -1.1941598653793335 -0.38305220007896423 6.0 0 -0.0916084423661232
1.3741706609725952 -2.0880017280578613 0.04363101348280907 6.0 8 -0.09160614013671875
0.9371597766876221 -1.4245210886001587 -0.3936643898487091 6.0 1 -0.0916038304567337
1.393716812133789 -2.119311809539795 0.1329333484172821 5.0 9 -0.09160152822732925
1.186288595199585 -1.8045787811279297 -0.41977980732917786 6.0 2 -0.0915992259979248
1.392863154411316 -2.1196250915527344 0.22189851105213165 6.0 10 -0.09159692376852036
1.4308711290359497 -2.177464723587036 -0.4126741588115692 118.0 3 -0.09159461408853531
1.374314785003662 -2.092194080352783 0.30735450983047485 4.0 11 -0.09159231185913086
1.4251594543457031 -2.1704232692718506 -0.31881022453308105 88.0 4 -0.09159000962972641
1.3831210136413574 -2.1072027683258057 0.3992207944393158 5.0 12 -0.09158770740032196
1.3850375413894653 -2.1109259128570557 0.4907607436180115 4.0 13 -0.09158309549093246
1.3834588527679443 -2.1093223094940186 -0.13220062851905823 10.0 6 -0.09158079326152802
1.3847514390945435 -2.1120967864990234 0.5830731391906738 6.0 14 -0.09157849103212357
1.3778324127197266 -2.102343797683716 -0.043875351548194885 7.0 7 -0.09157618880271912
1.3762542009353638 -2.100735664367676 0.6729295253753662 6.0 15 -0.09157387912273407
0.7762464284896851 -1.1889444589614868 -0.38046398758888245 6.0 0 -0.0905764102935791
1.3727006912231445 -2.1033105850219727 0.0438404455780983 6.0 8 -0.09057410806417465
0.9295535087585449 -1.424844741821289 -0.3927645683288574 6.0 1 -0.0905718058347702
1.3746589422225952 -2.1079180240631104 0.13188663125038147 6.0 9 -0.09056949615478516
1.173232078552246 -1.799047827720642 -0.4174901247024536 6.0 2 -0.0905671939253807
1.387261152267456 -2.128054141998291 0.2222471386194229 6.0 10 -0.09056489169597626
1.4203426837921143 -2.1796329021453857 -0.41204842925071716 118.0 3 -0.09056258946657181
1.3684381246566772 -2.1007823944091797 0.3078419864177704 3.0 11 -0.09056027978658676
1.4081496000289917 -2.1625711917877197 -0.3168603181838989 85.0 4 -0.09055797755718231
1.3750196695327759 -2.1124982833862305 0.3992207944393158 5.0 12 -0.09055567532777786
1.3726394176483154 -2.1096463203430176 0.4892342984676361 4.0 13 -0.09055106341838837
1.3655487298965454 -2.099550485610962 -0.13125859200954437 10.0 6 -0.09054876118898392
1.374507188796997 -2.114130735397339 0.5821733474731445 5.0 14 -0.09054645895957947
1.369749903678894 -2.107618808746338 -0.043875351548194885 7.0 7 -0.09054415673017502
1.3681780099868774 -2.106004476547241 0.6729295253753662 6.0 15 -0.09054184705018997
0.7794448733329773 -1.202995777130127 -0.384087473154068 7.0 0 -0.09052111208438873
1.365350365638733 -2.1080892086029053 0.0438404455780983 6.0 8 -0.09051880985498428
0.9266924262046814 -1.4313523769378662 -0.3936643898487091 6.0 1 -0.09051650762557983
1.3651221990585327 -2.1093502044677734 0.1316772699356079 6.0 9 -0.09051420539617538
1.1584116220474243 -1.7899466753005981 -0.4144371747970581 5.0 2 -0.09051189571619034
1.383070945739746 -2.13790225982666 0.2227700799703598 5.0 10 -0.09050959348678589
1.4095075130462646 -2.1796011924743652 -0.4111098051071167 111.0 3 -0.09050729125738144
1.3632521629333496 -2.1088807582855225 0.3083294630050659 3.0 11 -0.09050498902797699
1.3984376192092896 -2.1641387939453125 -0.3163728415966034 85.0 4 -0.09050267934799194
1.3590627908706665 -2.1040103435516357 0.3967178463935852 5.0 12 -0.0905003771185875
1.370591640472412 -2.122671365737915 0.4911423921585083 3.0 13 -0.0904957726597786
1.3614611625671387 -2.1093385219573975 -0.13157260417938232 11.0 6 -0.09049346297979355
1.3565539121627808 -2.102540969848633 0.5776743292808533 6.0 14 -0.0904911607503891
1.3580490350723267 -2.1056652069091797 -0.04373573139309883 7.0 7 -0.09048885852098465
1.3660523891448975 -2.1188857555389404 0.675517737865448 7.0 15 -0.0904865562915802
0.7689720392227173 -1.1959595680236816 -0.3809816539287567 6.0 0 -0.09046582132577896
1.3579835891723633 -2.112842321395874 0.0438404455780983 6.0 8 -0.09046351164579391
0.9216904640197754 -1.434578537940979 -0.3936643898487091 6.0 1 -0.09046120941638947
1.3555922508239746 -2.110741376876831 0.13146793842315674 5.0 9 -0.09045890718698502
1.1468520164489746 -1.785719871520996 -0.4125290811061859 6.0 2 -0.09045660495758057
1.3691414594650269 -2.132657051086426 0.22172421216964722 6.0 10 -0.09045429527759552
1.407225251197815 -2.1928205490112305 -0.4126741588115692 114.0 3 -0.09045199304819107
1.3548104763031006 -2.111955404281616 0.30808573961257935 4.0 11 -0.09044969081878662
1.3908746242523193 -2.1690073013305664 -0.3163728415966034 85.0 4 -0.09044738858938217
1.3559741973876953 -2.115393877029419 0.3979693353176117 5.0 12 -0.09044507890939713
1.3578778505325317 -2.1191775798797607 0.4892342984676361 4.0 13 -0.09044047445058823
1.3562440872192383 -2.1174418926239014 -0.1317819505929947 11.0 6 -0.09043817222118378
1.351307988166809 -2.1105456352233887 0.5785741209983826 6.0 14 -0.09043586999177933
1.3420672416687012 -2.0969185829162598 -0.04345649108290672 7.0 7 -0.09043356031179428
1.3471953868865967 -2.105741024017334 0.6698237061500549 6.0 15 -0.09043125808238983
0.7627143859863281 -1.1953792572021484 -0.37994638085365295 6.0 0 -0.09041052311658859
1.3398469686508179 -2.100710153579712 0.04349139705300331 6.0 8 -0.09040822088718414
0.9187724590301514 -1.4410732984542847 -0.3945641815662384 6.0 1 -0.0904059112071991
1.3482162952423096 -2.1154603958129883 0.13146793842315674 6.0 9 -0.09040360897779465
1.1406117677688599 -1.7897120714187622 -0.4125290811061859 6.0 2 -0.0904013067483902
1.3424196243286133 -2.1071770191192627 0.21858659386634827 5.0 10 -0.09039900451898575
1.3931958675384521 -2.1877222061157227 -0.41079697012901306 118.0 3 -0.0903966948390007
1.3474301099777222 -2.1166718006134033 0.30808573961257935 4.0 11 -0.09039439260959625
1.3854262828826904 -2.177198648452759 -0.3168603181838989 88.0 4 -0.0903920903801918
1.3432807922363281 -2.1117804050445557 0.3964049816131592 6.0 12 -0.09038978815078735
1.3504722118377686 -2.1239044666290283 0.4892342984676361 4.0 13 -0.09038517624139786
1.3456305265426636 -2.1171059608459473 -0.13146793842315674 11.0 6 -0.09038287401199341
1.3470677137374878 -2.1201844215393066 0.5799238681793213 6.0 14 -0.09038057178258896
1.3347394466400146 -2.101590633392334 -0.04345649108290672 7.0 7 -0.09037826955318451
1.3325889110565186 -2.0990140438079834 0.6662002205848694 7.0 15 -0.09037595987319946
0.756470263004303 -1.194770097732544 -0.3789111077785492 6.0 0 -0.09035522490739822
1.330367088317871 -2.1019949913024902 0.04342158883810043 6.0 8 -0.09035292267799377
0.9054014682769775 -1.431097149848938 -0.39096495509147644 6.0 1 -0.09035062044858932
1.341193675994873 -2.119919776916504 0.13146793842315674 6.0 9 -0.09034831076860428
1.13645601272583 -1.7970011234283447 -0.4132923185825348 6.0 2 -0.09034600853919983
1.3403793573379517 -2.120270252227783 0.21945816278457642 6.0 10 -0.09034370630979538
1.3792192935943604 -2.1825523376464844 -0.40891972184181213 118.0 3 -0.09034140408039093
1.3336725234985352 -2.1112923622131348 0.30662328004837036 4.0 11 -0.09033910185098648
1.376078724861145 -2.178424119949341 -0.3163728415966034 85.0 4 -0.09033679217100143
1.3362704515457153 -2.1162233352661133 0.3964049816131592 6.0 12 -0.09033448994159698
1.328383445739746 -2.105360269546509 0.4838916063308716 4.0 13 -0.09032988548278809
1.3318393230438232 -2.111654281616211 -0.13083989918231964 10.0 6 -0.09032757580280304
1.3317127227783203 -2.1114535331726074 0.5763246417045593 6.0 14 -0.09032527357339859
1.3330951929092407 -2.1144628524780273 -0.04363101348280907 8.0 7 -0.09032297134399414
1.3287111520767212 -2.1083247661590576 0.6677531599998474 7.0 15 -0.09032066911458969
0.7545600533485413 -1.2005431652069092 -0.37994638085365295 6.0 0 -0.09029992669820786
1.3212615251541138 -2.103008508682251 0.043351780623197556 6.0 8 -0.0902976244688034
0.9047964215278625 -1.4406927824020386 -0.3927645683288574 6.0 1 -0.09029532223939896
1.3277828693389893 -2.1142072677612305 0.13083989918231964 6.0 9 -0.0902930200099945
1.1304906606674194 -1.8007599115371704 -0.4132923185825348 6.0 2 -0.09029071778059006
1.3291046619415283 -2.117953062057495 0.2187609225511551 6.0 10 -0.09028840810060501
1.3698748350143433 -2.183767318725586 -0.4082939922809601 118.0 3 -0.09028610587120056
1.326663851737976 -2.1157033443450928 0.30662328004837036 4.0 11 -0.09028380364179611
1.3625197410583496 -2.172884702682495 -0.3149104118347168 88.0 4 -0.09028150141239166
1.3334420919418335 -2.127337694168091 0.3976564407348633 6.0 12 -0.09027919173240662
1.32764732837677 -2.119736909866333 0.4861813485622406 4.0 13 -0.09027458727359772
1.3195304870605469 -2.1075949668884277 -0.13031654059886932 11.0 6 -0.09027228504419327
1.3247038125991821 -2.1158578395843506 0.5763246417045593 6.0 14 -0.09026997536420822
1.3186498880386353 -2.107006549835205 -0.043386682868003845 7.0 7 -0.09026767313480377
1.316589593887329 -2.1045303344726562 0.6651650071144104 7.0 15 -0.09026537090539932
0.7546652555465698 -1.2095948457717896 -0.3820169270038605 7.0 0 -0.09024463593959808
1.3121641874313354 -2.103984832763672 0.04328196495771408 7.0 8 -0.09024233371019363
0.9000140428543091 -1.4436851739883423 -0.3927645683288574 6.0 1 -0.09024002403020859
1.3140568733215332 -2.108659267425537 0.13021187484264374 5.0 9 -0.09023772180080414
1.122436285018921 -1.8011667728424072 -0.4125290811061859 6.0 2 -0.09023541957139969
1.3283945322036743 -2.132495641708374 0.21980677545070648 6.0 10 -0.09023311734199524
1.3647137880325317 -2.1916518211364746 -0.40891972184181213 118.0 3 -0.09023080766201019
1.314395546913147 -2.1116647720336914 0.3054046034812927 4.0 11 -0.09022850543260574
1.3549264669418335 -2.1776273250579834 -0.3149104118347168 88.0 4 -0.0902262032032013
1.3124455213546753 -2.110173225402832 0.3935891389846802 5.0 12 -0.09022390097379684
1.3143911361694336 -2.114124059677124 0.4838916063308716 4.0 13 -0.09021928906440735
1.312534213066101 -2.111959218978882 -0.13031654059886932 11.0 6 -0.0902169868350029
1.3152532577514648 -2.1171584129333496 0.57542484998703 6.0 14 -0.09021468460559845
1.3007378578186035 -2.0946085453033447 -0.04303763434290886 8.0 7 -0.0902123749256134
1.3092353343963623 -2.1091134548187256 0.6651650071144104 7.0 15 -0.09021007269620895
0.7443372011184692 -1.2023664712905884 -0.3789111077785492 8.0 0 -0.09018933773040771
1.30902099609375 -2.115354299545288 0.04342158883810043 6.0 8 -0.09018703550100327
0.89496910572052 -1.4468179941177368 -0.3927645683288574 6.0 1 -0.09018473327159882
1.3150913715362549 -2.1268231868743896 0.131049245595932 6.0 9 -0.09018242359161377
1.1099469661712646 -1.7950546741485596 -0.4102393686771393 6.0 2 -0.09018012136220932
1.3167526721954346 -2.130340337753296 0.21910953521728516 6.0 10 -0.09017781913280487
1.357055425643921 -2.196402072906494 -0.40891972184181213 118.0 3 -0.09017551690340042
1.3080596923828125 -2.117929220199585 0.3056483268737793 5.0 11 -0.09017320722341537
1.345231533050537 -2.1789655685424805 -0.31442293524742126 88.0 4 -0.09017090499401093
1.3081837892532349 -2.1197848320007324 0.39452776312828064 6.0 12 -0.09016860276460648
1.3080341815948486 -2.120370388031006 0.4842732548713684 4.0 13 -0.09016399085521698
1.3093472719192505 -2.12332820892334 -0.13073523342609406 11.0 6 -0.09016168862581253
1.3099000453948975 -2.125054359436035 0.5763246417045593 6.0 14 -0.09015938639640808
1.2955162525177002 -2.102541208267212 -0.04310744255781174 8.0 7 -0.09015708416700363
1.299838900566101 -2.1103808879852295 0.6641297340393066 7.0 15 -0.09015478193759918
0.7340688109397888 -1.1950805187225342 -0.3758052587509155 8.0 0 -0.09013403952121735
1.2911657094955444 -2.102869749069214 0.04307254031300545 6.0 8 -0.0901317372918129
0.8899132609367371 -1.4499332904815674 -0.3927645683288574 6.0 1 -0.09012943506240845
1.3076597452163696 -2.1314005851745605 0.131049245595932 6.0 9 -0.090127132833004
1.1057279109954834 -1.802264928817749 -0.41100257635116577 6.0 2 -0.09012482315301895
1.3009755611419678 -2.1213364601135254 0.2177150398492813 6.0 10 -0.0901225209236145
1.341120958328247 -2.187653064727783 -0.40641677379608154 118.0 3 -0.09012021869421005
1.298584222793579 -2.1190972328186035 0.30516088008880615 4.0 11 -0.0901179164648056
1.3386540412902832 -2.185340642929077 -0.31466665863990784 91.0 4 -0.09011560678482056
1.2935556173324585 -2.112545967102051 0.3923376798629761 5.0 12 -0.09011330455541611
1.3016496896743774 -2.1265976428985596 0.48465490341186523 5.0 13 -0.09010870009660721
1.305054783821106 -2.1329965591430664 -0.131049245595932 13.0 6 -0.09010639786720276
1.3034908771514893 -2.1312766075134277 0.576774537563324 6.0 14 -0.09010408818721771
1.2871261835098267 -2.105344772338867 -0.04307254031300545 8.0 7 -0.09010178595781326
1.288434624671936 -2.108311653137207 0.6620591282844543 7.0 15 -0.09009948372840881
0.7339141368865967 -1.2042341232299805 -0.37787580490112305 8.0 0 -0.09007874876260757
1.279655933380127 -2.1005327701568604 0.04293292015790939 6.0 8 -0.09007643908262253
0.8807923197746277 -1.4463732242584229 -0.39096495509147644 6.0 1 -0.09007413685321808
1.298134446144104 -2.132539987564087 0.13083989918231964 6.0 9 -0.09007183462381363
1.1035133600234985 -1.812821865081787 -0.4125290811061859 6.0 2 -0.09006953239440918
1.2914913892745972 -2.1224608421325684 0.21736642718315125 6.0 10 -0.09006722271442413
1.3303966522216797 -2.187257766723633 -0.4054781496524811 111.0 3 -0.09006492048501968
1.2870543003082275 -2.1168322563171387 0.3041858971118927 4.0 11 -0.09006261825561523
1.3361725807189941 -2.198481798171997 -0.31588536500930786 99.0 4 -0.09006031602621078
1.2902764081954956 -2.1238009929656982 0.3935891389846802 5.0 12 -0.09005801379680634
1.2840280532836914 -2.1143479347229004 0.48083871603012085 4.0 13 -0.09005340188741684
1.2862006425857544 -2.1187586784362793 -0.1298978626728058 11.0 6 -0.09005109965801239
1.3021091222763062 -2.1458096504211426 0.5794739723205566 6.0 14 -0.09004879742860794
1.2776950597763062 -2.106405258178711 -0.04300273209810257 8.0 7 -0.0900464877486229
1.2830705642700195 -2.1161000728607178 0.6630944013595581 7.0 15 -0.09004418551921844
0.7297060489654541 -1.2067886590957642 -0.37787580490112305 7.0 0 -0.0900234505534172
1.2723160982131958 -2.1049866676330566 0.04293292015790939 7.0 8 -0.09002114832401276
0.8737227320671082 -1.4461030960083008 -0.39006516337394714 6.0 1 -0.09001883864402771
1.2803572416305542 -2.119961977005005 0.129793182015419 6.0 9 -0.09001653641462326
1.0992085933685303 -1.8200236558914185 -0.4132923185825348 6.0 2 -0.09001423418521881
1.2840750217437744 -2.12695574760437 0.21736642718315125 6.0 10 -0.09001193195581436
1.31969153881073 -2.186814785003662 -0.4045395851135254 107.0 3 -0.09000962972640991
1.2837587594985962 -2.1281113624572754 0.30516088008880615 5.0 11 -0.09000732004642487
1.3172146081924438 -2.1844334602355957 -0.31320425868034363 106.0 4 -0.09000501781702042
1.2808152437210083 -2.124908447265625 0.3929634094238281 6.0 12 -0.09000271558761597
1.2827188968658447 -2.128906726837158 0.4831283986568451 4.0 13 -0.08999810367822647
1.2736445665359497 -2.1146810054779053 -0.12937450408935547 11.0 6 -0.08999580144882202
1.2845598459243774 -2.1336464881896973 0.5749749541282654 6.0 14 -0.08999349921941757
1.2765214443206787 -2.1211321353912354 -0.0432121567428112 8.0 7 -0.08999119699001312
1.2736847400665283 -2.117255210876465 0.6620591282844543 7.0 15 -0.08998888731002808
0.7272653579711914 -1.2127686738967896 -0.3789111077785492 8.0 0 -0.08996815234422684
1.2670174837112427 -2.1128451824188232 0.04300273209810257 7.0 8 -0.08996585011482239
0.8626580238342285 -1.4391154050827026 -0.38736575841903687 6.0 1 -0.08996354788541794
1.2688432931900024 -2.117565393447876 0.12937450408935547 6.0 9 -0.08996124565601349
1.0905131101608276 -1.820671796798706 -0.4125290811061859 6.0 2 -0.08995893597602844
1.2783172130584717 -2.1350669860839844 0.2177150398492813 6.0 10 -0.08995663374662399
1.3136965036392212 -2.1950271129608154 -0.40516531467437744 114.0 3 -0.08995433151721954
1.2661280632019043 -2.1155459880828857 0.3027234971523285 5.0 11 -0.0899520292878151
1.3085625171661377 -2.187314510345459 -0.31296050548553467 103.0 4 -0.08994971960783005
1.2602102756500244 -2.1073269844055176 0.388896107673645 6.0 12 -0.0899474173784256
1.2728931903839111 -2.130223274230957 0.4823651611804962 5.0 13 -0.0899428129196167
1.2679336071014404 -2.1227641105651855 -0.12958383560180664 11.0 6 -0.08994050323963165
1.2647428512573242 -2.1182618141174316 0.5695760846138 6.0 14 -0.0899382010102272
1.25885808467865 -2.108405828475952 -0.042863111943006516 8.0 7 -0.08993589878082275
