# .PCD v0.7 - Point Cloud Data file format
VERSION 0.7
FIELDS x y z intensity ring time
SIZE 4 4 4 4 4 4
TYPE F F F F F F
COUNT 1 1 1 1 1 1
WIDTH 546
HEIGHT 1
VIEWPOINT 0 0 0 1 0 0 0
POINTS 546
DATA ascii
-0.8613472580909729 2.200160264968872 -0.12382689118385315 1.0 6 -0.03931494429707527
-2.520857334136963 6.442389965057373 1.597152590751648 100.0 14 -0.039312638342380524
-2.4843757152557373 6.3524322509765625 -0.11906032264232635 1.0 7 -0.039310336112976074
-2.515767812728882 6.43601131439209 1.8515914678573608 47.0 15 -0.039308030158281326
-0.9444075226783752 2.4247806072235107 -0.6972585916519165 1.0 0 -0.03928729519248009
-0.8131916522979736 2.0889599323272705 0.039128296077251434 3.0 8 -0.03928499296307564
-0.9461569786071777 2.4317820072174072 -0.6024189591407776 7.0 1 -0.03928268700838089
-0.8027859926223755 2.0643603801727295 0.11608116328716278 2.0 9 -0.03928038477897644
-0.8460425734519958 2.1755945682525635 -0.4537437856197357 9.0 2 -0.03927807882428169
-0.8076872229576111 2.0780375003814697 0.1950545459985733 1.0 10 -0.03927577659487724
-0.9270405173301697 2.3863461017608643 -0.4054781496524811 2.0 3 -0.039273470640182495
-2.508298397064209 6.460089206695557 0.8508918285369873 88.0 11 -0.039271168410778046
-0.8682812452316284 2.2374038696289062 -0.294680118560791 2.0 4 -0.0392688624560833
-2.506636381149292 6.462492942810059 1.097857117652893 67.0 12 -0.03926656022667885
-0.8768450021743774 2.260640859603882 -0.21213705837726593 1.0 5 -0.0392642542719841
-2.5043258666992188 6.459879398345947 1.3467299938201904 100.0 13 -0.03926195204257965
-0.860878586769104 2.2217767238616943 -0.12487360835075378 1.0 6 -0.0392596460878849
-2.499055862426758 6.452967643737793 1.5976024866104126 100.0 14 -0.039257343858480453
-2.454969644546509 6.342416763305664 -0.11871127039194107 1.0 7 -0.039255037903785706
-2.4891059398651123 6.433943271636963 1.8484857082366943 47.0 15 -0.039252735674381256
-0.8109276294708252 2.1048474311828613 0.039372626692056656 6.0 8 -0.03922969475388527
-0.802031934261322 2.083925724029541 0.11702320724725723 2.0 9 -0.03922508656978607
-0.8391488194465637 2.1803667545318604 -0.45412543416023254 10.0 2 -0.03922278434038162
-0.7975677847862244 2.0734057426452637 0.19435729086399078 2.0 10 -0.039220478385686874
-0.9151600003242493 2.3803489208221436 -0.40391382575035095 2.0 3 -0.039218176156282425
-2.4843106269836426 6.4650983810424805 0.8504043221473694 86.0 11 -0.03921587020158768
-0.8633132576942444 2.247833251953125 -0.2956550419330597 3.0 4 -0.03921356797218323
-2.481229305267334 6.463827133178711 1.096605658531189 63.0 12 -0.03921126201748848
-0.8689479231834412 2.263688087463379 -0.21213705837726593 1.0 5 -0.03920895978808403
-2.480356216430664 6.4649152755737305 1.3459666967391968 100.0 13 -0.03920665383338928
-0.8688505291938782 2.265794515609741 -0.12717638909816742 1.0 6 -0.03920435160398483
-2.475816488265991 6.459832668304443 1.597152590751648 100.0 14 -0.03920204937458038
-2.422801971435547 6.324803352355957 -0.11822260171175003 1.0 7 -0.039199743419885635
-2.4624886512756348 6.431766510009766 1.8453798294067383 47.0 15 -0.039197441190481186
-1.20287024974823 3.153308868408203 -0.9043138027191162 3.0 0 -0.03917670249938965
-0.8064244389533997 2.1151394844055176 0.03951225057244301 8.0 8 -0.0391744002699852
-0.7915604114532471 2.077242374420166 0.11649984866380692 2.0 9 -0.039169792085886
-0.8350261449813843 2.1924564838409424 -0.45603352785110474 10.0 2 -0.039167486131191254
-0.793160080909729 2.083625555038452 0.1950545459985733 1.0 10 -0.039165183901786804
-0.8850704431533813 2.326294422149658 -0.394214928150177 2.0 3 -0.039162877947092056
-2.460314989089966 6.4700212478637695 0.8499168753623962 88.0 11 -0.03916057571768761
-0.8561663627624512 2.2526891231536865 -0.29589879512786865 3.0 4 -0.03915826976299286
-2.459782361984253 6.472019195556641 1.096605658531189 67.0 12 -0.03915596753358841
-0.8737766146659851 2.3002331256866455 -0.21527467668056488 1.0 5 -0.03915366530418396
-2.452197551727295 6.458850860595703 1.3429137468338013 95.0 13 -0.03915135934948921
-0.8425122499465942 2.2202632427215576 -0.12445490807294846 1.0 6 -0.03914905712008476
-2.453253746032715 6.468435287475586 1.597152590751648 100.0 14 -0.039146751165390015
-2.4358513355255127 6.422550678253174 -0.11989803612232208 1.0 7 -0.039144448935985565
-2.4411449432373047 6.439897537231445 1.8453798294067383 47.0 15 -0.03914214298129082
-1.2007254362106323 3.1809840202331543 -0.911043107509613 6.0 0 -0.03912140801548958
-0.7965815663337708 2.110318422317505 0.039372626692056656 8.0 8 -0.03911910206079483
-0.7765536904335022 2.0594356060028076 0.1153484508395195 2.0 9 -0.03911449387669563
-0.8245989680290222 2.188009262084961 -0.45450708270072937 11.0 2 -0.039112191647291183
-0.7858824729919434 2.086381196975708 0.1950545459985733 1.0 10 -0.039109889417886734
-0.880137026309967 2.336610794067383 -0.3954663872718811 1.0 3 -0.039107583463191986
-2.4332520961761475 6.46328067779541 0.8479669690132141 84.0 11 -0.03910528123378754
-0.8451964259147644 2.2462260723114014 -0.294680118560791 3.0 4 -0.03910297527909279
-2.435091018676758 6.475018501281738 1.0956671237945557 65.0 12 -0.03910067304968834
-0.8531243205070496 2.2696988582611084 -0.21213705837726593 1.0 5 -0.03909836709499359
-2.4293859004974365 6.463271617889404 1.3421505689620972 97.0 13 -0.03909606486558914
-0.832335889339447 2.2155661582946777 -0.12403623014688492 1.0 6 -0.039093758910894394
-2.4269962310791016 6.46376371383667 1.5940033197402954 100.0 14 -0.039091456681489944
-2.417295217514038 6.444762229919434 1.8443446159362793 47.0 15 -0.03908684849739075
-1.1881407499313354 3.1795198917388916 -0.909490168094635 6.0 0 -0.03906610980629921
-0.7906100749969482 2.1168324947357178 0.03944243863224983 8.0 8 -0.03906380757689476
-1.3432507514953613 3.598430871963501 -0.8867571353912354 3.0 1 -0.03906150534749031
-0.7637745141983032 2.047163963317871 0.11451108753681183 4.0 9 -0.03905919939279556
-0.8145930767059326 2.1833741664886475 -0.45298057794570923 12.0 2 -0.03905689716339111
-0.7817443609237671 2.0964431762695312 0.19575178623199463 1.0 10 -0.039054591208696365
-0.8692153096199036 2.3322651386260986 -0.394214928150177 2.0 3 -0.039052288979291916
-2.410674571990967 6.471735954284668 0.8479669690132141 84.0 11 -0.03904998302459717
-0.8338869214057922 2.239861249923706 -0.293461412191391 3.0 4 -0.03904768079519272
-2.4110946655273438 6.4797773361206055 1.0950413942337036 78.0 12 -0.03904537484049797
-0.8525407314300537 2.291188955307007 -0.21388019621372223 1.0 5 -0.03904307261109352
-2.4068081378936768 6.471713066101074 1.3421505689620972 97.0 13 -0.03904076665639877
-0.8259881138801575 2.2222023010253906 -0.12424556910991669 1.0 6 -0.039038464426994324
-2.4003450870513916 6.461236476898193 1.591303825378418 100.0 14 -0.039036158472299576
-2.392766237258911 6.447727680206299 1.8427916765213013 46.0 15 -0.03903155028820038
-1.168996810913086 3.1619038581848145 -0.9032785296440125 6.0 0 -0.03901081532239914
-0.7859880328178406 2.127082586288452 0.039582058787345886 8.0 8 -0.03900851309299469
-1.334733247756958 3.6140658855438232 -0.8894565105438232 3.0 1 -0.03900620713829994
-0.7573158740997314 2.0516908168792725 0.11461575329303741 7.0 9 -0.03900390490889549
-0.8096864819526672 2.1935713291168213 -0.45450708270072937 11.0 2 -0.039001598954200745
-0.7744210362434387 2.0991592407226562 0.19575178623199463 1.0 10 -0.038999296724796295
-0.8597025871276855 2.331578016281128 -0.3935891389846802 2.0 3 -0.03899699077010155
-2.388070821762085 6.4801106452941895 0.8479669690132141 86.0 11 -0.0389946885406971
-0.8219470977783203 2.231581449508667 -0.2919989824295044 3.0 4 -0.03899238258600235
-2.380955934524536 6.467761993408203 1.0915998220443726 72.0 12 -0.0389900803565979
-0.8472913503646851 2.3016295433044434 -0.21457743644714355 1.0 5 -0.03898777440190315
-2.3828487396240234 6.476388931274414 1.3413872718811035 95.0 13 -0.0389854721724987
-0.8154693841934204 2.217573881149292 -0.12382689118385315 1.0 6 -0.038983166217803955
-2.3784501552581787 6.471404075622559 1.5917537212371826 100.0 14 -0.038980863988399506
-0.8253411650657654 2.246842861175537 -0.04178106039762497 1.0 7 -0.03897855803370476
-2.364919662475586 6.441532611846924 1.8386505842208862 46.0 15 -0.03897625580430031
-1.1081844568252563 3.0298919677734375 -0.8644556403160095 18.0 0 -0.03895552083849907
-0.7737519145011902 2.116666555404663 0.039337724447250366 9.0 8 -0.03895321488380432
-1.1134616136550903 3.0476176738739014 -0.7490870356559753 27.0 1 -0.03895091265439987
-0.7532500624656677 2.061694860458374 0.11503444612026215 10.0 9 -0.038948606699705124
-0.8000048398971558 2.1908516883850098 -0.45336219668388367 10.0 2 -0.038946304470300674
-0.7561591863632202 2.0719034671783447 0.19296279549598694 1.0 10 -0.038943998515605927
-0.8461437821388245 2.3197181224823 -0.3910861909389496 1.0 3 -0.03894169628620148
-2.364074945449829 6.484678268432617 0.847479522228241 86.0 11 -0.03893939033150673
-0.8257048726081848 2.2661445140838623 -0.2961425185203552 3.0 4 -0.03893708810210228
-2.3594932556152344 6.475622653961182 1.0915998220443726 76.0 12 -0.03893478214740753
-2.357539653778076 6.477288722991943 1.3398607969284058 92.0 13 -0.038930173963308334
-0.8131852746009827 2.2354226112365723 -0.12466426193714142 1.0 6 -0.038927871733903885
-2.353184461593628 6.472341060638428 1.589954137802124 100.0 14 -0.03892556577920914
-2.3442037105560303 6.451155662536621 1.8391681909561157 46.0 15 -0.03892096132040024
-1.0976005792617798 3.0337419509887695 -0.8644556403160095 34.0 0 -0.0389002226293087
-0.7633273601531982 2.109818696975708 0.03916320204734802 8.0 8 -0.03889792039990425
-1.1013604402542114 3.0457956790924072 -0.7477373480796814 67.0 1 -0.0388956144452095
-0.7480848431587219 2.069946765899658 0.1153484508395195 9.0 9 -0.038893312215805054
-0.7943527698516846 2.1991708278656006 -0.45450708270072937 10.0 2 -0.038891006261110306
-0.7543349862098694 2.089522361755371 0.19435729086399078 1.0 10 -0.038888704031705856
-0.8545441627502441 2.3671038150787354 -0.39859506487846375 2.0 3 -0.03888639807701111
-2.3398642539978027 6.485012054443359 0.8465045094490051 84.0 11 -0.03888409584760666
-0.8121253252029419 2.2520639896392822 -0.2939488887786865 3.0 4 -0.03888178989291191
-2.3362066745758057 6.481960773468018 1.0912868976593018 74.0 12 -0.03887948766350746
-0.8217490911483765 2.281245708465576 -0.21213705837726593 1.0 5 -0.038877181708812714
-2.3320562839508057 6.473987579345703 1.337571144104004 92.0 13 -0.038874879479408264
-0.8044151663780212 2.2343480587005615 -0.12445490807294846 1.0 6 -0.038872577250003815
-2.333026170730591 6.483777046203613 1.5908540487289429 100.0 14 -0.03887027129530907
-2.3203651905059814 6.455662250518799 1.8381328582763672 46.0 15 -0.03886566311120987
-1.0855811834335327 3.0319082736968994 -0.8629027009010315 15.0 0 -0.03884492814540863
-0.7566321492195129 2.1143527030944824 0.03919810429215431 5.0 8 -0.03884262219071388
-1.0867849588394165 3.038611888885498 -0.7450379729270935 58.0 1 -0.03884031996130943
-0.7408542037010193 2.0725457668304443 0.1153484508395195 5.0 9 -0.038838014006614685
-0.7890375852584839 2.20733904838562 -0.4556518793106079 9.0 2 -0.038835711777210236
-0.7500835061073303 2.099517345428467 0.1950545459985733 1.0 10 -0.03883340582251549
-0.8462767601013184 2.37007212638855 -0.39859506487846375 2.0 3 -0.03883110359311104
-2.3132083415985107 6.481923580169678 0.8450421094894409 86.0 11 -0.03882880136370659
-0.8035927414894104 2.2530148029327393 -0.29370513558387756 3.0 4 -0.03882649540901184
-2.314230442047119 6.491935729980469 1.0915998220443726 76.0 12 -0.03882419317960739
-0.847630500793457 2.377793788909912 -0.22085265815258026 1.0 5 -0.03882188722491264
-2.308124303817749 6.478390693664551 1.3368079662322998 92.0 13 -0.038819584995508194
-0.7979514598846436 2.240905523300171 -0.12466426193714142 1.0 6 -0.038817279040813446
-2.3051536083221436 6.4771928787231445 1.5872547626495361 100.0 14 -0.038814976811409
-2.296520709991455 6.460083484649658 1.8370977640151978 46.0 15 -0.0388103686273098
-1.0743457078933716 3.0338587760925293 -0.862385094165802 9.0 0 -0.03878962993621826
-0.7545839548110962 2.1320621967315674 0.03947734460234642 3.0 8 -0.03878732770681381
-1.0729215145111084 3.033201217651367 -0.7427884340286255 58.0 1 -0.03878502547740936
-0.7342813611030579 2.0770020484924316 0.11545313149690628 2.0 9 -0.038782719522714615
-0.7774019241333008 2.1989736557006836 -0.45336219668388367 10.0 2 -0.038780417293310165
-0.7467321753501892 2.1133944988250732 0.1961004137992859 1.0 10 -0.03877811133861542
-0.840628981590271 2.380462646484375 -0.39984655380249023 2.0 3 -0.03877580910921097
-2.289247989654541 6.4862141609191895 0.844554603099823 84.0 11 -0.03877350315451622
-0.7957227826118469 2.2558064460754395 -0.29370513558387756 3.0 4 -0.03877120092511177
-2.2876131534576416 6.488797664642334 1.0897226333618164 76.0 12 -0.03876889497041702
-0.8154764771461487 2.3130929470062256 -0.21457743644714355 1.0 5 -0.03876659274101257
-2.2868025302886963 6.490110874176025 1.337571144104004 92.0 13 -0.038764286786317825
-0.7861431837081909 2.2323741912841797 -0.12403623014688492 1.0 6 -0.038761984556913376
-2.2773523330688477 6.470495223999023 1.583655595779419 100.0 14 -0.03875967860221863
-0.7611066699028015 2.163689136505127 -0.04003582149744034 1.0 7 -0.03875737637281418
-2.273958206176758 6.468059539794922 1.8370977640151978 46.0 15 -0.03875507041811943
-1.0599185228347778 3.0266504287719727 -0.8592792749404907 9.0 0 -0.03873433545231819
-0.748458743095398 2.138458013534546 0.0395471528172493 2.0 8 -0.03873203322291374
-1.0629711151123047 3.0387673377990723 -0.7432383298873901 61.0 1 -0.038729727268218994
-0.732959508895874 2.0965209007263184 0.11639518290758133 2.0 9 -0.038727425038814545
-0.7697217464447021 2.201673746109009 -0.45336219668388367 9.0 2 -0.0387251190841198
-0.7327789664268494 2.0971791744232178 0.19435729086399078 1.0 10 -0.03872281685471535
-0.8297099471092224 2.375922441482544 -0.39859506487846375 1.0 3 -0.0387205109000206
-2.2679026126861572 6.497913837432861 0.8450421094894409 82.0 11 -0.03871820867061615
-0.7917671203613281 2.2698161602020264 -0.29516759514808655 3.0 4 -0.0387159027159214
-2.262996196746826 6.491148471832275 1.0887839794158936 78.0 12 -0.03871360048651695
-0.8178908824920654 2.346027374267578 -0.21736642718315125 1.0 5 -0.038711294531822205
-2.262843370437622 6.494345664978027 1.3368079662322998 92.0 13 -0.038708992302417755
-0.7770328521728516 2.231332302093506 -0.12382689118385315 1.0 6 -0.03870668634772301
-2.2560315132141113 6.482086658477783 1.5845552682876587 100.0 14 -0.03870438411831856
-2.24819278717041 6.466834545135498 1.8345094919204712 46.0 15 -0.03869977593421936
-1.0480819940567017 3.0266811847686768 -0.858244001865387 3.0 0 -0.03867904096841812
-0.7403360605239868 2.1391677856445312 0.03951225057244301 3.0 8 -0.03867673501372337
-1.0498085021972656 3.035092830657959 -0.7414387464523315 63.0 1 -0.038674432784318924
-0.7269413471221924 2.102842092514038 0.1166045218706131 2.0 9 -0.038672126829624176
-0.7645969986915588 2.2117695808410645 -0.4548886716365814 7.0 2 -0.03866982460021973
-0.7280569672584534 2.1072566509246826 0.1950545459985733 1.0 10 -0.03866751864552498
-0.802068293094635 2.322788953781128 -0.38920900225639343 1.0 3 -0.03866521641612053
-2.242614507675171 6.498284816741943 0.8440670967102051 86.0 11 -0.03866291046142578
-0.7812494039535522 2.26505970954895 -0.2941926121711731 3.0 4 -0.03866060823202133
-2.237750291824341 6.491537570953369 1.0875325202941895 78.0 12 -0.038658302277326584
-0.7824258804321289 2.2697558403015137 -0.21004533767700195 1.0 5 -0.038656000047922134
-2.236321449279785 6.491068363189697 1.3345181941986084 95.0 13 -0.038653694093227386
-0.7731401324272156 2.245361804962158 -0.12445490807294846 1.0 6 -0.03865139186382294
-2.2321243286132812 6.486236095428467 1.583655595779419 100.0 14 -0.03864908590912819
-2.2199552059173584 6.458199977874756 1.829850673675537 46.0 15 -0.03864447772502899
-1.0318793058395386 3.013871669769287 -0.8535852432250977 1.0 0 -0.03863048553466797
-0.7296268343925476 2.13227915763855 0.039337724447250366 5.0 8 -0.03862818330526352
-1.0347942113876343 3.0258312225341797 -0.7382894158363342 60.0 1 -0.03862587735056877
-0.7244884371757507 2.118469476699829 0.11733722686767578 1.0 9 -0.03862357512116432
-0.7600470781326294 2.2237133979797363 -0.4567967355251312 8.0 2 -0.038621269166469574
-0.7258487343788147 2.1248691082000732 0.19644904136657715 1.0 10 -0.038618966937065125
-0.8016144633293152 2.3480072021484375 -0.3929634094238281 2.0 3 -0.03861666098237038
-2.2160727977752686 6.494801044464111 0.8426047563552856 84.0 11 -0.03861435875296593
-0.7759014964103699 2.2752883434295654 -0.29516759514808655 2.0 4 -0.03861205279827118
-2.2155752182006836 6.497052192687988 1.0872197151184082 81.0 12 -0.03860975056886673
-0.7822115421295166 2.2951033115386963 -0.21213705837726593 1.0 5 -0.03860744461417198
-2.209852933883667 6.4876837730407715 1.332228422164917 97.0 13 -0.03860514238476753
-0.7614362835884094 2.2367026805877686 -0.12382689118385315 1.0 6 -0.038602836430072784
-2.210726261138916 6.497677326202393 1.5845552682876587 100.0 14 -0.038600534200668335
-0.7619742751121521 2.2395641803741455 -0.04129239544272423 1.0 7 -0.03859822824597359
-2.1985251903533936 6.465527057647705 1.829850673675537 46.0 15 -0.03859592601656914
-1.023830771446228 3.0247745513916016 -0.8556557893753052 2.0 0 -0.0385751910507679
-0.7283225059509277 2.151733875274658 0.039651867002248764 7.0 8 -0.03857288509607315
-1.0216312408447266 3.0200164318084717 -0.7360398769378662 63.0 1 -0.0385705828666687
-0.7273246645927429 2.1512579917907715 0.11901197582483292 1.0 9 -0.03856827691197395
-0.7510226964950562 2.2226333618164062 -0.45603352785110474 6.0 2 -0.038565974682569504
-0.7209763526916504 2.1349403858184814 0.19714628159999847 1.0 10 -0.038563668727874756
-0.7963513135910034 2.3581390380859375 -0.394214928150177 2.0 3 -0.038561366498470306
-2.1932547092437744 6.498351573944092 0.8421172499656677 86.0 11 -0.03855906054377556
-0.7620067000389099 2.2590394020080566 -0.2927301824092865 2.0 4 -0.03855675831437111
-2.193511962890625 6.506618976593018 1.0875325202941895 78.0 12 -0.03855445235967636
-0.7805574536323547 2.3167009353637695 -0.21388019621372223 1.0 5 -0.03855215013027191
-2.1858208179473877 6.487534046173096 1.3307020664215088 100.0 13 -0.038549844175577164
-0.7642121911048889 2.269500494003296 -0.1255016326904297 1.0 6 -0.038547541946172714
-2.1854357719421387 6.493892192840576 1.5818560123443604 100.0 14 -0.038545235991477966
-0.7312018275260925 2.1739773750305176 -0.04003582149744034 1.0 7 -0.03854293376207352
-2.175328493118286 6.471330165863037 1.8293330669403076 46.0 15 -0.03854062780737877
-1.019926905632019 3.0464723110198975 -0.8608322143554688 4.0 0 -0.03851989284157753
-0.7189030647277832 2.148574113845825 0.0395471528172493 3.0 8 -0.03851759061217308
-1.0117019414901733 3.0254123210906982 -0.7364898324012756 72.0 1 -0.03851528465747833
-0.7134795784950256 2.134841203689575 0.11796525865793228 1.0 9 -0.03851298242807388
-0.7417815923690796 2.2195253372192383 -0.4548886716365814 5.0 2 -0.038510676473379135
-2.1820766925811768 6.53290319442749 0.602594792842865 40.0 10 -0.038508374243974686
-0.7906174659729004 2.3683993816375732 -0.3954663872718811 1.0 3 -0.03850606828927994
-2.169299602508545 6.50220251083374 0.8416297435760498 84.0 11 -0.03850376605987549
-0.7591403126716614 2.2767508029937744 -0.294680118560791 2.0 4 -0.03850146010518074
-2.1657917499542236 6.499243259429932 1.0850296020507812 83.0 12 -0.03849915787577629
-2.164400577545166 6.498849868774414 1.331465244293213 100.0 13 -0.038494549691677094
-0.7487168312072754 2.2494137287139893 -0.12424556910991669 1.0 6 -0.038492243736982346
-2.1609106063842773 6.4959330558776855 1.5805062055587769 100.0 14 -0.038489941507577896
-0.7551527619361877 2.271394968032837 -0.04178106039762497 1.0 7 -0.03848763927817345
-2.1539459228515625 6.482550144195557 1.8303683996200562 46.0 15 -0.0384853333234787
-1.0026111602783203 3.029839277267456 -0.8551381826400757 22.0 0 -0.03846459835767746
-0.7164222598075867 2.1662588119506836 0.03982638940215111 2.0 8 -0.03846229240298271
-1.0011357069015503 3.0289251804351807 -0.7364898324012756 56.0 1 -0.03845999017357826
-0.737345814704895 2.232142448425293 0.12319885194301605 1.0 9 -0.038457684218883514
-0.7340288758277893 2.2221012115478516 -0.4548886716365814 6.0 2 -0.038455381989479065
-2.156137466430664 6.531019687652588 0.6017232537269592 82.0 10 -0.03845307603478432
-0.7724427580833435 2.341130018234253 -0.39046046137809753 1.0 3 -0.03845077380537987
-2.1484527587890625 6.515390872955322 0.8423609733581543 84.0 11 -0.03844846785068512
-0.7549156546592712 2.290699005126953 -0.2961425185203552 2.0 4 -0.03844616562128067
-2.1424753665924072 6.504887104034424 1.0847166776657104 85.0 12 -0.03844386339187622
-2.142928123474121 6.510096073150635 1.332228422164917 97.0 13 -0.03843925520777702
-0.7396115064620972 2.2482194900512695 -0.12403623014688492 1.0 6 -0.038436949253082275
-2.135788917541504 6.496030330657959 1.5787065029144287 100.0 14 -0.038434647023677826
-0.7160068154335022 2.1790292263031006 -0.04003582149744034 1.0 7 -0.03843234106898308
-2.1276862621307373 6.47901725769043 1.8272625207901 46.0 15 -0.03843003883957863
-0.9968321919441223 3.0480101108551025 -0.8592792749404907 50.0 0 -0.03840930014848709
-0.7057494521141052 2.159243106842041 0.039651867002248764 1.0 8 -0.03840699791908264
-0.7295501232147217 2.2347025871276855 0.12319885194301605 1.0 9 -0.038402389734983444
-0.7268776297569275 2.2265162467956543 -0.45527029037475586 5.0 2 -0.038400083780288696
-2.1296169757843018 6.52714204788208 0.6006773710250854 88.0 10 -0.03839778155088425
-0.7581413984298706 2.3250315189361572 -0.3873317837715149 1.0 3 -0.0383954793214798
-2.1220076084136963 6.511526107788086 0.8408985137939453 84.0 11 -0.03839317336678505
-0.7395385503768921 2.270669937133789 -0.29321765899658203 2.0 4 -0.0383908711373806
-2.117919921875 6.506690979003906 1.0837781429290771 83.0 12 -0.03838856518268585
-2.114119052886963 6.498866558074951 1.3284122943878174 100.0 13 -0.038383956998586655
-0.7515202760696411 2.311568021774292 -0.1273857206106186 1.0 6 -0.038381654769182205
-2.1130988597869873 6.50344705581665 1.5787065029144287 100.0 14 -0.03837934881448746
-2.102077007293701 6.477217197418213 1.8246742486953735 46.0 15 -0.03837474063038826
-0.9885634779930115 3.058824062347412 -0.8613498210906982 51.0 0 -0.03835400566458702
-0.6896038055419922 2.1350526809692383 0.03916320204734802 1.0 8 -0.03835169970989227
-1.007501244544983 3.1211488246917725 -0.7571852803230286 1.0 1 -0.038349397480487823
-1.3116514682769775 4.065799713134766 0.22389325499534607 1.0 9 -0.038347095251083374
-0.7191016674041748 2.2290399074554443 -0.45527029037475586 4.0 2 -0.038344789296388626
-2.106210231781006 6.532639503479004 0.6005030870437622 87.0 10 -0.03834248706698418
-0.746385395526886 2.316383123397827 -0.38545459508895874 1.0 3 -0.03834018111228943
-2.095615863800049 6.507556438446045 0.8394361138343811 86.0 11 -0.03833787888288498
-0.7425552010536194 2.307251214981079 -0.2976049780845642 2.0 4 -0.03833557292819023
-2.096402406692505 6.517806053161621 1.0844038724899292 83.0 12 -0.03833327069878578
-0.7729421854019165 2.4031107425689697 -0.22085265815258026 1.0 5 -0.038330964744091034
-2.0878171920776367 6.494992256164551 1.326122522354126 100.0 13 -0.038328662514686584
-0.726342499256134 2.2609336376190186 -0.12445490807294846 1.0 6 -0.03832635655999184
-2.0880002975463867 6.50336217880249 1.5769069194793701 100.0 14 -0.03832405433058739
-2.0806326866149902 6.488194465637207 1.825709581375122 46.0 15 -0.03831944614648819
-0.9855190515518188 3.0861799716949463 -0.8680790662765503 28.0 0 -0.03829871118068695
-0.7064663171768188 2.2136480808258057 0.04055939242243767 1.0 8 -0.0382964052259922
-1.2889580726623535 4.043712615966797 0.2224278301000595 1.0 9 -0.038291797041893005
-0.710719645023346 2.229665994644165 -0.4548886716365814 2.0 2 -0.038289494812488556
-2.0821831226348877 6.536155700683594 0.6001543998718262 87.0 10 -0.03828718885779381
-0.7574721574783325 2.3792073726654053 -0.3954663872718811 2.0 3 -0.03828488662838936
-2.0716817378997803 6.511048793792725 0.8389486074447632 86.0 11 -0.03828258067369461
-0.7224652171134949 2.271994113922119 -0.2927301824092865 2.0 4 -0.03828027844429016
-2.0736396312713623 6.525083541870117 1.0844038724899292 83.0 12 -0.03827797248959541
-2.0651309490203857 6.5022406578063965 1.326122522354126 100.0 13 -0.038273364305496216
-0.7184454202651978 2.263455629348755 -0.12445490807294846 1.0 6 -0.038271062076091766
-2.0635201930999756 6.505038261413574 1.5755572319030762 100.0 14 -0.03826875612139702
-0.7233652472496033 2.281717300415039 -0.04178106039762497 1.0 7 -0.03826645389199257
-2.0568063259124756 6.491734504699707 1.8246742486953735 46.0 15 -0.03826414793729782
-0.9846583008766174 3.1229350566864014 -0.8773965835571289 14.0 0 -0.03824341297149658
-0.7397055625915527 2.347473382949829 -0.5682263970375061 1.0 1 -0.038238804787397385
-1.2712364196777344 4.036756992340088 0.2217998206615448 1.0 9 -0.038236502557992935
-0.7043113708496094 2.2378740310668945 -0.45603352785110474 1.0 2 -0.03823419660329819
-2.0600075721740723 6.549444198608398 0.6006773710250854 90.0 10 -0.03823189437389374
-0.7463778853416443 2.374429702758789 -0.394214928150177 2.0 3 -0.03822958841919899
-2.048942804336548 6.518240451812744 0.8389486074447632 82.0 11 -0.03822728618979454
-0.7145305275917053 2.2745020389556885 -0.2927301824092865 2.0 4 -0.03822498023509979
-2.0455262660980225 6.515320301055908 1.0815880298614502 85.0 12 -0.03822267800569534
-0.755726158618927 2.4085803031921387 -0.22085265815258026 1.0 5 -0.038220372051000595
-2.042461633682251 6.51351261138916 1.3268858194351196 100.0 13 -0.038218069821596146
-0.7005889415740967 2.2355799674987793 -0.12278016656637192 1.0 6 -0.0382157638669014
-2.035585403442383 6.499540328979492 1.5724079608917236 100.0 14 -0.03821346163749695
-0.7153955698013306 2.284228563308716 -0.04178106039762497 1.0 7 -0.0382111594080925
-2.0352888107299805 6.502561569213867 1.825709581375122 46.0 15 -0.03820885345339775
-0.7137303352355957 2.2943453788757324 -0.5547293424606323 1.0 1 -0.038183510303497314
-1.2535771131515503 4.029727458953857 0.2211717814207077 1.0 9 -0.038181204348802567
-0.7023231983184814 2.259066343307495 -0.45984968543052673 1.0 2 -0.03817890211939812
-2.031219959259033 6.537569522857666 0.5989342331886292 93.0 10 -0.03817659616470337
-0.7310550212860107 2.354382276535034 -0.39046046137809753 2.0 3 -0.03817429393529892
-2.023860216140747 6.521914958953857 0.8384611010551453 88.0 11 -0.03817198798060417
-0.7238287329673767 2.333986282348633 -0.30004236102104187 1.0 4 -0.03816968575119972
-2.021599054336548 6.51864767074585 1.0809623003005981 88.0 12 -0.038167379796504974
-2.0208725929260254 6.524353504180908 1.3276489973068237 100.0 13 -0.038162775337696075
-0.7022300958633423 2.2685387134552 -0.12445490807294846 1.0 6 -0.03816046938300133
-2.0157666206359863 6.5159149169921875 1.5746575593948364 100.0 14 -0.03815816715359688
-0.677868664264679 2.1911933422088623 -0.04003582149744034 1.0 7 -0.03815586119890213
-2.0080113410949707 6.494861125946045 1.821568489074707 46.0 15 -0.03815355896949768
-0.5470249652862549 1.7781317234039307 -0.4984855055809021 4.0 0 -0.03813282027840614
-0.5686745047569275 1.8496533632278442 -0.4467528164386749 0.0 1 -0.038128212094306946
-1.2395039796829224 4.034078598022461 0.2211717814207077 1.0 9 -0.038125909864902496
-0.6886709332466125 2.242736339569092 -0.45603352785110474 1.0 2 -0.03812360391020775
-2.0066351890563965 6.538905143737793 0.5984113216400146 87.0 10 -0.0381213016808033
-0.7104945778846741 2.3152475357055664 -0.3835773468017578 1.0 3 -0.03811899572610855
-2.002222776412964 6.528590202331543 0.8384611010551453 84.0 11 -0.0381166934967041
-0.6951438784599304 2.268047332763672 -0.2912677526473999 1.0 4 -0.03811439126729965
-1.9976766109466553 6.521886348724365 1.080336570739746 85.0 12 -0.038112085312604904
-0.7015700340270996 2.2918689250946045 -0.2096967101097107 1.0 5 -0.038109783083200455
-1.994629979133606 6.516000270843506 1.3245961666107178 100.0 13 -0.03810747712850571
-0.7052208781242371 2.3052327632904053 -0.12633900344371796 1.0 6 -0.03810517489910126
-1.9907305240631104 6.511381149291992 1.571958065032959 100.0 14 -0.03810286894440651
-0.691251814365387 2.2623932361602783 -0.04129239544272423 1.0 7 -0.03810056671500206
-1.9819444417953491 6.490745544433594 1.8184627294540405 46.0 15 -0.03809826076030731
-0.5439345240592957 1.789177656173706 -0.5010737180709839 42.0 0 -0.03807752579450607
-0.5440964102745056 1.7919574975967407 -0.43235594034194946 21.0 1 -0.038072917610406876
-1.22425377368927 4.034558296203613 0.22096242010593414 1.0 9 -0.03807061165571213
-0.5438433289527893 1.7922489643096924 -0.3640635907649994 2.0 2 -0.03806830942630768
-1.9837852716445923 6.541710376739502 0.5980626940727234 83.0 10 -0.03806600719690323
-0.6611571907997131 2.1816000938415527 -0.3610507845878601 1.0 3 -0.03806370124220848
-1.9771183729171753 6.52794075012207 0.837486207485199 82.0 11 -0.03806139901280403
-0.6872231364250183 2.2704598903656006 -0.2912677526473999 1.0 4 -0.03805909305810928
-1.9760410785675049 6.532601833343506 1.0809623003005981 88.0 12 -0.038056790828704834
-1.968462586402893 6.511648654937744 1.3223063945770264 100.0 13 -0.03805218264460564
-0.6752212643623352 2.235027551651001 -0.12236147373914719 1.0 6 -0.03804987668991089
-1.9685509204864502 6.520156383514404 1.5724079608917236 100.0 14 -0.03804757446050644
-0.6625546813011169 2.1958723068237305 -0.04003582149744034 1.0 7 -0.03804526850581169
-1.961504340171814 6.5050225257873535 1.820533275604248 46.0 15 -0.03804296627640724
-0.5382416844367981 1.7929155826568604 -0.5015913248062134 51.0 0 -0.038022231310606
-0.5372787714004517 1.7919790744781494 -0.4319060444831848 56.0 1 -0.038017623126506805
-1.199845314025879 4.004369258880615 0.21907834708690643 1.0 9 -0.03801531717181206
-0.5342032313346863 1.7828524112701416 -0.36177387833595276 47.0 2 -0.03801301494240761
-1.960936427116394 6.548595905303955 0.5980626940727234 85.0 10 -0.03801070898771286
-0.5329113006591797 1.7808011770248413 -0.29440969228744507 11.0 3 -0.03800840675830841
-1.9520457983016968 6.527194023132324 0.8365112543106079 84.0 11 -0.03800610080361366
-0.540023684501648 1.8068642616271973 -0.23155176639556885 3.0 4 -0.03800379857420921
-1.952096700668335 6.53567361831665 1.080336570739746 85.0 12 -0.038001492619514465
-1.945721983909607 6.518479347229004 1.3223063945770264 100.0 13 -0.03799688443541527
-0.6559963226318359 2.1990928649902344 -0.12026803940534592 1.0 6 -0.03799458220601082
-1.9429972171783447 6.517650604248047 1.5701584815979004 100.0 14 -0.03799227625131607
-0.6320478320121765 2.1215133666992188 -0.038639627397060394 1.0 7 -0.03798997402191162
-1.9387872219085693 6.511829376220703 1.820533275604248 46.0 15 -0.03798766806721687
-0.5330783128738403 1.7984877824783325 -0.5026265978813171 64.0 0 -0.037966933101415634
-0.5321269631385803 1.7975807189941406 -0.4328058660030365 56.0 1 -0.03796232491731644
-1.1922296285629272 4.027476787567139 0.22012506425380707 1.0 9 -0.03796002268791199
-0.5279770493507385 1.7847062349319458 -0.36177387833595276 62.0 2 -0.03795771673321724
-1.9403234720230103 6.563043594360352 0.5987599492073059 87.0 10 -0.03795541450381279
-0.5272519588470459 1.784544825553894 -0.2947225570678711 71.0 3 -0.03795310854911804
-1.9292510747909546 6.533967971801758 0.8365112543106079 86.0 11 -0.03795080631971359
-0.529218316078186 1.7935069799423218 -0.22960186004638672 71.0 4 -0.037948500365018845
-1.9281747341156006 6.534533500671387 1.079085111618042 88.0 12 -0.037946198135614395
-0.5302869081497192 1.7982813119888306 -0.1640271097421646 8.0 5 -0.03794389218091965
-1.921844720840454 6.52146577835083 1.3215430974960327 100.0 13 -0.0379415899515152
-0.5247461795806885 1.7817872762680054 -0.09734489023685455 2.0 6 -0.03793928399682045
-1.9191354513168335 6.52065372467041 1.569258689880371 100.0 14 -0.037936981767416
-0.6272680163383484 2.1312708854675293 -0.03877924755215645 1.0 7 -0.03793467581272125
-1.9171806573867798 6.518223285675049 1.820533275604248 46.0 15 -0.0379323735833168
-0.5240839719772339 1.7910672426223755 -0.5000383853912354 78.0 0 -0.037911638617515564
-0.5261625647544861 1.7993355989456177 -0.4328058660030365 75.0 1 -0.03790703043341637
-0.5211932063102722 1.7846537828445435 -0.3613922595977783 70.0 2 -0.03790242224931717
-1.9129379987716675 6.554474830627441 0.5973654389381409 87.0 10 -0.03790011629462242
-0.5240979790687561 1.7957649230957031 -0.2962869107723236 80.0 3 -0.03789781406521797
-1.9075713157653809 6.540330410003662 0.8365112543106079 88.0 11 -0.037895508110523224
-0.5193799138069153 1.7819116115570068 -0.22789569199085236 87.0 4 -0.037893205881118774
-1.9031449556350708 6.533637523651123 1.077833652496338 88.0 12 -0.037890899926424026
-0.5184374451637268 1.780991554260254 -0.1622839868068695 90.0 5 -0.03788859769701958
-1.9013069868087769 6.5315728187561035 1.3223063945770264 100.0 13 -0.03788629174232483
-0.5188350677490234 1.7835174798965454 -0.09734489023685455 41.0 6 -0.03788398951292038
-1.8958677053451538 6.521368503570557 1.5679088830947876 100.0 14 -0.03788168728351593
-0.5166130065917969 1.7781931161880493 -0.032321859151124954 8.0 7 -0.03787938132882118
-1.8901082277297974 6.510033130645752 1.8163920640945435 46.0 15 -0.03787707909941673
-0.517069399356842 1.7890833616256714 -0.499003142118454 78.0 0 -0.037856340408325195
-0.5138194561004639 1.77900230884552 0.032321859151124954 8.0 8 -0.037854038178920746
-0.5193384289741516 1.7992887496948242 -0.43235594034194946 84.0 1 -0.037851732224226
-0.5175549983978271 1.7942850589752197 0.09786824882030487 1.0 9 -0.03784942999482155
-0.5141843557357788 1.7825995683670044 -0.36062902212142944 87.0 2 -0.0378471240401268
-1.8889859914779663 6.553123950958252 0.5966681838035583 83.0 10 -0.03784482181072235
-0.5183736085891724 1.7994816303253174 -0.29659977555274963 92.0 3 -0.0378425158560276
-1.8858293294906616 6.5507636070251465 0.8369987607002258 86.0 11 -0.037840213626623154
-0.5137059092521667 1.785621166229248 -0.22813943028450012 89.0 4 -0.037837907671928406
-1.8803279399871826 6.540240287780762 1.077833652496338 85.0 12 -0.037835605442523956
-0.5133172869682312 1.7866202592849731 -0.16263261437416077 96.0 5 -0.03783330321311951
-1.8752412796020508 6.526848316192627 1.320016622543335 100.0 13 -0.03783099725842476
-0.5164649486541748 1.798755407333374 -0.09807758778333664 78.0 6 -0.03782869502902031
-1.8741686344146729 6.5316925048828125 1.5688087940216064 100.0 14 -0.03782638907432556
-0.504890501499176 1.7607635259628296 -0.03197281062602997 69.0 7 -0.03782408684492111
-1.8641810417175293 6.505448818206787 1.813286304473877 47.0 15 -0.037821780890226364
-0.510508120059967 1.7909667491912842 -0.499003142118454 81.0 0 -0.037801045924425125
-0.5048651099205017 1.7711697816848755 0.03214733302593231 96.0 8 -0.03779873996973038
-0.5114524960517883 1.7954683303833008 -0.4310062527656555 88.0 1 -0.03779643774032593
-0.5080071091651917 1.784555196762085 0.09724021703004837 64.0 9 -0.03779413178563118
-0.5076468586921692 1.7844722270965576 -0.36062902212142944 87.0 2 -0.03779182955622673
-1.8638637065887451 6.556171417236328 0.5963196158409119 85.0 10 -0.03778952732682228
-0.5052960515022278 1.7785675525665283 -0.29284536838531494 97.0 3 -0.03778722137212753
-1.8564395904541016 6.534392833709717 0.8340738415718079 86.0 11 -0.037784919142723083
-0.5107223391532898 1.7988612651824951 -0.22960186004638672 84.0 4 -0.037782613188028336
-1.8553284406661987 6.539163589477539 1.0765821933746338 88.0 12 -0.037780310958623886
-0.5081651210784912 1.7922348976135254 -0.16298124194145203 99.0 5 -0.03777800500392914
-1.8502377271652222 6.529899597167969 1.3192534446716309 100.0 13 -0.03777570277452469
-0.5109565854072571 1.8044798374176025 -0.0982869416475296 100.0 6 -0.03777339681982994
-1.8496840000152588 6.5366435050964355 1.5683587789535522 100.0 14 -0.03777109459042549
-0.5030973553657532 1.7779080867767334 -0.03225204721093178 100.0 7 -0.03776878863573074
-1.8414597511291504 6.5119171142578125 1.813286304473877 46.0 15 -0.037766486406326294
-0.5042537450790405 1.792737603187561 -0.499003142118454 78.0 0 -0.037745747715234756
-0.4994526505470276 1.7768583297729492 0.03221714124083519 100.0 8 -0.03774344548583031
-0.5006527304649353 1.7823216915130615 -0.42740702629089355 83.0 1 -0.03774114325642586
-0.5023152828216553 1.7882404327392578 0.09734489023685455 100.0 9 -0.03773883730173111
-0.5024763941764832 1.7900136709213257 -0.3613922595977783 87.0 2 -0.03773653507232666
-1.8409682512283325 6.5626373291015625 0.5963196158409119 87.0 10 -0.03773422911763191
-0.5033506751060486 1.795536756515503 -0.29534831643104553 100.0 3 -0.03773192688822746
-1.8308722972869873 6.5354180335998535 0.8333426117897034 88.0 11 -0.037729620933532715
-0.4977041780948639 1.7777819633483887 -0.22667700052261353 82.0 4 -0.037727318704128265
-1.8335577249526978 6.549404144287109 1.0772078037261963 85.0 12 -0.03772501274943352
-0.4986855089664459 1.7824853658676147 -0.16193535923957825 89.0 5 -0.03772271052002907
-1.8242624998092651 6.5249738693237305 1.316963791847229 100.0 13 -0.03772040456533432
-0.4992806017398834 1.7870163917541504 -0.09724021703004837 100.0 6 -0.03771810233592987
-1.822664499282837 6.5280442237854 1.564759612083435 100.0 14 -0.03771579638123512
-0.5044171810150146 1.8066176176071167 -0.03274071589112282 100.0 7 -0.03771349415183067
-1.819757342338562 6.5220255851745605 1.814321517944336 46.0 15 -0.037711188197135925
-0.5000596046447754 1.8019328117370605 -0.5010737180709839 78.0 0 -0.037690453231334686
-0.4898149073123932 1.7650166749954224 0.03197281062602997 100.0 8 -0.03768815100193024
-0.4957805871963501 1.787727952003479 -0.42830681800842285 87.0 1 -0.03768584504723549
-0.4955361783504486 1.7880582809448242 0.09724021703004837 100.0 9 -0.03768354281783104
-0.49412938952445984 1.7841886281967163 -0.35986578464508057 90.0 2 -0.03768123686313629
-1.8185789585113525 6.570944309234619 0.5964938998222351 90.0 10 -0.03767893463373184
-0.4947587251663208 1.7876771688461304 -0.293783962726593 100.0 3 -0.037676628679037094
-1.8113048076629639 6.549107551574707 0.8343175649642944 90.0 11 -0.037674326449632645
-0.4918064475059509 1.7794225215911865 -0.22667700052261353 89.0 4 -0.0376720204949379
-1.808579444885254 6.548148155212402 1.0759563446044922 88.0 12 -0.03766971826553345
-0.4935201406478882 1.7880566120147705 -0.1622839868068695 93.0 5 -0.0376674123108387
-1.8036575317382812 6.5347723960876465 1.317726969718933 100.0 13 -0.03766511008143425
-0.492289274930954 1.7848116159439087 -0.097030870616436 87.0 6 -0.0376628041267395
-1.7994513511657715 6.528416633605957 1.5634099245071411 100.0 14 -0.03766050189733505
-0.4943901598453522 1.7948724031448364 -0.0324963815510273 100.0 7 -0.037658195942640305
-1.7969783544540405 6.52833890914917 1.814321517944336 47.0 15 -0.037655893713235855
-0.4920392632484436 1.7961283922195435 -0.499003142118454 81.0 0 -0.037635158747434616
-0.4862903952598572 1.7763594388961792 0.03214733302593231 100.0 8 -0.03763285279273987
-0.4885091781616211 1.7856882810592651 -0.42740702629089355 89.0 1 -0.03763055056333542
-0.48929205536842346 1.7897770404815674 0.09724021703004837 100.0 9 -0.03762824460864067
-0.48820960521698 1.7858175039291382 -0.35986578464508057 90.0 2 -0.03762594237923622
-1.7941547632217407 6.567328453063965 0.5956223011016846 87.0 10 -0.03762363642454147
-0.4931981861591339 1.8065438270568848 -0.29659977555274963 100.0 3 -0.037621334195137024
-1.788434624671936 6.555389404296875 0.8343175649642944 88.0 11 -0.037619028240442276
-0.4887244999408722 1.7926197052001953 -0.22813943028450012 82.0 4 -0.03761672601103783
-1.7836356163024902 6.546797752380371 1.074704885482788 85.0 12 -0.03761442005634308
-0.4854934811592102 1.7819938659667969 -0.16158674657344818 89.0 5 -0.03761211782693863
-1.7839319705963135 6.552393913269043 1.320016622543335 100.0 13 -0.03760981187224388
-0.48658081889152527 1.7884461879730225 -0.09713554382324219 75.0 6 -0.03760750964283943
-1.7771646976470947 6.536538124084473 1.5638598203659058 100.0 14 -0.037605203688144684
-0.47973352670669556 1.7657111883163452 -0.03193790465593338 100.0 7 -0.037602901458740234
-1.7691186666488647 6.515927791595459 1.809145212173462 63.0 15 -0.037600599229335785
-0.4827435314655304 1.7866451740264893 -0.4958973228931427 81.0 0 -0.03757986053824425
-0.4774799644947052 1.7683935165405273 0.03197281062602997 100.0 8 -0.0375775583088398
-0.4843040406703949 1.7949082851409912 -0.42920663952827454 87.0 1 -0.03757525235414505
-0.48252198100090027 1.7895455360412598 0.09713554382324219 100.0 9 -0.0375729501247406
-0.48095113039016724 1.783719539642334 -0.3591025471687317 87.0 2 -0.03757064417004585
-1.7691444158554077 6.565856456756592 0.5949251055717468 87.0 10 -0.0375683419406414
-0.48329436779022217 1.7949023246765137 -0.29440969228744507 100.0 3 -0.037566035985946655
-1.7639950513839722 6.555841445922852 0.8335863351821899 88.0 11 -0.037563733756542206
-0.4809172749519348 1.7885637283325195 -0.22740821540355682 85.0 4 -0.03756142780184746
-1.7607734203338623 6.552983283996582 1.074704885482788 88.0 12 -0.03755912557244301
-0.4782365560531616 1.7798293828964233 -0.16123811900615692 89.0 5 -0.03755681961774826
-1.7579922676086426 6.547204971313477 1.317726969718933 100.0 13 -0.03755451738834381
-0.4834401607513428 1.8017081022262573 -0.09776357561349869 29.0 6 -0.03755221515893936
-1.7533291578292847 6.538937568664551 1.5629600286483765 100.0 14 -0.037549909204244614
-0.4740842282772064 1.7693068981170654 -0.03197281062602997 81.0 7 -0.037547606974840164
-1.7433632612228394 6.510867118835449 1.8060393333435059 63.0 15 -0.037545301020145416
-0.4784931242465973 1.7957862615585327 -0.4979678690433502 81.0 0 -0.03752456605434418
-0.4738771915435791 1.779711127281189 0.03214733302593231 100.0 8 -0.03752226009964943
-0.4750286638736725 1.785288691520691 -0.42650723457336426 83.0 1 -0.03751995787024498
-0.478324830532074 1.7989399433135986 0.09755422919988632 74.0 9 -0.03751765191555023
-0.4757303297519684 1.7891823053359985 -0.35986578464508057 90.0 2 -0.03751534968614578
-1.7451927661895752 6.568140983581543 0.5945764780044556 87.0 10 -0.037513043731451035
-0.4739839732646942 1.7851231098175049 -0.2925325036048889 100.0 3 -0.037510741502046585
-1.7385530471801758 6.552366256713867 0.8323677182197571 92.0 11 -0.037508439272642136
-0.4772152006626129 1.7998253107070923 -0.22862690687179565 82.0 4 -0.03750613331794739
-1.7388988733291626 6.5629096031188965 1.0753307342529297 88.0 12 -0.03750383108854294
-0.4709998369216919 1.7776360511779785 -0.16088949143886566 93.0 5 -0.03750152513384819
-1.7301040887832642 6.534322738647461 1.313910722732544 100.0 13 -0.03749922290444374
-0.4786810874938965 1.809177041053772 -0.09807758778333664 36.0 6 -0.03749691694974899
-1.73148775100708 6.548786163330078 1.5638598203659058 100.0 14 -0.03749461472034454
-1.7216132879257202 6.52064847946167 1.8070746660232544 63.0 15 -0.037490006536245346
-0.4732038676738739 1.8011823892593384 -0.499003142118454 81.0 0 -0.03746926784515381
-0.4687943458557129 1.7869359254837036 -0.42650723457336426 85.0 1 -0.03746466338634491
-0.47052332758903503 1.7948026657104492 0.09724021703004837 35.0 9 -0.03746235743165016
-0.4704781174659729 1.7946301698684692 -0.36062902212142944 90.0 2 -0.03746005520224571
-1.7237712144851685 6.57997465133667 0.5950994491577148 90.0 10 -0.037457749247550964
-0.4692501127719879 1.7924997806549072 -0.293471097946167 100.0 3 -0.037455447018146515
-1.7136622667312622 6.550712585449219 0.831392765045166 88.0 11 -0.03745314106345177
-0.46691370010375977 1.7861157655715942 -0.22667700052261353 89.0 4 -0.03745083883404732
-1.715977668762207 6.568940162658691 1.0753307342529297 88.0 12 -0.03744853287935257
-0.466805636882782 1.7869802713394165 -0.16158674657344818 89.0 5 -0.03744623064994812
-1.7082746028900146 6.544122219085693 1.3146740198135376 100.0 13 -0.03744392469525337
-0.4678262174129486 1.7934433221817017 -0.09713554382324219 34.0 6 -0.03744162246584892
-1.7051750421524048 6.541590213775635 1.5607105493545532 100.0 14 -0.037439316511154175
-0.4687774181365967 1.799665093421936 -0.03246147558093071 11.0 7 -0.037437014281749725
-1.6988428831100464 6.526618003845215 1.8070746660232544 63.0 15 -0.03743470832705498
-0.4678819179534912 1.8065636157989502 -0.5000383853912354 78.0 0 -0.03741397336125374
-0.4634450376033783 1.790719747543335 0.032286953181028366 12.0 8 -0.03741167113184929
-0.4625534117221832 1.7885615825653076 -0.42650723457336426 85.0 1 -0.03740936517715454
-0.4607568085193634 1.7828980684280396 0.09650751203298569 26.0 9 -0.03740706294775009
-0.46224546432495117 1.7886582612991333 -0.3591025471687317 90.0 2 -0.037404756993055344
-1.699295997619629 6.580164432525635 0.5945764780044556 85.0 10 -0.037402454763650894
-0.46545863151550293 1.8036903142929077 -0.2950354218482971 100.0 3 -0.037400148808956146
-1.6907837390899658 6.556654930114746 0.831392765045166 92.0 11 -0.0373978465795517
-0.46166637539863586 1.7915794849395752 -0.22716447710990906 84.0 4 -0.03739554062485695
-1.6856496334075928 6.546194553375244 1.070637583732605 85.0 12 -0.0373932383954525
-0.46155911684036255 1.7924576997756958 -0.16193535923957825 96.0 5 -0.03739093244075775
-1.6864008903503418 6.553847789764404 1.3154373168945312 100.0 13 -0.0373886302113533
-0.4625574052333832 1.7989344596862793 -0.09734489023685455 36.0 6 -0.037386324256658554
-1.6813617944717407 6.543727874755859 1.559810757637024 100.0 14 -0.037384022027254105
-0.460006445646286 1.7916061878204346 -0.032286953181028366 13.0 7 -0.03738171607255936
-1.677968978881836 6.5399932861328125 1.809145212173462 63.0 15 -0.03737941384315491
-0.45870643854141235 1.796954870223999 -0.49693259596824646 81.0 0 -0.03735867887735367
-0.4566974937915802 1.790388584136963 0.03225204721093178 12.0 8 -0.03735637292265892
-0.4582330882549286 1.7977185249328613 -0.42830681800842285 89.0 1 -0.03735407069325447
-0.4550238847732544 1.786430835723877 0.09661218523979187 30.0 9 -0.03735176473855972
-0.4555148780345917 1.788358449935913 -0.35872092843055725 93.0 2 -0.03734946250915527
-1.6753350496292114 6.5821943283081055 0.5942278504371643 85.0 10 -0.037347156554460526
-0.45769935846328735 1.799560785293579 -0.29409682750701904 97.0 3 -0.037344854325056076
-1.667887806892395 6.562516689300537 0.831392765045166 88.0 11 -0.03734254837036133
-0.4549206793308258 1.791256070137024 -0.2269207388162613 85.0 4 -0.03734024614095688
-1.6661916971206665 6.565441131591797 1.072827696800232 88.0 12 -0.03733794018626213
-0.45333945751190186 1.7863332033157349 -0.16123811900615692 93.0 5 -0.03733563795685768
-1.6644798517227173 6.563499927520752 1.3162004947662354 100.0 13 -0.03733333200216293
-0.4567652642726898 1.8024742603302002 -0.09744956344366074 22.0 6 -0.037331029772758484
-1.6585110425949097 6.549556732177734 1.559810757637024 100.0 14 -0.037328723818063736
-0.4522784948348999 1.7873849868774414 -0.0321822389960289 12.0 7 -0.037326421588659286
-1.6513397693634033 6.530828475952148 1.8050041198730469 63.0 15 -0.03732411563396454
