# .PCD v0.7 - Point Cloud Data file format
VERSION 0.7
FIELDS x y z intensity ring time
SIZE 4 4 4 4 4 4
TYPE F F F F F F
COUNT 1 1 1 1 1 1
WIDTH 544
HEIGHT 1
VIEWPOINT 0 0 0 1 0 0 0
POINTS 544
DATA ascii
-3.109865665435791 1.701190710067749 0.8183720111846924 70.0 14 -0.023834334686398506
-1.994517207145691 1.0915136337280273 -0.03968677297234535 11.0 7 -0.023832030594348907
-3.095881462097168 1.694945216178894 0.9457248449325562 76.0 15 -0.02382972650229931
-2.750051975250244 1.5099787712097168 -0.8406442999839783 12.0 0 -0.02380898967385292
-1.9875420331954956 1.0917574167251587 0.039582058787345886 7.0 8 -0.023806685581803322
-2.7206177711486816 1.4950535297393799 -0.7166941165924072 27.0 1 -0.023804381489753723
-2.1002540588378906 1.1546238660812378 0.12560631334781647 40.0 9 -0.023802079260349274
-2.0490121841430664 1.1264533996582031 -0.45450708270072937 8.0 2 -0.023799775168299675
-3.1511268615722656 1.7330631017684937 0.31463223695755005 30.0 10 -0.023797471076250076
-2.066460371017456 1.136985182762146 -0.37356552481651306 6.0 3 -0.023795166984200478
-3.142460823059082 1.729725956916809 0.44043582677841187 66.0 11 -0.02379286289215088
-3.105717897415161 1.710913062095642 0.5615997910499573 62.0 12 -0.02378825470805168
-2.02781343460083 1.1171047687530518 -0.20254994928836823 8.0 5 -0.023785950616002083
-3.1087143421173096 1.7132718563079834 0.6899653673171997 66.0 13 -0.023783646523952484
-1.9956483840942383 1.1002941131591797 -0.11943066120147705 12.0 6 -0.023781342431902885
-3.1056149005889893 1.712976336479187 0.8188218474388123 67.0 14 -0.023779038339853287
-1.9766885042190552 1.090740442276001 -0.03940753638744354 9.0 7 -0.023776734247803688
-3.1000936031341553 1.7113432884216309 0.9488306641578674 76.0 15 -0.02377443015575409
-2.738003730773926 1.515826940536499 -0.8385737538337708 11.0 0 -0.02375369518995285
-1.9942152500152588 1.1045013666152954 0.03979148715734482 7.0 8 -0.02375139109790325
-2.7119734287261963 1.5026522874832153 -0.7157943248748779 36.0 1 -0.023749087005853653
-2.108438491821289 1.1687266826629639 0.12633900344371796 25.0 9 -0.023746782913804054
-2.053652763366699 1.138358473777771 -0.4564151465892792 18.0 2 -0.023744478821754456
-3.1450586318969727 1.7440513372421265 0.31463223695755005 31.0 10 -0.023742174729704857
-2.0797526836395264 1.1537744998931885 -0.3766942620277405 6.0 3 -0.023739870637655258
-3.1572325229644775 1.7522443532943726 0.44336071610450745 66.0 11 -0.02373756654560566
-3.103180408477783 1.7236618995666504 0.5622255206108093 62.0 12 -0.023732958361506462
-2.0256435871124268 1.1251438856124878 -0.20272426307201385 8.0 5 -0.023730654269456863
-3.118159532546997 1.73269522190094 0.6933999061584473 63.0 13 -0.023728350177407265
-1.9987787008285522 1.1111350059509277 -0.11984935402870178 11.0 6 -0.023726046085357666
-3.1115379333496094 1.7304373979568481 0.8219712376594543 66.0 14 -0.023723741993308067
-1.9798587560653687 1.10152268409729 -0.0395471528172493 8.0 7 -0.02372143790125847
-3.0924134254455566 1.7212142944335938 0.9483130574226379 72.0 15 -0.02371913380920887
-2.7293221950531006 1.523491382598877 -0.8375384211540222 10.0 0 -0.02369839884340763
-1.9938393831253052 1.113405704498291 0.039861299097537994 6.0 8 -0.023696094751358032
-2.6965036392211914 1.5064078569412231 -0.7130948901176453 40.0 1 -0.023693790659308434
-2.1270108222961426 1.1887458562850952 0.12769974768161774 19.0 9 -0.023691486567258835
-2.0685181617736816 1.1560553312301636 -0.4606129229068756 40.0 2 -0.023689182475209236
-3.14764666557312 1.7598806619644165 0.3155037760734558 30.0 10 -0.023686878383159637
-2.082608461380005 1.1648849248886108 -0.3779457211494446 6.0 3 -0.02368457429111004
-3.1632232666015625 1.7700393199920654 0.4450668692588806 63.0 11 -0.02368227019906044
-3.1092090606689453 1.7412409782409668 0.5644156336784363 63.0 12 -0.023677662014961243
-2.0251801013946533 1.1341553926467896 -0.20307287573814392 3.0 5 -0.023675357922911644
-3.1086673736572266 1.7416493892669678 0.6926366686820984 63.0 13 -0.023673053830862045
-2.0070836544036865 1.1249408721923828 -0.12058205902576447 11.0 6 -0.023670749738812447
-3.1173768043518066 1.747959852218628 0.8251205086708069 73.0 14 -0.023668445646762848
-1.9812339544296265 1.1113613843917847 -0.039651867002248764 7.0 7 -0.02366614155471325
-3.0897557735443115 1.7338892221450806 0.9493483304977417 72.0 15 -0.02366383746266365
-2.7172532081604004 1.529219388961792 -0.8354679346084595 11.0 0 -0.02364310249686241
-1.9951682090759277 1.1233019828796387 0.03996601328253746 4.0 8 -0.023640798404812813
-2.6725521087646484 1.5052908658981323 -0.7081459760665894 43.0 1 -0.023638494312763214
-2.133288860321045 1.2020461559295654 0.12832777202129364 8.0 9 -0.023636190220713615
-2.0713119506835938 1.1671241521835327 -0.46213942766189575 55.0 2 -0.023633886128664017
-3.151898145675659 1.776727557182312 0.3165496587753296 30.0 10 -0.023631582036614418
-2.0802502632141113 1.1731172800064087 -0.3782585859298706 4.0 3 -0.02362927794456482
-3.1535675525665283 1.779119610786438 0.44457942247390747 64.0 11 -0.02362697385251522
-3.1134331226348877 1.757910132408142 0.5662928223609924 63.0 12 -0.023622365668416023
-2.031618595123291 1.1470947265625 -0.2041187435388565 3.0 5 -0.023620061576366425
-3.1094064712524414 1.756352424621582 0.6941632032394409 60.0 13 -0.023617757484316826
-2.0031442642211914 1.131940484046936 -0.12058205902576447 11.0 6 -0.023615455254912376
-3.119738817214966 1.7636252641677856 0.8273700475692749 72.0 14 -0.023613151162862778
-1.9930081367492676 1.1271300315856934 -0.03996601328253746 6.0 7 -0.02361084707081318
-3.0937724113464355 1.7503724098205566 0.9524540901184082 70.0 15 -0.02360854297876358
-2.6782941818237305 1.5196282863616943 -0.8251151442527771 22.0 0 -0.023587806150317192
-1.9981911182403564 1.134208083152771 0.040105629712343216 4.0 8 -0.023585502058267593
-2.657113790512085 1.508837103843689 -0.7054465413093567 41.0 1 -0.023583197966217995
-2.611856460571289 1.4837408065795898 0.15742656588554382 2.0 9 -0.023580893874168396
-2.0860025882720947 1.185014247894287 -0.4663371741771698 80.0 2 -0.023578589782118797
-3.1560699939727783 1.7936257123947144 0.31759554147720337 28.0 10 -0.0235762856900692
-2.0933151245117188 1.190134882926941 -0.38138729333877563 4.0 3 -0.0235739815980196
-3.1473379135131836 1.7901169061660767 0.44457942247390747 61.0 11 -0.02357167750597
-3.1244451999664307 1.7785396575927734 0.5694215297698975 65.0 12 -0.023567071184515953
-3.1100807189941406 1.7710816860198975 0.6956896185874939 61.0 13 -0.023562463000416756
-2.0078582763671875 1.1438688039779663 -0.12110541760921478 9.0 6 -0.023560158908367157
-3.120335817337036 1.7783641815185547 0.8291696310043335 76.0 14 -0.02355785481631756
-1.9977471828460693 1.1390329599380493 -0.040140535682439804 4.0 7 -0.02355555072426796
-3.1027462482452393 1.7697755098342896 0.9571128487586975 74.0 15 -0.02355324663221836
-2.6511740684509277 1.5164978504180908 -0.8183858394622803 33.0 0 -0.023532509803771973
-2.0046334266662598 1.1471352577209473 0.040315061807632446 3.0 8 -0.023530205711722374
-2.638300895690918 1.5103576183319092 -0.7018473148345947 43.0 1 -0.023527901619672775
-2.6187937259674072 1.4997963905334473 0.1581592708826065 2.0 9 -0.023525597527623177
-2.0614099502563477 1.1805799007415771 -0.4617577791213989 75.0 2 -0.023523293435573578
-3.17053484916687 1.8165172338485718 0.31968727707862854 31.0 10 -0.02352099120616913
-2.099430799484253 1.2033284902572632 -0.3832644820213318 4.0 3 -0.02351868711411953
-3.1582908630371094 1.8109666109085083 0.44701680541038513 66.0 11 -0.02351638302206993
-3.118217945098877 1.7894351482391357 0.5694215297698975 65.0 12 -0.023511774837970734
-3.114095449447632 1.7877919673919678 0.6979793310165405 66.0 13 -0.023507166653871536
-2.0194404125213623 1.1598228216171265 -0.12204745411872864 8.0 6 -0.023504862561821938
-3.1174886226654053 1.791187047958374 0.8300694227218628 76.0 14 -0.02350255846977234
-1.997226357460022 1.147992491722107 -0.04021034389734268 3.0 7 -0.02350025437772274
-3.106598377227783 1.7863727807998657 0.9602187275886536 76.0 15 -0.02349795028567314
-2.6308016777038574 1.5170581340789795 -0.813727080821991 34.0 0 -0.023477213457226753
-2.0179386138916016 1.1641184091567993 0.040664106607437134 3.0 8 -0.023474911227822304
-2.6228859424591064 1.513712763786316 -0.6991478800773621 43.0 1 -0.023472607135772705
-2.606623411178589 1.5049346685409546 0.15774059295654297 2.0 9 -0.023470303043723106
-2.064077138900757 1.1916953325271606 -0.46328428387641907 71.0 2 -0.023467998951673508
-3.155548095703125 1.8225908279418945 0.3188157081604004 25.0 10 -0.02346569485962391
-2.079824686050415 1.2017546892166138 -0.38044866919517517 3.0 3 -0.02346339076757431
-3.1588244438171387 1.8259539604187012 0.4479917287826538 66.0 11 -0.02346108667552471
-3.1136629581451416 1.801297664642334 0.5697343945503235 67.0 12 -0.023456478491425514
-3.1180307865142822 1.8045517206192017 0.7002690434455872 64.0 13 -0.023451870307326317
-2.0274789333343506 1.173870325088501 -0.12278016656637192 7.0 6 -0.023449566215276718
-3.117961883544922 1.8059660196304321 0.8318690657615662 72.0 14 -0.02344726212322712
-1.9914768934249878 1.1539541482925415 -0.040175437927246094 2.0 7 -0.02344495803117752
-3.100343942642212 1.797205924987793 0.9602187275886536 74.0 15 -0.023442653939127922
-2.615469455718994 1.5204068422317505 -0.8106213212013245 38.0 0 -0.023421918973326683
-1.9879333972930908 1.1560754776000977 0.040140535682439804 1.0 8 -0.023419614881277084
-2.6074793338775635 1.5169801712036133 -0.6964485049247742 43.0 1 -0.023417310789227486
-2.6030802726745605 1.515028953552246 0.15784525871276855 2.0 9 -0.023415006697177887
-2.071782112121582 1.205806016921997 -0.46595558524131775 68.0 2 -0.02341270260512829
-3.1543328762054443 1.8366016149520874 0.3193386495113373 26.0 10 -0.02341039851307869
-2.056840419769287 1.198071002960205 -0.3770070970058441 3.0 3 -0.02340809442102909
-3.1644372940063477 1.8439652919769287 0.44969791173934937 63.0 11 -0.023405790328979492
-3.1141812801361084 1.8161365985870361 0.5709858536720276 63.0 12 -0.023401182144880295
-3.1184959411621094 1.8193821907043457 0.7017955183982849 61.0 13 -0.023396573960781097
-2.030268907546997 1.1849669218063354 -0.12319885194301605 1.0 6 -0.0233942698687315
-3.1251022815704346 1.8246989250183105 0.8354682922363281 72.0 14 -0.0233919657766819
-1.9822564125061035 1.1578727960586548 -0.04007072374224663 1.0 7 -0.0233896616846323
-3.1007232666015625 1.8119161128997803 0.9622892737388611 78.0 15 -0.023387357592582703
-2.6001460552215576 1.5236663818359375 -0.8075154423713684 38.0 0 -0.023366622626781464
-1.9942362308502197 1.1690753698349 0.040349964052438736 1.0 8 -0.023364318534731865
-2.585358142852783 1.516214370727539 -0.6919494867324829 43.0 1 -0.023362014442682266
-2.5739223957061768 1.509507656097412 0.1563798487186432 2.0 9 -0.023359710350632668
-2.077720880508423 1.2189911603927612 -0.46824532747268677 68.0 2 -0.02335740625858307
-3.158212184906006 1.8536522388458252 0.32038450241088867 24.0 10 -0.02335510216653347
-2.086714506149292 1.2252475023269653 -0.3832644820213318 2.0 3 -0.02335279807448387
-3.163116931915283 1.858015537261963 0.45042911171913147 60.0 11 -0.023350493982434273
-2.065953493118286 1.2135415077209473 -0.2941926121711731 3.0 4 -0.023348189890384674
-3.133687734603882 1.8414655923843384 0.5756788849830627 71.0 12 -0.023345885798335075
-2.0284652709960938 1.192474126815796 -0.2058618664741516 1.0 5 -0.023343581706285477
-3.115510940551758 1.8322465419769287 0.7025587558746338 59.0 13 -0.023341277614235878
-2.298105239868164 1.3520671129226685 -0.13973701000213623 1.0 6 -0.02333897352218628
-3.130791187286377 1.8419694900512695 0.8386175632476807 73.0 14 -0.02333667129278183
-2.2558653354644775 1.3277456760406494 -0.045690398663282394 2.0 7 -0.02333436720073223
-3.1046860218048096 1.828069806098938 0.9653950929641724 80.0 15 -0.023332063108682632
-2.5884251594543457 1.5283517837524414 -0.8054448962211609 36.0 0 -0.023311326280236244
-1.9490265846252441 1.1512737274169922 0.03951225057244301 1.0 8 -0.023309022188186646
-2.561861038208008 1.5138740539550781 -0.687000572681427 40.0 1 -0.023306718096137047
-2.537951707839966 1.4997453689575195 0.15449576079845428 3.0 9 -0.023304414004087448
-2.0804271697998047 1.2298706769943237 -0.46977177262306213 66.0 2 -0.02330210991203785
-3.167482376098633 1.8732430934906006 0.32195332646369934 23.0 10 -0.02329980581998825
-2.3223562240600586 1.373984932899475 -0.4273790121078491 2.0 3 -0.023297501727938652
-3.1501049995422363 1.8644503355026245 0.4494541883468628 60.0 11 -0.023295197635889053
-2.027751922607422 1.2001640796661377 -0.2893178462982178 3.0 4 -0.023292893543839455
-3.1258647441864014 1.8508403301239014 0.5753660202026367 62.0 12 -0.023290589451789856
-2.027928113937378 1.2012251615524292 -0.20621049404144287 2.0 5 -0.023288287222385406
-3.11617374420166 1.8465713262557983 0.7040852308273315 63.0 13 -0.023285983130335808
-2.1596009731292725 1.2802380323410034 -0.13157260417938232 1.0 6 -0.02328367903828621
-3.1229898929595947 1.8513469696044922 0.838167667388916 72.0 14 -0.02328137494623661
-2.385608196258545 1.4147814512252808 -0.048412974923849106 2.0 7 -0.02327907085418701
-3.105252265930176 1.8422980308532715 0.9674656391143799 82.0 15 -0.023276766762137413
-2.5634195804595947 1.5250740051269531 -0.7992331981658936 16.0 0 -0.023256029933691025
-1.9864387512207031 1.1822760105133057 0.040349964052438736 1.0 8 -0.023253725841641426
-2.5568273067474365 1.5223605632781982 -0.687000572681427 14.0 1 -0.023251421749591827
-2.513826608657837 1.497351884841919 0.15334436297416687 15.0 9 -0.02324911765754223
-2.074650526046753 1.2357581853866577 -0.4693901240825653 64.0 2 -0.02324681356549263
-3.17665696144104 1.8929156064987183 0.3235221207141876 20.0 10 -0.02324450947344303
-2.0496978759765625 1.2218647003173828 -0.3779457211494446 1.0 3 -0.023242207244038582
-3.155839204788208 1.8820037841796875 0.45116034150123596 61.0 11 -0.023239903151988983
-2.038892984390259 1.216388463973999 -0.29151150584220886 1.0 4 -0.023237599059939384
-3.1329543590545654 1.8698400259017944 0.5778689980506897 67.0 12 -0.023235294967889786
-2.041041851043701 1.2181543111801147 -0.20795360207557678 1.0 5 -0.023232990875840187
-3.1201465129852295 1.8629343509674072 0.7063749432563782 61.0 13 -0.02323068678379059
-2.0284576416015625 1.2116035223007202 -0.12382689118385315 1.0 6 -0.02322838269174099
-3.123199462890625 1.8662363290786743 0.8399673104286194 72.0 14 -0.02322607859969139
-2.124910354614258 1.2702220678329468 -0.0432121567428112 1.0 7 -0.023223774507641792
-3.108751058578491 1.8590747117996216 0.9705714583396912 78.0 15 -0.023221470415592194
-2.554766893386841 1.532025694847107 -0.7981979846954346 13.0 0 -0.023200733587145805
-2.0268845558166504 1.2159497737884521 0.04125748947262764 1.0 8 -0.023198429495096207
-2.568206787109375 1.5413044691085815 -0.6914995908737183 14.0 1 -0.023196127265691757
-2.5034472942352295 1.5030333995819092 0.15303035080432892 18.0 9 -0.02319382317364216
-2.066957950592041 1.240971565246582 -0.4686269164085388 46.0 2 -0.02319151908159256
-3.1717381477355957 1.90501868724823 0.32369643449783325 19.0 10 -0.02318921498954296
-2.1063764095306396 1.2656382322311401 -0.38920900225639343 1.0 3 -0.023186910897493362
-3.159458875656128 1.8991444110870361 0.45262277126312256 61.0 11 -0.023184606805443764
-2.038036823272705 1.2255440950393677 -0.2919989824295044 2.0 4 -0.023182302713394165
-3.126408338546753 1.8807647228240967 0.5778689980506897 67.0 12 -0.023179998621344566
-2.0504355430603027 1.2334879636764526 -0.20934809744358063 1.0 5 -0.023177694529294968
-3.133810520172119 1.8859615325927734 0.7109543085098267 63.0 13 -0.02317539043724537
-2.0276381969451904 1.220737099647522 -0.12403623014688492 1.0 6 -0.02317308634519577
-3.13169002532959 1.8861757516860962 0.8440163731575012 69.0 14 -0.02317078225314617
-2.017695188522339 1.2157105207443237 -0.041117873042821884 1.0 7 -0.023168478161096573
-3.108860492706299 1.8739049434661865 0.9726420044898987 80.0 15 -0.023166174069046974
-2.6386821269989014 1.5948970317840576 -0.8261504173278809 9.0 0 -0.023145439103245735
-1.9884041547775269 1.202323079109192 0.04055939242243767 1.0 8 -0.023143135011196136
-2.7245497703552246 1.6480965614318848 -0.7351400852203369 49.0 1 -0.023140830919146538
-2.5016028881073 1.5138311386108398 0.15323969721794128 10.0 9 -0.02313852682709694
-2.077730178833008 1.2573269605636597 -0.47206148505210876 9.0 2 -0.02313622273504734
-3.1752946376800537 1.9222702980041504 0.32474228739738464 17.0 10 -0.02313391864299774
-2.101945638656616 1.2729833126068115 -0.38920900225639343 1.0 3 -0.023131614550948143
-3.1596014499664307 1.914275884628296 0.4535977244377136 63.0 11 -0.023129310458898544
-2.030350923538208 1.2305935621261597 -0.29151150584220886 1.0 4 -0.023127006366848946
-3.1232028007507324 1.893714189529419 0.5784947276115417 63.0 12 -0.023124702274799347
-3.1272082328796387 1.896889328956604 0.7109543085098267 64.0 13 -0.02312009409070015
-1.9994595050811768 1.2133020162582397 -0.12257081270217896 1.0 6 -0.02311778999865055
-3.1334164142608643 1.9021514654159546 0.8462659120559692 67.0 14 -0.023115485906600952
-2.0647153854370117 1.2538858652114868 -0.042165014892816544 1.0 7 -0.023113181814551353
-3.1023001670837402 1.884745478630066 0.9726420044898987 82.0 15 -0.023110877722501755
-2.6957921981811523 1.6422903537750244 -0.8458206653594971 7.0 0 -0.023090142756700516
-2.018346071243286 1.2300703525543213 0.04125748947262764 1.0 8 -0.023087838664650917
-2.732091188430786 1.665712594985962 -0.7387393116950989 54.0 1 -0.02308553457260132
-3.169828414916992 1.9333518743515015 0.19458509981632233 1.0 9 -0.02308323048055172
-2.705216646194458 1.6499744653701782 -0.6159314513206482 10.0 2 -0.02308092638850212
-3.1753690242767334 1.9374927282333374 0.32543954253196716 9.0 10 -0.023078622296452522
-1.9929519891738892 1.2165027856826782 -0.36981111764907837 2.0 3 -0.023076318204402924
-3.1351146697998047 1.915935754776001 0.5819362998008728 63.0 12 -0.023069405928254128
-3.127267360687256 1.9118906259536743 0.7124808430671692 61.0 13 -0.02306479774415493
-3.1334068775177 1.9171459674835205 0.8480655550956726 63.0 14 -0.023060189560055733
-1.9579912424087524 1.1984490156173706 -0.04007072374224663 1.0 7 -0.023057885468006134
-3.112178087234497 1.9056504964828491 0.9778183698654175 80.0 15 -0.023055583238601685
-2.6966280937194824 1.6557337045669556 -0.8478912711143494 7.0 0 -0.023034846410155296
-2.014039993286133 1.2371083498001099 0.04125748947262764 1.0 8 -0.023032542318105698
-2.7212796211242676 1.6721779108047485 -0.7373896241188049 55.0 1 -0.0230302382260561
-2.9758965969085693 1.8293521404266357 0.18307119607925415 1.0 9 -0.0230279341340065
-3.0126049518585205 1.8540915250778198 0.4343423843383789 1.0 11 -0.023018717765808105
-2.7418181896209717 1.6880971193313599 -0.39534419775009155 1.0 4 -0.023016413673758507
-3.1452269554138184 1.9372271299362183 0.5850650072097778 65.0 12 -0.023014109581708908
-2.712583541870117 1.6707508563995361 -0.2787240743637085 11.0 5 -0.02301180548965931
-3.133946657180786 1.9310338497161865 0.7155337929725647 60.0 13 -0.02300950326025486
-2.6982262134552 1.6632070541381836 -0.16611434519290924 3.0 6 -0.02300719916820526
-3.1266956329345703 1.9280720949172974 0.8480655550956726 63.0 14 -0.023004895076155663
-2.0627188682556152 1.2724692821502686 -0.0423046313226223 1.0 7 -0.023002590984106064
-3.115370988845825 1.9225900173187256 0.9809242486953735 82.0 15 -0.023000286892056465
-2.6875462532043457 1.6631040573120117 -0.8468559384346008 7.0 0 -0.022979550063610077
-2.0097098350524902 1.2441307306289673 0.04125748947262764 1.0 8 -0.022977245971560478
-2.727023124694824 1.6888490915298462 -0.7405388951301575 56.0 1 -0.02297494187951088
-2.96779465675354 1.838676929473877 0.18296651542186737 6.0 9 -0.02297263778746128
-2.975480794906616 1.8441565036773682 0.306265264749527 5.0 10 -0.022968029603362083
-2.6626696586608887 1.6509243249893188 -0.4962101876735687 2.0 3 -0.022965725511312485
-2.9538192749023438 1.8321592807769775 0.42678648233413696 4.0 11 -0.022963423281908035
-2.7325356006622314 1.6955645084381104 -0.394856721162796 10.0 4 -0.022961119189858437
-3.1384456157684326 1.948194146156311 0.5850650072097778 65.0 12 -0.022958815097808838
-2.7016568183898926 1.677056908607483 -0.2782011330127716 29.0 5 -0.02295651100575924
-3.1371939182281494 1.9481759071350098 0.7178234457969666 64.0 13 -0.02295420691370964
-2.69240403175354 1.672615647315979 -0.16611434519290924 13.0 6 -0.022951902821660042
-3.1315321922302246 1.9461748600006104 0.8512148261070251 61.0 14 -0.022949598729610443
-3.1217644214630127 1.9416152238845825 0.9850653409957886 80.0 15 -0.022944990545511246
-2.675168037414551 1.6683855056762695 -0.8447853922843933 7.0 0 -0.022924253717064857
-2.735989570617676 1.7076449394226074 -0.7445880174636841 52.0 1 -0.02291964553296566
-2.9766058921813965 1.8585456609725952 0.18390856683254242 7.0 9 -0.02291734144091606
-2.7177648544311523 1.6969294548034668 -0.6228005886077881 19.0 2 -0.022915039211511612
-2.972404956817627 1.856642723083496 0.30661389231681824 7.0 10 -0.022912735119462013
-2.7004458904266357 1.687425971031189 -0.5043447613716125 54.0 3 -0.022910431027412415
-2.9709718227386475 1.8571903705596924 0.4301988184452057 4.0 11 -0.022908126935362816
-2.7198681831359863 1.7008817195892334 -0.39388173818588257 16.0 4 -0.022905822843313217
-3.1349751949310303 1.9612330198287964 0.5856907367706299 63.0 12 -0.02290351875126362
-2.7005584239959717 1.6901187896728516 -0.2787240743637085 48.0 5 -0.02290121465921402
-3.1536731719970703 1.973696231842041 0.7231661081314087 63.0 13 -0.02289891056716442
-2.7965846061706543 1.7508941888809204 -0.17291802167892456 42.0 6 -0.022896606475114822
-3.132977247238159 1.962266206741333 0.8534643650054932 63.0 14 -0.022894302383065224
-2.706183910369873 1.695611834526062 -0.055742986500263214 3.0 7 -0.022891998291015625
-3.1149678230285645 1.9525004625320435 0.9850653409957886 76.0 15 -0.022889694198966026
-2.665764331817627 1.6761229038238525 -0.8437501192092896 7.0 0 -0.022868959233164787
-3.187678575515747 2.0042810440063477 0.06572576612234116 3.0 8 -0.02286665514111519
-2.7399094104766846 1.7234104871749878 -0.7472874522209167 52.0 1 -0.02286435104906559
-2.983624219894409 1.8774336576461792 0.18474595248699188 7.0 9 -0.02286204695701599
-2.72648024559021 1.7162920236587524 -0.6262351274490356 48.0 2 -0.022859742864966393
-2.9740092754364014 1.8728337287902832 0.3074854612350464 7.0 10 -0.022857438772916794
-2.6975860595703125 1.6994173526763916 -0.5049704909324646 63.0 3 -0.022855134680867195
-2.9711897373199463 1.8717814683914185 0.43117377161979675 4.0 11 -0.022852830588817596
-2.7071964740753174 1.7061327695846558 -0.3929068148136139 23.0 4 -0.022850526496767998
-3.1398069858551025 1.979538917541504 0.5878807902336121 62.0 12 -0.0228482224047184
-2.6946427822113037 1.6995346546173096 -0.2787240743637085 48.0 5 -0.0228459183126688
-3.143097162246704 1.9831466674804688 0.7224029302597046 63.0 13 -0.0228436142206192
-3.1634063720703125 1.9967327117919922 -0.1960505247116089 53.0 6 -0.022841310128569603
-3.140594482421875 1.9830994606018066 0.8575134873390198 69.0 14 -0.022839006036520004
-2.6985580921173096 1.7039796113967896 -0.055708080530166626 4.0 7 -0.022836701944470406
-3.1113998889923096 1.9654254913330078 0.9861006140708923 78.0 15 -0.022834397852420807
-2.668056011199951 1.6905885934829712 -0.8463383316993713 6.0 0 -0.022813662886619568
-3.1718664169311523 2.0105981826782227 0.06555124372243881 35.0 8 -0.02281135879456997
-2.733574628829956 1.733440637588501 -0.7472874522209167 51.0 1 -0.02280905470252037
-2.990546226501465 1.896393895149231 0.18558332324028015 7.0 9 -0.022806750610470772
-2.7337353229522705 1.7342123985290527 -0.6292880773544312 55.0 2 -0.022804446518421173
-2.9825942516326904 1.8928112983703613 0.30905425548553467 7.0 10 -0.022802142426371574
-2.6832990646362305 1.703529715538025 -0.5034061670303345 55.0 3 -0.022799838334321976
-2.9676601886749268 1.884788155555725 0.4316612482070923 4.0 11 -0.022797534242272377
-2.697873115539551 1.7134438753128052 -0.39241933822631836 28.0 4 -0.02279523015022278
-3.146216869354248 1.9989607334136963 0.590383768081665 61.0 12 -0.02279292605817318
-2.703826665878296 1.7185499668121338 -0.2802928686141968 50.0 5 -0.02279062196612358
-3.1394689083099365 1.9962130784988403 0.7231661081314087 60.0 13 -0.022788317874073982
-3.1665287017822266 2.0141940116882324 -0.1966785341501236 59.0 6 -0.022786013782024384
-3.1537320613861084 2.006054162979126 0.8629122972488403 69.0 14 -0.022783709689974785
-2.7381443977355957 1.7423756122589111 -0.05665050819516182 3.0 7 -0.022781405597925186
-3.127335786819458 1.9907983541488647 0.9933475852012634 78.0 15 -0.022779101505875587
-2.6689491271972656 1.7035833597183228 -0.8484088778495789 6.0 0 -0.02275836654007435
-3.1719231605529785 2.0254104137420654 0.06569086015224457 35.0 8 -0.02275606244802475
-2.7376649379730225 1.7487903833389282 -0.7499868273735046 51.0 1 -0.02275375835597515
-2.982557773590088 1.9052252769470215 0.18547864258289337 6.0 9 -0.022751454263925552
-2.736240863800049 1.748553991317749 -0.6311962008476257 49.0 2 -0.022749150171875954
-2.9930877685546875 1.9134230613708496 0.3107973635196686 7.0 10 -0.022746846079826355
-2.7009334564208984 1.727318525314331 -0.5077863335609436 59.0 3 -0.022744541987776756
-2.9714267253875732 1.9010378122329712 0.4331236779689789 4.0 11 -0.022742237895727158
-2.6838150024414062 1.7170318365097046 -0.39120060205459595 33.0 4 -0.02273993380367756
-3.1545450687408447 2.0189669132232666 0.5931995511054993 58.0 12 -0.02273762971162796
-2.708181142807007 1.7339521646499634 -0.28133872151374817 49.0 5 -0.02273532561957836
-3.146057605743408 2.0150842666625977 0.7262190580368042 59.0 13 -0.022733021527528763
-3.1665587425231934 2.028993606567383 -0.19709724187850952 59.0 6 -0.022730719298124313
-3.1437809467315674 2.0143985748291016 0.862012505531311 69.0 14 -0.022728415206074715
-2.8350467681884766 1.8172731399536133 -0.05877970904111862 8.0 7 -0.022726111114025116
-3.1337263584136963 2.00950026512146 0.9974886178970337 76.0 15 -0.022723807021975517
-2.6600356101989746 1.7103350162506104 -0.8473736047744751 7.0 0 -0.02270307019352913
-3.1517345905303955 2.0272634029388428 0.06541161984205246 50.0 8 -0.02270076610147953
-2.7416832447052 1.7641862630844116 -0.7526862621307373 50.0 1 -0.02269846200942993
-2.9896600246429443 1.9237513542175293 0.18631602823734283 7.0 9 -0.022696157917380333
-2.7287774085998535 1.756554365158081 -0.6308146119117737 51.0 2 -0.022693853825330734
-3.000127077102661 1.9319677352905273 0.3121918737888336 7.0 10 -0.022691549733281136
-2.7001724243164062 1.739475131034851 -0.5087249279022217 57.0 3 -0.022689245641231537
-2.9751181602478027 1.9173322916030884 0.4345861077308655 4.0 11 -0.022686941549181938
-2.6864500045776367 1.731298565864563 -0.39241933822631836 41.0 4 -0.02268463745713234
-3.1478323936462402 2.029416799545288 0.5931995511054993 58.0 12 -0.02268233522772789
-2.7124621868133545 1.7494025230407715 -0.28238460421562195 48.0 5 -0.02268003113567829
-3.1558549404144287 2.036149740219116 0.7300352454185486 56.0 13 -0.022677727043628693
-3.1698811054229736 2.0459818840026855 -0.19772526621818542 59.0 6 -0.022675422951579094
-3.141995429992676 2.0279834270477295 0.8633622527122498 67.0 14 -0.022673118859529495
-2.9365200996398926 1.8960864543914795 -0.061013612896203995 42.0 7 -0.022670814767479897
-3.1384048461914062 2.027218818664551 1.0011121034622192 72.0 15 -0.022668510675430298
-2.649484872817993 1.7159961462020874 -0.8458206653594971 7.0 0 -0.02264777384698391
-2.7489001750946045 1.7817479372024536 -0.7562854886054993 50.0 1 -0.022643165662884712
-2.9966721534729004 1.9423456192016602 0.1871533989906311 6.0 9 -0.022640861570835114
-2.7295260429382324 1.7698668241500854 -0.6323410272598267 47.0 2 -0.022638559341430664
-2.9853463172912598 1.936484932899475 0.31132030487060547 6.0 10 -0.022636253386735916
-2.7126171588897705 1.7602479457855225 -0.5121665000915527 59.0 3 -0.022633951157331467
-2.9820637702941895 1.9358347654342651 0.43653604388237 4.0 11 -0.022631647065281868
-2.6840240955352783 1.7423595190048218 -0.3929068148136139 43.0 4 -0.02262934297323227
-3.147711992263794 2.0441477298736572 0.5944510698318481 60.0 12 -0.02262703888118267
-2.706645965576172 1.758387804031372 -0.28238460421562195 46.0 5 -0.022624734789133072
-3.1523780822753906 2.0487425327301025 0.7307984828948975 55.0 13 -0.022622430697083473
-3.1748006343841553 2.064103126525879 -0.1984579712152481 55.0 6 -0.022620126605033875
-3.1532247066497803 2.0500757694244385 0.8683111071586609 69.0 14 -0.022617822512984276
-2.9335689544677734 1.9079945087432861 -0.06108342483639717 65.0 7 -0.022615518420934677
-3.1349036693573 2.0397212505340576 1.0021474361419678 70.0 15 -0.02261321432888508
-2.6425750255584717 1.7266180515289307 -0.8458206653594971 7.0 0 -0.02258443832397461
-3.1066598892211914 2.030618667602539 0.06478333473205566 1.0 8 -0.02258213423192501
-2.751511573791504 1.7991671562194824 -0.7589848637580872 51.0 1 -0.022579830139875412
-2.992194175720215 1.956545352935791 0.18736274540424347 6.0 9 -0.022577526047825813
-2.7339000701904297 1.7883325815200806 -0.6350123286247253 49.0 2 -0.022575221955776215
-2.99422025680542 1.9593627452850342 0.31306344270706177 6.0 10 -0.022572917863726616
-2.700570821762085 1.7678771018981934 -0.5112279057502747 57.0 3 -0.022570613771677017
-2.994197130203247 1.9608403444290161 0.4394609034061432 4.0 11 -0.02256830967962742
-2.6916463375091553 1.7633774280548096 -0.3951004445552826 47.0 4 -0.02256600558757782
-3.1560044288635254 2.067592144012451 0.5975797176361084 60.0 12 -0.02256370149552822
-2.706231117248535 1.7736072540283203 -0.28308185935020447 50.0 5 -0.022561397403478622
-3.153979778289795 2.0678393840789795 0.7330881953239441 60.0 13 -0.022559095174074173
-3.179849624633789 2.0855939388275146 -0.19929534196853638 55.0 6 -0.022556791082024574
-3.154386043548584 2.0696802139282227 0.8710105419158936 69.0 14 -0.022554486989974976
-2.9191982746124268 1.9153671264648438 -0.06094380095601082 57.0 7 -0.022552182897925377
-3.126690626144409 2.0522892475128174 1.0021474361419678 72.0 15 -0.022549878805875778
-2.6429855823516846 1.740081787109375 -0.8478912711143494 7.0 0 -0.02252914197742939
-3.1399941444396973 2.067300796508789 0.06562104821205139 1.0 8 -0.02252683788537979
-2.7487852573394775 1.8104255199432373 -0.7598847150802612 50.0 1 -0.022524533793330193
-3.012031316757202 1.9845595359802246 0.1890375018119812 5.0 9 -0.022522229701280594
-2.737476348876953 1.8043473958969116 -0.6373021006584167 49.0 2 -0.022519925609230995
-3.000669479370117 1.978576898574829 0.3144579231739044 6.0 10 -0.022517621517181396
-2.6996407508850098 1.7800850868225098 -0.5121665000915527 54.0 3 -0.022515317425131798
-2.990992546081543 1.9729442596435547 0.43994835019111633 4.0 11 -0.02251301519572735
-2.6990392208099365 1.7810401916503906 -0.3970503509044647 50.0 4 -0.02251071110367775
-3.157010793685913 2.0840373039245605 0.5991440415382385 62.0 12 -0.02250840701162815
-2.7099990844726562 1.789630651473999 -0.28412771224975586 51.0 5 -0.022506102919578552
-3.1471049785614014 2.07828688621521 0.7330881953239441 59.0 13 -0.022503798827528954
-3.1762490272521973 2.0983293056488037 -0.19950468838214874 55.0 6 -0.022501494735479355
-3.1637630462646484 2.0908737182617188 0.8755095601081848 69.0 14 -0.022499190643429756
-2.9225034713745117 1.9321625232696533 -0.06115323305130005 26.0 7 -0.022496886551380157
-3.1323983669281006 2.071716547012329 1.0062885284423828 72.0 15 -0.02249458245933056
-2.6436409950256348 1.7531068325042725 -0.8499617576599121 7.0 0 -0.02247384563088417
-2.748944044113159 1.8243193626403809 -0.7616842985153198 50.0 1 -0.022469237446784973
-3.002105474472046 1.9923282861709595 0.18882815539836884 6.0 9 -0.022466935217380524
-2.7412915229797363 1.8199307918548584 -0.6395918130874634 49.0 2 -0.022464631125330925
-3.002390146255493 1.994028091430664 0.31532949209213257 5.0 10 -0.022462327033281326
-2.709864377975464 1.8004286289215088 -0.5152952075004578 59.0 3 -0.022460022941231728
-2.9907002449035645 1.9877688884735107 0.4409233331680298 4.0 11 -0.02245771884918213
-2.692805528640747 1.790450930595398 -0.3970503509044647 48.0 4 -0.02245541475713253
-3.1681768894195557 2.1065261363983154 0.6025856137275696 65.0 12 -0.02245311066508293
-2.7173213958740234 1.8074344396591187 -0.2855222225189209 54.0 5 -0.022450806573033333
-3.1561760902404785 2.1001358032226562 0.7369043827056885 59.0 13 -0.022448502480983734
-3.1722304821014404 2.111617088317871 -0.1997140347957611 55.0 6 -0.022446198388934135
-3.1515793800354004 2.098663568496704 0.8741598725318909 67.0 14 -0.022443894296884537
-2.9360532760620117 1.955142855644226 -0.06157208979129791 58.0 7 -0.022441590204834938
-3.1383731365203857 2.09066104888916 1.0104296207427979 72.0 15 -0.02243928611278534
-2.637505054473877 1.7623248100280762 -0.8499617576599121 7.0 0 -0.0224185511469841
-2.749359607696533 1.837756872177124 -0.7634838819503784 48.0 1 -0.022413942962884903
-3.011735200881958 2.01389741897583 0.18987487256526947 5.0 9 -0.022411638870835304
-2.7398173809051514 1.832763433456421 -0.6407366394996643 47.0 2 -0.022409334778785706
-3.0086581707000732 2.013360023498535 0.31672394275665283 5.0 10 -0.022407030686736107
-2.7153706550598145 1.817095398902893 -0.5174852609634399 55.0 3 -0.022404726594686508
-2.9840924739837646 1.9976749420166016 0.4409233331680298 2.0 11 -0.02240242250263691
-2.693451166152954 1.8037892580032349 -0.3980253338813782 48.0 4 -0.02240011841058731
-3.1591637134552 2.1164722442626953 0.6022727489471436 61.0 12 -0.022397814318537712
-2.7209255695343018 1.8235646486282349 -0.2865680754184723 54.0 5 -0.022395510226488113
-3.1573486328125 2.116055488586426 0.7388124465942383 55.0 13 -0.022393206134438515
-3.1784818172454834 2.1310229301452637 -0.20055140554904938 55.0 6 -0.022390902042388916
-3.1494579315185547 2.1123595237731934 0.8755095601081848 66.0 14 -0.022388597950339317
-2.915925979614258 1.9564673900604248 -0.061292849481105804 70.0 7 -0.02238629385828972
-3.1390762329101562 2.1069865226745605 1.0130177736282349 76.0 15 -0.02238398976624012
-2.628441095352173 1.7689043283462524 -0.8489265441894531 7.0 0 -0.02236325480043888
-3.136786937713623 2.1118085384368896 0.06600499898195267 20.0 8 -0.022360950708389282
-2.759091377258301 1.8582289218902588 -0.7679829597473145 46.0 1 -0.022358646616339684
-3.0182929039001465 2.032799482345581 0.19071224331855774 5.0 9 -0.022356342524290085
-2.733724594116211 1.8418389558792114 -0.6407366394996643 51.0 2 -0.022354038432240486
-3.003617525100708 2.024439573287964 0.31689828634262085 3.0 10 -0.022351734340190887
-2.7139248847961426 1.8298757076263428 -0.518423855304718 51.0 3 -0.02234943024814129
-3.000140428543091 2.02362060546875 0.4443356692790985 2.0 11 -0.02234712615609169
-2.698657274246216 1.8209518194198608 -0.39973148703575134 48.0 4 -0.02234482206404209
-3.1537654399871826 2.1280417442321777 0.6025856137275696 60.0 12 -0.022342517971992493
-2.7148637771606445 1.832577109336853 -0.2865680754184723 55.0 5 -0.022340213879942894
-3.1694672107696533 2.1402480602264404 0.7433918714523315 61.0 13 -0.022337909787893295
-3.1826090812683105 2.149930238723755 -0.20128411054611206 59.0 6 -0.022335605695843697
-3.16144061088562 2.1364340782165527 0.8809083700180054 69.0 14 -0.022333301603794098
-2.872971773147583 1.9414929151535034 -0.06052494794130325 58.0 7 -0.0223309975117445
-3.135272741317749 2.1195485591888428 1.0140531063079834 74.0 15 -0.0223286934196949
-2.6190528869628906 1.7758996486663818 -0.8478912711143494 9.0 0 -0.02230795845389366
-3.1363871097564697 2.126688241958618 0.06614462286233902 24.0 8 -0.022305654361844063
-2.7561395168304443 1.8695560693740845 -0.7688827514648438 45.0 1 -0.022303350269794464
-3.014484167098999 2.0455658435821533 0.1909215897321701 4.0 9 -0.022301046177744865
-2.7467713356018066 1.864601731300354 -0.6453160643577576 51.0 2 -0.022298742085695267
-2.996532440185547 2.034912109375 0.31689828634262085 3.0 10 -0.022296437993645668
-2.704573631286621 1.8366459608078003 -0.517798125743866 54.0 3 -0.02229413390159607
-3.009833574295044 2.0447134971618652 0.44677305221557617 2.0 11 -0.02229182980954647
-2.7057385444641113 1.8388173580169678 -0.40168139338493347 48.0 4 -0.022289525717496872
-3.1642873287200928 2.151254177093506 0.6060271859169006 62.0 12 -0.022287221625447273
-2.7150397300720215 1.8465250730514526 -0.2872653305530548 54.0 5 -0.022284917533397675
-3.157482147216797 2.147434711456299 0.7422470450401306 61.0 13 -0.022282613441348076
-3.1837189197540283 2.1660900115966797 -0.20180746912956238 57.0 6 -0.022280311211943626
-3.167226552963257 2.1556780338287354 0.8845075964927673 69.0 14 -0.022278007119894028
-2.8694825172424316 1.9537612199783325 -0.06059475615620613 75.0 7 -0.02227570302784443
-3.1310489177703857 2.1326541900634766 1.0150883197784424 76.0 15 -0.02227339893579483
-2.6099586486816406 1.7823959589004517 -0.8468559384346008 7.0 0 -0.022252662107348442
-3.1338977813720703 2.141007423400879 0.06624933332204819 23.0 8 -0.022250358015298843
-2.7512054443359375 1.8802651166915894 -0.7693326473236084 36.0 1 -0.022248053923249245
-3.030407667160034 2.071857213973999 0.19238698482513428 4.0 9 -0.022245749831199646
-2.7532098293304443 1.8830451965332031 -0.6483690142631531 51.0 2 -0.022243445739150047
-3.0062129497528076 2.0560855865478516 0.31864139437675476 3.0 10 -0.02224114164710045
-2.714448928833008 1.8572300672531128 -0.520926833152771 51.0 3 -0.02223883755505085
-3.012507200241089 2.061933994293213 0.44823548197746277 3.0 11 -0.02223653346300125
-2.712406635284424 1.8572230339050293 -0.4036312997341156 45.0 4 -0.022234231233596802
-3.1681668758392334 2.1701009273529053 0.6082172989845276 63.0 12 -0.022231927141547203
-2.7184393405914307 1.8627477884292603 -0.2883111834526062 50.0 5 -0.022229623049497604
-3.15282940864563 2.161212205886841 0.7430102825164795 61.0 13 -0.022227318957448006
-3.1823463439941406 2.1822633743286133 -0.20222614705562592 55.0 6 -0.022225014865398407
-3.162896156311035 2.1689255237579346 0.8854073882102966 66.0 14 -0.02222271077334881
-2.865943670272827 1.9660276174545288 -0.06066456437110901 80.0 7 -0.02222040668129921
-3.1395139694213867 2.1545016765594482 1.020264744758606 78.0 15 -0.02221810258924961
-2.604999542236328 1.7930455207824707 -0.8473736047744751 6.0 0 -0.022197365760803223
-3.14579439163208 2.1660876274108887 0.06666819006204605 19.0 8 -0.022195061668753624
-2.76676344871521 1.9058126211166382 -0.775631308555603 23.0 1 -0.022192757576704025
-3.0195045471191406 2.080683708190918 0.1921776533126831 3.0 9 -0.022190453484654427
-2.7608373165130615 1.9031517505645752 -0.6518035531044006 49.0 2 -0.022188149392604828
-2.997016668319702 2.0659592151641846 0.31846708059310913 3.0 10 -0.02218584716320038
-2.7108757495880127 1.8694095611572266 -0.521552562713623 49.0 3 -0.02218354307115078
-3.001661539077759 2.070707082748413 0.44774800539016724 3.0 11 -0.02218123897910118
-2.7055811882019043 1.8671520948410034 -0.4036312997341156 48.0 4 -0.022178934887051582
-3.176447868347168 2.1929209232330322 0.6113459467887878 63.0 12 -0.022176630795001984
-2.7214303016662598 1.8794922828674316 -0.28935706615448 50.0 5 -0.022174326702952385
-3.157808542251587 2.1816818714141846 0.7460631728172302 60.0 13 -0.022172022610902786
-3.1956863403320312 2.2086739540100098 -0.2035868912935257 60.0 6 -0.022169718518853188
-3.1629414558410645 2.1860427856445312 0.8876569271087646 63.0 14 -0.02216741442680359
-2.84555983543396 1.9674209356307983 -0.0603853277862072 67.0 7 -0.02216511033475399
-3.144306182861328 2.174786329269409 1.024405837059021 78.0 15 -0.02216280624270439
-2.596822738647461 1.8014801740646362 -0.8468559384346008 6.0 0 -0.022142069414258003
-3.1329050064086914 2.1741833686828613 0.06656347960233688 26.0 8 -0.022139767184853554
-2.8510050773620605 1.9792859554290771 -0.8012757301330566 7.0 1 -0.022137463092803955
-3.0220675468444824 2.0980443954467773 0.1928056925535202 4.0 9 -0.022135159000754356
-2.934778928756714 2.03820538520813 -0.694544792175293 23.0 2 -0.022132854908704758
-3.017240524291992 2.0962555408477783 0.32143038511276245 4.0 10 -0.02213055081665516
-2.7104947566986084 1.8838417530059814 -0.5228040814399719 42.0 3 -0.02212824672460556
-3.010350465774536 2.093026876449585 0.4501853883266449 3.0 11 -0.02212594263255596
-2.70556640625 1.881117820739746 -0.40460625290870667 47.0 4 -0.022123638540506363
-3.1720168590545654 2.206251382827759 0.6119716763496399 63.0 12 -0.022121334448456764
-2.724665403366089 1.8958089351654053 -0.29040294885635376 50.0 5 -0.022119030356407166
-3.1695103645324707 2.2061498165130615 0.7506426572799683 63.0 13 -0.022116726264357567
-3.2174601554870605 2.24035906791687 -0.2054709792137146 59.0 6 -0.022114422172307968
-3.156890869140625 2.19818377494812 0.8881068229675293 61.0 14 -0.02211211808025837
-2.822265863418579 1.9659126996994019 -0.060036275535821915 67.0 7 -0.02210981398820877
-3.149376153945923 2.1945838928222656 1.028546929359436 76.0 15 -0.022107509896159172
-2.5813329219818115 1.8034433126449585 -0.8437501192092896 6.0 0 -0.022086774930357933
-3.1322340965270996 2.189142942428589 0.06670309603214264 26.0 8 -0.022084470838308334
-2.9242806434631348 2.0445613861083984 -0.8237708210945129 4.0 1 -0.022082166746258736
-3.0216407775878906 2.1126322746276855 0.19322437047958374 4.0 9 -0.022079862654209137
-3.2883737087249756 2.2999789714813232 -0.7800272107124329 28.0 2 -0.02207755856215954
-3.002110004425049 2.100538730621338 0.3205588161945343 2.0 10 -0.02207525447010994
-2.725271224975586 1.907545566558838 -0.526871383190155 28.0 3 -0.02207295037806034
-3.0066452026367188 2.1052753925323486 0.45067286491394043 3.0 11 -0.022070646286010742
-2.705817699432373 1.8946338891983032 -0.40558120608329773 47.0 4 -0.022068342193961143
-3.174391031265259 2.223558187484741 0.6138489246368408 65.0 12 -0.022066038101911545
-3.219287395477295 2.255842924118042 -0.34391653537750244 48.0 5 -0.022063734009861946
-3.1750378608703613 2.225663423538208 0.7536956071853638 61.0 13 -0.022061429917812347
-3.231271266937256 2.2659237384796143 -0.20683172345161438 57.0 6 -0.02205912582576275
-3.1671347618103027 2.2209482192993164 0.8930557370185852 60.0 14 -0.02205682173371315
-2.797724485397339 1.9626271724700928 -0.05965232849121094 62.0 7 -0.02205451764166355
-3.1452436447143555 2.207235097885132 1.029582142829895 76.0 15 -0.022052213549613953
-2.572178602218628 1.8097695112228394 -0.8427148461341858 6.0 0 -0.022031478583812714
-3.139674425125122 2.209876537322998 0.06701724231243134 12.0 8 -0.022029174491763115
-2.9238579273223877 2.058734893798828 -0.8255704045295715 4.0 1 -0.022026870399713516
-3.030576467514038 2.1346683502197266 0.19427108764648438 3.0 9 -0.022024566307663918
-3.2903592586517334 2.3176534175872803 -0.7823169827461243 30.0 2 -0.02202226221561432
-3.008157253265381 2.119663715362549 0.32195332646369934 4.0 10 -0.02201995812356472
-3.1451759338378906 2.2170326709747314 -0.6094687581062317 42.0 3 -0.02201765403151512
-3.0191147327423096 2.128962278366089 0.4535977244377136 3.0 11 -0.022015349939465523
-3.104714870452881 2.1901352405548096 -0.4665158689022064 41.0 4 -0.022013045847415924
-3.1827502250671387 2.24601411819458 0.6169776320457458 63.0 12 -0.022010741755366325
-3.2183005809783936 2.271101474761963 -0.34461379051208496 46.0 5 -0.022008437663316727
-3.177262783050537 2.242973566055298 0.7559852600097656 60.0 13 -0.022006133571267128
-3.2335281372070312 2.2835395336151123 -0.20745974779129028 57.0 6 -0.02200382947921753
-3.1673214435577393 2.2376112937927246 0.8953052759170532 54.0 14 -0.02200152724981308
-2.799021005630493 1.9781523942947388 -0.05982685089111328 80.0 7 -0.02199922315776348
-3.143829822540283 2.2226617336273193 1.031652808189392 74.0 15 -0.021996919065713882
-2.5753016471862793 1.8254408836364746 -0.8458206653594971 6.0 0 -0.021976182237267494
-3.1564102172851562 2.2381722927093506 0.06754080951213837 47.0 8 -0.021973878145217896
-2.9071171283721924 2.062163829803467 -0.8228710293769836 4.0 1 -0.021971574053168297
-3.042651891708374 2.159105062484741 0.19552715122699738 4.0 9 -0.021969269961118698
-3.2950570583343506 2.338214874267578 -0.785369873046875 16.0 2 -0.0219669658690691
-3.0234856605529785 2.146296739578247 0.3243936598300934 2.0 10 -0.0219646617770195
-3.2469377517700195 2.305772066116333 -0.6307438015937805 53.0 3 -0.021962357684969902
-3.0213747024536133 2.146385908126831 0.4550601840019226 3.0 11 -0.021960053592920303
-3.2426810264587402 2.304452419281006 -0.48845240473747253 44.0 4 -0.021957749500870705
-3.179720640182495 2.2605440616607666 0.6179162263870239 61.0 12 -0.021955445408821106
-3.2200963497161865 2.28924822807312 -0.34565967321395874 46.0 5 -0.021953143179416656
-3.1662144660949707 2.2517752647399902 0.7552220225334167 59.0 13 -0.021950839087367058
-3.228792190551758 2.297128438949585 -0.20766909420490265 55.0 6 -0.02194853499531746
-3.172192335128784 2.2576944828033447 0.8989045023918152 54.0 14 -0.02194623090326786
-2.7888412475585938 1.985591173171997 -0.0597570426762104 60.0 7 -0.02194392681121826
-3.151787042617798 2.2448291778564453 1.0368291139602661 66.0 15 -0.021941622719168663
-2.565769910812378 1.832173228263855 -0.8447853922843933 6.0 0 -0.021920885890722275
-3.192512035369873 2.2805604934692383 0.06848324835300446 42.0 8 -0.021918581798672676
-2.8919732570648193 2.066634178161621 -0.8206214904785156 4.0 1 -0.021916277706623077
-3.038346767425537 2.1720352172851562 0.19573649764060974 3.0 9 -0.02191397361457348
-3.2948615550994873 2.3554110527038574 -0.7872779965400696 15.0 2 -0.02191166952252388
-3.038663625717163 2.173063278198242 0.3268340229988098 2.0 10 -0.02190936543047428
-3.2436883449554443 2.3205406665802 -0.6316824555397034 48.0 3 -0.021907063201069832
-3.004178524017334 2.149986743927002 0.4535977244377136 3.0 11 -0.021904759109020233
-3.2443013191223145 2.322690725326538 -0.48991477489471436 41.0 4 -0.021902455016970634
-3.184657573699951 2.280831813812256 0.6204191446304321 61.0 12 -0.021900150924921036
-3.228283166885376 2.3120763301849365 -0.34740278124809265 44.0 5 -0.021897846832871437
-3.180677890777588 2.2788214683532715 0.7605647444725037 59.0 13 -0.02189554274082184
-3.2321178913116455 2.316528797149658 -0.20840179920196533 59.0 6 -0.02189323864877224
-3.1753780841827393 2.276702404022217 0.9020537734031677 60.0 14 -0.02189093455672264
-2.8030169010162354 2.010465383529663 -0.06021080166101456 62.0 7 -0.021888630464673042
-3.161198377609253 2.268205404281616 1.0425231456756592 63.0 15 -0.021886326372623444
-2.567200183868408 1.8467589616775513 -0.8473736047744751 6.0 0 -0.021865589544177055
-3.2072553634643555 2.3080432415008545 0.0689719095826149 44.0 8 -0.021863285452127457
-2.894230842590332 2.083547592163086 -0.8233208656311035 3.0 1 -0.021860983222723007
-3.0339877605438232 2.184962272644043 0.1959458440542221 3.0 9 -0.02185867913067341
-3.2850260734558105 2.365750312805176 -0.786896288394928 12.0 2 -0.02185637503862381
-3.0423758029937744 2.1918091773986816 0.3280542194843292 2.0 10 -0.02185407094657421
-3.251594305038452 2.343398094177246 -0.6348111033439636 48.0 3 -0.021851766854524612
