# .PCD v0.7 - Point Cloud Data file format
VERSION 0.7
FIELDS x y z intensity ring time
SIZE 4 4 4 4 4 4
TYPE F F F F F F
COUNT 1 1 1 1 1 1
WIDTH 546
HEIGHT 1
VIEWPOINT 0 0 0 1 0 0 0
POINTS 546
DATA ascii
2.2790629863739014 -2.080341100692749 -0.16171811521053314 91.0 6 -0.045643579214811325
2.2823455333709717 -2.0840675830841064 0.7135447859764099 76.0 14 -0.04564127326011658
2.2589690685272217 -2.0634453296661377 -0.05340436473488808 84.0 7 -0.04563897103071213
2.2675487995147705 -2.0720086097717285 0.8230445981025696 91.0 15 -0.04563666507601738
1.0938704013824463 -1.0023475885391235 -0.39754605293273926 3.0 0 -0.04561593011021614
2.252776622772217 -2.0642893314361572 0.0533345565199852 66.0 8 -0.04561362415552139
1.6290276050567627 -1.4932518005371094 -0.5101890563964844 1.0 1 -0.04561132192611694
2.272864818572998 -2.0841569900512695 0.16161344945430756 78.0 9 -0.045609015971422195
1.6030192375183105 -1.4704413414001465 -0.42283275723457336 1.0 2 -0.045606713742017746
2.2636613845825195 -2.0771727561950684 0.26878830790519714 81.0 10 -0.045604411512613297
1.5701990127563477 -1.4413450956344604 -0.33758559823036194 1.0 3 -0.04560210555791855
2.2681710720062256 -2.082040309906006 0.3780387341976166 83.0 11 -0.0455998033285141
1.6025257110595703 -1.4715344905853271 -0.2671376168727875 1.0 4 -0.04559749737381935
2.2723491191864014 -2.0873374938964844 0.48870131373405457 93.0 12 -0.0455951951444149
2.247540235519409 -2.0652716159820557 -0.26704519987106323 68.0 5 -0.045592889189720154
2.2620162963867188 -2.0793020725250244 0.5972321629524231 78.0 13 -0.045590586960315704
2.261131763458252 -2.079216957092285 -0.16098542511463165 100.0 6 -0.045588281005620956
2.27899432182312 -2.096376895904541 0.7148945331573486 78.0 14 -0.04558597877621651
2.2458655834198 -2.0659029483795166 -0.05326474457979202 81.0 7 -0.04558367282152176
2.2574594020843506 -2.0772948265075684 0.8220093250274658 91.0 15 -0.04558137059211731
1.0932044982910156 -1.0087800025939941 -0.3985813558101654 5.0 0 -0.04556063190102577
2.2422566413879395 -2.069819688796997 0.05326474457979202 71.0 8 -0.04555832967162132
1.6092267036437988 -1.4859919548034668 -0.5056900382041931 1.0 1 -0.04555602744221687
2.2509026527404785 -2.0785281658172607 0.16056673228740692 82.0 9 -0.045553721487522125
1.6238349676132202 -1.5000066757202148 -0.42970186471939087 1.0 2 -0.045551419258117676
2.256397008895874 -2.08506178855896 0.26878830790519714 76.0 10 -0.04554911330342293
1.5883671045303345 -1.4682714939117432 -0.3425915241241455 1.0 3 -0.04554681107401848
2.2503225803375244 -2.0809054374694824 0.376332551240921 80.0 11 -0.04554450511932373
1.5971214771270752 -1.4773980379104614 -0.2671376168727875 1.0 4 -0.04554220288991928
2.262148857116699 -2.092573881149292 0.4880755841732025 93.0 12 -0.04553989693522453
2.2373926639556885 -2.0703980922698975 -0.266696572303772 70.0 5 -0.045537594705820084
2.2533035278320312 -2.0858516693115234 0.596850574016571 82.0 13 -0.045535288751125336
2.2318782806396484 -2.066742181777954 -0.1594153493642807 91.0 6 -0.045532986521720886
2.258796215057373 -2.092400312423706 0.7108453512191772 76.0 14 -0.04553068056702614
2.2459757328033447 -2.080524206161499 -0.053439266979694366 88.0 7 -0.04552837833762169
2.2445266246795654 -2.0799100399017334 0.8199387788772583 91.0 15 -0.04552607238292694
1.088261365890503 -1.011274814605713 -0.3980637192726135 6.0 0 -0.0455053374171257
2.2295212745666504 -2.071798801422119 0.05312512442469597 69.0 8 -0.04550303518772125
1.618563175201416 -1.50458824634552 -0.5101890563964844 1.0 1 -0.045500729233026505
2.2348580360412598 -2.078212261199951 0.15993870794773102 78.0 9 -0.045498427003622055
1.5984647274017334 -1.4869455099105835 -0.4243592619895935 1.0 2 -0.04549612104892731
2.244729518890381 -2.088853359222412 0.26826536655426025 74.0 10 -0.04549381881952286
1.5834895372390747 -1.473530650138855 -0.3425915241241455 1.0 3 -0.04549151286482811
2.233238697052002 -2.078888177871704 0.37462639808654785 81.0 11 -0.04548921063542366
1.5544419288635254 -1.4475129842758179 -0.26080042123794556 1.0 4 -0.04548690468072891
2.244713068008423 -2.0910322666168213 0.48588550090789795 91.0 12 -0.04548460245132446
2.228694438934326 -2.0768370628356934 -0.26652225852012634 75.0 5 -0.045482296496629715
2.240628957748413 -2.087958574295044 0.5953240990638733 83.0 13 -0.045479994267225266
2.233778238296509 -2.082303047180176 -0.1600433737039566 93.0 6 -0.04547768831253052
2.241868495941162 -2.090576171875 0.7076960802078247 83.0 14 -0.04547538608312607
2.2196905612945557 -2.0706193447113037 -0.05298550799489021 84.0 7 -0.04547308012843132
2.2301905155181885 -2.0811424255371094 0.8173506259918213 88.0 15 -0.04547077789902687
1.0849019289016724 -1.0148781538009644 -0.3980637192726135 6.0 0 -0.04545004293322563
2.219355344772339 -2.076836109161377 0.05305531620979309 71.0 8 -0.045447736978530884
1.6133012771606445 -1.5102287530899048 -0.5101890563964844 1.0 1 -0.045445434749126434
2.2232165336608887 -2.0819053649902344 0.15962468087673187 76.0 9 -0.045443128794431686
1.5705965757369995 -1.4707669019699097 -0.4182533621788025 1.0 2 -0.04544082656502724
2.220341682434082 -2.0799405574798584 0.2661736309528351 74.0 10 -0.04543852061033249
1.5768948793411255 -1.4776983261108398 -0.3422786593437195 1.0 3 -0.04543621838092804
2.228864908218384 -2.089386224746704 0.3751138746738434 83.0 11 -0.04543391242623329
1.5030430555343628 -1.4094780683517456 -0.25300079584121704 1.0 4 -0.04543161019682884
2.221552610397339 -2.083988666534424 0.4824439287185669 93.0 12 -0.045429304242134094
2.205811023712158 -2.0692219734191895 -0.2646048367023468 68.0 5 -0.045427002012729645
2.230463743209839 -2.0930802822113037 0.5945608615875244 82.0 13 -0.0454246960580349
2.223583698272705 -2.0873537063598633 -0.15983402729034424 93.0 6 -0.04542239382863045
2.227454423904419 -2.091719150543213 0.7054465413093567 86.0 14 -0.0454200878739357
2.2051618099212646 -2.0715091228485107 -0.05281098559498787 76.0 7 -0.04541778564453125
2.214465856552124 -2.080976724624634 0.8142447471618652 88.0 15 -0.0454154834151268
1.0729154348373413 -1.0107109546661377 -0.39495787024497986 6.0 0 -0.04539474472403526
2.2004497051239014 -2.073598861694336 0.05277607962489128 72.0 8 -0.045392442494630814
1.6221998929977417 -1.529218316078186 -0.5146880745887756 1.0 1 -0.045390136539936066
2.213029623031616 -2.0869126319885254 0.1594153493642807 76.0 9 -0.045387834310531616
1.5883064270019531 -1.4977914094924927 -0.4243592619895935 1.0 2 -0.04538552835583687
2.211618423461914 -2.086311101913452 0.26599931716918945 76.0 10 -0.04538322612643242
1.5429935455322266 -1.4560786485671997 -0.3360212445259094 1.0 3 -0.04538092017173767
2.2186710834503174 -2.094428300857544 0.37462639808654785 81.0 11 -0.04537861794233322
1.5327523946762085 -1.4474263191223145 -0.2588505148887634 1.0 4 -0.045376311987638474
2.2085206508636475 -2.0863049030303955 0.4811924695968628 93.0 12 -0.045374009758234024
2.1927812099456787 -2.0714364051818848 -0.2639075815677643 68.0 5 -0.045371703803539276
2.2103018760681152 -2.088717222213745 0.5911262631416321 81.0 13 -0.04536940157413483
2.2104783058166504 -2.0896148681640625 -0.1594153493642807 93.0 6 -0.04536709934473038
2.2187235355377197 -2.098142385482788 0.704996645450592 83.0 14 -0.04536479339003563
2.2066333293914795 -2.0874390602111816 -0.0530204102396965 95.0 7 -0.04536249116063118
2.1973659992218018 -2.0793988704681396 0.8106213212013245 91.0 15 -0.04536018520593643
1.0763887166976929 -1.0210976600646973 -0.39754605293273926 6.0 0 -0.04533945024013519
2.181594133377075 -2.0702552795410156 0.05249683931469917 72.0 8 -0.045337144285440445
1.602718710899353 -1.521454930305481 -0.5101890563964844 1.0 1 -0.045334842056035995
2.1974058151245117 -2.085989236831665 0.1587873101234436 76.0 9 -0.04533253610134125
1.5403594970703125 -1.4627689123153687 -0.41291067004203796 1.0 2 -0.0453302338719368
2.1985442638397217 -2.088529348373413 0.26530206203460693 76.0 10 -0.04532792791724205
1.523582100868225 -1.4478483200073242 -0.3328925669193268 1.0 3 -0.0453256256878376
2.1983981132507324 -2.089850902557373 0.37243276834487915 80.0 11 -0.04532332345843315
1.5046745538711548 -1.4308801889419556 -0.2549506723880768 1.0 4 -0.0453210175037384
2.2015902996063232 -2.0936167240142822 0.4811924695968628 96.0 12 -0.045318715274333954
2.185537338256836 -2.079077959060669 -0.2639075815677643 68.0 5 -0.045316409319639206
2.1930418014526367 -2.0869462490081787 0.5884549617767334 83.0 13 -0.045314107090234756
2.1887047290802 -2.0835471153259277 -0.15836863219738007 93.0 6 -0.04531180113554001
2.2127974033355713 -2.1072182655334473 0.7054465413093567 86.0 14 -0.04530949890613556
2.186666250228882 -2.08233380317688 -0.052706267684698105 84.0 7 -0.04530719295144081
2.190458297729492 -2.086674213409424 0.8106213212013245 91.0 15 -0.04530489072203636
1.0756117105484009 -1.0275176763534546 -0.3985813558101654 6.0 0 -0.045284152030944824
2.1718249320983887 -2.0747156143188477 0.052427031099796295 72.0 8 -0.045281849801540375
1.597664475440979 -1.5267614126205444 -0.5101890563964844 1.0 1 -0.045279547572135925
2.1814486980438232 -2.0853660106658936 0.1581592708826065 74.0 9 -0.04527724161744118
1.577811360359192 -1.508843183517456 -0.4243592619895935 1.0 2 -0.04527493938803673
2.188361167907715 -2.0934367179870605 0.26495346426963806 78.0 10 -0.04527263343334198
1.5187724828720093 -1.452892780303955 -0.3328925669193268 1.0 3 -0.04527033120393753
2.1785478591918945 -2.084777355194092 0.3702390789985657 85.0 11 -0.04526802524924278
1.4913175106048584 -1.4276260137557983 -0.2534882724285126 1.0 4 -0.04526572301983833
2.191415309906006 -2.0985565185546875 0.48056671023368835 96.0 12 -0.045263417065143585
2.1696341037750244 -2.0784246921539307 -0.2628616988658905 66.0 5 -0.045261114835739136
2.1832737922668457 -2.0914909839630127 0.5876917243003845 85.0 13 -0.04525880888104439
2.1745729446411133 -2.0838840007781982 -0.15784525871276855 100.0 6 -0.04525650665163994
2.1903228759765625 -2.099710702896118 0.7004976272583008 90.0 14 -0.04525420069694519
2.1736109256744385 -2.0844178199768066 -0.05256664752960205 83.0 7 -0.04525189846754074
2.17897891998291 -2.0902955532073975 0.8090683817863464 84.0 15 -0.04524959251284599
1.0749833583831787 -1.033756971359253 -0.3996165990829468 6.0 0 -0.045228857547044754
2.1616873741149902 -2.0795116424560547 0.05235722288489342 79.0 8 -0.045226555317640305
1.6119836568832397 -1.5512465238571167 -0.5164876580238342 1.0 1 -0.04522424936294556
2.165886640548706 -2.0842792987823486 0.1575312465429306 76.0 9 -0.04522194713354111
1.538853645324707 -1.4813894033432007 -0.415200412273407 1.0 2 -0.04521964117884636
2.1785366535186768 -2.0979177951812744 0.2646048367023468 78.0 10 -0.04521733894944191
1.5250729322433472 -1.4691493511199951 -0.3353955149650574 1.0 3 -0.04521503299474716
2.16839861869812 -2.0896143913269043 0.36975163221359253 85.0 11 -0.04521273076534271
1.4663169384002686 -1.4135348796844482 -0.25007590651512146 2.0 4 -0.045210424810647964
2.1759109497070312 -2.0975863933563232 0.4786895215511322 96.0 12 -0.045208122581243515
2.165598154067993 -2.088373899459839 -0.26321035623550415 65.0 5 -0.04520581662654877
2.178785800933838 -2.101825475692749 0.5884549617767334 85.0 13 -0.04520351439714432
2.160099983215332 -2.0845274925231934 -0.15732190012931824 93.0 6 -0.04520120844244957
2.1745684146881104 -2.0992226600646973 0.6977982521057129 90.0 14 -0.04519890621304512
2.155177116394043 -2.080503225326538 -0.05228740721940994 75.0 7 -0.04519660025835037
2.1664764881134033 -2.092142105102539 0.8069977760314941 86.0 15 -0.04519429802894592
1.06581711769104 -1.0321273803710938 -0.39754605293273926 7.0 0 -0.045173563063144684
2.1547796726226807 -2.0866687297821045 0.05235722288489342 79.0 8 -0.045171257108449936
1.5872352123260498 -1.5376009941101074 -0.5101890563964844 1.0 1 -0.045168954879045486
2.1557295322418213 -2.0890469551086426 0.15732190012931824 76.0 9 -0.04516664892435074
1.5364923477172852 -1.4894847869873047 -0.41596361994743347 1.0 2 -0.04516434669494629
2.1568973064422607 -2.091639280319214 0.2628616988658905 76.0 10 -0.04516204074025154
1.5287011861801147 -1.4824495315551758 -0.3372727632522583 1.0 3 -0.04515973851084709
2.1586079597473145 -2.094028949737549 0.369264155626297 85.0 11 -0.045157432556152344
1.4772918224334717 -1.4335964918136597 -0.2527570426464081 3.0 4 -0.045155130326747894
2.152984857559204 -2.090033531188965 0.47524794936180115 87.0 12 -0.045152824372053146
2.13828444480896 -2.0764882564544678 -0.26076996326446533 68.0 5 -0.0451505221426487
2.166170358657837 -2.1035680770874023 0.5869284868240356 87.0 13 -0.04514821618795395
2.1546080112457275 -2.0930705070495605 -0.15742656588554382 100.0 6 -0.0451459139585495
2.1675949096679688 -2.1064224243164062 0.6977982521057129 90.0 14 -0.04514360800385475
2.1364312171936035 -2.0768630504608154 -0.05200817435979843 74.0 7 -0.0451413057744503
2.145310640335083 -2.086223602294922 0.8018214106559753 84.0 15 -0.045138999819755554
1.0564956665039062 -1.0306309461593628 -0.3954755365848541 6.0 0 -0.045130252838134766
2.1324398517608643 -2.080960750579834 0.05200817435979843 79.0 8 -0.045127950608730316
1.5478525161743164 -1.511013388633728 -0.4993913471698761 1.0 1 -0.04512564465403557
2.1476919651031494 -2.097309112548828 0.15732190012931824 76.0 9 -0.04512334242463112
1.5310227870941162 -1.4951063394546509 -0.41596361994743347 1.0 2 -0.04512103646993637
2.13638973236084 -2.0870001316070557 0.2612929046154022 66.0 10 -0.04511873424053192
1.5088697671890259 -1.4745023250579834 -0.33414405584335327 1.0 3 -0.04511642828583717
2.1448731422424316 -2.0967514514923096 0.36828917264938354 87.0 11 -0.045114126056432724
1.4660991430282593 -1.4337067604064941 -0.25178205966949463 4.0 4 -0.045111820101737976
2.1392955780029297 -2.092759847640991 0.47399649024009705 91.0 12 -0.04510951787233353
2.124962568283081 -2.0787386894226074 -0.2600727379322052 68.0 5 -0.04510721191763878
2.148254871368408 -2.1022579669952393 0.5842571258544922 81.0 13 -0.04510490968823433
2.145128011703491 -2.099931478500366 -0.15732190012931824 93.0 6 -0.04510260373353958
2.1580986976623535 -2.11336612701416 0.6973482966423035 95.0 14 -0.04510030150413513
2.1312975883483887 -2.0878496170043945 -0.05207798257470131 72.0 7 -0.045097995549440384
2.131765365600586 -2.0890369415283203 0.7997508645057678 86.0 15 -0.045095693320035934
1.0570260286331177 -1.0383739471435547 -0.3970284163951874 6.0 0 -0.045074958354234695
2.119457721710205 -2.082785129547119 0.05186855047941208 81.0 8 -0.04507265239953995
1.5425686836242676 -1.5164072513580322 -0.4993913471698761 1.0 1 -0.0450703501701355
2.1389338970184326 -2.1033926010131836 0.15721723437309265 78.0 9 -0.04506804421544075
1.5173958539962769 -1.4921822547912598 -0.41367393732070923 1.0 2 -0.0450657419860363
2.129091501235962 -2.094444990158081 0.2612929046154022 64.0 10 -0.04506343603134155
1.4699221849441528 -1.4465069770812988 -0.3266351819038391 1.0 3 -0.0450611338019371
2.123394727706909 -2.090299606323242 0.3658517897129059 88.0 11 -0.045058827847242355
1.4667435884475708 -1.4443869590759277 -0.2527570426464081 7.0 4 -0.045056525617837906
2.1333844661712646 -2.1016006469726562 0.47430935502052307 96.0 12 -0.04505421966314316
2.1176934242248535 -2.0861434936523438 -0.2600727379322052 68.0 5 -0.04505191743373871
2.1325132846832275 -2.101475954055786 0.5819674730300903 81.0 13 -0.04504961147904396
2.1221392154693604 -2.091982841491699 -0.15617051720619202 79.0 6 -0.04504730924963951
2.1368329524993896 -2.107203483581543 0.6928492784500122 82.0 14 -0.04504500329494476
2.1239964962005615 -2.0952765941619873 -0.05207798257470131 74.0 7 -0.045042701065540314
2.11896014213562 -2.0910379886627197 0.7976803779602051 86.0 15 -0.045040395110845566
1.0520216226577759 -1.040698766708374 -0.3965107798576355 6.0 0 -0.04501966014504433
2.1093316078186035 -2.087357759475708 0.0517987422645092 81.0 8 -0.04501735791563988
1.542805790901184 -1.5272666215896606 -0.5011910200119019 1.0 1 -0.04501505196094513
2.117387294769287 -2.096792459487915 0.15617051720619202 73.0 9 -0.04501274973154068
1.5289180278778076 -1.5140470266342163 -0.4182533621788025 1.0 2 -0.04501044377684593
2.118936777114868 -2.099059820175171 0.26094430685043335 64.0 10 -0.04500814154744148
1.450832724571228 -1.4377247095108032 -0.32350650429725647 1.0 3 -0.045005835592746735
2.107626438140869 -2.0893137454986572 0.3643893897533417 82.0 11 -0.045003533363342285
1.4518259763717651 -1.439713716506958 -0.2510508894920349 3.0 4 -0.04500122740864754
2.126035451889038 -2.109035015106201 0.47430935502052307 96.0 12 -0.04499892517924309
2.110398530960083 -2.0935230255126953 -0.2600727379322052 70.0 5 -0.04499661922454834
2.118197202682495 -2.101992607116699 0.5800594091415405 83.0 13 -0.04499431699514389
2.1049017906188965 -2.0895280838012695 -0.15543779730796814 84.0 6 -0.04499201104044914
2.1294643878936768 -2.114649534225464 0.6928492784500122 95.0 14 -0.04498970881104469
2.110995054244995 -2.0970406532287598 -0.051938362419605255 74.0 7 -0.044987406581640244
2.108907461166382 -2.095698118209839 0.7966450452804565 84.0 15 -0.044985100626945496
1.0511196851730347 -1.0470914840698242 -0.39754605293273926 6.0 0 -0.04496436566114426
2.0963666439056396 -2.0890614986419678 0.05165912210941315 81.0 8 -0.04496205970644951
1.523663878440857 -1.5188846588134766 -0.4966919720172882 1.0 1 -0.04495975747704506
2.0959126949310303 -2.0900678634643555 0.15512380003929138 76.0 9 -0.04495745152235031
1.4763579368591309 -1.4722408056259155 -0.4052783250808716 1.0 2 -0.04495514929294586
2.1087758541107178 -2.1036291122436523 0.2605956792831421 66.0 10 -0.044952843338251114
1.4625844955444336 -1.459524393081665 -0.32726091146469116 2.0 3 -0.044950541108846664
2.097510576248169 -2.093852996826172 0.36390188336372375 79.0 11 -0.044948235154151917
1.4538147449493408 -1.4517862796783447 -0.25226956605911255 4.0 4 -0.04494593292474747
2.1088781356811523 -2.106670618057251 0.4721192717552185 87.0 12 -0.04494363069534302
2.0960302352905273 -2.0938360691070557 -0.25920116901397705 75.0 5 -0.04494132474064827
2.113624334335327 -2.112149238586426 0.5808225870132446 82.0 13 -0.04493902251124382
2.0947701930999756 -2.094038963317871 -0.15522846579551697 82.0 6 -0.04493671655654907
2.109668016433716 -2.109668016433716 0.6888001561164856 90.0 14 -0.04493441432714462
2.0937659740448 -2.094496726989746 -0.051694028079509735 77.0 7 -0.044932108372449875
2.101579189300537 -2.1030468940734863 0.7966450452804565 82.0 15 -0.044929806143045425
1.044730544090271 -1.0480178594589233 -0.3965107798576355 6.0 0 -0.04490906745195389
2.0862386226654053 -2.093533754348755 0.05158931389451027 84.0 8 -0.04490676522254944
1.526604413986206 -1.5324774980545044 -0.4993913471698761 1.0 1 -0.04490445926785469
2.086150884628296 -2.0941765308380127 0.15491443872451782 79.0 9 -0.04490215703845024
1.437962293624878 -1.443998098373413 -0.39611950516700745 2.0 2 -0.04489985108375549
2.0887691974639893 -2.098268985748291 0.2590268552303314 68.0 10 -0.044897548854351044
1.446333885192871 -1.4534193277359009 -0.32475799322128296 2.0 3 -0.044895246624946594
2.092989206314087 -2.1039767265319824 0.3643893897533417 82.0 11 -0.044892940670251846
1.4277421236038208 -1.4357383251190186 -0.24861349165439606 2.0 4 -0.0448906384408474
2.0907373428344727 -2.1024467945098877 0.4696163237094879 91.0 12 -0.04488833248615265
2.0774712562561035 -2.0898358821868896 -0.2578066885471344 75.0 5 -0.0448860302567482
2.1020870208740234 -2.1153364181518555 0.5796777606010437 78.0 13 -0.04488372430205345
2.0860402584075928 -2.099921464920044 -0.15512380003929138 79.0 6 -0.044881422072649
2.1022911071777344 -2.1170191764831543 0.6888001561164856 100.0 14 -0.044879116117954254
2.0783543586730957 -2.0929148197174072 -0.051484595984220505 79.0 7 -0.044876813888549805
2.0837056636810303 -2.09903621673584 0.7925038933753967 80.0 15 -0.04487450793385506
1.0329115390777588 -1.043420672416687 -0.3934049606323242 6.0 0 -0.04485377296805382
2.06803035736084 -2.089071273803711 0.05131007358431816 79.0 8 -0.04485146701335907
1.463943600654602 -1.479354739189148 -0.48049548268318176 2.0 1 -0.04484916478395462
2.0816376209259033 -2.104285717010498 0.15512380003929138 79.0 9 -0.04484686255455017
1.4398152828216553 -1.4559886455535889 -0.39802759885787964 2.0 2 -0.04484455659985542
2.07582950592041 -2.099879741668701 0.2583296298980713 70.0 10 -0.044842254370450974
1.4317851066589355 -1.448373556137085 -0.3225679099559784 2.0 3 -0.044839948415756226
2.0804190635681152 -2.105257749557495 0.3634144067764282 79.0 11 -0.044837646186351776
2.071681261062622 -2.0971474647521973 -0.3619519770145416 39.0 4 -0.04483534023165703
2.0806095600128174 -2.1069211959838867 0.46899059414863586 78.0 12 -0.04483303800225258
2.061765432357788 -2.0885674953460693 -0.2567608058452606 80.0 5 -0.04483073204755783
2.0895438194274902 -2.1167068481445312 0.578151285648346 81.0 13 -0.04482842981815338
2.077662229537964 -2.105405807495117 -0.1550191193819046 84.0 6 -0.04482612386345863
2.0747311115264893 -2.1031694412231445 0.6820515990257263 85.0 14 -0.044823821634054184
2.068228006362915 -2.097309112548828 -0.05141478776931763 77.0 7 -0.044821515679359436
2.065516233444214 -2.0952908992767334 0.7883628606796265 82.0 15 -0.04481921344995499
1.0389273166656494 -1.0564820766448975 -0.3970284163951874 6.0 0 -0.04479847848415375
2.0495104789733887 -2.084868907928467 0.05103083327412605 81.0 8 -0.044796172529459
1.4751613140106201 -1.5011351108551025 -0.4858942925930023 2.0 1 -0.04479387030005455
2.0714802742004395 -2.108689546585083 0.15491443872451782 79.0 9 -0.0447915643453598
1.458367943763733 -1.484564185142517 -0.4045150876045227 1.0 2 -0.04478926211595535
2.063270330429077 -2.1010658740997314 0.25763237476348877 70.0 10 -0.044786956161260605
1.4391748905181885 -1.4660496711730957 -0.325383722782135 1.0 3 -0.044784653931856155
2.0619349479675293 -2.1011722087860107 0.3614645004272461 79.0 11 -0.04478234797716141
2.0573976039886475 -2.097280740737915 -0.3607332706451416 60.0 4 -0.04478004574775696
2.073242664337158 -2.114170789718628 0.46899059414863586 78.0 12 -0.04477773979306221
2.05482816696167 -2.095392942428589 -0.2567608058452606 77.0 5 -0.04477543756365776
2.0670244693756104 -2.1085662841796875 0.5739535093307495 82.0 13 -0.04477313160896301
2.059117078781128 -2.1012332439422607 -0.15418173372745514 84.0 6 -0.04477082937955856
2.087832450866699 -2.1312801837921143 0.6888001561164856 100.0 14 -0.044768523424863815
2.0552978515625 -2.0988011360168457 -0.05127517133951187 79.0 7 -0.044766221195459366
2.0554866790771484 -2.099726915359497 0.7873275279998779 84.0 15 -0.04476391524076462
1.0365827083587646 -1.0614843368530273 -0.39754605293273926 6.0 0 -0.04474318027496338
2.039426803588867 -2.08914852142334 0.050961025059223175 86.0 8 -0.04474087804555893
1.4454138278961182 -1.481170654296875 -0.4777960777282715 2.0 1 -0.04473857209086418
2.0543441772460938 -2.1058998107910156 0.15418173372745514 81.0 9 -0.04473626986145973
1.4504350423812866 -1.4868351221084595 -0.4037518799304962 1.0 2 -0.044733963906764984
2.054533004760742 -2.1068289279937744 0.25745806097984314 76.0 10 -0.044731661677360535
1.4395642280578613 -1.476722240447998 -0.3266351819038391 1.0 3 -0.04472935572266579
2.043504476547241 -2.0969834327697754 0.35951459407806396 83.0 11 -0.04472705349326134
2.043138265609741 -2.0973401069641113 -0.35951459407806396 75.0 4 -0.04472474753856659
2.061715602874756 -2.1171493530273438 0.4680519700050354 74.0 12 -0.04472244530916214
2.0447213649749756 -2.099698066711426 -0.25641217827796936 75.0 5 -0.04472013935446739
2.0582821369171143 -2.1143617630004883 0.5735718607902527 81.0 13 -0.04471783712506294
2.0406265258789062 -2.096957206726074 -0.15334436297416687 84.0 6 -0.044715531170368195
2.051844835281372 -2.1092214584350586 0.6793522238731384 83.0 14 -0.044713228940963745
2.045171022415161 -2.103095531463623 -0.051205363124608994 79.0 7 -0.044710926711559296
2.048145055770874 -2.106889247894287 0.7873275279998779 80.0 15 -0.04470862075686455
1.027491807937622 -1.0595488548278809 -0.3954755365848541 6.0 0 -0.04468788579106331
2.034905433654785 -2.0991263389587402 0.05103083327412605 84.0 8 -0.04468557983636856
1.4483718872070312 -1.4946037530899048 -0.48049548268318176 2.0 1 -0.04468327760696411
2.0404000282287598 -2.105529308319092 0.15365837514400482 79.0 9 -0.04468097165226936
1.437040090560913 -1.4834284782409668 -0.4014621376991272 1.0 2 -0.044678669422864914
2.0485522747039795 -2.1154186725616455 0.25763237476348877 70.0 10 -0.044676363468170166
2.026571750640869 -2.093452215194702 -0.4614817202091217 79.0 3 -0.04467406123876572
2.0334110260009766 -2.1012508869171143 0.35902711749076843 83.0 11 -0.04467175528407097
2.0275235176086426 -2.0958988666534424 -0.35805216431617737 78.0 4 -0.04466945305466652
2.0423223972320557 -2.111196756362915 0.4652361571788788 78.0 12 -0.04466714709997177
2.034609794616699 -2.1039583683013916 -0.2560635805130005 75.0 5 -0.04466484487056732
2.054982900619507 -2.1257684230804443 0.5747166872024536 82.0 13 -0.04466254264116287
2.034682035446167 -2.105503797531128 -0.15344904363155365 90.0 6 -0.044660236686468124
2.045823812484741 -2.117772340774536 0.6798021197319031 90.0 14 -0.044657934457063675
2.0284602642059326 -2.0997982025146484 -0.050961025059223175 84.0 7 -0.04465562850236893
2.0384631156921387 -2.1108901500701904 0.7862922549247742 82.0 15 -0.04465332627296448
1.023787021636963 -1.0631290674209595 -0.3954755365848541 7.0 0 -0.04463258758187294
2.0251593589782715 -2.1029820442199707 0.050961025059223175 89.0 8 -0.04463028535246849
1.4515165090560913 -1.5078219175338745 -0.48319488763809204 2.0 1 -0.04462797939777374
2.027498245239258 -2.106882333755493 0.15323969721794128 79.0 9 -0.04462567716836929
1.4645191431045532 -1.5223923921585083 -0.4106209874153137 1.0 2 -0.044623371213674545
2.0314881801605225 -2.112504005432129 0.25641217827796936 76.0 10 -0.044621068984270096
2.0209877490997314 -2.1015846729278564 -0.46179458498954773 99.0 3 -0.04461876302957535
2.0264320373535156 -2.1079823970794678 0.35902711749076843 83.0 11 -0.0446164608001709
2.0178112983703613 -2.099748134613037 -0.35756468772888184 78.0 4 -0.04461415857076645
2.0294666290283203 -2.112614393234253 0.4639846682548523 82.0 12 -0.0446118526160717
2.018972873687744 -2.1024253368377686 -0.2550176978111267 85.0 5 -0.04460955038666725
2.0452024936676025 -2.1297390460968018 0.5739535093307495 85.0 13 -0.044607244431972504
2.026305675506592 -2.1107985973358154 -0.15334436297416687 95.0 6 -0.044604942202568054
2.036090850830078 -2.1217329502105713 0.6789023280143738 90.0 14 -0.044602636247873306
2.003121852874756 -2.088106393814087 -0.05050726234912872 81.0 7 -0.04460033401846886
2.0177109241485596 -2.1040494441986084 0.7811158895492554 88.0 15 -0.04459802806377411
1.012243390083313 -1.0581424236297607 -0.39236968755722046 6.0 0 -0.04457729309797287
2.003985643386841 -2.095586061477661 0.05061197653412819 84.0 8 -0.04457498714327812
1.4866424798965454 -1.5551387071609497 -0.4966919720172882 1.0 1 -0.04457268491387367
2.018751621246338 -2.1125028133392334 0.1531350165605545 81.0 9 -0.044570378959178925
1.5110052824020386 -1.5811766386032104 -0.42512246966362 4.0 2 -0.044568076729774475
2.0134618282318115 -2.107703685760498 0.2550176978111267 75.0 10 -0.044565774500370026
2.002725601196289 -2.0971977710723877 -0.45929163694381714 97.0 3 -0.04456346854567528
2.0135786533355713 -2.109299659729004 0.35805216431617737 83.0 11 -0.04456116631627083
2.0077285766601562 -2.1039063930511475 -0.3570772111415863 83.0 4 -0.04455886036157608
2.0152623653411865 -2.112539291381836 0.4624203145503998 84.0 12 -0.04455655813217163
1.9982374906539917 -2.0946924686431885 -0.2532745897769928 77.0 5 -0.04455425217747688
2.0242068767547607 -2.122657537460327 0.5701373219490051 76.0 13 -0.044551949948072433
2.016169309616089 -2.1149675846099854 -0.1531350165605545 94.0 6 -0.044549643993377686
2.0273280143737793 -2.1274163722991943 0.6784523725509644 86.0 14 -0.044547341763973236
2.0027172565460205 -2.102325201034546 -0.050681788474321365 91.0 7 -0.04454503580927849
1.9996962547302246 -2.0998878479003906 0.7769747972488403 88.0 15 -0.04454273357987404
1.0165268182754517 -1.070073127746582 -0.3954755365848541 6.0 0 -0.0445219986140728
1.988396406173706 -2.0938684940338135 0.050402551889419556 81.0 8 -0.04451969265937805
1.4637632369995117 -1.5419453382492065 -0.4908432364463806 8.0 1 -0.0445173904299736
2.0113654136657715 -2.1195366382598877 0.1531350165605545 81.0 9 -0.044515084475278854
1.5108821392059326 -1.5921374559402466 -0.42664891481399536 5.0 2 -0.044512782245874405
2.0019783973693848 -2.1103827953338623 0.2544947564601898 72.0 10 -0.04451047629117966
1.9872369766235352 -2.0955755710601807 -0.4574144184589386 97.0 3 -0.04450817406177521
1.998009204864502 -2.1076712608337402 0.35658973455429077 82.0 11 -0.04450586810708046
1.9976414442062378 -2.108020067214966 -0.35658973455429077 76.0 4 -0.04450356587767601
2.007875919342041 -2.119560956954956 0.4624203145503998 84.0 12 -0.04450125992298126
1.993653655052185 -2.1045477390289307 -0.25362318754196167 83.0 5 -0.04449895769357681
2.005985975265503 -2.1183061599731445 0.5670843720436096 78.0 13 -0.044496651738882065
1.9922977685928345 -2.1045873165130615 -0.1518789678812027 99.0 6 -0.044494349509477615
2.0198893547058105 -2.1344799995422363 0.6784523725509644 95.0 14 -0.04449204355478287
1.9939923286437988 -2.1078505516052246 -0.050646886229515076 81.0 7 -0.04448974132537842
1.9896994829177856 -2.104048013687134 0.7759395241737366 88.0 15 -0.04448743537068367
1.0101341009140015 -1.0708043575286865 -0.394440233707428 7.0 0 -0.04446670040488243
1.978331446647644 -2.097886562347412 0.05033273994922638 81.0 8 -0.04446439817547798
1.9810330867767334 -2.1014859676361084 -0.666754961013794 90.0 1 -0.044462092220783234
1.9902567863464355 -2.112009286880493 0.15208829939365387 84.0 9 -0.044459789991378784
1.4918508529663086 -1.5831137895584106 -0.42283275723457336 4.0 2 -0.044457484036684036
1.9986982345581055 -2.121708869934082 0.2550176978111267 84.0 10 -0.04445518180727959
1.974493384361267 -2.0967471599578857 -0.4561629593372345 97.0 3 -0.04445287585258484
1.9824758768081665 -2.1059606075286865 0.3551272749900818 82.0 11 -0.04445057362318039
1.9793875217437744 -2.103415012359619 -0.35463979840278625 83.0 4 -0.04444826766848564
1.9950510263442993 -2.1208016872406006 0.4611688554286957 86.0 12 -0.04444596543908119
1.983565092086792 -2.1085917949676514 -0.2532745897769928 85.0 5 -0.044443659484386444
1.9905097484588623 -2.1167142391204834 0.564794659614563 78.0 13 -0.044441357254981995
1.9739954471588135 -2.0998871326446533 -0.15104158222675323 100.0 6 -0.04443905130028725
1.988405466079712 -2.1159560680389404 0.6703541874885559 76.0 14 -0.0444367490708828
1.9852534532546997 -2.1133406162261963 -0.05061197653412819 91.0 7 -0.04443444311618805
1.9796980619430542 -2.108164072036743 0.7749042510986328 88.0 15 -0.0444321408867836
1.0090316534042358 -1.077143669128418 -0.3954755365848541 6.0 0 -0.04441140592098236
1.9709964990615845 -2.1047792434692383 0.05033273994922638 84.0 8 -0.04440909996628761
1.959035873413086 -2.0927391052246094 -0.661806046962738 71.0 1 -0.04440679773688316
1.974684476852417 -2.1101937294006348 0.15146027505397797 81.0 9 -0.044404491782188416
1.482291579246521 -1.584011197090149 -0.42168790102005005 5.0 2 -0.044402189552783966
1.9858356714248657 -2.1228528022766113 0.2543204724788666 79.0 10 -0.04439988359808922
1.9644638299942017 -2.100741147994995 -0.45553722977638245 97.0 3 -0.04439758136868477
1.97240149974823 -2.1099674701690674 0.35463979840278625 83.0 11 -0.04439527541399002
1.969322681427002 -2.1074111461639404 -0.3541523516178131 83.0 4 -0.04439297318458557
1.9808934926986694 -2.120535135269165 0.45960453152656555 88.0 12 -0.04439066722989082
1.976192593574524 -2.1155028343200684 -0.2532745897769928 83.0 5 -0.044388365000486374
1.9951683282852173 -2.136563539505005 0.5682291984558105 81.0 13 -0.044386059045791626
1.9721049070358276 -2.1126046180725098 -0.15146027505397797 100.0 6 -0.044383756816387177
1.9836665391921997 -2.1257336139678955 0.6712539792060852 77.0 14 -0.04438145458698273
1.9601317644119263 -2.101248264312744 -0.05015821382403374 95.0 7 -0.04437914863228798
1.9723271131515503 -2.1150617599487305 0.7749042510986328 86.0 15 -0.04437684640288353
1.000002384185791 -1.0750014781951904 -0.3934049606323242 6.0 0 -0.04435610771179199
1.960913896560669 -2.108717918395996 0.0502629317343235 81.0 8 -0.04435380548238754
1.9556993246078491 -2.103846549987793 -0.663155734539032 81.0 1 -0.044351499527692795
1.9645874500274658 -2.114147663116455 0.1512509286403656 84.0 9 -0.044349197298288345
1.4794260263442993 -1.5920518636703491 -0.42245110869407654 5.0 2 -0.0443468913435936
1.964853286743164 -2.1151742935180664 0.2525773346424103 81.0 10 -0.04434458911418915
1.9584629535675049 -2.1090331077575684 -0.4558500647544861 100.0 3 -0.0443422831594944
1.962323546409607 -2.1139299869537354 0.3541523516178131 82.0 11 -0.04433998093008995
1.9565534591674805 -2.108452081680298 -0.35317739844322205 80.0 4 -0.0443376749753952
1.9627323150634766 -2.1158511638641357 0.4571015536785126 92.0 12 -0.04433537274599075
1.9525363445281982 -2.1048598289489746 -0.2511828541755676 83.0 5 -0.044333070516586304
1.974349021911621 -2.129119396209717 0.5644130706787109 81.0 13 -0.044330764561891556
1.9565719366073608 -2.110687494277954 -0.15083225071430206 94.0 6 -0.044328462332487106
1.9722604751586914 -2.12835693359375 0.6699042916297913 81.0 14 -0.04432615637779236
1.950067162513733 -2.1051437854766846 -0.05008840560913086 88.0 7 -0.04432385414838791
1.9557440280914307 -2.112011671066284 0.771280825138092 91.0 15 -0.04432154819369316
0.988378643989563 -1.0699710845947266 -0.39029911160469055 6.0 0 -0.04430081322789192
1.94268798828125 -2.10379695892334 0.04998369142413139 84.0 8 -0.044298507273197174
1.9457001686096191 -2.1077964305877686 -0.6622559428215027 81.0 1 -0.044296205043792725
1.957195520401001 -2.120992660522461 0.1512509286403656 84.0 9 -0.04429389908909798
1.4685341119766235 -1.5914353132247925 -0.42092466354370117 5.0 2 -0.04429159685969353
1.949352502822876 -2.1132328510284424 0.2515314817428589 81.0 10 -0.04428929463028908
1.93635892868042 -2.0998823642730713 -0.4524085223674774 104.0 3 -0.04428698867559433
1.9576231241226196 -2.123685836791992 0.35463979840278625 82.0 11 -0.04428468644618988
1.9464911222457886 -2.112349271774292 -0.3526898920536041 83.0 4 -0.04428238049149513
1.9580111503601074 -2.1255953311920166 0.4577272832393646 92.0 12 -0.04428007826209068
1.9370776414871216 -2.102869987487793 -0.25013697147369385 83.0 5 -0.044277772307395935
1.956265926361084 -2.1244444847106934 0.5613601207733154 81.0 13 -0.044275470077991486
1.947839379310608 -2.116034746170044 -0.15072757005691528 100.0 6 -0.04427316412329674
1.959540843963623 -2.1294920444488525 0.6681046485900879 81.0 14 -0.04427086189389229
1.9481221437454224 -2.1178250312805176 -0.05022802576422691 102.0 7 -0.04426855593919754
1.9457446336746216 -2.115981101989746 0.7702454924583435 91.0 15 -0.04426625370979309
0.9950849413871765 -1.084803581237793 -0.394440233707428 6.0 0 -0.04424551501870155
1.9272236824035645 -2.101722240447998 0.04977426677942276 76.0 8 -0.044243212789297104
1.9277961254119873 -2.1030831336975098 -0.6586567759513855 81.0 1 -0.044240910559892654
1.9461026191711426 -2.123054027557373 0.15093690156936646 76.0 9 -0.044238604605197906
1.4815391302108765 -1.6168161630630493 -0.4262673258781433 5.0 2 -0.04423630237579346
1.9419642686843872 -2.1200246810913086 0.2515314817428589 81.0 10 -0.04423399642109871
1.9263492822647095 -2.103714942932129 -0.45178279280662537 104.0 3 -0.04423169419169426
1.9367949962615967 -2.115863800048828 0.3522024154663086 79.0 11 -0.04422938823699951
1.939475655555725 -2.1187922954559326 -0.3526898920536041 85.0 4 -0.04422708600759506
1.946951150894165 -2.127704620361328 0.45678868889808655 96.0 12 -0.044224780052900314
1.932415246963501 -2.1125590801239014 -0.2504855990409851 83.0 5 -0.044222477823495865
1.938239574432373 -2.119669198989868 0.5583071708679199 81.0 13 -0.04422017186880112
1.9337036609649658 -2.115450382232666 -0.15020421147346497 100.0 6 -0.04421786963939667
1.9537831544876099 -2.1374170780181885 0.6685545444488525 85.0 14 -0.04421556368470192
1.9356929063796997 -2.118368625640869 -0.05008840560913086 95.0 7 -0.04421326145529747
1.9308995008468628 -2.113863706588745 0.767139732837677 91.0 15 -0.04421095550060272
0.9888797402381897 -1.085241675376892 -0.3934049606323242 6.0 0 -0.04419022053480148
1.9175504446029663 -2.105144739151001 0.049704451113939285 81.0 8 -0.044187918305397034
1.912939190864563 -2.1008191108703613 -0.6559573411941528 81.0 1 -0.044185612350702286
1.9296387434005737 -2.119158983230591 0.15020421147346497 87.0 9 -0.044183310121297836
1.4761693477630615 -1.621720314025879 -0.4262673258781433 6.0 2 -0.04418100416660309
1.9376049041748047 -2.1294000148773193 0.25188007950782776 81.0 10 -0.04417870193719864
1.9193624258041382 -2.1100914478302 -0.45178279280662537 104.0 3 -0.04417639598250389
1.919084072113037 -2.110525131225586 0.35025250911712646 83.0 11 -0.04417409375309944
1.913742184638977 -2.1046502590179443 -0.3492775857448578 83.0 4 -0.044171787798404694
1.9292550086975098 -2.12245512008667 0.45428574085235596 86.0 12 -0.044169485569000244
1.922719120979309 -2.116006374359131 -0.25013697147369385 83.0 5 -0.044167179614305496
1.9311996698379517 -2.126085042953491 0.5583071708679199 87.0 13 -0.04416487738490105
1.917279601097107 -2.1115005016326904 -0.14947150647640228 100.0 6 -0.0441625714302063
1.933584451675415 -2.1294569969177246 0.664055585861206 77.0 14 -0.04416026920080185
1.9219372272491455 -2.117372751235962 -0.049913883209228516 91.0 7 -0.0441579632461071
1.9186866283416748 -2.114532470703125 0.7650691270828247 92.0 15 -0.04415566101670265
0.9852755665779114 -1.088515043258667 -0.3934049606323242 6.0 0 -0.04413492605090141
1.9051921367645264 -2.1055610179901123 0.04956483468413353 81.0 8 -0.044132620096206665
1.900733232498169 -2.101370334625244 -0.6541577577590942 83.0 1 -0.044130317866802216
1.9141925573349 -2.116992712020874 0.14957617223262787 81.0 9 -0.04412801191210747
1.4615663290023804 -1.616412878036499 -0.42359596490859985 5.0 2 -0.04412570968270302
1.927860975265503 -2.132857322692871 0.2515314817428589 83.0 10 -0.04412340372800827
1.9110302925109863 -2.114978790283203 -0.45146992802619934 107.0 3 -0.04412110149860382
1.9147356748580933 -2.119823694229126 0.350739985704422 82.0 11 -0.04411879554390907
1.906383752822876 -2.1113176345825195 -0.3492775857448578 78.0 4 -0.04411649331450462
1.9231582880020142 -2.130642890930176 0.454598605632782 92.0 12 -0.044114187359809875
1.912651777267456 -2.119746685028076 -0.24978835880756378 85.0 5 -0.044111885130405426
1.9267691373825073 -2.135392665863037 0.559070348739624 81.0 13 -0.04410957917571068
1.906253695487976 -2.1133973598480225 -0.14915749430656433 96.0 6 -0.04410727694630623
1.9222244024276733 -2.1318516731262207 0.6627058386802673 81.0 14 -0.04410497099161148
1.9024853706359863 -2.1107003688812256 -0.04959974065423012 88.0 7 -0.04410266876220703
1.9087073802947998 -2.118346929550171 0.764033854007721 98.0 15 -0.04410036653280258
0.9812794327735901 -1.0921188592910767 -0.3934049606323242 7.0 0 -0.044079627841711044
1.8978309631347656 -2.1121985912323 0.04956483468413353 81.0 8 -0.044077325612306595
1.8933864831924438 -2.107992172241211 -0.6541577577590942 81.0 1 -0.04407501965761185
1.9041224718093872 -2.1206891536712646 0.1493668258190155 81.0 9 -0.0440727174282074
1.4543207883834839 -1.620297908782959 -0.4232143759727478 5.0 2 -0.04407041147351265
1.9093859195709229 -2.1280453205108643 0.25013697147369385 81.0 10 -0.0440681092441082
1.9019464254379272 -2.1204984188079834 -0.4511570334434509 111.0 3 -0.04406580328941345
1.9020227193832397 -2.1205835342407227 0.34976503252983093 78.0 11 -0.044063501060009
1.893701434135437 -2.1120471954345703 -0.34830260276794434 80.0 4 -0.044061195105314255
1.906480312347412 -2.1270461082458496 0.4524085223674774 96.0 12 -0.044058892875909805
1.8919453620910645 -2.1115713119506836 -0.24804525077342987 83.0 5 -0.04405658692121506
1.9163099527359009 -2.1395153999328613 0.5583071708679199 85.0 13 -0.04405428469181061
1.8958303928375244 -2.117393970489502 -0.14894814789295197 99.0 6 -0.04405198246240616
1.9078997373580933 -2.131622314453125 0.6604563593864441 85.0 14 -0.04404967650771141
1.8951059579849243 -2.117328405380249 -0.04959974065423012 95.0 7 -0.04404737427830696
1.893572449684143 -2.1163582801818848 0.7609279751777649 92.0 15 -0.04404506832361221
0.9748888611793518 -1.0926544666290283 -0.39236968755722046 6.0 0 -0.044024333357810974
1.8794279098510742 -2.10720157623291 0.04928559437394142 76.0 8 -0.044022027403116226
1.8856476545333862 -2.114917516708374 -0.6541577577590942 83.0 1 -0.04401972517371178
1.8963369131088257 -2.1276538372039795 0.1493668258190155 84.0 9 -0.04401741921901703
1.440818428993225 -1.6165707111358643 -0.42092466354370117 5.0 2 -0.04401511698961258
1.893993616104126 -2.125771999359131 0.24909110367298126 77.0 10 -0.04401281103491783
1.8827087879180908 -2.1138484477996826 -0.4483412504196167 107.0 3 -0.04401050880551338
1.896877646446228 -2.1305055618286133 0.35025250911712646 79.0 11 -0.04400820657610893
1.8833081722259521 -2.1160082817077637 -0.3478151261806488 80.0 4 -0.044005900621414185
1.8934189081192017 -2.1281163692474365 0.4511570334434509 96.0 12 -0.044003598392009735
1.8792654275894165 -2.112208604812622 -0.24734798073768616 85.0 5 -0.04400129243731499
1.9010015726089478 -2.1373894214630127 0.5560173988342285 83.0 13 -0.04399899020791054
1.885773777961731 -2.121013641357422 -0.1487388014793396 94.0 6 -0.04399668425321579
1.8991527557373047 -2.136812686920166 0.6600064635276794 81.0 14 -0.04399438202381134
1.8860044479370117 -2.122765064239502 -0.04956483468413353 91.0 7 -0.04399207606911659
1.8832371234893799 -2.1203954219818115 0.7598927617073059 94.0 15 -0.04398977383971214
0.9736311435699463 -1.098942756652832 -0.3934049606323242 6.0 0 -0.043969035148620605
1.864106297492981 -2.104767084121704 0.04907616600394249 81.0 8 -0.043966732919216156
1.8653358221054077 -2.106896162033081 -0.649658739566803 83.0 1 -0.04396443068981171
1.883603811264038 -2.1282780170440674 0.14894814789295197 81.0 9 -0.04396212473511696
1.4377690553665161 -1.6245306730270386 -0.42168790102005005 5.0 2 -0.04395982250571251
1.883921504020691 -2.1293859481811523 0.24874247610569 81.0 10 -0.04395751655101776
1.8740098476409912 -2.1189279556274414 -0.4480283558368683 111.0 3 -0.04395521432161331
1.881540298461914 -2.1281909942626953 0.34879010915756226 78.0 11 -0.043952908366918564
1.8785395622253418 -2.125544309616089 -0.34830260276794434 80.0 4 -0.043950606137514114
1.880747675895691 -2.128790855407715 0.4499055743217468 86.0 12 -0.043948300182819366
1.8692431449890137 -2.115769147872925 -0.2469993680715561 80.0 5 -0.04394599795341492
1.8779336214065552 -2.1263539791107178 0.55143803358078 83.0 13 -0.04394369199872017
1.8717492818832397 -2.1200969219207764 -0.14821544289588928 100.0 6 -0.04394138976931572
1.8929717540740967 -2.144890069961548 0.6604563593864441 85.0 14 -0.04393908381462097
1.8759374618530273 -2.1263363361358643 -0.04949502646923065 98.0 7 -0.04393678158521652
1.873268485069275 -2.124058723449707 0.7588574886322021 92.0 15 -0.043934475630521774
0.9672369360923767 -1.0994337797164917 -0.39236968755722046 6.0 0 -0.043913740664720535
1.8567478656768799 -2.1112611293792725 0.04907616600394249 81.0 8 -0.043911438435316086
1.8553963899612427 -2.1104674339294434 -0.6487588882446289 81.0 1 -0.04390913248062134
1.8682525157928467 -2.1258385181427 0.14832010865211487 81.0 9 -0.04390683025121689
1.4398657083511353 -1.638387680053711 -0.4239776134490967 5.0 2 -0.04390452429652214
1.873847246170044 -2.132955551147461 0.24839386343955994 79.0 10 -0.04390222206711769
1.8600845336914062 -2.118035078048706 -0.44646400213241577 107.0 3 -0.04389991611242294
1.8610035181045532 -2.1198277473449707 0.3463527262210846 82.0 11 -0.043897613883018494
1.8580148220062256 -2.117168426513672 -0.3458652198314667 76.0 4 -0.043895307928323746
1.8772133588790894 -2.1397979259490967 0.4508441984653473 88.0 12 -0.043893005698919296
1.8618460893630981 -2.122281312942505 -0.2469993680715561 88.0 5 -0.04389069974422455
1.870499849319458 -2.1328964233398438 0.55143803358078 81.0 13 -0.0438883975148201
1.857754111289978 -2.1191084384918213 -0.14769208431243896 94.0 6 -0.04388609156012535
1.8726294040679932 -2.136828660964966 0.6559573411941528 94.0 14 -0.0438837893307209
1.865868091583252 -2.1298632621765137 -0.049425214529037476 91.0 7 -0.043881483376026154
1.8582063913345337 -2.1218645572662354 0.7557516098022461 92.0 15 -0.043879181146621704
0.9659353494644165 -1.1057132482528687 -0.3934049606323242 6.0 0 -0.043858446180820465
1.846736192703247 -2.1147170066833496 0.04900635778903961 81.0 8 -0.04385614022612572
1.844173789024353 -2.1125266551971436 -0.6474091410636902 72.0 1 -0.04385383799672127
1.850314736366272 -2.1203083992004395 0.1474827378988266 84.0 9 -0.04385153204202652
1.4289741516113281 -1.6374868154525757 -0.42245110869407654 5.0 2 -0.04384922981262207
1.863770842552185 -2.1364803314208984 0.24804525077342987 77.0 10 -0.04384692385792732
1.8526798486709595 -2.1245152950286865 -0.44646400213241577 107.0 3 -0.04384462162852287
1.8562015295028687 -2.129303455352783 0.3468402028083801 79.0 11 -0.043842315673828125
1.8427882194519043 -2.1146621704101562 -0.3444027900695801 73.0 4 -0.043840013444423676
1.860649824142456 -2.135910987854004 0.44865408539772034 96.0 12 -0.04383770748972893
1.8518092632293701 -2.125762701034546 -0.24665075540542603 80.0 5 -0.04383540526032448
1.8604645729064941 -2.136451482772827 0.5506747961044312 83.0 13 -0.04383309930562973
1.8503457307815552 -2.125580310821533 -0.14769208431243896 96.0 6 -0.04383079707622528
1.8523664474487305 -2.1286516189575195 0.6514583230018616 92.0 14 -0.04382849112153053
1.8518598079681396 -2.128819704055786 -0.04925068840384483 95.0 7 -0.04382618889212608
1.8507884740829468 -2.128337860107422 0.7557516098022461 94.0 15 -0.043823882937431335
0.9595379829406738 -1.1061595678329468 -0.39236968755722046 6.0 0 -0.043801069259643555
1.8393431901931763 -2.121150493621826 0.04900635778903961 84.0 8 -0.043798767030239105
1.8355119228363037 -2.117478847503662 -0.6469593048095703 56.0 1 -0.04379646107554436
1.8442102670669556 -2.1282639503479004 0.14758741855621338 79.0 9 -0.04379415884613991
1.418107032775879 -1.6365302801132202 -0.42092466354370117 5.0 2 -0.04379185289144516
1.8484747409820557 -2.1339375972747803 0.2469993680715561 79.0 10 -0.04378955066204071
1.8465458154678345 -2.132462739944458 -0.4467768967151642 111.0 3 -0.04378724470734596
1.8435606956481934 -2.1297662258148193 0.3458652198314667 82.0 11 -0.04378494247794151
1.8327975273132324 -2.11807918548584 -0.34391531348228455 73.0 4 -0.043782636523246765
1.837674856185913 -2.124465227127075 0.44489967823028564 91.0 12 -0.043780334293842316
1.831343173980713 -2.117145299911499 -0.24490763247013092 80.0 5 -0.04377802833914757
1.852995753288269 -2.142932415008545 0.5506747961044312 83.0 13 -0.04377572610974312
1.840302586555481 -2.1290042400360107 -0.1474827378988266 92.0 6 -0.04377342015504837
1.8449246883392334 -2.1351046562194824 0.6514583230018616 92.0 14 -0.04377111792564392
