# .PCD v0.7 - Point Cloud Data file format
VERSION 0.7
FIELDS x y z intensity ring time
SIZE 4 4 4 4 4 4
TYPE F F F F F F
COUNT 1 1 1 1 1 1
WIDTH 532
HEIGHT 1
VIEWPOINT 0 0 0 1 0 0 0
POINTS 532
DATA ascii
0.6123616099357605 0.0659831315279007 0.010750683024525642 3.0 8 -0.009818090125918388
1.400856852531433 0.15069769322872162 -0.32527926564216614 46.0 1 -0.00981578603386879
0.6275251507759094 0.06739546358585358 0.03307632729411125 51.0 9 -0.009813481941819191
1.4757338762283325 0.1584920883178711 -0.2885032296180725 9.0 2 -0.009811177849769592
0.6398741006851196 0.06860877573490143 0.05630260705947876 6.0 10 -0.009808873757719994
0.624601423740387 0.06686094403266907 -0.09949233382940292 91.0 3 -0.009806569665670395
0.6316328644752502 0.06750213354825974 0.0779963880777359 61.0 11 -0.009804265573620796
0.6276968121528625 0.06697069108486176 -0.07750891149044037 33.0 4 -0.009801961481571198
0.6560646295547485 0.06988152861595154 0.1044982373714447 51.0 12 -0.009799658320844173
0.6399337649345398 0.06805038452148438 -0.05630260705947876 19.0 5 -0.009797354228794575
1.1440168619155884 0.1216544508934021 0.22362814843654633 22.0 13 -0.009795050136744976
0.6375374794006348 0.06768304854631424 -0.03359968587756157 44.0 6 -0.009792746044695377
1.1976138353347778 0.12693120539188385 0.27803951501846313 28.0 14 -0.009790441952645779
0.6363502740859985 0.06733240187168121 -0.01116954069584608 76.0 7 -0.00978813786059618
1.1565401554107666 0.12216973304748535 0.3116181492805481 0.0 15 -0.009785833768546581
1.4699047803878784 0.1531967967748642 -0.395993173122406 42.0 0 -0.009765097871422768
0.6324774026870728 0.0659182146191597 0.011099730618298054 3.0 8 -0.009762793779373169
1.3936212062835693 0.14500048756599426 -0.32347965240478516 48.0 1 -0.00976048968732357
0.6198102831840515 0.06437904387712479 0.03265763819217682 50.0 9 -0.009758185595273972
1.478257656097412 0.15328501164913177 -0.28888481855392456 23.0 2 -0.009755881503224373
0.6559756994247437 0.06790439784526825 0.057697102427482605 6.0 10 -0.009753578342497349
0.6385966539382935 0.06599242985248566 -0.10168241709470749 94.0 3 -0.00975127425044775
0.621991753578186 0.06427647918462753 0.07677769660949707 70.0 11 -0.009748970158398151
0.6220029592514038 0.06416822224855423 -0.07677769660949707 10.0 4 -0.009746666066348553
0.658269464969635 0.06779351830482483 0.10481110215187073 80.0 12 -0.009744361974298954
0.6480951905250549 0.06663107126951218 -0.05699985474348068 33.0 5 -0.009742057882249355
1.132737159729004 0.11625819653272629 0.2213384509086609 17.0 13 -0.009739753790199757
0.6357944011688232 0.06514247506856918 -0.033495016396045685 63.0 6 -0.009737449698150158
1.1689916849136353 0.11956628412008286 0.27129098773002625 21.0 14 -0.00973514560610056
0.6306134462356567 0.0645001232624054 -0.01106482557952404 73.0 7 -0.009732842445373535
1.1877092123031616 0.12127187103033066 0.31990036368370056 0.0 15 -0.009730538353323936
1.52232825756073 0.15329034626483917 -0.40996938943862915 31.0 0 -0.009709801524877548
0.6446526646614075 0.06479976326227188 0.011309158988296986 3.0 8 -0.009707498364150524
1.3941433429718018 0.13989128172397614 -0.32347965240478516 50.0 1 -0.009705194272100925
0.6160566210746765 0.061816420406103134 0.03244829550385475 49.0 9 -0.009702890180051327
1.4592489004135132 0.1461668759584427 -0.28506866097450256 25.0 2 -0.009700586088001728
0.6562087535858154 0.06561434268951416 0.057697102427482605 6.0 10 -0.00969828199595213
0.6348918676376343 0.06337065249681473 -0.10105667263269424 94.0 3 -0.00969597790390253
0.626173734664917 0.06239009648561478 0.077265165746212 69.0 11 -0.009693673811852932
0.6419874429702759 0.06385257095098495 -0.07921507954597473 5.0 4 -0.009691369719803333
0.640811026096344 0.06373556703329086 0.10199528187513351 78.0 12 -0.009689065627753735
0.6503064632415771 0.06456537544727325 -0.057174164801836014 100.0 5 -0.009686761535704136
1.1175066232681274 0.11075417697429657 0.21828550100326538 10.0 13 -0.009684458374977112
0.6499308943748474 0.06429900228977203 -0.03422771766781807 67.0 6 -0.009682154282927513
1.1597052812576294 0.11452767252922058 0.2690414786338806 7.0 14 -0.009679850190877914
0.6268547177314758 0.06190556287765503 -0.010995016433298588 68.0 7 -0.009677546098828316
1.172744870185852 0.11560874432325363 0.31575924158096313 0.0 15 -0.009675242006778717
1.4286370277404785 0.13882073760032654 -0.3846051096916199 19.0 0 -0.009654506109654903
0.6528253555297852 0.06343507766723633 0.011448778212070465 6.0 8 -0.009652202017605305
1.4062373638153076 0.13639643788337708 -0.32617905735969543 44.0 1 -0.009649897925555706
0.6242204904556274 0.060435615479946136 0.032866984605789185 49.0 9 -0.009647593833506107
1.4499794244766235 0.14012829959392548 -0.28316056728363037 32.0 2 -0.009645289741456509
0.6485010385513306 0.06255792826414108 0.05699985474348068 6.0 10 -0.00964298564940691
0.6350985765457153 0.06126505509018898 -0.10105667263269424 80.0 3 -0.009640681557357311
0.6362570524215698 0.06126473844051361 0.07848386466503143 76.0 11 -0.009638378396630287
0.6402195692062378 0.06153351813554764 -0.07897134125232697 5.0 4 -0.009636074304580688
0.6292315721511841 0.060366593301296234 0.10011807084083557 78.0 12 -0.00963377021253109
0.6346613764762878 0.060775432735681534 -0.055779676884412766 100.0 5 -0.009631466120481491
0.8129947185516357 0.07785271108150482 0.15875308215618134 15.0 13 -0.009629162028431892
0.6362230777740479 0.060813240706920624 -0.033495016396045685 44.0 6 -0.009626857936382294
1.1561987400054932 0.11031137406826019 0.26814165711402893 3.0 14 -0.009624553844332695
0.6171135306358337 0.05876900255680084 -0.01082049123942852 49.0 7 -0.009622249752283096
1.1885268688201904 0.11297657340765 0.31990036368370056 0.0 15 -0.009619945660233498
1.407932162284851 0.13209767639636993 -0.3789111077785492 47.0 0 -0.009599209763109684
0.6629977226257324 0.06208798661828041 0.011623302474617958 15.0 8 -0.009596905671060085
1.4202868938446045 0.1327560842037201 -0.32932838797569275 46.0 1 -0.009594601579010487
0.6284049153327942 0.05862750485539436 0.03307632729411125 49.0 9 -0.009592298418283463
1.4445717334747314 0.1347724050283432 -0.28201571106910706 43.0 2 -0.009589994326233864
0.6645753383636475 0.061884742230176926 0.05839434638619423 6.0 10 -0.009587690234184265
0.6195734143257141 0.05758512765169144 -0.09855373203754425 87.0 3 -0.009585386142134666
0.6463500261306763 0.059960365295410156 0.07970255613327026 81.0 11 -0.009583082050085068
0.6483371257781982 0.060030270367860794 -0.07994629442691803 5.0 4 -0.009580777958035469
0.6412403583526611 0.05926030874252319 0.10199528187513351 78.0 12 -0.00957847386598587
0.6209718585014343 0.05738719552755356 -0.05455949530005455 100.0 5 -0.009576169773936272
0.69009929895401 0.06365448236465454 0.1347111612558365 23.0 13 -0.009573865681886673
0.6364315152168274 0.05859186872839928 -0.033495016396045685 34.0 6 -0.009571561589837074
1.1507551670074463 0.10573957115411758 0.266791969537735 4.0 14 -0.009569257497787476
0.6073581576347351 0.05570179224014282 -0.010645967908203602 24.0 7 -0.009566954337060452
1.1773711442947388 0.10777083039283752 0.3167945444583893 1.0 15 -0.009564650245010853
1.4083846807479858 0.12718190252780914 -0.3789111077785492 60.0 0 -0.00954391434788704
0.6393109560012817 0.05761945620179176 0.01120444480329752 28.0 8 -0.00954161025583744
1.403273582458496 0.12622655928134918 -0.32527926564216614 50.0 1 -0.009539306163787842
0.6385520696640015 0.05732637271285057 0.03359968587756157 48.0 9 -0.009537002071738243
1.4489442110061646 0.13007979094982147 -0.28277894854545593 48.0 2 -0.009534697979688644
0.6449429988861084 0.057786352932453156 0.05665123090147972 6.0 10 -0.009532393887639046
0.6197705864906311 0.05542219430208206 -0.09855373203754425 83.0 3 -0.009530089795589447
0.6287602782249451 0.05611547455191612 0.07750891149044037 100.0 11 -0.009527785703539848
0.6524972915649414 0.058118849992752075 -0.08043377101421356 5.0 4 -0.00952548161149025
0.6473461985588074 0.05754648149013519 0.10293389111757278 70.0 12 -0.009523177519440651
0.6410139799118042 0.056983571499586105 -0.05630260705947876 100.0 5 -0.009520874358713627
0.6824949979782104 0.06055101752281189 0.13318468630313873 31.0 13 -0.009518570266664028
0.62270587682724 0.05513669177889824 -0.032762311398983 31.0 6 -0.00951626617461443
1.1452937126159668 0.1012076735496521 0.26544225215911865 5.0 14 -0.00951396208256483
0.6274685859680176 0.05533797666430473 -0.010995016433298588 18.0 7 -0.009511657990515232
1.1661936044692993 0.10264378041028976 0.3136886954307556 4.0 15 -0.009509353898465633
1.4068952798843384 0.12209820002317429 -0.3783934414386749 47.0 0 -0.00948861800134182
0.6295469999313354 0.05452489107847214 0.011029920540750027 48.0 8 -0.009486313909292221
1.3998225927352905 0.12099144607782364 -0.32437944412231445 50.0 1 -0.009484009817242622
0.6287989020347595 0.05423898249864578 0.03307632729411125 44.0 9 -0.009481705725193024
1.4552574157714844 0.12552769482135773 -0.28392380475997925 49.0 2 -0.009479401633143425
0.668961226940155 0.0575856976211071 0.05874297022819519 6.0 10 -0.009477097541093826
0.6199603080749512 0.05325828492641449 -0.09855373203754425 83.0 3 -0.009474794380366802
0.6230188012123108 0.05341149866580963 0.07677769660949707 94.0 11 -0.009472490288317204
0.6329174637794495 0.05414914712309837 -0.0779963880777359 5.0 4 -0.009470186196267605
0.6455749273300171 0.05511825159192085 0.10262101888656616 67.0 12 -0.009467882104218006
0.6332683563232422 0.05406753346323967 -0.05560535937547684 100.0 5 -0.009465578012168407
0.6885707974433899 0.05866813287138939 0.13432954251766205 46.0 13 -0.009463273920118809
0.6248845458030701 0.05313234403729439 -0.032866984605789185 28.0 6 -0.00946096982806921
1.1553488969802856 0.09803272783756256 0.2676917612552643 5.0 14 -0.009458665736019611
0.6256653666496277 0.052978478372097015 -0.010960111394524574 21.0 7 -0.009456361643970013
1.1819448471069336 0.09987448155879974 0.31782978773117065 5.0 15 -0.009454057551920414
1.4150137901306152 0.11782733350992203 -0.38046398758888245 25.0 0 -0.0094333216547966
0.6357119679450989 0.052823636680841446 0.011134634725749493 84.0 8 -0.009431017562747002
1.408004641532898 0.11674951761960983 -0.32617905735969543 43.0 1 -0.009428713470697403
0.6230130791664124 0.051549483090639114 0.032762311398983 20.0 9 -0.009426410309970379
1.4498170614242554 0.11996107548475266 -0.28277894854545593 51.0 2 -0.00942410621792078
0.635402500629425 0.05246296525001526 0.055779676884412766 14.0 10 -0.009421802125871181
0.6339234113693237 0.052229758352041245 -0.10074380785226822 91.0 3 -0.009419498033821583
0.6350719928741455 0.05221249908208847 0.07824012637138367 100.0 11 -0.009417193941771984
0.6212318539619446 0.05096548795700073 -0.07653395086526871 6.0 4 -0.009414889849722385
0.643794596195221 0.05270371213555336 0.10230815410614014 81.0 12 -0.009412585757672787
0.6433818936347961 0.05266992747783661 -0.05647691711783409 100.0 5 -0.009410281665623188
0.7024685144424438 0.05738325044512749 0.13700087368488312 45.0 13 -0.00940797757357359
0.6171035766601562 0.05030154436826706 -0.03244829550385475 15.0 6 -0.009405674412846565
1.1498569250106812 0.09352495521306992 0.26634204387664795 5.0 14 -0.009403370320796967
0.6198671460151672 0.050309017300605774 -0.010855397209525108 18.0 7 -0.009401066228747368
1.1842117309570312 0.09590373933315277 0.31834742426872253 6.0 15 -0.00939876213669777
1.419268012046814 0.11319409310817719 -0.3814992904663086 9.0 0 -0.009378026239573956
0.6358925104141235 0.05060439929366112 0.011134634725749493 90.0 8 -0.009375722147524357
1.4103461503982544 0.11198782920837402 -0.3266289532184601 35.0 1 -0.009373418055474758
0.6450815200805664 0.05122237280011177 0.03391370177268982 5.0 9 -0.00937111396342516
1.4443556070327759 0.11443397402763367 -0.2816340923309326 45.0 2 -0.00936880987137556
0.6455127596855164 0.051029883325099945 0.05665123090147972 48.0 10 -0.009366505779325962
0.6380402445793152 0.050327118486166 -0.10136953741312027 84.0 3 -0.009364201687276363
0.6392082571983337 0.05030668526887894 0.0787276029586792 90.0 11 -0.009361897595226765
0.6491119861602783 0.050972457975149155 -0.07994629442691803 5.0 4 -0.00935959443449974
0.6341192722320557 0.04979512840509415 0.10074380785226822 78.0 12 -0.009357290342450142
0.6336303353309631 0.049645472317934036 -0.05560535937547684 100.0 5 -0.009354986250400543
0.7144082188606262 0.05584869906306267 0.13929057121276855 65.0 13 -0.009352682158350945
0.6272314786911011 0.04892385005950928 -0.03297165781259537 7.0 6 -0.009350378066301346
1.1365764141082764 0.0884530171751976 0.263192743062973 4.0 14 -0.009348073974251747
0.6200305223464966 0.04825330898165703 -0.010855397209525108 18.0 7 -0.009345769882202148
1.1999317407608032 0.0931723415851593 0.32248854637145996 6.0 15 -0.00934346579015255
3.099353790283203 0.2363073229789734 -0.8328797221183777 76.0 0 -0.009322729893028736
0.6280811429023743 0.04788745939731598 0.010995016433298588 87.0 8 -0.009320425800979137
1.4301412105560303 0.10878805071115494 -0.33112797141075134 23.0 1 -0.009318121708929539
0.6452564001083374 0.04897013306617737 0.03391370177268982 3.0 9 -0.00931581761687994
1.4486615657806396 0.10968898981809616 -0.2823973298072815 35.0 2 -0.009313514456152916
0.6377399563789368 0.04817581549286842 0.0559539832174778 70.0 10 -0.009311210364103317
0.6263851523399353 0.04731805622577667 -0.09949233382940292 91.0 3 -0.009308906272053719
0.6433305144309998 0.04848521947860718 0.07921507954597473 75.0 11 -0.00930660218000412
0.6591749787330627 0.049563974142074585 -0.08116498589515686 13.0 4 -0.009304298087954521
0.6382288336753845 0.04787669703364372 0.10136953741312027 72.0 12 -0.009301993995904922
0.6357866525650024 0.04758191481232643 -0.055779676884412766 100.0 5 -0.009299689903855324
0.7067583799362183 0.05289340019226074 0.137764111161232 61.0 13 -0.009297385811805725
0.6234068274497986 0.04654631018638611 -0.032762311398983 5.0 6 -0.009295081719756126
1.1057697534561157 0.08236707001924515 0.2559943199157715 2.0 14 -0.009292777627706528
0.6221894025802612 0.046236731112003326 -0.010890301316976547 21.0 7 -0.009290473535656929
1.2079558372497559 0.0895548015832901 0.3245590925216675 5.0 15 -0.00928816944360733
3.1078274250030518 0.22658924758434296 -0.8349502682685852 77.0 0 -0.009267434477806091
0.6222612261772156 0.04525940492749214 0.010890301316976547 94.0 8 -0.009265130385756493
1.4305123090744019 0.1037948876619339 -0.33112797141075134 7.0 1 -0.009262826293706894
0.645423412322998 0.046717606484889984 0.03391370177268982 3.0 9 -0.009260522201657295
1.4725149869918823 0.10658487677574158 -0.28697675466537476 23.0 2 -0.009258218109607697
0.6418706774711609 0.04634784534573555 0.05630260705947876 82.0 10 -0.009255914017558098
0.6226059198379517 0.044847261160612106 -0.09886659681797028 94.0 3 -0.0092536099255085
0.6434958577156067 0.046239420771598816 0.07921507954597473 22.0 11 -0.0092513058334589
0.669244110584259 0.04797220230102539 -0.08238368481397629 21.0 4 -0.009249001741409302
0.6502141952514648 0.04649374634027481 0.10324675589799881 63.0 12 -0.009246697649359703
0.6438981890678406 0.045929472893476486 -0.05647691711783409 100.0 5 -0.009244393557310104
0.6951889991760254 0.04958806931972504 0.13547439873218536 67.0 13 -0.009242089465260506
0.6275500059127808 0.0446532741189003 -0.03297165781259537 5.0 6 -0.009239786304533482
1.0282965898513794 0.07298751175403595 0.23799824714660645 0.0 14 -0.009237482212483883
0.6303257346153259 0.044629666954278946 -0.011029920540750027 21.0 7 -0.009235178120434284
3.6305644512176514 0.25642216205596924 0.9752302169799805 22.0 15 -0.009232874028384686
3.1105642318725586 0.2153310924768448 -0.8354679346084595 69.0 0 -0.009212138131260872
0.6343849301338196 0.0439157597720623 0.011099730618298054 90.0 8 -0.009209834039211273
3.108633518218994 0.21465231478214264 -0.7193935513496399 87.0 1 -0.009207529947161674
0.6415975093841553 0.044189732521772385 0.03370435908436775 3.0 9 -0.009205225855112076
1.4709370136260986 0.10105288773775101 -0.2865951359272003 20.0 2 -0.009202921763062477
0.6460117101669312 0.04426751658320427 0.05665123090147972 96.0 10 -0.009200617671012878
0.6326200366020203 0.04323863610625267 -0.1004309356212616 94.0 3 -0.00919831357896328
0.6515752673149109 0.04453419893980026 0.08019004017114639 14.0 11 -0.009196009486913681
0.6337586045265198 0.04320533201098442 -0.0779963880777359 45.0 4 -0.009193706326186657
0.6405184268951416 0.04355386644601822 0.10168241709470749 45.0 12 -0.009191402234137058
0.6420667767524719 0.043546583503484726 -0.05630260705947876 100.0 5 -0.00918909814208746
0.6953660845756531 0.047039564698934555 0.13547439873218536 52.0 13 -0.009186794050037861
0.6297021508216858 0.04248718172311783 -0.03307632729411125 5.0 6 -0.009184489957988262
0.711629331111908 0.047890204936265945 0.16466419398784637 3.0 14 -0.009182185865938663
0.6244922280311584 0.042026177048683167 -0.010925207287073135 23.0 7 -0.009179881773889065
3.6314375400543213 0.24374662339687347 0.9752302169799805 49.0 15 -0.009177577681839466
3.115152597427368 0.20472443103790283 -0.8365032076835632 67.0 0 -0.009156841784715652
0.6305508017539978 0.041328590363264084 0.011029920540750027 94.0 8 -0.009154537692666054
3.1055104732513428 0.20300212502479553 -0.7184937596321106 67.0 1 -0.009152233600616455
0.6397620439529419 0.041708070784807205 0.03359968587756157 2.0 9 -0.009149929508566856
1.4477715492248535 0.09438471496105194 -0.28201571106910706 9.0 2 -0.009147626347839832
0.6561031937599182 0.04265840724110603 0.057522788643836975 100.0 10 -0.009145322255790234
0.6386807560920715 0.04141370952129364 -0.10136953741312027 98.0 3 -0.009143018163740635
0.6556960344314575 0.04240211099386215 0.08067751675844193 14.0 11 -0.009140714071691036
0.6378746032714844 0.041137855499982834 -0.07848386466503143 90.0 4 -0.009138409979641438
0.638702392578125 0.041079308837652206 0.10136953741312027 45.0 12 -0.009136105887591839
0.6461986899375916 0.041448209434747696 -0.05665123090147972 89.0 5 -0.00913380179554224
0.6876891255378723 0.04410947114229202 0.1339479237794876 46.0 13 -0.009131497703492641
0.6557580828666687 0.041946448385715485 -0.034437064081430435 17.0 6 -0.009129193611443043
0.7176265716552734 0.045777853578329086 0.1660138964653015 15.0 14 -0.009126890450716019
0.6186550259590149 0.0393562838435173 -0.01082049123942852 23.0 7 -0.00912458635866642
3.636162281036377 0.23068051040172577 0.9762654304504395 91.0 15 -0.009122282266616821
3.1197381019592285 0.1935453563928604 -0.8375384211540222 14.0 0 -0.009101545438170433
0.6346829533576965 0.03937508165836334 0.011099730618298054 93.0 8 -0.009099242277443409
3.1198151111602783 0.19300208985805511 -0.7216430306434631 48.0 1 -0.00909693818539381
0.6438907384872437 0.039720408618450165 0.033809032291173935 2.0 9 -0.009094634093344212
1.4324313402175903 0.08811374753713608 -0.27896276116371155 3.0 2 -0.009092330001294613
0.6423345804214478 0.03939936310052872 0.05630260705947876 96.0 10 -0.009090025909245014
0.6407999992370605 0.03919297829270363 -0.10168241709470749 94.0 3 -0.009087721817195415
0.6736724972724915 0.04120354726910591 0.08287115395069122 6.0 11 -0.009085417725145817
0.6360328793525696 0.038790300488471985 -0.07824012637138367 90.0 4 -0.009083113633096218
0.642785370349884 0.03908921405673027 0.10199528187513351 49.0 12 -0.009080810472369194
0.6264521479606628 0.03798621892929077 -0.05490811914205551 12.0 5 -0.009078506380319595
0.6956849098205566 0.04206276684999466 0.13547439873218536 37.0 13 -0.009076202288269997
0.6618883609771729 0.03990309312939644 -0.034751079976558685 30.0 6 -0.009073898196220398
0.7138990163803101 0.04291360825300217 0.16511408984661102 21.0 14 -0.0090715941041708
0.626772940158844 0.03767631947994232 -0.010960111394524574 47.0 7 -0.0090692900121212
3.6292319297790527 0.21752497553825378 0.9741949439048767 115.0 15 -0.009066985920071602
3.2032570838928223 0.1886257380247116 -0.859796941280365 1.0 0 -0.009084224700927734
0.6308175325393677 0.03703560307621956 0.011029920540750027 94.0 8 -0.009081920608878136
0.6519877314567566 0.03816433623433113 0.03422771766781807 2.0 9 -0.009077312424778938
3.1652703285217285 0.18472594022750854 -0.616313099861145 1.0 2 -0.00907500833272934
0.6404662132263184 0.037265609949827194 0.05612830072641373 100.0 10 -0.009072704240679741
0.6350038647651672 0.03683658316731453 -0.10074380785226822 91.0 3 -0.009070401079952717
0.6777689456939697 0.03919870778918266 0.08335863798856735 6.0 11 -0.009068096987903118
0.6500306129455566 0.037480637431144714 -0.07994629442691803 84.0 4 -0.00906579289585352
0.6626260280609131 0.03820688650012016 0.10512397438287735 61.0 12 -0.00906348880380392
0.6026990413665771 0.03464597463607788 -0.052816376090049744 8.0 5 -0.009061184711754322
0.6918935179710388 0.03965214639902115 0.1347111612558365 34.0 13 -0.009058880619704723
0.6739744544029236 0.03850720077753067 -0.035379111766815186 73.0 6 -0.009056576527655125
0.7159759402275085 0.040781572461128235 0.16556398570537567 21.0 14 -0.009054272435605526
0.6548386812210083 0.03729923442006111 -0.011448778212070465 62.0 7 -0.009051968343555927
3.626039981842041 0.20590226352214813 0.973159670829773 117.0 15 -0.009049664251506329
0.6229503154754639 0.0345013327896595 0.010890301316976547 100.0 8 -0.009026624262332916
0.6580997109413147 0.03621731698513031 0.03454173356294632 3.0 9 -0.009022017009556293
0.6445711851119995 0.035247135907411575 0.05647691711783409 100.0 10 -0.009017408825457096
0.6311776041984558 0.034514736384153366 -0.10011807084083557 98.0 3 -0.009015104733407497
0.685823917388916 0.03738291561603546 0.08433359116315842 6.0 11 -0.009012800641357899
0.6541156768798828 0.0355403795838356 -0.08043377101421356 86.0 4 -0.0090104965493083
0.6528929471969604 0.035359352827072144 0.10355963557958603 70.0 12 -0.009008192457258701
0.6306691765785217 0.03404536843299866 -0.055256739258766174 8.0 5 -0.009005888365209103
0.6841796040534973 0.0369340181350708 0.13318468630313873 34.0 13 -0.009003584273159504
0.6581434607505798 0.035413630306720734 -0.03454173356294632 100.0 6 -0.00900128111243248
0.7161072492599487 0.038406893610954285 0.16556398570537567 21.0 14 -0.008998977020382881
0.6549649238586426 0.035013020038604736 -0.011448778212070465 60.0 7 -0.008996672928333282
3.6305947303771973 0.19345012307167053 0.9741949439048767 117.0 15 -0.008994368836283684
1.4797265529632568 0.07703129202127457 -0.3970284163951874 0.0 0 -0.00897363293915987
0.6270609498023987 0.0325336717069149 0.010960111394524574 74.0 8 -0.008971328847110271
1.5043665170669556 0.07778820395469666 -0.34777435660362244 0.0 1 -0.008969024755060673
0.6522383093833923 0.03361167386174202 0.03422771766781807 7.0 9 -0.008966720663011074
1.4998993873596191 0.07729403674602509 -0.29193776845932007 0.0 2 -0.008964416570961475
0.6506538391113281 0.03341617062687874 0.05699985474348068 94.0 10 -0.008962112478911877
0.6312942504882812 0.03231174126267433 -0.10011807084083557 87.0 3 -0.008959808386862278
0.6780200600624084 0.03458436205983162 0.08335863798856735 6.0 11 -0.00895750429481268
0.6423405408859253 0.032652027904987335 -0.07897134125232697 88.0 4 -0.008955201134085655
0.6628766059875488 0.033579956740140915 0.10512397438287735 82.0 12 -0.008952897042036057
0.6108856201171875 0.030839312821626663 -0.053513623774051666 8.0 5 -0.008950592949986458
0.6725398302078247 0.03395180031657219 0.1308949738740921 36.0 13 -0.008948288857936859
0.6423051953315735 0.032313086092472076 -0.03370435908436775 82.0 6 -0.00894598476588726
0.7006665468215942 0.03512653708457947 0.1619647741317749 18.0 14 -0.008943680673837662
0.6470943093299866 0.03232758119702339 -0.011309158988296986 45.0 7 -0.008941376581788063
3.64282488822937 0.18135114014148712 0.977300763130188 117.0 15 -0.008939072489738464
1.4587733745574951 0.07058066129684448 -0.3913344144821167 1.0 0 -0.00891833659261465
0.6391549110412598 0.030924595892429352 0.01116954069584608 37.0 8 -0.008916032500565052
1.4695922136306763 0.0708470419049263 -0.3396761119365692 2.0 1 -0.008913728408515453
0.6363918781280518 0.030567962676286697 0.0333903431892395 15.0 9 -0.008911424316465855
1.4962505102157593 0.07160873711109161 -0.2911745309829712 1.0 2 -0.00890912115573883
0.6527621150016785 0.031126221641898155 0.057174164801836014 100.0 10 -0.008906817063689232
0.6393009424209595 0.030372213572263718 -0.10136953741312027 98.0 3 -0.008904512971639633
0.670205295085907 0.031840432435274124 0.08238368481397629 7.0 11 -0.008902208879590034
0.6384849548339844 0.03022206947207451 -0.07848386466503143 88.0 4 -0.008899904787540436
0.661016583442688 0.031172964721918106 0.10481110215187073 87.0 12 -0.008897600695490837
0.6428326964378357 0.030202683061361313 -0.05630260705947876 7.0 5 -0.008895296603441238
0.692270815372467 0.032404717057943344 0.1347111612558365 46.0 13 -0.00889299251139164
0.6603751182556152 0.030796201899647713 -0.0346464067697525 97.0 6 -0.008890688419342041
0.6891107559204102 0.03201541304588318 0.15926535427570343 16.0 14 -0.008888384327292442
0.6332204341888428 0.029418805614113808 -0.01106482557952404 36.0 7 -0.008886080235242844
3.6434357166290283 0.16863323748111725 0.977300763130188 117.0 15 -0.00888377707451582
1.4512912034988403 0.06514128297567368 -0.3892638683319092 1.0 0 -0.008863040246069431
0.6472547054290771 0.02893887273967266 0.011309158988296986 21.0 8 -0.008860737085342407
1.485416293144226 0.06615418195724487 -0.3432753086090088 2.0 1 -0.008858432993292809
0.6544522643089294 0.029146544635295868 0.03433239087462425 54.0 9 -0.00885612890124321
1.4847235679626465 0.0658629909157753 -0.28888481855392456 1.0 2 -0.008853824809193611
0.6508762836456299 0.028759343549609184 0.05699985474348068 81.0 10 -0.008851520717144012
0.6492704749107361 0.028575168922543526 -0.10293389111757278 91.0 3 -0.008849216625094414
0.6742838621139526 0.029557809233665466 0.08287115395069122 6.0 11 -0.008846912533044815
0.6504905819892883 0.028401067480444908 -0.07994629442691803 86.0 4 -0.008844608440995216
0.643359899520874 0.0280897356569767 0.10199528187513351 76.0 12 -0.008842304348945618
0.6230291128158569 0.02709343098104 -0.05455949530005455 8.0 5 -0.008840000256896019
0.6864954233169556 0.029733004048466682 0.13356630504131317 62.0 13 -0.008837697096168995
0.6465107202529907 0.02788817510008812 -0.03391370177268982 100.0 6 -0.008835393004119396
0.6989530324935913 0.03002847358584404 0.16151487827301025 15.0 14 -0.008833088912069798
0.6293235421180725 0.02703704684972763 -0.010995016433298588 23.0 7 -0.008830784820020199
3.6324217319488525 0.15541952848434448 0.9741949439048767 117.0 15 -0.0088284807279706
1.4573004245758057 0.060314204543828964 -0.3908167779445648 1.0 0 -0.008807744830846786
0.6453491449356079 0.02670946903526783 0.011274254880845547 28.0 8 -0.008805440738797188
1.4953629970550537 0.06162882223725319 -0.3455248177051544 2.0 1 -0.008803136646747589
0.6545500755310059 0.026861729100346565 0.03433239087462425 70.0 9 -0.00880083255469799
1.5006372928619385 0.06132080405950546 -0.29193776845932007 0.0 2 -0.008798528462648392
0.6450004577636719 0.02624431811273098 0.05647691711783409 55.0 10 -0.008796224370598793
0.6276504993438721 0.02553836815059185 -0.09949233382940292 87.0 3 -0.008793920278549194
0.688262403011322 0.027884282171726227 0.08457732945680618 13.0 11 -0.00879161711782217
0.654548168182373 0.026403648778796196 -0.08043377101421356 84.0 4 -0.008789313025772572
0.6612181067466736 0.02655743807554245 0.10481110215187073 87.0 12 -0.008787008933722973
0.6310830116271973 0.025236766785383224 -0.055256739258766174 8.0 5 -0.008784704841673374
0.6865902543067932 0.027456479147076607 0.13356630504131317 89.0 13 -0.008782400749623775
0.6585737466812134 0.02622067555785179 -0.03454173356294632 95.0 6 -0.008780096657574177
0.6912599205970764 0.027401553466916084 0.15971526503562927 15.0 14 -0.008777792565524578
0.6314122676849365 0.024918822571635246 -0.011029920540750027 15.0 7 -0.00877548847347498
3.6290810108184814 0.14258641004562378 0.973159670829773 117.0 15 -0.00877318438142538
1.469075083732605 0.05592319741845131 -0.3939225971698761 1.0 0 -0.008752448484301567
0.6294523477554321 0.023851314559578896 0.010995016433298588 29.0 8 -0.008750144392251968
1.5014110803604126 0.056628599762916565 -0.34687453508377075 1.0 1 -0.00874784030020237
0.6566357016563416 0.02465151436626911 0.034437064081430435 52.0 9 -0.008745537139475346
1.500832438468933 0.056344471871852875 -0.29193776845932007 1.0 2 -0.008743233047425747
0.6351289749145508 0.023733409121632576 0.05560535937547684 7.0 10 -0.008740928955376148
0.629709780216217 0.023420555517077446 -0.09980519860982895 94.0 3 -0.00873862486332655
0.6585995554924011 0.024379942566156387 0.0809212476015091 43.0 11 -0.00873632077127695
0.6625712513923645 0.02441149204969406 -0.08140873163938522 75.0 4 -0.008734016679227352
0.6534106135368347 0.023959480226039886 0.10355963557958603 80.0 12 -0.008731712587177753
0.6231991052627563 0.022851672023534775 -0.05455949530005455 4.0 5 -0.008729408495128155
0.6670624017715454 0.024343496188521385 0.1297501176595688 86.0 13 -0.008727104403078556
0.6526734828948975 0.023704644292593002 -0.03422771766781807 100.0 6 -0.008724800311028957
0.6952462792396545 0.025129031389951706 0.16061507165431976 15.0 14 -0.008722497150301933
0.6374905705451965 0.02293010614812374 -0.011134634725749493 7.0 7 -0.008720193058252335
3.6372790336608887 0.13019660115242004 0.9752302169799805 120.0 15 -0.008717888966202736
1.4615386724472046 0.05052744969725609 -0.3918520510196686 0.0 0 -0.008697153069078922
0.6335287690162659 0.021791286766529083 0.01106482557952404 29.0 8 -0.008694848977029324
1.489914059638977 0.050987765192985535 -0.3441751301288605 1.0 1 -0.008692544884979725
0.6447411179542542 0.021951645612716675 0.033809032291173935 53.0 9 -0.008690240792930126
1.5088684558868408 0.05137277767062187 -0.2934642434120178 0.0 2 -0.008687936700880527
0.6431729793548584 0.021785875782370567 0.05630260705947876 6.0 10 -0.008685632608830929
0.6376847624778748 0.021488558501005173 -0.10105667263269424 94.0 3 -0.00868332851678133
0.6447927951812744 0.02161542885005474 0.07921507954597473 97.0 11 -0.008681024424731731
0.6507485508918762 0.02170138619840145 -0.07994629442691803 80.0 4 -0.008678720332682133
0.6534903049468994 0.02167833223938942 0.10355963557958603 85.0 12 -0.008676417171955109
0.6591184139251709 0.021865034475922585 -0.057697102427482605 7.0 5 -0.00867411307990551
0.6671433448791504 0.022015003487467766 0.1297501176595688 90.0 13 -0.008671808987855911
0.6467636227607727 0.021229499951004982 -0.03391370177268982 85.0 6 -0.008669504895806313
0.6797481179237366 0.02219310775399208 0.1570158451795578 16.0 14 -0.008667200803756714
0.6315708160400391 0.020510127767920494 -0.011029920540750027 7.0 7 -0.008664896711707115
3.641572952270508 0.11762309819459915 0.9762654304504395 120.0 15 -0.008662592619657516
1.484877109527588 0.046145107597112656 -0.3980637192726135 0.0 0 -0.008641856722533703
0.6316022872924805 0.019518092274665833 0.011029920540750027 32.0 8 -0.008639552630484104
1.4900829792022705 0.04578699916601181 -0.3441751301288605 1.0 1 -0.008637248538434505
0.640821099281311 0.019578786566853523 0.03359968587756157 55.0 9 -0.008634944446384907
1.4913774728775024 0.045565541833639145 -0.29002970457077026 1.0 2 -0.008632640354335308
0.6551939249038696 0.019903773441910744 0.057348478585481644 6.0 10 -0.00863033626228571
0.6535517573356628 0.019739722833037376 -0.10355963557958603 100.0 3 -0.008628033101558685
0.638911783695221 0.019185630604624748 0.07848386466503143 100.0 11 -0.008625729009509087
0.6369308829307556 0.01901519112288952 -0.07824012637138367 46.0 4 -0.008623424917459488
0.6535619497299194 0.019397541880607605 0.10355963557958603 97.0 12 -0.00862112082540989
0.661182165145874 0.019623707979917526 -0.057871412485837936 11.0 5 -0.00861881673336029
0.6750656962394714 0.019917527213692665 0.13127659261226654 88.0 13 -0.008616512641310692
0.6548193693161011 0.019206101074814796 -0.03433239087462425 97.0 6 -0.008614208549261093
0.6778735518455505 0.01976388320326805 0.15656594932079315 18.0 14 -0.008611904457211494
0.6316385865211487 0.01830524019896984 -0.011029920540750027 5.0 7 -0.008609600365161896
3.6458237171173096 0.10502120107412338 0.977300763130188 115.0 15 -0.008607296273112297
1.4695801734924316 0.040535818785429 -0.3939225971698761 0.0 0 -0.008586560375988483
0.647658109664917 0.017751406878232956 0.011309158988296986 34.0 8 -0.008584256283938885
1.5175060033798218 0.041327692568302155 -0.3504737615585327 1.0 1 -0.00858195312321186
0.6448786854743958 0.017449969425797462 0.033809032291173935 53.0 9 -0.008579649031162262
1.4719020128250122 0.039828650653362274 -0.2862135171890259 1.0 2 -0.008577344939112663
0.6831427812576294 0.01836605928838253 0.059788838028907776 6.0 10 -0.008575040847063065
0.6476926207542419 0.017299873754382133 -0.10262101888656616 87.0 3 -0.008572736755013466
0.6508811712265015 0.017271369695663452 0.07994629442691803 100.0 11 -0.008570432662963867
0.6588217616081238 0.017367014661431313 -0.0809212476015091 13.0 4 -0.008568128570914268
0.6516509652137756 0.017064182087779045 0.10324675589799881 100.0 12 -0.00856582447886467
0.655271589756012 0.0171589907258749 -0.057348478585481644 33.0 5 -0.008563520386815071
0.6829814910888672 0.017765328288078308 0.1328030675649643 89.0 13 -0.008561216294765472
0.6548824310302734 0.0169200636446476 -0.03433239087462425 95.0 6 -0.008558913134038448
0.6798864603042603 0.017447354272007942 0.1570158451795578 20.0 14 -0.00855660904198885
0.6137071847915649 0.015641875565052032 -0.010715777985751629 5.0 7 -0.008554304949939251
3.642305612564087 0.09219726175069809 0.9762654304504395 117.0 15 -0.008552000857889652
1.4465372562408447 0.03484777733683586 -0.38771092891693115 0.0 0 -0.008531264960765839
0.6337222456932068 0.015155709348618984 0.01106482557952404 39.0 8 -0.00852896086871624
3.146329164505005 0.07469774037599564 -0.7265920042991638 2.0 1 -0.008526656776666641
0.6489290595054626 0.015293063595890999 0.034018374979496 53.0 9 -0.008524352684617043
1.5034353733062744 0.03543088957667351 -0.2923193871974945 1.0 2 -0.008522048592567444
0.6473495364189148 0.015142492018640041 0.05665123090147972 6.0 10 -0.008519744500517845
0.6398496031761169 0.014855632558465004 -0.10136953741312027 87.0 3 -0.008517440408468246
0.6727677583694458 0.015502430498600006 0.08262742310762405 100.0 11 -0.008515136316418648
0.6529247164726257 0.01493087038397789 -0.08019004017114639 7.0 4 -0.008512832224369049
0.6576311588287354 0.01492397766560316 0.10418536514043808 100.0 12 -0.008510529063642025
0.6513437032699585 0.014781293459236622 -0.05699985474348068 100.0 5 -0.008508224971592426
0.6810765862464905 0.015337114222347736 0.13242144882678986 80.0 13 -0.008505920879542828
0.6569343209266663 0.01467843633145094 -0.034437064081430435 60.0 6 -0.008503616787493229
0.6779950261116028 0.015030952170491219 0.15656594932079315 26.0 14 -0.00850131269544363
0.6397478580474854 0.014071318320930004 -0.01116954069584608 10.0 7 -0.008499008603394032
3.6348798274993896 0.07931314408779144 0.9741949439048767 117.0 15 -0.008496704511344433
1.477553129196167 0.03043506294488907 -0.395993173122406 0.0 0 -0.00847596861422062
0.6237749457359314 0.012739489786326885 0.010890301316976547 48.0 8 -0.00847366452217102
3.138777256011963 0.06355591118335724 -0.7247923612594604 2.0 1 -0.008471360430121422
0.6629564762115479 0.013308207504451275 0.034751079976558685 58.0 9 -0.008469056338071823
1.4898099899291992 0.029906488955020905 -0.2896480858325958 2.0 2 -0.008466752246022224
0.6593504548072815 0.013120701536536217 0.057697102427482605 6.0 10 -0.0084644490852952
0.6280476450920105 0.012388142757117748 -0.09949233382940292 77.0 3 -0.008462144993245602
0.6549553275108337 0.012804543599486351 0.08043377101421356 100.0 11 -0.008459840901196003
0.66488116979599 0.012882515788078308 -0.08165246248245239 7.0 4 -0.008457536809146404
0.6655793190002441 0.012779840268194675 0.10543683916330338 100.0 12 -0.008455232717096806
0.6633434295654297 0.012736909091472626 -0.05804572254419327 100.0 5 -0.008452928625047207
0.6693485975265503 0.012735356576740742 0.13013173639774323 78.0 13 -0.008450624532997608
0.6529877781867981 0.012310064397752285 -0.03422771766781807 20.0 6 -0.00844832044094801
0.6780433654785156 0.012664034962654114 0.15656594932079315 36.0 14 -0.00844601634889841
0.651789128780365 0.012059886008501053 -0.011378969065845013 22.0 7 -0.008443713188171387
3.6505868434906006 0.06690853089094162 0.9783360362052917 120.0 15 -0.008441409096121788
1.450608491897583 0.02481427974998951 -0.3887462317943573 0.0 0 -0.0084206722676754
0.6478084325790405 0.010968398302793503 0.011309158988296986 68.0 8 -0.008418369106948376
3.142876625061035 0.0526651032269001 -0.7256921529769897 2.0 1 -0.008416065014898777
0.6510151028633118 0.010909042321145535 0.03412304446101189 55.0 9 -0.008413760922849178
1.4859793186187744 0.02464110776782036 -0.28888481855392456 1.0 2 -0.00841145683079958
0.6753291487693787 0.011080687865614891 0.05909159407019615 6.0 10 -0.008409152738749981
0.643887996673584 0.01045240368694067 -0.10199528187513351 70.0 3 -0.008406848646700382
0.6549960374832153 0.010518383234739304 0.08043377101421356 100.0 11 -0.008404544554650784
0.6629372239112854 0.010530181229114532 -0.08140873163938522 5.0 4 -0.008402240462601185
0.6774687767028809 0.010761003009974957 0.10731405764818192 100.0 12 -0.008399936370551586
0.6633838415145874 0.010421154089272022 -0.05804572254419327 100.0 5 -0.008397632278501987
0.6752780079841614 0.010490442626178265 0.13127659261226654 76.0 13 -0.008395329117774963
0.6250683665275574 0.009601023979485035 -0.032762311398983 7.0 6 -0.008393025025725365
0.6858775019645691 0.010415321215987206 0.15836556255817413 37.0 14 -0.008390720933675766
0.6718202829360962 0.010201855562627316 -0.011728017590939999 66.0 7 -0.008388416841626167
3.6527199745178223 0.054832108318805695 0.9788536429405212 115.0 15 -0.008386112749576569
1.4700028896331787 0.02001315914094448 -0.3939225971698761 0.0 0 -0.008365376852452755
0.6458417773246765 0.008792727254331112 0.011274254880845547 78.0 8 -0.008363072760403156
1.4906517267227173 0.0200347900390625 -0.3441751301288605 1.0 1 -0.008360768668353558
0.637069582939148 0.008450892753899097 0.0333903431892395 47.0 9 -0.008358464576303959
1.3820128440856934 0.01809152401983738 -0.2686590850353241 2.0 2 -0.00835616048425436
0.6514570713043213 0.00841463077813387 0.05699985474348068 6.0 10 -0.008353856392204762
0.6537952423095703 0.008444832637906075 -0.10355963557958603 81.0 3 -0.008351552300155163
0.6550273299217224 0.008346098475158215 0.08043377101421356 100.0 11 -0.008349249139428139
0.6570137143135071 0.008256726898252964 -0.08067751675844193 5.0 4 -0.00834694504737854
0.6597251892089844 0.008175961673259735 0.1044982373714447 100.0 12 -0.008344640955328941
0.651462733745575 0.00795954279601574 -0.05699985474348068 100.0 5 -0.008342336863279343
0.6811984181404114 0.008322851732373238 0.13242144882678986 80.0 13 -0.008340032771229744
0.6230996251106262 0.007504242472350597 -0.03265763819217682 5.0 6 -0.008337728679180145
0.6703194379806519 0.007956246845424175 0.15476633608341217 34.0 14 -0.008335424587130547
0.6698521971702576 0.007833460345864296 -0.011693112552165985 95.0 7 -0.008333120495080948
3.656752586364746 0.04212493821978569 0.9798889756202698 115.0 15 -0.00833081640303135
1.4121086597442627 0.014541844837367535 -0.3783934414386749 0.0 0 -0.008310080505907536
0.6458685398101807 0.0065384008921682835 0.011274254880845547 68.0 8 -0.008307776413857937
1.4634315967559814 0.014559510163962841 -0.33787649869918823 1.0 1 -0.008305472321808338
0.6510742902755737 0.006477462127804756 0.03412304446101189 41.0 9 -0.008303169161081314
1.2917598485946655 0.01262610498815775 -0.2511046528816223 15.0 2 -0.008300865069031715
0.6435121893882751 0.006177591625601053 0.05630260705947876 6.0 10 -0.008298560976982117
0.659746527671814 0.006218287628144026 -0.1044982373714447 81.0 3 -0.008296256884932518
0.6629924774169922 0.006132848560810089 0.08140873163938522 100.0 11 -0.00829395279288292
0.6689485907554626 0.006071506068110466 -0.08213994652032852 5.0 4 -0.00829164870083332
0.6478968858718872 0.005880436860024929 0.10262101888656616 100.0 12 -0.008289344608783722
0.6475009322166443 0.005763831082731485 -0.05665123090147972 100.0 5 -0.008287040516734123
0.6753337383270264 0.005893396679311991 0.13127659261226654 76.0 13 -0.008284736424684525
0.6311107277870178 0.005397628527134657 -0.03307632729411125 5.0 6 -0.008282432332634926
0.6644971370697021 0.005567190237343311 0.15341663360595703 28.0 14 -0.008280128240585327
0.6478785276412964 0.005427958909422159 -0.011309158988296986 90.0 7 -0.008277825079858303
3.6491451263427734 0.029934076592326164 0.9778183698654175 117.0 15 -0.008275520987808704
1.2923789024353027 0.008797556161880493 -0.3462998867034912 3.0 0 -0.00825478509068489
0.6438871026039124 0.00438310531899333 0.011239349842071533 37.0 8 -0.008252480998635292
1.443984866142273 0.009576869197189808 -0.333377480506897 2.0 1 -0.008250176906585693
0.6650733947753906 0.004294858314096928 0.03485574945807457 21.0 9 -0.008247872814536095
1.2682373523712158 0.007969182915985584 -0.24652522802352905 43.0 2 -0.008245568722486496
0.6714227199554443 0.004101494327187538 0.05874297022819519 38.0 10 -0.008243264630436897
0.6518622040748596 0.003982005640864372 -0.10324675589799881 87.0 3 -0.008240960538387299
0.6669793128967285 0.003957943990826607 0.08189620822668076 100.0 11 -0.0082386564463377
0.6729351878166199 0.003876161528751254 -0.08262742310762405 5.0 4 -0.008236352354288101
0.6538395881652832 0.003651744220405817 0.10355963557958603 100.0 12 -0.008234048262238503
0.643532395362854 0.0034818637650460005 -0.05630260705947876 100.0 5 -0.008231745101511478
0.6812392473220825 0.00368587882257998 0.13242144882678986 76.0 13 -0.00822944100946188
0.6530948281288147 0.00341993011534214 -0.03422771766781807 5.0 6 -0.008227136917412281
0.6723067760467529 0.003402877366170287 0.155216246843338 22.0 14 -0.008224832825362682
0.645893931388855 0.0031564629171043634 -0.011274254880845547 82.0 7 -0.008222528733313084
3.6492273807525635 0.017198510468006134 0.9778183698654175 117.0 15 -0.008220224641263485
1.2479685544967651 0.004356364253908396 -0.3343942165374756 16.0 0 -0.008199488744139671
0.6319003105163574 0.002095532836392522 0.011029920540750027 32.0 8 -0.008197184652090073
1.2959058284759521 0.004071985371410847 -0.2991849184036255 3.0 1 -0.008194880560040474
0.6610895395278931 0.002077270532026887 0.0346464067697525 24.0 9 -0.008192576467990875
1.2780729532241821 0.0037922870833426714 -0.24843332171440125 51.0 2 -0.008190272375941277
0.6614707708358765 0.0018472678493708372 0.057871412485837936 59.0 10 -0.008187968283891678
0.6459460258483887 0.0016908716643229127 -0.10230815410614014 81.0 3 -0.008185665123164654
0.6630188822746277 0.0016201665857806802 0.08140873163938522 100.0 11 -0.008183361031115055
0.674929678440094 0.0015314810443669558 -0.08287115395069122 5.0 4 -0.008181056939065456
0.6755771040916443 0.0015329500893130898 0.10700118541717529 100.0 12 -0.008178752847015858
0.6475251913070679 0.001355980522930622 -0.05665123090147972 100.0 5 -0.008176448754966259
0.6635787487030029 0.0012741049285978079 0.1289868950843811 74.0 13 -0.00817414466291666
0.641119122505188 0.0011190912919119 -0.03359968587756157 5.0 6 -0.008171840570867062
0.6840069890022278 0.0010742521844804287 0.1579156517982483 18.0 14 -0.008169536478817463
0.6598986983299255 0.00103638949804008 -0.011518588289618492 95.0 7 -0.008167232386767864
3.653127908706665 0.00510152755305171 0.9788536429405212 115.0 15 -0.008164928294718266
1.246044397354126 -0.0 -0.3338765799999237 28.0 0 -0.008144192397594452
0.6319037675857544 -0.0 0.011029920540750027 26.0 8 -0.008141888305544853
1.229655146598816 -0.00021461529831867665 -0.2838882505893707 18.0 1 -0.008139584213495255
0.6570982336997986 -0.0002293705620104447 0.034437064081430435 28.0 9 -0.00813728105276823
1.256482720375061 -0.0006578928441740572 -0.24423553049564362 41.0 2 -0.008134976960718632
0.6634654998779297 -0.00046318638487719 0.05804572254419327 97.0 10 -0.008132672868669033
0.6617510318756104 -0.00046198946074582636 -0.10481110215187073 87.0 3 -0.008130368776619434
0.6590504050254822 -0.0005751300486736 0.0809212476015091 94.0 11 -0.008128064684569836
0.6808863282203674 -0.0007130226586014032 -0.08360237628221512 8.0 4 -0.008125760592520237
0.6657014489173889 -0.0008133081719279289 0.10543683916330338 100.0 12 -0.008123456500470638
0.645533561706543 -0.000901335384696722 -0.05647691711783409 100.0 5 -0.00812115240842104
0.6675058007240295 -0.0009320144890807569 0.1297501176595688 66.0 13 -0.008118848316371441
0.6371248364448547 -0.0010007941164076328 -0.0333903431892395 5.0 6 -0.008116545155644417
0.678160548210144 -0.0011836146004498005 0.15656594932079315 28.0 14 -0.008114241063594818
0.6698967218399048 -0.0012861109571531415 -0.011693112552165985 99.0 7 -0.00811193697154522
3.6647145748138428 -0.007675370667129755 0.9819594621658325 115.0 15 -0.00810963287949562
1.2402420043945312 -0.004112813156098127 -0.33232367038726807 47.0 0 -0.008088896982371807
0.6458976864814758 -0.0022546174004673958 0.011274254880845547 18.0 8 -0.008086592890322208
1.231595516204834 -0.004514053929597139 -0.2843381464481354 45.0 1 -0.00808428879827261
0.6530989408493042 -0.002507732016965747 0.03422771766781807 25.0 9 -0.008081984706223011
1.2073924541473389 -0.004636076744645834 -0.23469506204128265 49.0 2 -0.008079680614173412
0.6734222769737244 -0.002703304635360837 0.05891728401184082 100.0 10 -0.008077376522123814
0.6538440585136414 -0.00273883156478405 -0.10355963557958603 91.0 3 -0.008075072430074215
0.6709548830986023 -0.0029276113491505384 0.08238368481397629 35.0 11 -0.008072768338024616
0.6729394197463989 -0.0030537231359630823 -0.08262742310762405 19.0 4 -0.008070465177297592
0.6696453094482422 -0.003155652666464448 0.10606258362531662 95.0 12 -0.008068161085247993
0.6594736576080322 -0.003107719589024782 -0.057697102427482605 100.0 5 -0.008065856993198395
0.6773147583007812 -0.0033100105356425047 0.13165821135044098 56.0 13 -0.008063552901148796
0.6431092619895935 -0.0032550962641835213 -0.03370435908436775 5.0 6 -0.008061248809099197
0.6917933225631714 -0.0036222541239112616 0.15971526503562927 43.0 14 -0.008058944717049599
0.6518911719322205 -0.003527105087414384 -0.011378969065845013 95.0 7 -0.008056640625
3.664665460586548 -0.020467566326260567 0.9819594621658325 115.0 15 -0.008054336532950401
1.2228337526321411 -0.00832369364798069 -0.32766491174697876 71.0 0 -0.008033600635826588
0.6658823490142822 -0.004648810718208551 0.011623302474617958 9.0 8 -0.008031296543776989
1.227674961090088 -0.008785208687186241 -0.2834383547306061 62.0 1 -0.00802899245172739
0.6650694012641907 -0.0048753004521131516 0.03485574945807457 34.0 9 -0.008026688359677792
1.211295485496521 -0.008879418484866619 -0.23545831441879272 70.0 2 -0.008024385198950768
0.6734087467193604 -0.005053970497101545 0.05891728401184082 100.0 10 -0.008022081106901169
0.6676576733589172 -0.005127343814820051 -0.1057497188448906 100.0 3 -0.00801977701485157
0.6768956184387207 -0.0053164344280958176 0.08311489969491959 20.0 11 -0.008017472922801971
0.6510893106460571 -0.005227391608059406 -0.07994629442691803 46.0 4 -0.008015168830752373
