# .PCD v0.7 - Point Cloud Data file format
VERSION 0.7
FIELDS x y z intensity ring time
SIZE 4 4 4 4 4 4
TYPE F F F F F F
COUNT 1 1 1 1 1 1
WIDTH 543
HEIGHT 1
VIEWPOINT 0 0 0 1 0 0 0
POINTS 543
DATA ascii
-2.083519458770752 0.8202998638153076 -0.274937242269516 1.0 4 -0.0178469717502594
-3.0803627967834473 1.2133876085281372 0.524368405342102 85.0 12 -0.0178446676582098
-3.079514265060425 1.2136733531951904 0.6434080004692078 71.0 13 -0.017840059474110603
-2.101431131362915 0.8286228775978088 -0.11838394403457642 6.0 6 -0.017837755382061005
-3.0690159797668457 1.210774540901184 0.7616842985153198 81.0 14 -0.017835451290011406
-2.099985122680664 0.8288997411727905 -0.03940753638744354 66.0 7 -0.017833147197961807
-3.0509836673736572 1.204891324043274 0.8789495229721069 94.0 15 -0.01783084310591221
-2.4370932579040527 0.9658976793289185 -0.7024349570274353 60.0 0 -0.01781010814011097
-2.089385986328125 0.8285115957260132 0.0392330102622509 65.0 8 -0.01780780404806137
-2.1386775970458984 0.8484898209571838 0.12058205902576447 33.0 9 -0.017803195863962173
-2.089346408843994 0.8293404579162598 -0.4369526505470276 1.0 2 -0.017800891771912575
-3.0849459171295166 1.225153923034668 0.29040294885635376 37.0 10 -0.017798587679862976
-2.0523898601531982 0.8155004978179932 -0.34978750348091125 1.0 3 -0.017796283587813377
-2.4312753677368164 0.9665387868881226 0.3212476074695587 1.0 11 -0.01779397949576378
-2.0695760250091553 0.8231663107872009 -0.2734748423099518 1.0 4 -0.01779167540371418
-3.0818285942077637 1.2257859706878662 0.5253069996833801 80.0 12 -0.01778937131166458
-2.1603434085845947 0.8597047924995422 -0.20342150330543518 1.0 5 -0.017787067219614983
-3.071611166000366 1.2229630947113037 0.6426447629928589 71.0 13 -0.017784763127565384
-2.087392807006836 0.8315189480781555 -0.11775590479373932 1.0 6 -0.017782459035515785
-3.0792531967163086 1.2272512912750244 0.7652835249900818 86.0 14 -0.017780154943466187
-2.0879366397857666 0.8321572542190552 -0.0392330102622509 31.0 7 -0.017777850851416588
-3.0362048149108887 1.2107081413269043 0.8758436441421509 88.0 15 -0.01777554675936699
-2.4337072372436523 0.9743983149528503 -0.7024349570274353 60.0 0 -0.01775481179356575
-2.075488567352295 0.830976128578186 0.03902358189225197 55.0 8 -0.01775250770151615
-3.1349942684173584 1.2558127641677856 -0.7796803712844849 1.0 1 -0.017750203609466553
-2.137556552886963 0.8566931486129761 0.12068671733140945 36.0 9 -0.017747899517416954
-2.0645718574523926 0.8278598785400391 -0.43237319588661194 1.0 2 -0.017745595425367355
-3.0824990272521973 1.2366575002670288 0.290577232837677 16.0 10 -0.017743291333317757
-2.024007558822632 0.8120048642158508 -0.3454073667526245 1.0 3 -0.017740987241268158
-2.4280567169189453 0.9745959639549255 0.3212476074695587 1.0 11 -0.01773868314921856
-2.0999932289123535 0.8433398008346558 -0.2778621315956116 1.0 4 -0.01773637905716896
-3.0921947956085205 1.2424272298812866 0.5278099179267883 23.0 12 -0.017734074965119362
-2.1573293209075928 0.8672406673431396 -0.20342150330543518 1.0 5 -0.017731770873069763
-3.0675387382507324 1.233142375946045 0.6426447629928589 71.0 13 -0.017729466781020164
-2.1068601608276367 0.8473793864250183 -0.11901197582483292 1.0 6 -0.017727162688970566
-3.078782320022583 1.2389107942581177 0.7661833167076111 86.0 14 -0.017724858596920967
-3.0445034503936768 1.2263526916503906 0.8794671893119812 86.0 15 -0.01772025227546692
-2.430462598800659 0.9824634790420532 -0.7024349570274353 60.0 0 -0.01769951544702053
-3.137817621231079 1.269672155380249 -0.7814800143241882 4.0 1 -0.017694907262921333
-2.1235954761505127 0.8592819571495056 0.12005870044231415 35.0 9 -0.017692603170871735
-2.0618152618408203 0.8347017765045166 -0.43237319588661194 1.0 2 -0.017690299078822136
-2.024822235107422 0.8205488920211792 -0.34603309631347656 1.0 3 -0.01768569089472294
-2.3032243251800537 0.9338372349739075 0.30516088008880615 1.0 11 -0.01768338680267334
-2.0712831020355225 0.840218722820282 -0.27444979548454285 1.0 4 -0.01768108271062374
-2.1544415950775146 0.8743899464607239 -0.20342150330543518 1.0 5 -0.017676474526524544
-3.075948476791382 1.2490129470825195 0.6453160643577576 77.0 13 -0.017674172297120094
-2.063180923461914 0.8381902575492859 -0.11670918762683868 1.0 6 -0.017671868205070496
-3.0726335048675537 1.2489163875579834 0.7657334208488464 83.0 14 -0.017669564113020897
-2.0340585708618164 0.8267726302146912 -0.038325484842061996 1.0 7 -0.017667260020971298
-3.0475783348083496 1.2393522262573242 0.881537675857544 82.0 15 -0.0176649559289217
-2.4323835372924805 0.9931321144104004 -0.7039877772331238 57.0 0 -0.01764421910047531
-2.0401628017425537 0.8329899907112122 0.03846510127186775 1.0 8 -0.017641915008425713
-3.1462180614471436 1.2852293252944946 -0.7846293449401855 9.0 1 -0.017639610916376114
-2.1113390922546387 0.8629109263420105 0.11953534185886383 38.0 9 -0.017637306824326515
-2.026179313659668 0.8285186290740967 -0.42550405859947205 1.0 2 -0.017635002732276917
-2.332707166671753 0.9543357491493225 0.220504030585289 6.0 10 -0.017632698640227318
-2.031231641769409 0.8309988379478455 -0.3475974202156067 2.0 3 -0.01763039454817772
-2.2890915870666504 0.9369586110115051 0.30369842052459717 1.0 11 -0.01762809231877327
-2.0648117065429688 0.8455777168273926 -0.2739623188972473 2.0 4 -0.01762578822672367
-2.1071319580078125 0.8637681603431702 -0.19923801720142365 1.0 5 -0.017621180042624474
-3.075422763824463 1.2606956958770752 0.6460793018341064 67.0 13 -0.017618875950574875
-2.0086493492126465 0.8238070607185364 -0.11377837508916855 1.0 6 -0.017616571858525276
-3.0630664825439453 1.2568795680999756 0.7643837332725525 81.0 14 -0.017614267766475677
-2.0311601161956787 0.8338678479194641 -0.038325484842061996 1.0 7 -0.01761196367442608
-3.053955554962158 1.2543867826461792 0.8846435546875 82.0 15 -0.01760965958237648
-2.4237186908721924 0.9989843964576721 -0.7024349570274353 48.0 0 -0.017588922753930092
-2.0298478603363037 0.8370571136474609 0.038325484842061996 1.0 8 -0.017586618661880493
-3.1381099224090576 1.2947168350219727 -0.7837295532226562 11.0 1 -0.017584314569830894
-2.1101601123809814 0.8710377216339111 0.11964000016450882 41.0 9 -0.017582010477781296
-1.9998292922973633 0.8254950642585754 -0.42054301500320435 5.0 2 -0.017579708248376846
-2.307431221008301 0.9529397487640381 0.21841228008270264 18.0 10 -0.017577404156327248
-2.0812630653381348 0.8599603772163391 -0.35667064785957336 7.0 3 -0.01757510006427765
-2.304152250289917 0.9525265693664551 0.30613580346107483 1.0 11 -0.01757279597222805
-2.0728535652160645 0.8573328256607056 -0.2754247188568115 3.0 4 -0.01757049188017845
-2.0838546752929688 0.862734317779541 -0.1973206102848053 4.0 5 -0.017565883696079254
-3.0746312141418457 1.272924542427063 0.6468425393104553 67.0 13 -0.017563579604029655
-2.035284996032715 0.8430426716804504 -0.11545313149690628 1.0 6 -0.017561275511980057
-3.065861701965332 1.2705484628677368 0.7661833167076111 81.0 14 -0.017558971419930458
-1.9875986576080322 0.8241027593612671 -0.03755757957696915 1.0 7 -0.01755666732788086
-3.049558401107788 1.2650394439697266 0.8846435546875 80.0 15 -0.01755436323583126
-2.4200408458709717 1.0078611373901367 -0.7024349570274353 26.0 0 -0.01753362827003002
-1.9863015413284302 0.82722407579422 0.03755757957696915 1.0 8 -0.017531324177980423
-3.1551573276519775 1.314657211303711 -0.7891283631324768 46.0 1 -0.017529020085930824
-2.101576328277588 0.876092791557312 0.11932599544525146 40.0 9 -0.017526715993881226
-2.0040383338928223 0.8358427882194519 -0.4220695197582245 12.0 2 -0.017524411901831627
-2.292891025543213 0.9567865133285522 0.21736642718315125 25.0 10 -0.017522107809782028
-2.078097343444824 0.867582380771637 -0.35667064785957336 10.0 3 -0.01751980371773243
-2.2898223400115967 0.9559751749038696 0.30467337369918823 10.0 11 -0.01751749962568283
-2.190742015838623 0.9150599241256714 -0.29151150584220886 1.0 4 -0.017515195533633232
-2.0753157138824463 0.8676979541778564 -0.1967976689338684 7.0 5 -0.017510587349534035
-3.0735671520233154 1.2857011556625366 0.6476057171821594 66.0 13 -0.017508283257484436
-2.067187786102295 0.865146815776825 -0.11744190007448196 6.0 6 -0.017505979165434837
-3.0683743953704834 1.2847875356674194 0.7679829597473145 81.0 14 -0.01750367507338524
-2.0068440437316895 0.8403043150901794 -0.03797643631696701 1.0 7 -0.01750137098133564
-3.045124053955078 1.2756768465042114 0.8846435546875 84.0 15 -0.01749906688928604
-2.475273609161377 1.0410174131393433 -0.7195169925689697 19.0 0 -0.017478331923484802
-1.9611382484436035 0.8251920342445374 0.037138719111680984 1.0 8 -0.017476027831435204
-3.1431331634521484 1.3231890201568604 -0.7873287796974182 54.0 1 -0.017473723739385605
-2.1093950271606445 0.8884411454200745 0.11995401978492737 38.0 9 -0.017471419647336006
-1.9992990493774414 0.8420705795288086 -0.42168790102005005 11.0 2 -0.017469115555286407
-2.28586483001709 0.9632368683815002 0.2170177847146988 30.0 10 -0.01746681146323681
-2.076875925064087 0.8755988478660583 -0.356983482837677 8.0 3 -0.01746450737118721
-2.2625255584716797 0.9543321132659912 0.30150479078292847 25.0 11 -0.01746220327913761
-2.081296920776367 0.8783178925514221 -0.27737462520599365 2.0 4 -0.017459899187088013
-2.063096761703491 0.8710620999336243 -0.19592611491680145 7.0 5 -0.017455291002988815
-3.065443754196167 1.294893503189087 0.6468425393104553 67.0 13 -0.017452986910939217
-2.0383992195129395 0.8614723682403564 -0.1159764900803566 6.0 6 -0.017450682818889618
-3.0710501670837402 1.2985260486602783 0.769782543182373 81.0 14 -0.01744837872684002
-2.0479512214660645 0.8663519024848938 -0.038814153522253036 7.0 7 -0.01744607463479042
-3.047544240951538 1.2898410558700562 0.8867141008377075 82.0 15 -0.017443770542740822
-2.8361446857452393 1.2044559717178345 -0.8256327509880066 6.0 0 -0.017423035576939583
-2.0024170875549316 0.8507999181747437 0.03797643631696701 1.0 8 -0.017420731484889984
-3.136702060699463 1.333389401435852 -0.7868788242340088 52.0 1 -0.017418427392840385
-2.0915772914886475 0.8895455598831177 0.1191166415810585 43.0 9 -0.017416123300790787
-1.9981542825698853 0.8498128056526184 -0.4220695197582245 8.0 2 -0.017413819208741188
-2.2769885063171387 0.9688706398010254 0.2164948731660843 34.0 10 -0.01741151511669159
-2.0810773372650146 0.8859378099441528 -0.3582349717617035 8.0 3 -0.01740921102464199
-2.235438108444214 0.9521116614341736 0.2983361780643463 36.0 11 -0.017406906932592392
-2.072739601135254 0.8832436203956604 -0.27664345502853394 5.0 4 -0.017404602840542793
-2.0563783645629883 0.8766952753067017 -0.1955774873495102 8.0 5 -0.017399994656443596
-3.0717403888702393 1.310207724571228 0.649132251739502 66.0 13 -0.017397690564393997
-2.039053201675415 0.8701508045196533 -0.11618582904338837 8.0 6 -0.017395388334989548
-3.068291425704956 1.3100026845932007 0.7702324986457825 83.0 14 -0.01739308424293995
-2.0375587940216064 0.8703533411026001 -0.03867453336715698 7.0 7 -0.01739078015089035
-3.0536818504333496 1.3050264120101929 0.8898199200630188 80.0 15 -0.01738847605884075
-2.8834128379821777 1.2364271879196167 -0.8406442999839783 7.0 0 -0.017367739230394363
-2.0270004272460938 0.8696110844612122 0.03850000724196434 3.0 8 -0.017365435138344765
-3.1391916275024414 1.3474050760269165 -0.7886784672737122 51.0 1 -0.017363131046295166
-2.084789276123047 0.8952649831771851 0.11890730261802673 48.0 9 -0.017360826954245567
-1.9897637367248535 0.8544584512710571 -0.42092466354370117 6.0 2 -0.01735852286219597
-2.2809150218963623 0.9799582958221436 0.21719209849834442 43.0 10 -0.01735621877014637
-2.0924906730651855 0.8994373679161072 -0.3607378900051117 8.0 3 -0.01735391467809677
-2.2412190437316895 0.9638303518295288 0.29955488443374634 50.0 11 -0.017351610586047173
-2.0514092445373535 0.8826274275779724 -0.2742060422897339 5.0 4 -0.017349306493997574
-2.271646738052368 0.9778553247451782 0.391711950302124 1.0 12 -0.017347004264593124
-2.0642857551574707 0.8885945081710815 -0.19662334024906158 8.0 5 -0.017344700172543526
-3.0761635303497314 1.3248056173324585 0.6510403156280518 63.0 13 -0.017342396080493927
-2.0378379821777344 0.8780530095100403 -0.11629050970077515 9.0 6 -0.01734009198844433
-3.061910390853882 1.3199336528778076 0.769782543182373 75.0 14 -0.01733778789639473
-2.027163505554199 0.874293327331543 -0.03853491693735123 7.0 7 -0.01733548380434513
-3.059750556945801 1.320269227027893 0.8929257392883301 80.0 15 -0.017333179712295532
-2.8666696548461914 1.2411119937896729 -0.8370208144187927 6.0 0 -0.017312442883849144
-2.03129243850708 0.8798606395721436 0.038639627397060394 4.0 8 -0.017310138791799545
-3.1523497104644775 1.3661036491394043 -0.7931774854660034 47.0 1 -0.017307834699749947
-2.087148666381836 0.9049202799797058 0.11922132223844528 50.0 9 -0.017305530607700348
-1.9831663370132446 0.859836995601654 -0.4201614260673523 6.0 2 -0.0173032283782959
-2.253718614578247 0.9776069521903992 0.21492604911327362 45.0 10 -0.01730092242360115
-2.0875260829925537 0.9059497117996216 -0.36042505502700806 8.0 3 -0.0172986201941967
-2.256049394607544 0.9795538187026978 0.301992267370224 44.0 11 -0.017296316102147102
-2.046495199203491 0.8889919519424438 -0.2739623188972473 7.0 4 -0.017294012010097504
-2.268219470977783 0.9857789278030396 0.391711950302124 1.0 12 -0.017291707918047905
-2.0502078533172607 0.8910300731658936 -0.1955774873495102 8.0 5 -0.017289403825998306
-3.0805225372314453 1.3394490480422974 0.6529484391212463 66.0 13 -0.017287099733948708
-2.0365922451019287 0.8859578967094421 -0.11639518290758133 10.0 6 -0.01728479564189911
-3.0715792179107666 1.336835265159607 0.773381769657135 81.0 14 -0.01728249154984951
-2.020432233810425 0.8797668814659119 -0.03846510127186775 7.0 7 -0.01728018745779991
-3.0551233291625977 1.3309417963027954 0.8929257392883301 76.0 15 -0.017277883365750313
-2.8519163131713867 1.2459709644317627 -0.8339149951934814 6.0 0 -0.013575553894042969
-2.022866725921631 0.8841893076896667 0.03853491693735123 7.0 8 -0.01357324980199337
-3.1692278385162354 1.3859193325042725 -0.798576295375824 48.0 1 -0.013570945709943771
-2.0859665870666504 0.9126367568969727 0.11932599544525146 52.0 9 -0.013568641617894173
-1.9892977476119995 0.8703429102897644 -0.4220695197582245 5.0 2 -0.013566337525844574
-2.2376883029937744 0.9794828295707703 0.2137058824300766 44.0 10 -0.013564033433794975
-2.077272415161133 0.9096975922584534 -0.35917356610298157 8.0 3 -0.013561730273067951
-2.249152421951294 0.9854360222816467 0.30150479078292847 44.0 11 -0.013559426181018353
-2.06353497505188 0.9045400619506836 -0.27664345502853394 5.0 4 -0.013557122088968754
-2.2649378776550293 0.9932953119277954 0.391711950302124 1.0 12 -0.013554817996919155
-2.0379624366760254 0.8941786289215088 -0.19470593333244324 11.0 5 -0.013552513904869556
-3.076063632965088 1.3496570587158203 0.6529484391212463 66.0 13 -0.013550209812819958
-2.0354716777801514 0.8935093879699707 -0.11649984866380692 11.0 6 -0.013547905720770359
-3.077834367752075 1.3517152070999146 0.7760811448097229 74.0 14 -0.01354560162872076
-2.0138423442840576 0.8848533630371094 -0.038395293056964874 7.0 7 -0.013543297536671162
-3.0506927967071533 1.341065764427185 0.8929257392883301 76.0 15 -0.013540993444621563
-2.8543999195098877 1.2595356702804565 -0.8359856009483337 7.0 0 -0.01352025754749775
-2.019767999649048 0.8912450671195984 0.03853491693735123 7.0 8 -0.01351795345544815
-3.1857638359069824 1.4064171314239502 -0.8039751052856445 48.0 1 -0.013515650294721127
-2.0864217281341553 0.9215270280838013 0.11953534185886383 55.0 9 -0.013513346202671528
-1.9789109230041504 0.8744545578956604 -0.42054301500320435 5.0 2 -0.01351104211062193
-2.234083414077759 0.9876773357391357 0.2137058824300766 37.0 10 -0.01350873801857233
-2.0739243030548096 0.917305052280426 -0.35917356610298157 9.0 3 -0.013506433926522732
-2.236621618270874 0.9892668128013611 0.30028611421585083 27.0 11 -0.013504129834473133
-2.0603649616241455 0.9117376804351807 -0.27664345502853394 5.0 4 -0.013501825742423534
-2.2614572048187256 1.001194953918457 0.391711950302124 1.0 12 -0.013499521650373936
-2.0457587242126465 0.9061284065246582 -0.19575178623199463 11.0 5 -0.013497217558324337
-3.0728912353515625 1.361717939376831 0.6533300280570984 63.0 13 -0.013494913466274738
-2.0321831703186035 0.900963306427002 -0.11649984866380692 14.0 6 -0.013492610305547714
-3.0764222145080566 1.364567518234253 0.776980996131897 74.0 14 -0.013490306213498116
-2.008913516998291 0.89106684923172 -0.038360390812158585 7.0 7 -0.013488002121448517
-3.0636508464813232 1.3595426082611084 0.8981021642684937 74.0 15 -0.013485698029398918
-2.85880970954895 1.2734214067459106 -0.8385737538337708 4.0 0 -0.013464962132275105
-2.0091817378997803 0.8953854441642761 0.038395293056964874 7.0 8 -0.013462658040225506
-3.1930463314056396 1.4236397743225098 -0.8071244359016418 38.0 1 -0.013460353948175907
-2.072247266769409 0.9239245057106018 0.11890730261802673 55.0 9 -0.013458049856126308
-1.9901903867721558 0.8877547383308411 -0.42359596490859985 5.0 2 -0.01345574576407671
-2.226983070373535 0.9938463568687439 0.21335725486278534 37.0 10 -0.013453441672027111
-2.0725135803222656 0.9253442883491516 -0.3594864308834076 9.0 3 -0.013451137579977512
-2.0571699142456055 0.9189237356185913 -0.27664345502853394 4.0 4 -0.01344653032720089
-2.257948160171509 1.0090833902359009 0.391711950302124 1.0 12 -0.013444226235151291
-2.040764808654785 0.9124507904052734 -0.1955774873495102 8.0 5 -0.013441922143101692
-3.073495864868164 1.374840259552002 0.6544748544692993 65.0 13 -0.013439618051052094
-2.027202844619751 0.9072362780570984 -0.11639518290758133 16.0 6 -0.013437313959002495
-3.064764976501465 1.3715776205062866 0.7751813530921936 75.0 14 -0.013435009866952896
-2.018566370010376 0.9037941098213196 -0.038604725152254105 7.0 7 -0.013432705774903297
-3.067702293395996 1.3741766214370728 0.9006903171539307 72.0 15 -0.013430401682853699
-2.024439573287964 0.9102436304092407 0.03874434158205986 6.0 8 -0.013407361693680286
-3.207857131958008 1.4430146217346191 -0.8120733499526978 16.0 1 -0.013405057601630688
-2.069171905517578 0.9307913184165955 0.11890730261802673 52.0 9 -0.013402753509581089
-1.985445261001587 0.8935439586639404 -0.4232143759727478 4.0 2 -0.013400450348854065
-2.22367525100708 1.001225471496582 0.21335725486278534 34.0 10 -0.013398146256804466
-2.082040786743164 0.9378912448883057 -0.36167651414871216 9.0 3 -0.013395842164754868
-2.2369000911712646 1.0081192255020142 0.3012610375881195 1.0 11 -0.013393538072705269
-2.043252468109131 0.920846700668335 -0.27518099546432495 5.0 4 -0.01339123398065567
-2.044991970062256 0.9224902391433716 -0.19627472758293152 8.0 5 -0.013386625796556473
-3.083235502243042 1.3914856910705566 0.6575278043746948 66.0 13 -0.013384321704506874
-2.013261079788208 0.909022331237793 -0.11576715111732483 11.0 6 -0.013382017612457275
-3.069080352783203 1.3857430219650269 0.7774308919906616 72.0 14 -0.013379713520407677
-2.0028016567230225 0.9047204852104187 -0.038360390812158585 8.0 7 -0.013377409428358078
-3.0631282329559326 1.3843419551849365 0.9006903171539307 72.0 15 -0.013375106267631054
-2.030515432357788 0.9210824966430664 0.038918863981962204 4.0 8 -0.013352066278457642
-2.069547653198242 0.9396593570709229 0.1191166415810585 52.0 9 -0.013347458094358444
-1.9626517295837402 0.8915374279022217 -0.419016569852829 3.0 2 -0.013345154002308846
-2.20401668548584 1.0011777877807617 0.21178844571113586 26.0 10 -0.013342849910259247
-2.0771210193634033 0.943973183631897 -0.3613636791706085 8.0 3 -0.013340545818209648
-2.23715877532959 1.0171748399734497 0.30174851417541504 1.0 11 -0.01333824172616005
-2.0526742935180664 0.9337270855903625 -0.2768871784210205 4.0 4 -0.01333593763411045
-2.2510273456573486 1.024429440498352 0.391711950302124 1.0 12 -0.013333633542060852
-2.0363199710845947 0.9271457195281982 -0.19575178623199463 9.0 5 -0.013331329450011253
-3.0890793800354004 1.4071227312088013 0.6598175168037415 65.0 13 -0.01332902628928423
-2.0118930339813232 0.9168726205825806 -0.11587180942296982 10.0 6 -0.01332672219723463
-3.0677711963653564 1.398064136505127 0.7783307433128357 72.0 14 -0.013324418105185032
-1.9978119134902954 0.9108759760856628 -0.038325484842061996 9.0 7 -0.013322114013135433
-3.0617926120758057 1.3966294527053833 0.9017255902290344 72.0 15 -0.013319809921085835
-2.0089452266693115 0.9201909303665161 0.038569819182157516 5.0 8 -0.013296769931912422
-2.2587668895721436 1.0350979566574097 -0.5736252665519714 7.0 1 -0.013294465839862823
-2.069720983505249 0.9489031434059143 0.11932599544525146 52.0 9 -0.013292161747813225
-1.9575865268707275 0.897906482219696 -0.41863495111465454 2.0 2 -0.013289857655763626
-2.1840336322784424 1.0017733573913574 0.21021965146064758 23.0 10 -0.013287553563714027
-2.070056676864624 0.9499316215515137 -0.3607378900051117 9.0 3 -0.013285249471664429
-2.1973347663879395 1.0088027715682983 0.2968737483024597 1.0 11 -0.013282946310937405
-2.0492382049560547 0.9412443041801453 -0.2768871784210205 3.0 4 -0.013280642218887806
-2.247257709503174 1.03267240524292 0.391711950302124 1.0 12 -0.013278338126838207
-2.029287576675415 0.9329390525817871 -0.19540317356586456 9.0 5 -0.013276034034788609
-3.087468385696411 1.4200761318206787 0.6605807542800903 65.0 13 -0.01327372994273901
-2.0157768726348877 0.9275795817375183 -0.11629050970077515 10.0 6 -0.013271425850689411
-3.078559398651123 1.416629433631897 0.7823798060417175 74.0 14 -0.013269121758639812
-1.9999090433120728 0.9207014441490173 -0.03843019902706146 12.0 7 -0.013266817666590214
-3.0601625442504883 1.4094585180282593 0.9027608633041382 69.0 15 -0.013264513574540615
-1.9964842796325684 0.923350989818573 0.038395293056964874 6.0 8 -0.013241473585367203
-2.2443461418151855 1.0384597778320312 -0.5709258317947388 20.0 1 -0.013239169493317604
-2.0790843963623047 0.9619930386543274 0.12005870044231415 50.0 9 -0.01323686633259058
-1.963348388671875 0.9088580012321472 -0.42054301500320435 2.0 2 -0.013234562240540981
-2.1749234199523926 1.0072596073150635 0.2096967101097107 26.0 10 -0.013232258148491383
-2.062976598739624 0.9558515548706055 -0.36011216044425964 10.0 3 -0.013229954056441784
-2.2080304622650146 1.0235284566879272 0.29882365465164185 1.0 11 -0.013227649964392185
-2.047741174697876 0.9492266774177551 -0.27713093161582947 3.0 4 -0.013225345872342587
-2.2436392307281494 1.0405105352401733 0.391711950302124 1.0 12 -0.013223041780292988
-2.033247947692871 0.9433706402778625 -0.1961004137992859 9.0 5 -0.013220737688243389
-3.075369358062744 1.427538514137268 0.6590543389320374 66.0 13 -0.01321843359619379
-2.0070924758911133 0.9320867657661438 -0.1159764900803566 10.0 6 -0.013216129504144192
-3.085967779159546 1.4331127405166626 0.7855291366577148 78.0 14 -0.013213826343417168
-2.003937005996704 0.9310471415519714 -0.038569819182157516 13.0 7 -0.013211522251367569
-3.0604794025421143 1.4225748777389526 0.9043138027191162 76.0 15 -0.01320921815931797
-1.9934113025665283 0.9299665689468384 0.038395293056964874 6.0 8 -0.013186178170144558
-3.111464738845825 1.452221393585205 -0.7927275896072388 3.0 1 -0.01318387407809496
-2.06502366065979 0.9638134837150574 0.11943066120147705 49.0 9 -0.01318156998604536
-1.9603235721588135 0.9153637290000916 -0.42054301500320435 2.0 2 -0.013179265893995762
-2.1697661876678467 1.0136232376098633 0.20952239632606506 34.0 10 -0.013176961801946163
-2.0633745193481445 0.964359700679779 -0.3607378900051117 10.0 3 -0.013174657709896564
-2.1902384757995605 1.0241185426712036 0.2968737483024597 1.0 11 -0.013172353617846966
-2.0445821285247803 0.9560120701789856 -0.27713093161582947 3.0 4 -0.013170049525797367
-2.2401764392852783 1.0479451417922974 0.391711950302124 1.0 12 -0.013167746365070343
-2.0301082134246826 0.9501080513000488 -0.1961004137992859 9.0 5 -0.013165442273020744
-3.081286668777466 1.4427241086959839 0.6613439917564392 66.0 13 -0.013163138180971146
-1.99856436252594 0.9361956715583801 -0.11566247045993805 11.0 6 -0.013160834088921547
-3.081198215484619 1.4433382749557495 0.7855291366577148 72.0 14 -0.013158529996871948
-2.004459857940674 0.9393846392631531 -0.038639627397060394 13.0 7 -0.01315622590482235
-3.0697383880615234 1.439276933670044 0.9084548950195312 74.0 15 -0.01315392181277275
-2.004791498184204 0.9433833360671997 0.03867453336715698 6.0 8 -0.013130881823599339
-3.1013424396514893 1.4600412845611572 -0.7913778424263 29.0 1 -0.01312857773154974
-2.0616466999053955 0.9710164666175842 0.11943066120147705 49.0 9 -0.013126273639500141
-1.987471342086792 0.9360806345939636 -0.4270305633544922 1.0 2 -0.013123969547450542
-2.16459059715271 1.0199637413024902 0.20934809744358063 41.0 10 -0.013121665455400944
-2.0744595527648926 0.9779354929924011 -0.3632408678531647 10.0 3 -0.01311936229467392
-2.233511447906494 1.0533922910690308 0.30321094393730164 1.0 11 -0.013117058202624321
-2.021484375 0.9538251757621765 -0.27444979548454285 3.0 4 -0.013114754110574722
-2.026946544647217 0.9568344950675964 -0.1961004137992859 11.0 5 -0.013110145926475525
-3.08891224861145 1.4588030576705933 0.6640153527259827 63.0 13 -0.013107841834425926
-2.0026721954345703 0.9462310075759888 -0.11608116328716278 11.0 6 -0.013105537742376328
-3.06909441947937 1.4507532119750977 0.7837295532226562 72.0 14 -0.013103233650326729
-1.990322470664978 0.9412459135055542 -0.03843019902706146 10.0 7 -0.01310092955827713
-3.0751729011535645 1.4549407958984375 0.9115607142448425 76.0 15 -0.013098625466227531
-2.836038589477539 1.3460437059402466 -0.8411619663238525 5.0 0 -0.013077889569103718
-2.012324810028076 0.9555216431617737 0.038883961737155914 6.0 8 -0.013075585477054119
-3.07686448097229 1.4616601467132568 -0.7864289283752441 30.0 1 -0.013073282316327095
-2.0672640800476074 0.9824936985969543 0.11995401978492737 47.0 9 -0.013070978224277496
-1.9912842512130737 0.9463832974433899 -0.42855700850486755 1.0 2 -0.013068674132227898
-2.161017417907715 1.0275129079818726 0.20934809744358063 45.0 10 -0.013066370040178299
-2.0763847827911377 0.9877169728279114 -0.36417946219444275 9.0 3 -0.0130640659481287
-2.2190659046173096 1.0560640096664429 0.30174851417541504 1.0 11 -0.013061761856079102
-2.0360660552978516 0.9694088101387024 -0.2768871784210205 3.0 4 -0.013059457764029503
-2.0217955112457275 0.9630478024482727 -0.19592611491680145 13.0 5 -0.013054849579930305
-3.092662811279297 1.4737993478775024 0.6659234166145325 67.0 13 -0.013052545487880707
-2.01017427444458 0.9583725929260254 -0.11670918762683868 12.0 6 -0.013050242327153683
-3.079841375350952 1.4690088033676147 0.7877786159515381 74.0 14 -0.013047938235104084
-1.9834153652191162 0.9464654326438904 -0.038360390812158585 8.0 7 -0.013045634143054485
-3.0631024837493896 1.462336540222168 0.909490168094635 74.0 15 -0.013043330051004887
-2.8243532180786133 1.3525967597961426 -0.8390913605690002 7.0 0 -0.013022594153881073
-2.0125837326049805 0.9642682075500488 0.03895376995205879 6.0 8 -0.013020290061831474
-3.0682287216186523 1.470707654953003 -0.7855291366577148 31.0 1 -0.013017985969781876
-2.074627637863159 0.9948851466178894 0.12058205902576447 48.0 9 -0.013015681877732277
-1.966726303100586 0.9431412220001221 -0.4239776134490967 1.0 2 -0.013013377785682678
-2.1592137813568115 1.0359117984771729 0.20952239632606506 43.0 10 -0.01301107369363308
-2.062239170074463 0.9898303747177124 -0.3623022735118866 9.0 3 -0.01300876960158348
-2.1974713802337646 1.0552101135253906 0.2993111312389374 1.0 11 -0.013006465509533882
-2.0237228870391846 0.9722120761871338 -0.2756684720516205 2.0 4 -0.013004161417484283
-2.0184214115142822 0.9700993299484253 -0.19592611491680145 14.0 5 -0.01299955416470766
-3.091038227081299 1.4862866401672363 0.6666866540908813 66.0 13 -0.012997250072658062
-2.0140156745910645 0.9688474535942078 -0.11712788045406342 13.0 6 -0.012994945980608463
-3.092254400253296 1.4882014989852905 0.7922776341438293 70.0 14 -0.012992641888558865
-1.9927115440368652 0.9594556093215942 -0.038604725152254105 8.0 7 -0.012990337796509266
-3.06145977973938 1.474697232246399 0.9105254411697388 74.0 15 -0.012988033704459667
-2.8196146488189697 1.3624475002288818 -0.8390913605690002 6.0 0 -0.012967297807335854
-1.9984034299850464 0.9660656452178955 0.03874434158205986 8.0 8 -0.012964993715286255
-3.0297443866729736 1.4652875661849976 -0.776980996131897 32.0 1 -0.012962689623236656
-2.074737787246704 1.0038607120513916 0.12079139798879623 48.0 9 -0.012960385531187057
-1.9916982650756836 0.9636819958686829 -0.4300835132598877 1.0 2 -0.012958081439137459
-2.16455078125 1.0477834939956665 0.21039395034313202 38.0 10 -0.012955778278410435
-2.0641050338745117 0.9996053576469421 -0.3632408678531647 10.0 3 -0.012953474186360836
-2.193774700164795 1.062874436378479 0.2993111312389374 1.0 11 -0.012951170094311237
-2.04532527923584 0.9913926720619202 -0.2790808379650116 1.0 4 -0.012948866002261639
-2.0150232315063477 0.9771386384963989 -0.19592611491680145 12.0 5 -0.012944257818162441
-3.0858314037323 1.4970674514770508 0.6666866540908813 66.0 13 -0.012941953726112843
-2.007028102874756 0.9741276502609253 -0.11691854149103165 17.0 6 -0.012939649634063244
-3.094052791595459 1.5023913383483887 0.7940772771835327 75.0 14 -0.012937345542013645
-1.9857532978057861 0.9646576642990112 -0.03853491693735123 8.0 7 -0.012935042381286621
-3.0701935291290283 1.4921305179595947 0.9146665334701538 80.0 15 -0.012932738289237022
-2.818314552307129 1.3739746809005737 -0.840126633644104 6.0 0 -0.012912001460790634
-2.000411033630371 0.9756653904914856 0.038849055767059326 9.0 8 -0.01290969830006361
-2.996589183807373 1.4621812105178833 -0.769782543182373 30.0 1 -0.012907394208014011
-2.0658366680145264 1.0084683895111084 0.12047737836837769 49.0 9 -0.012905090115964413
-2.002436399459839 0.9775185585021973 -0.4331364631652832 1.0 2 -0.012902786023914814
-2.173412561416626 1.061452865600586 0.21161414682865143 35.0 10 -0.012900481931865215
-2.0677027702331543 1.0102732181549072 -0.36449235677719116 10.0 3 -0.012898177839815617
-2.188267946243286 1.0696539878845215 0.2990674078464508 2.0 11 -0.012895873747766018
-2.0061867237091064 0.9810842275619507 -0.2742060422897339 2.0 4 -0.01289356965571642
-2.0133893489837646 0.9850419759750366 -0.1961004137992859 11.0 5 -0.012888961471617222
-3.0911664962768555 1.5130093097686768 0.668976366519928 74.0 13 -0.012886658310890198
-1.9964402914047241 0.9776141047477722 -0.11649984866380692 18.0 6 -0.012884354218840599
-3.0905399322509766 1.514039158821106 0.7945271730422974 72.0 14 -0.012882050126791
-1.989556074142456 0.9751041531562805 -0.03867453336715698 9.0 7 -0.012879746034741402
-3.075373888015747 1.5079416036605835 0.9177724123001099 80.0 15 -0.012877441942691803
-2.8256359100341797 1.3897725343704224 -0.8437501192092896 7.0 0 -0.01285670604556799
-2.000581741333008 0.9844080209732056 0.038918863981962204 9.0 8 -0.01285440195351839
-2.982724905014038 1.4683290719985962 -0.7675330638885498 30.0 1 -0.012852097861468792
-2.065887451171875 1.017438292503357 0.12068671733140945 49.0 9 -0.012849793769419193
-1.984921932220459 0.9775632619857788 -0.4300835132598877 1.0 2 -0.012847489677369595
-2.185779333114624 1.076958417892456 0.2131829410791397 23.0 10 -0.012845185585319996
-2.0712506771087646 1.0209782123565674 -0.36574381589889526 10.0 3 -0.012842881493270397
-2.2005436420440674 1.085188388824463 0.3012610375881195 1.0 11 -0.012840578332543373
-2.0383543968200684 1.00564706325531 -0.2790808379650116 1.0 4 -0.012838274240493774
-3.0981030464172363 1.5291593074798584 0.5472078323364258 7.0 12 -0.012835970148444176
-2.017085313796997 0.9955914616584778 -0.1967976689338684 10.0 5 -0.012833666056394577
-3.096428394317627 1.529005765914917 0.6712660789489746 72.0 13 -0.012831361964344978
-1.9930158853530884 0.9845766425132751 -0.11649984866380692 19.0 6 -0.01282905787229538
-3.083489179611206 1.5239546298980713 0.7940772771835327 74.0 14 -0.012826753780245781
-1.9771772623062134 0.9776114821434021 -0.03850000724196434 9.0 7 -0.012824449688196182
-3.0804810523986816 1.523806095123291 0.9208781719207764 80.0 15 -0.012822145596146584
-2.8173065185546875 1.3979101181030273 -0.8427148461341858 9.0 0 -0.01280140969902277
-1.9971331357955933 0.9913854598999023 0.038918863981962204 9.0 8 -0.012799105606973171
-2.9601283073425293 1.4700632095336914 -0.7630340456962585 30.0 1 -0.012796801514923573
-2.0712664127349854 1.0290868282318115 0.12121009081602097 47.0 9 -0.012794498354196548
-2.0131452083587646 1.0002098083496094 -0.4369526505470276 1.0 2 -0.01279219426214695
-2.174870014190674 1.0810343027114868 0.21248570084571838 1.0 10 -0.012789890170097351
-2.067674160003662 1.0282025337219238 -0.36574381589889526 10.0 3 -0.012787586078047752
-2.207406520843506 1.0981677770614624 0.3027234971523285 1.0 11 -0.012785281985998154
-2.04904842376709 1.0198321342468262 -0.28103071451187134 1.0 4 -0.012782977893948555
-3.0874407291412354 1.5373237133026123 0.5462691783905029 53.0 12 -0.012780673801898956
-2.0064632892608643 0.9990746378898621 -0.1961004137992859 9.0 5 -0.012778369709849358
-3.0981016159057617 1.5433059930801392 0.6727925539016724 74.0 13 -0.012776065617799759
-2.002079963684082 0.9977636337280273 -0.117232546210289 21.0 6 -0.01277376152575016
-3.093846082687378 1.5425351858139038 0.7981263995170593 71.0 14 -0.012771457433700562
-1.975542664527893 0.9853993654251099 -0.03853491693735123 8.0 7 -0.012769154272973537
-3.071685791015625 1.5328243970870972 0.9198428988456726 80.0 15 -0.012766850180923939
-2.8124096393585205 1.4077359437942505 -0.8427148461341858 7.0 0 -0.012746114283800125
-1.9972368478775024 1.0001410245895386 0.03898867964744568 9.0 8 -0.012743810191750526
-2.9532358646392822 1.4795149564743042 -0.7625840902328491 29.0 1 -0.012741506099700928
-2.071232795715332 1.0381004810333252 0.12141943722963333 44.0 9 -0.012739202007651329
-2.0377237796783447 1.021305799484253 -0.44305849075317383 1.0 2 -0.01273689791560173
-3.1346242427825928 1.5717551708221436 0.30678820610046387 40.0 10 -0.012734593823552132
-2.0711352825164795 1.0389561653137207 -0.36699530482292175 12.0 3 -0.012732289731502533
-2.2638823986053467 1.1361397504806519 0.31101056933403015 1.0 11 -0.012729985639452934
-2.059668779373169 1.0341037511825562 -0.28298062086105347 1.0 4 -0.012727681547403336
-3.103238582611084 1.5587307214736938 0.5500236749649048 70.0 12 -0.012725377455353737
-2.0065248012542725 1.007860541343689 -0.19644904136657715 9.0 5 -0.012723074294626713
-3.0962040424346924 1.5558741092681885 0.6735557913780212 72.0 13 -0.012720770202577114
-2.000369071960449 1.0056437253952026 -0.11733722686767578 20.0 6 -0.012718466110527515
-3.098889112472534 1.558578372001648 0.800825834274292 67.0 14 -0.012716162018477917
-1.9738768339157104 0.9931880235671997 -0.038569819182157516 7.0 7 -0.012713857926428318
-3.073218822479248 1.5470126867294312 0.9219135046005249 78.0 15 -0.01271155383437872
-2.8109281063079834 1.4192854166030884 -0.8437501192092896 9.0 0 -0.012690817937254906
-1.9812390804290771 1.0007952451705933 0.03874434158205986 9.0 8 -0.012688513845205307
-2.921964406967163 1.4766305685043335 -0.7558355927467346 31.0 1 -0.012686209753155708
-2.0818560123443604 1.0525327920913696 0.1222568079829216 43.0 9 -0.01268390566110611
-2.0061137676239014 1.0142394304275513 -0.4369526505470276 1.0 2 -0.012681601569056511
-3.1308958530426025 1.583587408065796 0.3069625198841095 40.0 10 -0.012679297477006912
-2.069258451461792 1.0470714569091797 -0.3673081696033478 13.0 3 -0.012676994316279888
-3.1277337074279785 1.5833584070205688 0.43044254183769226 44.0 11 -0.01267469022423029
-2.0808393955230713 1.0538439750671387 -0.2863929867744446 1.0 4 -0.01267238613218069
-3.103065013885498 1.5722320079803467 0.5509622097015381 75.0 12 -0.012670082040131092
-2.0065488815307617 1.0166594982147217 -0.1967976689338684 10.0 5 -0.012667777948081493
-3.090754270553589 1.566672444343567 0.6735557913780212 72.0 13 -0.012665473856031895
-1.9986282587051392 1.0135232210159302 -0.11744190007448196 21.0 6 -0.012663169763982296
-3.102118968963623 1.5737944841384888 0.8030753135681152 68.0 14 -0.012660865671932697
-1.9810972213745117 1.005502462387085 -0.03877924755215645 9.0 7 -0.012658561579883099
-3.074690341949463 1.5612287521362305 0.9239840507507324 80.0 15 -0.0126562574878335
-2.8059563636779785 1.4290887117385864 -0.8437501192092896 9.0 0 -0.012635521590709686
-1.9919873476028442 1.0149682760238647 0.03902358189225197 8.0 8 -0.012633217498660088
-2.9011669158935547 1.4788554906845093 -0.751786470413208 32.0 1 -0.012630913406610489
-2.0674936771392822 1.0543493032455444 0.1216287761926651 43.0 9 -0.012628610245883465
-2.002561092376709 1.0212359428405762 -0.4369526505470276 1.0 2 -0.012626306153833866
-3.143096685409546 1.6035614013671875 0.3087056279182434 40.0 10 -0.012624002061784267
-2.067350387573242 1.0551862716674805 -0.3676210343837738 13.0 3 -0.012621697969734669
-3.1310274600982666 1.5987805128097534 0.4316612482070923 68.0 11 -0.01261939387768507
-2.077147960662842 1.0611010789871216 -0.2863929867744446 1.0 4 -0.012617089785635471
-3.1010758876800537 1.5848522186279297 0.5515879988670349 73.0 12 -0.012614785693585873
-2.010084390640259 1.0272843837738037 -0.19749490916728973 9.0 5 -0.012612481601536274
-3.095754623413086 1.5828142166137695 0.6758455038070679 75.0 13 -0.012610177509486675
-1.9915218353271484 1.018674373626709 -0.117232546210289 23.0 6 -0.012607874348759651
-3.1000759601593018 1.5863888263702393 0.8039751052856445 68.0 14 -0.012605570256710052
-1.9882551431655884 1.0178793668746948 -0.03898867964744568 9.0 7 -0.012603266164660454
-3.086416006088257 1.5807583332061768 0.9291604161262512 78.0 15 -0.012600962072610855
-2.804387331008911 1.440640926361084 -0.8447853922843933 9.0 0 -0.012580226175487041
-1.9813182353973389 1.018258810043335 0.038883961737155914 6.0 8 -0.012577922083437443
-2.889054536819458 1.485409140586853 -0.7499868273735046 32.0 1 -0.012575617991387844
-2.070904493331909 1.0652145147323608 0.12204745411872864 40.0 9 -0.012573313899338245
-1.9989837408065796 1.0282204151153564 -0.4369526505470276 1.0 2 -0.012571009807288647
-3.1410233974456787 1.6163463592529297 0.30905425548553467 40.0 10 -0.012568705715239048
-2.0689237117767334 1.065108299255371 -0.36855965852737427 10.0 3 -0.01256640162318945
-3.132486581802368 1.6133366823196411 0.43263620138168335 67.0 11 -0.01256409753113985
-2.1087238788604736 1.0865298509597778 -0.2912677526473999 1.0 4 -0.012561794370412827
-3.0955252647399902 1.595666766166687 0.5515879988670349 77.0 12 -0.012559490278363228
-2.0080764293670654 1.0355581045150757 -0.19766922295093536 13.0 5 -0.01255718618631363
-3.0971903800964355 1.5972102880477905 0.6773719787597656 71.0 13 -0.01255488209426403
-1.9861787557601929 1.0247042179107666 -0.11712788045406342 21.0 6 -0.012552578002214432
-3.094519853591919 1.59719979763031 0.8039751052856445 70.0 14 -0.012550273910164833
-1.9669216871261597 1.0156387090682983 -0.038639627397060394 7.0 7 -0.012547969818115234
-3.087745189666748 1.5950690507888794 0.9312310218811035 78.0 15 -0.012545665726065636
-2.7887978553771973 1.4455748796463013 -0.841679573059082 10.0 0 -0.012524929828941822
-1.9919548034667969 1.0325309038162231 0.03916320204734802 7.0 8 -0.012522625736892223
-2.8665523529052734 1.4865137338638306 -0.7454878091812134 33.0 1 -0.012520321644842625
-2.0778110027313232 1.0779554843902588 0.12267549335956573 35.0 9 -0.012518017552793026
-1.9952019453048706 1.0355397462844849 -0.4369526505470276 1.0 2 -0.012515714392066002
-3.142150640487671 1.6315205097198486 0.3097515106201172 36.0 10 -0.012513410300016403
-2.068511724472046 1.0745059251785278 -0.3691853880882263 9.0 3 -0.012511106207966805
-3.1374056339263916 1.6297519207000732 0.43409866094589233 66.0 11 -0.012508802115917206
-3.0899360179901123 1.6064633131027222 0.5515879988670349 73.0 12 -0.012504193931818008
-2.0115199089050293 1.046238660812378 -0.1983664631843567 12.0 5 -0.01250188983976841
-3.1052486896514893 1.615800380706787 0.6804249286651611 72.0 13 -0.012499585747718811
-1.9983539581298828 1.0402772426605225 -0.11806992441415787 23.0 6 -0.012497281655669212
-3.099015235900879 1.6139326095581055 0.8066745400428772 68.0 14 -0.012494977563619614
-1.9757797718048096 1.0289641618728638 -0.038883961737155914 8.0 7 -0.012492673471570015
-3.085585117340088 1.6076221466064453 0.9322662353515625 78.0 15 -0.012490369379520416
-2.7734627723693848 1.4499309062957764 -0.8385737538337708 9.0 0 -0.012469634413719177
-1.9810686111450195 1.0361181497573853 0.03902358189225197 6.0 8 -0.012467330321669579
-2.8576314449310303 1.4952033758163452 -0.7445880174636841 36.0 1 -0.01246502622961998
-2.0880024433135986 1.0929733514785767 0.1235128715634346 36.0 9 -0.012462722137570381
-1.991575002670288 1.0424981117248535 -0.4369526505470276 1.0 2 -0.012460418045520782
-3.1434967517852783 1.6461762189865112 0.3104487657546997 36.0 10 -0.012458113953471184
-2.066498279571533 1.0826359987258911 -0.36949828267097473 8.0 3 -0.012455809861421585
-3.145477056503296 1.6486114263534546 0.4360485374927521 66.0 11 -0.012453505769371986
-3.09977126121521 1.6260355710983276 0.5544037818908691 68.0 12 -0.012448897585272789
-1.9990339279174805 1.0486258268356323 -0.19749490916728973 10.0 5 -0.01244659349322319
-3.0995891094207764 1.6266306638717651 0.6804249286651611 72.0 13 -0.012444289401173592
-1.992942214012146 1.0463180541992188 -0.11796525865793228 15.0 6 -0.012441986240446568
-3.100264072418213 1.6283643245697021 0.8084741234779358 64.0 14 -0.012439682148396969
-1.9684547185897827 1.0343384742736816 -0.038814153522253036 8.0 7 -0.01243737805634737
-3.076251983642578 1.6171236038208008 0.9312310218811035 78.0 15 -0.012435073964297771
-2.7820560932159424 1.4668104648590088 -0.8427148461341858 10.0 0 -0.012414338067173958
-1.9739024639129639 1.0411608219146729 0.03895376995205879 7.0 8 -0.012412033975124359
-2.8248186111450195 1.4906178712844849 -0.7373896241188049 36.0 1 -0.01240972988307476
-2.093005418777466 1.1049178838729858 0.12403623014688492 33.0 9 -0.012407425791025162
-2.0052852630615234 1.0586094856262207 -0.4407688081264496 1.0 2 -0.012405121698975563
-3.143017053604126 1.659929633140564 0.3109716773033142 35.0 10 -0.012402817606925964
-2.064453125 1.0907657146453857 -0.36981111764907837 9.0 3 -0.012400513514876366
-3.1432127952575684 1.6614373922348022 0.43653604388237 70.0 11 -0.012398209422826767
-3.10280704498291 1.6414645910263062 0.555968165397644 67.0 12 -0.012393602170050144
-2.002405881881714 1.0593241453170776 -0.19819216430187225 9.0 5 -0.012391298078000546
-3.088686227798462 1.6346853971481323 0.6792800426483154 70.0 13 -0.012388993985950947
-1.9786871671676636 1.04766047000885 -0.11733722686767578 12.0 6 -0.012386689893901348
-3.116947889328003 1.6510347127914429 0.8143228888511658 72.0 14 -0.01238438580185175
-1.9772006273269653 1.0477577447891235 -0.039058487862348557 9.0 7 -0.01238208170980215
-3.084243059158325 1.6350899934768677 0.9353720545768738 78.0 15 -0.012379777617752552
-2.776918411254883 1.4765135049819946 -0.8427148461341858 10.0 0 -0.012359041720628738
-1.9879108667373657 1.0574358701705933 0.03930281847715378 6.0 8 -0.01235673762857914
-2.797234058380127 1.4885680675506592 -0.731540858745575 34.0 1 -0.012354433536529541
-2.0908989906311035 1.1131552457809448 0.1241409033536911 35.0 9 -0.012352129444479942
-2.0189077854156494 1.0748283863067627 -0.44458499550819397 1.0 2 -0.012349826283752918
-3.147754669189453 1.6765103340148926 0.312017560005188 35.0 10 -0.01234752219170332
-2.0606329441070557 1.0979654788970947 -0.36981111764907837 9.0 3 -0.01234521809965372
-3.139146327972412 1.6733322143554688 0.43677976727485657 64.0 11 -0.012342914007604122
-3.105772018432617 1.656935214996338 0.5575324892997742 65.0 12 -0.012338305823504925
-2.011000633239746 1.0728726387023926 -0.19941233098506927 8.0 5 -0.012336001731455326
-3.0968177318573 1.6528515815734863 0.6823329925537109 70.0 13 -0.012333697639405727
-1.9891128540039062 1.0620869398117065 -0.11817460507154465 12.0 6 -0.012331393547356129
-3.1025707721710205 1.6573147773742676 0.8120733499526978 70.0 14 -0.012329090386629105
-1.980586051940918 1.0584226846694946 -0.03919810429215431 9.0 7 -0.012326786294579506
-3.0887389183044434 1.6513110399246216 0.9384778738021851 76.0 15 -0.012324482202529907
-2.7751526832580566 1.4880237579345703 -0.8437501192092896 11.0 0 -0.012303745374083519
-1.9806832075119019 1.0624780654907227 0.0392330102622509 6.0 8 -0.012301442213356495
-2.7885866165161133 1.4964803457260132 -0.7306410670280457 20.0 1 -0.012299138121306896
-2.090520143508911 1.122336506843567 0.12435024976730347 41.0 9 -0.012296834029257298
-2.015143632888794 1.081869125366211 -0.44458499550819397 1.0 2 -0.012294529937207699
-3.154170036315918 1.694087028503418 0.313237726688385 32.0 10 -0.0122922258451581
-2.065488338470459 1.109826683998108 -0.3713754713535309 8.0 3 -0.012289921753108501
-3.1455256938934326 1.690859079360962 0.4384859502315521 66.0 11 -0.012287617661058903
-3.1034488677978516 1.6696374416351318 0.5581582188606262 63.0 12 -0.01228301040828228
-2.012507438659668 1.0827172994613647 -0.19993527233600616 10.0 5 -0.012280706316232681
-3.1083171367645264 1.6729559898376465 0.6861491799354553 67.0 13 -0.012278402224183083
-1.9959447383880615 1.0747051239013672 -0.11880263686180115 13.0 6 -0.012276098132133484
-3.101914167404175 1.6709065437316895 0.8134230971336365 67.0 14 -0.012273794040083885
-1.9680777788162231 1.0605865716934204 -0.03902358189225197 9.0 7 -0.012271489948034286
-3.0999603271484375 1.6712511777877808 0.9436542987823486 78.0 15 -0.012269185855984688
-2.7704644203186035 1.4967342615127563 -0.8437501192092896 11.0 0 -0.009228228591382504
-1.9984458684921265 1.080104947090149 0.039651867002248764 6.0 8 -0.009225924499332905
-2.7735860347747803 1.4996724128723145 -0.727941632270813 9.0 1 -0.009223620407283306
-2.088740587234497 1.1298483610153198 0.12445490807294846 43.0 9 -0.009221316315233707
-2.0186421871185303 1.0919305086135864 -0.44611144065856934 1.0 2 -0.009219012223184109
-3.1453278064727783 1.7020915746688843 0.31288909912109375 32.0 10 -0.00921670813113451
-2.0724143981933594 1.1219528913497925 -0.3732526898384094 8.0 3 -0.009214404970407486
-3.1506710052490234 1.7064050436019897 0.43994835019111633 67.0 11 -0.009212100878357887
-3.0981881618499756 1.6793792247772217 0.5581582188606262 63.0 12 -0.00920749269425869
-2.010847568511963 1.0899839401245117 -0.2001095712184906 9.0 5 -0.009205188602209091
-3.1168525218963623 1.6902000904083252 0.6892021298408508 67.0 13 -0.009202884510159492
-2.0066030025482178 1.0885895490646362 -0.11964000016450882 12.0 6 -0.009200580418109894
-3.1069259643554688 1.6862207651138306 0.8161224722862244 67.0 14 -0.009198276326060295
-1.973522663116455 1.0715351104736328 -0.03919810429215431 10.0 7 -0.009195972234010696
-3.091299533843994 1.679136872291565 0.9426190257072449 78.0 15 -0.009193668141961098
-2.7516510486602783 1.4990031719207764 -0.8396090269088745 11.0 0 -0.009172932244837284
-1.9841279983520508 1.0813325643539429 0.03944243863224983 7.0 8 -0.009170628152787685
-2.7546472549438477 1.501881718635559 -0.7243424654006958 12.0 1 -0.009168324992060661
-2.1040711402893066 1.1476532220840454 0.12560631334781647 46.0 9 -0.009166020900011063
-2.045841932296753 1.1158925294876099 -0.45298057794570923 2.0 2 -0.009163716807961464
-3.1428651809692383 1.7149690389633179 0.313237726688385 31.0 10 -0.009161412715911865
