# .PCD v0.7 - Point Cloud Data file format
VERSION 0.7
FIELDS x y z intensity ring time
SIZE 4 4 4 4 4 4
TYPE F F F F F F
COUNT 1 1 1 1 1 1
WIDTH 545
HEIGHT 1
VIEWPOINT 0 0 0 1 0 0 0
POINTS 545
DATA ascii
-2.519200086593628 0.27723202109336853 -0.40141090750694275 12.0 3 -0.03488568589091301
-25.433805465698242 2.803422689437866 3.141791820526123 2.0 11 -0.03488337993621826
-2.5097885131835938 0.2770836055278778 -0.3100356459617615 12.0 4 -0.03488107770681381
-2.4952023029327393 0.27591341733932495 -0.21963247656822205 13.0 5 -0.034876469522714615
-2.4575319290161133 0.27261683344841003 -0.12958383560180664 26.0 6 -0.03487186133861542
-9.751898765563965 1.0835096836090088 2.2652573585510254 1.0 14 -0.03486955538392067
-2.494269609451294 0.27713221311569214 -0.04380554333329201 18.0 7 -0.03486725315451622
-9.653757095336914 1.0743111371994019 2.602684497833252 0.0 15 -0.03486494719982147
-2.5032877922058105 0.2821153998374939 -0.6750000715255737 9.0 0 -0.03484421223402023
-2.5792770385742188 0.2906792461872101 0.04530644789338112 7.0 8 -0.034841910004615784
-2.4902660846710205 0.28108862042427063 -0.5785741209983826 11.0 1 -0.034839604049921036
-3.0205869674682617 0.3414824306964874 0.15931066870689392 2.0 9 -0.034837301820516586
-2.4716498851776123 0.2798610329627991 -0.48351001739501953 11.0 2 -0.03483499586582184
-2.4370107650756836 0.2763696610927582 0.21457743644714355 1.0 10 -0.03483269363641739
-2.4672341346740723 0.27979716658592224 -0.39327630400657654 12.0 3 -0.03483038768172264
-2.473353624343872 0.28136560320854187 -0.3056483268737793 12.0 4 -0.034825779497623444
-26.57467269897461 3.027799367904663 4.236246109008789 2.0 12 -0.034823477268218994
-2.460571527481079 0.2807815372943878 -0.21666917204856873 11.0 5 -0.034821171313524246
-2.4308183193206787 0.2778160870075226 -0.12822310626506805 20.0 6 -0.03481656312942505
-9.748251914978027 1.1158427000045776 2.2652573585510254 1.0 14 -0.0348142609000206
-2.4475932121276855 0.28059878945350647 -0.04300273209810257 15.0 7 -0.03481195494532585
-9.592370986938477 1.1013940572738647 2.587155342102051 0.0 15 -0.0348096527159214
-2.467796802520752 0.28640690445899963 -0.6656826138496399 10.0 0 -0.03478891775012016
-2.5146842002868652 0.2922927439212799 0.04418949410319328 1.0 8 -0.034786611795425415
-2.4389426708221436 0.2839209735393524 -0.5668767094612122 11.0 1 -0.034784309566020966
-2.9182016849517822 0.34022843837738037 0.15397240221500397 1.0 9 -0.03478200361132622
-2.445357322692871 0.2851002514362335 -0.4785490036010742 12.0 2 -0.03477970138192177
-2.4044177532196045 0.28075194358825684 0.21178844571113586 1.0 10 -0.03477739542722702
-2.4407362937927246 0.285425066947937 -0.38920900225639343 13.0 3 -0.03477509319782257
-2.430953025817871 0.28514114022254944 -0.300529807806015 13.0 4 -0.03477048501372337
-2.4279167652130127 0.28564414381980896 -0.21388019621372223 12.0 5 -0.034765876829624176
-2.4139652252197266 0.2844298779964447 -0.1273857206106186 19.0 6 -0.03476126864552498
-2.4128386974334717 0.28515106439590454 -0.042409345507621765 14.0 7 -0.03475666046142578
-9.63451099395752 1.140318512916565 2.599578619003296 0.0 15 -0.03475435823202133
-2.4206953048706055 0.2899361252784729 -0.6532593369483948 9.0 0 -0.034733619540929794
-2.362750291824341 0.2829958498477936 0.04153672605752945 7.0 8 -0.034731317311525345
-2.403109073638916 0.2882551848888397 -0.5587784647941589 11.0 1 -0.0347290113568306
-2.349857807159424 0.28228309750556946 0.12403623014688492 16.0 9 -0.03472670912742615
-2.401413679122925 0.2889021337032318 -0.47015342116355896 13.0 2 -0.0347244031727314
-2.3816137313842773 0.2869417369365692 0.20987103879451752 8.0 10 -0.03472210094332695
-2.402411699295044 0.28987234830856323 -0.3832644820213318 15.0 3 -0.0347197949886322
-2.3905277252197266 0.28886228799819946 -0.2956550419330597 20.0 4 -0.034715186804533005
-2.403169870376587 0.2912404239177704 -0.21178844571113586 18.0 5 -0.03471057862043381
-2.3910973072052 0.29062482714653015 -0.12623433768749237 41.0 6 -0.03470597416162491
-9.74001693725586 1.1855709552764893 2.2652573585510254 1.0 14 -0.03470366820693016
-2.380067825317383 0.2897057831287384 -0.04185086861252785 41.0 7 -0.03470136597752571
-9.6918363571167 1.1814228296279907 2.616142988204956 0.0 15 -0.03469906002283096
-2.404329776763916 0.2964927554130554 -0.649118185043335 31.0 0 -0.034678325057029724
-2.361697196960449 0.2916533350944519 0.04153672605752945 74.0 8 -0.034676019102334976
-2.403970241546631 0.2973002791404724 -0.5592283606529236 39.0 1 -0.03467371687293053
-2.3587687015533447 0.2917101979255676 0.12455958873033524 73.0 9 -0.03467141091823578
-2.394545555114746 0.29655903577804565 -0.46900853514671326 48.0 2 -0.03466910868883133
-2.3588478565216064 0.29255539178848267 0.20795360207557678 79.0 10 -0.03466680273413658
-2.3935441970825195 0.2972833216190338 -0.3820130228996277 50.0 3 -0.03466450050473213
-2.3835434913635254 0.2968854606151581 -0.2949238419532776 64.0 4 -0.034659892320632935
-2.3705053329467773 0.2956821918487549 -0.20899945497512817 79.0 5 -0.03465528413653374
-2.392050266265869 0.2992169260978699 -0.12633900344371796 97.0 6 -0.03465067595243454
-9.735819816589355 1.2195630073547363 2.2652573585510254 1.0 14 -0.03464837372303009
-2.355232000350952 0.29502949118614197 -0.041432011872529984 82.0 7 -0.03464606776833534
-9.676153182983398 1.2138041257858276 2.613037347793579 0.0 15 -0.03464376553893089
-2.4071133136749268 0.3053693473339081 -0.6501534581184387 31.0 0 -0.034623026847839355
-2.3468306064605713 0.29772183299064636 0.04129239544272423 70.0 8 -0.034620724618434906
-2.420370101928711 0.3074803650379181 -0.5632774829864502 45.0 1 -0.03461842238903046
-2.369623899459839 0.30145445466041565 0.12518762052059174 70.0 9 -0.03461611643433571
-2.403233528137207 0.3061557710170746 -0.47091662883758545 58.0 2 -0.03461381420493126
-2.345954179763794 0.29927483201026917 0.206907719373703 76.0 10 -0.03461150825023651
-2.406261682510376 0.3069683015346527 -0.38420307636260986 65.0 3 -0.03460920602083206
-2.3845150470733643 0.3050399422645569 -0.29516759514808655 58.0 4 -0.034604597836732864
-2.367482900619507 0.30370160937309265 -0.20882515609264374 54.0 5 -0.03459998965263367
-2.3831210136413574 0.3061298429965973 -0.12592032551765442 65.0 6 -0.03459538146853447
-9.731721878051758 1.2518417835235596 2.2652573585510254 1.0 14 -0.03459307551383972
-2.372037649154663 0.3055483400821686 -0.04174615815281868 85.0 7 -0.03459077328443527
-9.641201972961426 1.2436164617538452 2.60475492477417 0.0 15 -0.034588467329740524
-2.547847270965576 0.3318117558956146 -0.6884586811065674 73.0 0 -0.034567732363939285
-2.550016164779663 0.33254680037498474 0.04488758742809296 51.0 8 -0.034565430134534836
-2.548748016357422 0.3328344523906708 -0.5934209227561951 89.0 1 -0.03456312417984009
-3.0340402126312256 0.3962075114250183 0.16035738587379456 30.0 9 -0.03456082195043564
-2.5462594032287598 0.3329607844352722 -0.4991563558578491 89.0 2 -0.03455851599574089
-2.3627285957336426 0.30938082933425903 0.20847654342651367 10.0 10 -0.03455621376633644
-2.5344438552856445 0.33231616020202637 -0.40485242009162903 78.0 3 -0.03455390781164169
-2.5448243618011475 0.3345802128314972 -0.31515416502952576 53.0 4 -0.034549299627542496
-2.621281862258911 0.34509849548339844 -0.23131133615970612 12.0 5 -0.0345446914434433
-2.378077745437622 0.3139239251613617 -0.12571097910404205 22.0 6 -0.0345400832593441
-9.727293014526367 1.2858045101165771 2.2652573585510254 1.0 14 -0.03453778102993965
-2.9816062450408936 0.3941243290901184 -0.05249683931469917 65.0 7 -0.034535475075244904
-9.682988166809082 1.281665325164795 2.617178201675415 0.0 15 -0.034533172845840454
-2.5849695205688477 0.3458268344402313 -0.698811411857605 73.0 0 -0.034512437880039215
-3.022606372833252 0.40437552332878113 0.05322984233498573 49.0 8 -0.03451013192534447
-2.555356502532959 0.3423190414905548 -0.5952205061912537 68.0 1 -0.03450782969594002
-3.044516086578369 0.4083884060382843 0.16098542511463165 33.0 9 -0.03450552374124527
-2.5684309005737305 0.34498313069343567 -0.5037357807159424 86.0 2 -0.03450322151184082
-2.952042818069458 0.39703312516212463 0.2605956792831421 2.0 10 -0.03450091555714607
-2.5646519660949707 0.3449312150478363 -0.4098583459854126 82.0 3 -0.03449861332774162
-2.5397660732269287 0.34248679876327515 -0.31466665863990784 60.0 4 -0.034494005143642426
-9.29473876953125 1.255047082901001 1.4855018854141235 0.0 12 -0.03449169918894768
-2.7582712173461914 0.37293246388435364 -0.24351313710212708 10.0 5 -0.03448939695954323
-2.3888986110687256 0.32341596484184265 -0.12633900344371796 17.0 6 -0.03448478877544403
-9.72297477722168 1.3180546760559082 2.2652573585510254 1.0 14 -0.03448248282074928
-3.002009153366089 0.4074877202510834 -0.05288079380989075 72.0 7 -0.03448018059134483
-9.674626350402832 1.3149372339248657 2.616142988204956 0.0 15 -0.034477874636650085
-2.5818328857421875 0.354585200548172 -0.6982938051223755 69.0 0 -0.034454345703125
-3.032989978790283 0.41708579659461975 0.053439266979694366 47.0 8 -0.03445204347372055
-2.5618066787719727 0.352745920419693 -0.597020149230957 68.0 1 -0.0344497375190258
-3.039041519165039 0.4189988970756531 0.1607760637998581 31.0 9 -0.03444743528962135
-2.559431791305542 0.3528740704059601 -0.5022093057632446 86.0 2 -0.034445129334926605
-2.972349166870117 0.41033244132995605 0.26251310110092163 2.0 10 -0.034442827105522156
-2.557500123977661 0.35351741313934326 -0.40891972184181213 77.0 3 -0.03444052115082741
-2.536527633666992 0.3515207767486572 -0.31442293524742126 63.0 4 -0.03443591296672821
-2.772740364074707 0.384749174118042 -0.24490763247013092 9.0 5 -0.03443130478262901
-2.399566650390625 0.33382079005241394 -0.12696704268455505 20.0 6 -0.034426696598529816
-2.9965343475341797 0.41793617606163025 -0.05281098559498787 72.0 7 -0.03442208841443062
-9.688874244689941 1.3530621528625488 2.62131929397583 0.0 15 -0.03441978618502617
-2.569101572036743 0.36197757720947266 -0.6951879858970642 74.0 0 -0.03439905121922493
-3.035475969314575 0.4282291531562805 0.05350907891988754 48.0 8 -0.03439674526453018
-2.5682783126831055 0.3627764880657196 -0.5988197326660156 20.0 1 -0.03439444303512573
-3.0434932708740234 0.43044373393058777 0.16109009087085724 30.0 9 -0.034392137080430984
-2.5562403202056885 0.361531138420105 -0.5018276572227478 78.0 2 -0.034389834851026535
-2.9965438842773438 0.4243370294570923 0.26477915048599243 2.0 10 -0.03438752889633179
-2.56016206741333 0.3629973232746124 -0.4095454514026642 77.0 3 -0.03438522666692734
-2.558868885040283 0.36372512578964233 -0.31734779477119446 71.0 4 -0.03438061848282814
-9.676654815673828 1.3771909475326538 1.5480756759643555 0.0 12 -0.03437831252813339
-2.7634904384613037 0.39330264925956726 -0.2442103773355484 9.0 5 -0.03437601029872894
-2.3983867168426514 0.34219488501548767 -0.12696704268455505 19.0 6 -0.034371402114629745
-2.9891185760498047 0.42754417657852173 -0.052706267684698105 69.0 7 -0.03436679393053055
-9.703216552734375 1.3896111249923706 2.626495838165283 0.0 15 -0.0343644879758358
-2.571646213531494 0.3714962601661682 -0.696223258972168 69.0 0 -0.03434375301003456
-3.0319833755493164 0.4385361671447754 0.053474172949790955 37.0 8 -0.03434145078063011
-3.0498788356781006 0.4422113597393036 0.16150878369808197 30.0 9 -0.034336842596530914
-2.562734365463257 0.37157875299453735 -0.5033541321754456 78.0 2 -0.034334536641836166
-2.9812424182891846 0.4327907860279083 0.263558954000473 2.0 10 -0.03433223441243172
-2.5686535835266113 0.3733518421649933 -0.4111098051071167 82.0 3 -0.03432992845773697
-2.5595481395721436 0.37294134497642517 -0.3175915479660034 67.0 4 -0.03432532027363777
-9.710881233215332 1.4166637659072876 1.5543330907821655 0.0 12 -0.03432301804423332
-2.7502715587615967 0.40122103691101074 -0.243164524435997 9.0 5 -0.034320712089538574
-9.8278226852417 1.435475468635559 1.930605411529541 1.0 13 -0.034318409860134125
-2.401129961013794 0.3511427938938141 -0.12717638909816742 16.0 6 -0.03431610390543938
-2.999479055404663 0.4397151470184326 -0.05291569605469704 74.0 7 -0.03431149944663048
-9.744178771972656 1.430206298828125 2.638918876647949 0.0 15 -0.03430919349193573
-2.5779781341552734 0.38160237669944763 -0.6982938051223755 69.0 0 -0.03428845852613449
-3.01263165473938 0.4464780390262604 0.05316003039479256 35.0 8 -0.03428615257143974
-3.0601699352264404 0.4546157419681549 0.16213680803775787 29.0 9 -0.034281544387340546
-2.565305709838867 0.38109922409057617 -0.5041174292564392 78.0 2 -0.034279242157936096
-2.9954793453216553 0.4455389678478241 0.26495346426963806 3.0 10 -0.03427693620324135
-2.5458426475524902 0.3791160583496094 -0.40766826272010803 77.0 3 -0.0342746339738369
-2.5582311153411865 0.3818730413913727 -0.3175915479660034 69.0 4 -0.0342700257897377
-2.7567365169525146 0.41199690103530884 -0.24386176466941833 9.0 5 -0.034265417605638504
-9.822751998901367 1.4697723388671875 1.930605411529541 1.0 13 -0.034263115376234055
-2.3880386352539062 0.35774627327919006 -0.12654836475849152 16.0 6 -0.03426080942153931
-3.0018813610076904 0.4507766366004944 -0.05298550799489021 74.0 7 -0.03425620123744011
-9.739127159118652 1.4642137289047241 2.638918876647949 0.0 15 -0.03425389900803566
-2.5804502964019775 0.39117738604545593 -0.6993290781974792 54.0 0 -0.03423316031694412
-3.0248939990997314 0.45909184217453003 0.05340436473488808 29.0 8 -0.03423085808753967
-3.050666332244873 0.46409276127815247 0.16171811521053314 28.0 9 -0.034226249903440475
-2.5600779056549072 0.38946032524108887 -0.5033541321754456 12.0 2 -0.03422394394874573
-2.984057664871216 0.4544925391674042 0.2640818953514099 2.0 10 -0.03422164171934128
-2.5659844875335693 0.39127594232559204 -0.4111098051071167 82.0 3 -0.03421933948993683
-2.550995111465454 0.3899014890193939 -0.3168603181838989 71.0 4 -0.03421473130583763
-9.856966972351074 1.508327841758728 1.5793626308441162 0.0 12 -0.03421242535114288
-2.755281448364258 0.4216172695159912 -0.24386176466941833 9.0 5 -0.034210123121738434
-2.384800910949707 0.3657777011394501 -0.12644368410110474 18.0 6 -0.034205514937639236
-3.014124631881714 0.46337950229644775 -0.05322984233498573 72.0 7 -0.03420090675354004
-9.733957290649414 1.4981987476348877 2.638918876647949 0.0 15 -0.03419860079884529
-3.02327299118042 0.46964871883392334 0.05340436473488808 31.0 8 -0.034175559878349304
-2.470534563064575 0.3842248320579529 -0.5772244930267334 1.0 1 -0.034173257648944855
-3.0450809001922607 0.47412431240081787 0.16150878369808197 28.0 9 -0.034170955419540405
-2.6091396808624268 0.4062475264072418 -0.513276219367981 1.0 2 -0.03416864946484566
-2.9804840087890625 0.46459996700286865 0.2639075815677643 2.0 10 -0.03416634723544121
-2.556796073913574 0.39901161193847656 -0.4098583459854126 68.0 3 -0.03416404128074646
-2.549618721008301 0.39880380034446716 -0.3168603181838989 71.0 4 -0.03415943309664726
-2.7537930011749268 0.43123188614845276 -0.24386176466941833 9.0 5 -0.034154824912548065
-2.395348072052002 0.3759582042694092 -0.12707172334194183 18.0 6 -0.03415021672844887
-2.99668550491333 0.47141197323799133 -0.052950602024793625 67.0 7 -0.03414560854434967
-2.444098949432373 0.3879815638065338 -0.6630944013595581 1.0 0 -0.03412257134914398
-3.023589849472046 0.48051223158836365 0.053439266979694366 25.0 8 -0.034120265394449234
-2.4691781997680664 0.39284634590148926 -0.5772244930267334 1.0 1 -0.034117963165044785
-3.0591864585876465 0.48726481199264526 0.16234615445137024 27.0 9 -0.03411565721035004
-2.44484543800354 0.389413058757782 -0.4812203049659729 1.0 2 -0.03411335498094559
-2.980811834335327 0.47531411051750183 0.2640818953514099 2.0 10 -0.03411104902625084
-2.5612399578094482 0.4088684022426605 -0.41079697012901306 14.0 3 -0.03410874679684639
-2.554091691970825 0.4086415767669678 -0.3175915479660034 66.0 4 -0.03410413861274719
-2.740466833114624 0.43895116448402405 -0.24281588196754456 9.0 5 -0.034099530428647995
-2.395993232727051 0.384633868932724 -0.12717638909816742 15.0 6 -0.0340949222445488
-2.9950215816497803 0.48186957836151123 -0.052950602024793625 67.0 7 -0.0340903140604496
-9.723259925842285 1.5661178827285767 2.638918876647949 0.0 15 -0.03408800810575485
-2.461798667907715 0.3996061086654663 -0.6682707667350769 1.0 0 -0.03406727313995361
-3.0139992237091064 0.4897807538509369 0.05329965054988861 27.0 8 -0.034064970910549164
-2.4023942947387695 0.3908241391181946 -0.5619277954101562 2.0 1 -0.034062664955854416
-3.0554957389831543 0.49761873483657837 0.16224147379398346 27.0 9 -0.034060362726449966
-2.977168083190918 0.4853956401348114 0.2639075815677643 2.0 10 -0.03405575454235077
-2.4564692974090576 0.4009413421154022 -0.394214928150177 1.0 3 -0.03405344858765602
-2.556567907333374 0.4181954860687256 -0.31807902455329895 69.0 4 -0.034048840403556824
-2.727120876312256 0.4465833902359009 -0.24177002906799316 9.0 5 -0.034044232219457626
-2.4005486965179443 0.3939649164676666 -0.12749040126800537 18.0 6 -0.03403962403535843
-3.0051605701446533 0.4942685067653656 -0.05316003039479256 65.0 7 -0.03403501957654953
-2.475635290145874 0.41072651743888855 -0.6724118590354919 1.0 0 -0.03401197865605354
-3.004380464553833 0.4989880919456482 0.05316003039479256 26.0 8 -0.034009672701358795
-2.4663753509521484 0.4100748896598816 -0.5772244930267334 1.0 1 -0.034007370471954346
-3.067531108856201 0.5105769038200378 0.16297417879104614 23.0 9 -0.0340050645172596
-2.430447578430176 0.4045372009277344 -0.47893062233924866 1.0 2 -0.03400276228785515
-2.9833168983459473 0.49709489941596985 0.2646048367023468 2.0 10 -0.0340004563331604
-2.470642328262329 0.41211429238319397 -0.3967178463935852 1.0 3 -0.03399815410375595
-2.5629241466522217 0.42842626571655273 -0.3190539479255676 64.0 4 -0.033993545919656754
-2.737335443496704 0.45807313919067383 -0.24281588196754456 9.0 5 -0.033988937735557556
-2.39324951171875 0.40135109424591064 -0.12717638909816742 16.0 6 -0.03398432955145836
-3.0073611736297607 0.5054177045822144 -0.05322984233498573 65.0 7 -0.03397972136735916
-2.4208552837371826 0.4103262424468994 -0.6579180359840393 1.0 0 -0.033956680446863174
-3.0243070125579834 0.5131514072418213 0.05354398116469383 24.0 8 -0.033954378217458725
-2.388079881668091 0.4056284725666046 -0.5592283606529236 1.0 1 -0.03395207226276398
-3.0617921352386475 0.5206120014190674 0.16276483237743378 23.0 9 -0.03394977003335953
-2.989419937133789 0.5088422298431396 0.26530206203460693 2.0 10 -0.03394516184926033
-2.473083734512329 0.4213990867137909 -0.39734360575675964 1.0 3 -0.03394285589456558
-2.553586006164551 0.43603411316871643 -0.31807902455329895 67.0 4 -0.03393825143575668
-2.735719919204712 0.46762487292289734 -0.24281588196754456 9.0 5 -0.033933643251657486
-2.3898653984069824 0.40936610102653503 -0.12707172334194183 15.0 6 -0.03392903506755829
-3.0095202922821045 0.5165889263153076 -0.05329965054988861 67.0 7 -0.03392442688345909
-3.026437997817993 0.5243886709213257 0.05361378937959671 23.0 8 -0.033899080008268356
-2.3674488067626953 0.4106316566467285 -0.5547293424606323 2.0 1 -0.03389677777886391
-3.063891887664795 0.5319791436195374 0.16297417879104614 23.0 9 -0.03389447182416916
-2.4082210063934326 0.4181359112262726 -0.4751144051551819 1.0 2 -0.03389216959476471
-2.9935142993927 0.5202984809875488 0.2658250033855438 2.0 10 -0.03388986736536026
-2.555959463119507 0.44562652707099915 -0.3185664713382721 63.0 4 -0.033882953226566315
-2.7399590015411377 0.47819918394088745 -0.24333882331848145 8.0 5 -0.03387834504246712
-2.3943240642547607 0.4187375009059906 -0.1273857206106186 16.0 6 -0.03387373685836792
-3.0017895698547363 0.5260562300682068 -0.053194932639598846 63.0 7 -0.03386912867426872
-3.030496597290039 0.5359945893287659 0.053718507289886475 22.0 8 -0.033843785524368286
-2.3660011291503906 0.41889262199401855 -0.5547293424606323 1.0 1 -0.03384148329496384
-3.060049533843994 0.542323112487793 0.16286951303482056 21.0 9 -0.03383917734026909
-2.4067466259002686 0.4265402555465698 -0.4751144051551819 1.0 2 -0.03383687511086464
-2.97794771194458 0.5283085107803345 0.2646048367023468 2.0 10 -0.03383456915616989
-2.5622060298919678 0.4559369385242462 -0.31954145431518555 64.0 4 -0.033827658742666245
-2.7284657955169678 0.48601362109184265 -0.2424672693014145 9.0 5 -0.03382305055856705
-2.3987462520599365 0.42814555764198303 -0.12769974768161774 18.0 6 -0.03381844237446785
-2.997966766357422 0.5361785292625427 -0.05316003039479256 55.0 7 -0.03381383419036865
-2.427833080291748 0.4377112090587616 -0.6610238552093506 1.0 0 -0.033790793269872665
-3.020735502243042 0.5451485514640808 0.05357888713479042 18.0 8 -0.033788491040468216
-2.460409641265869 0.4444705843925476 -0.5772244930267334 1.0 1 -0.03378618508577347
-3.069929838180542 0.5551338791847229 0.16349753737449646 21.0 9 -0.03378388285636902
-2.405242919921875 0.43493884801864624 -0.4751144051551819 1.0 2 -0.03378157690167427
-2.981966733932495 0.539764940738678 0.2651277482509613 2.0 10 -0.03377927467226982
-2.568411350250244 0.46629634499549866 -0.3205164074897766 61.0 4 -0.033772360533475876
-2.7169511318206787 0.4937536120414734 -0.24159571528434753 8.0 5 -0.03376775234937668
-2.403132200241089 0.4375896453857422 -0.1280137598514557 18.0 6 -0.03376314416527748
-2.996076822280884 0.5466402173042297 -0.05316003039479256 52.0 7 -0.033758535981178284
-3.5347774028778076 0.6455647349357605 0.9628069400787354 1.0 15 -0.033756233751773834
-2.395890474319458 0.44059237837791443 -0.6527416706085205 1.0 0 -0.033735498785972595
-3.0168473720550537 0.5553275942802429 0.05354398116469383 14.0 8 -0.03373319283127785
-2.420513153076172 0.44599443674087524 -0.5682263970375061 1.0 1 -0.0337308906018734
-3.0758302211761475 0.5672956705093384 0.1639162302017212 21.0 9 -0.03372858464717865
-2.403710126876831 0.44333213567733765 -0.4751144051551819 1.0 2 -0.0337262824177742
-2.995738983154297 0.5530638098716736 0.26652225852012634 2.0 10 -0.03372397646307945
-3.4979445934295654 0.6470429301261902 0.43677976727485657 1.0 11 -0.033719368278980255
-2.582383632659912 0.47814974188804626 -0.32246631383895874 61.0 4 -0.033717066049575806
-3.521388053894043 0.6526507139205933 0.5672314167022705 1.0 12 -0.03371476009488106
-2.7230472564697266 0.5046870112419128 -0.24229297041893005 8.0 5 -0.03371245786547661
-3.4880828857421875 0.6471076607704163 0.6895837187767029 1.0 13 -0.03371015191078186
-2.40944504737854 0.44743362069129944 -0.12843245267868042 19.0 6 -0.03370784968137741
-3.5080535411834717 0.6520792841911316 0.8237708210945129 1.0 14 -0.03370554745197296
-3.5173089504241943 0.655069887638092 0.9586657881736755 4.0 15 -0.033700939267873764
-2.3943378925323486 0.44895294308662415 -0.6527416706085205 1.0 0 -0.03368020057678223
-3.014890670776367 0.565855085849762 0.05354398116469383 13.0 8 -0.03367789834737778
-2.4572465419769287 0.4616372287273407 -0.5772244930267334 1.0 1 -0.03367559239268303
-3.0700063705444336 0.5767549872398376 0.16370689868927002 22.0 9 -0.03367329016327858
-2.4253015518188477 0.4560734033584595 -0.47969385981559753 1.0 2 -0.03367098420858383
-3.025118112564087 0.569414496421814 0.26931124925613403 4.0 10 -0.03366868197917938
-3.528826951980591 0.6655024290084839 0.4409233331680298 2.0 11 -0.033664073795080185
-2.5689945220947266 0.48495233058929443 -0.32100388407707214 56.0 4 -0.03366176784038544
-3.5036754608154297 0.6613931655883789 0.5647284984588623 2.0 12 -0.03365946561098099
-2.719311237335205 0.5138192772865295 -0.24211864173412323 7.0 5 -0.03365716338157654
-3.358485460281372 0.6351987719535828 0.6643969416618347 2.0 13 -0.03365485742688179
-2.4019811153411865 0.45472750067710876 -0.12811844050884247 18.0 6 -0.03365255519747734
-3.4176812171936035 0.6476311683654785 0.8030753135681152 1.0 14 -0.03365024924278259
-3.0539002418518066 0.5792480707168579 0.8328797221183777 8.0 15 -0.033645641058683395
-2.4155261516571045 0.4616599380970001 -0.6589533090591431 1.0 0 -0.033624906092882156
-3.012997627258301 0.5758498311042786 0.05354398116469383 11.0 8 -0.03362260013818741
-3.0758206844329834 0.5889695882797241 0.16412557661533356 18.0 9 -0.03361799195408821
-2.4005565643310547 0.46010181307792664 -0.4751144051551819 1.0 2 -0.03361568972468376
-3.03289532661438 0.5818483233451843 0.2701827883720398 5.0 10 -0.03361338749527931
-3.109412908554077 0.5970897674560547 0.3887632191181183 2.0 11 -0.033608779311180115
-2.555675983428955 0.491220086812973 -0.31954145431518555 50.0 4 -0.03360647335648537
-3.0629501342773438 0.5892770290374756 0.49402010440826416 12.0 12 -0.03360417112708092
-2.7253267765045166 0.5248147249221802 -0.24281588196754456 7.0 5 -0.03360186517238617
-3.051762580871582 0.5876762866973877 0.604101300239563 15.0 13 -0.03359956294298172
-2.4102659225463867 0.46457985043525696 -0.12864179909229279 19.0 6 -0.03359725698828697
-3.044304847717285 0.5873429775238037 0.7157943248748779 25.0 14 -0.03359495475888252
-3.0234086513519287 0.5844060778617859 0.8251151442527771 27.0 15 -0.033590346574783325
-3.0188207626342773 0.5878919959068298 0.053683605045080185 10.0 8 -0.03356730565428734
-3.069930076599121 0.5984020233154297 0.1639162302017212 21.0 9 -0.03356269747018814
-3.05832576751709 0.5972489714622498 0.2726231813430786 31.0 10 -0.033558089286088943
-3.062501907348633 0.5991735458374023 0.38315722346305847 36.0 11 -0.033553481101989746
-2.553945779800415 0.5001388192176819 -0.31954145431518555 51.0 4 -0.0335511788725853
-3.049347400665283 0.5971532464027405 0.4921428859233856 48.0 12 -0.03354887291789055
-2.6961989402770996 0.5284841656684875 -0.24037553369998932 8.0 5 -0.0335465706884861
-3.051619052886963 0.5987034440040588 0.6044829487800598 45.0 13 -0.03354426473379135
-2.4105889797210693 0.4733758866786957 -0.12874646484851837 24.0 6 -0.0335419625043869
-3.0479726791381836 0.5990929007530212 0.7171440124511719 42.0 14 -0.033539656549692154
-2.713656187057495 0.533381462097168 -0.04827335476875305 1.0 7 -0.033537354320287704
-3.0271406173706055 0.5955469608306885 0.8266680836677551 35.0 15 -0.03353504836559296
-2.389587879180908 0.4735839366912842 -0.6527416706085205 1.0 0 -0.03351431339979172
-3.007046937942505 0.5959559679031372 0.05350907891988754 9.0 8 -0.03351201117038727
-3.0795767307281494 0.611448347568512 0.1645442545413971 19.0 9 -0.03350740298628807
-3.0444977283477783 0.6055880188941956 0.27157729864120483 24.0 10 -0.03350279480218887
-3.0663387775421143 0.6104888319969177 0.38388845324516296 56.0 11 -0.033498186618089676
-2.567847728729248 0.5117082595825195 -0.3214913308620453 49.0 4 -0.03349588066339493
-3.053056478500366 0.6089523434638977 0.4930815100669861 37.0 12 -0.03349357843399048
-2.7060608863830566 0.5402328372001648 -0.2414214164018631 7.0 5 -0.03349127247929573
-3.0553929805755615 0.6099728345870972 0.6056278347969055 38.0 13 -0.03348897024989128
-2.42663311958313 0.484889417886734 -0.12968851625919342 27.0 6 -0.03348666429519653
-3.034503698348999 0.6069040894508362 0.7144445776939392 23.0 14 -0.033484362065792084
-2.6941308975219727 0.5393180847167969 -0.047959212213754654 11.0 7 -0.033482056111097336
-3.0004184246063232 0.6011769771575928 0.8199387788772583 31.0 15 -0.033479753881692886
-2.3880043029785156 0.4815061390399933 -0.6527416706085205 1.0 0 -0.03345901891589165
-3.004948377609253 0.6064489483833313 0.05350907891988754 9.0 8 -0.0334567129611969
-3.089169502258301 0.6245691776275635 0.1651722937822342 19.0 9 -0.0334521047770977
-2.3957760334014893 0.4843786954879761 -0.4751144051551819 1.0 2 -0.03344980254769325
-3.0424726009368896 0.6156807541847229 0.27157729864120483 25.0 10 -0.033447496592998505
-3.036952018737793 0.6156671047210693 0.38047611713409424 41.0 11 -0.03344288840889931
-2.569936990737915 0.5214582681655884 -0.3219788372516632 49.0 4 -0.03344058617949486
-3.0373611450195312 0.6168538928031921 0.4908914268016815 41.0 12 -0.03343828022480011
-2.6963486671447754 0.548088014125824 -0.24072414636611938 8.0 5 -0.03343597799539566
-3.020538330078125 0.6139862537384033 0.5991402864456177 42.0 13 -0.03343367204070091
-2.4033968448638916 0.4889763593673706 -0.128537118434906 22.0 6 -0.03343136981129646
-3.0361859798431396 0.6182705163955688 0.7153443694114685 40.0 14 -0.033429063856601715
-2.696150541305542 0.5495178699493408 -0.04802902415394783 11.0 7 -0.033426761627197266
-3.0039806365966797 0.6128045320510864 0.8214917182922363 35.0 15 -0.033424459397792816
-3.0145654678344727 0.6193498373031616 0.053718507289886475 9.0 8 -0.03340141847729683
-2.3535513877868652 0.48397096991539 -0.5547293424606323 1.0 1 -0.03339911252260208
-3.079145908355713 0.6337374448776245 0.16475361585617065 19.0 9 -0.03339681029319763
-3.057757616043091 0.6304488182067871 0.2731460928916931 45.0 10 -0.033392202109098434
-3.0308961868286133 0.625461220741272 0.3799886405467987 40.0 11 -0.03338759392499924
-2.571989059448242 0.5312289595603943 -0.32246631383895874 45.0 4 -0.03338528797030449
-3.0603373050689697 0.6326512694358826 0.49495869874954224 33.0 12 -0.03338298574090004
-2.7080764770507812 0.560322642326355 -0.2419443279504776 7.0 5 -0.03338067978620529
-3.050949811935425 0.6318211555480957 0.6056278347969055 38.0 13 -0.03337837755680084
-2.397677183151245 0.4969713091850281 -0.12832777202129364 22.0 6 -0.03337607532739639
-3.0548887252807617 0.6337489485740662 0.7202933430671692 35.0 14 -0.033373769372701645
-3.051002025604248 0.6334980726242065 0.8349502682685852 36.0 15 -0.03336916118860245
-3.0201046466827393 0.6320324540138245 0.05385812744498253 10.0 8 -0.03334612026810646
-3.080824375152588 0.6453015804290771 0.16496294736862183 19.0 9 -0.03334151208400726
-3.08088755607605 0.6464366912841797 0.2754121422767639 27.0 10 -0.033336903899908066
-3.0926907062530518 0.6500410437583923 0.38803204894065857 52.0 11 -0.03333229944109917
-2.5622544288635254 0.5390169620513916 -0.3214913308620453 45.0 4 -0.03332999348640442
-3.094838857650757 0.6510558128356934 0.5009031891822815 45.0 12 -0.03332769125699997
-2.702204704284668 0.5689512491226196 -0.24159571528434753 7.0 5 -0.03332538530230522
-3.096752405166626 0.6525879502296448 0.6151682734489441 46.0 13 -0.03332308307290077
-2.399836301803589 0.5061615705490112 -0.128537118434906 22.0 6 -0.033320777118206024
-3.090792179107666 0.6524587869644165 0.7292913794517517 46.0 14 -0.033318474888801575
-3.0733437538146973 0.6493357419967651 0.841679573059082 38.0 15 -0.03331386670470238
-3.025815725326538 0.6437085270881653 0.053997743874788284 9.0 8 -0.03329082578420639
-3.086366653442383 0.6577168703079224 0.16538164019584656 21.0 9 -0.03328621760010719
-3.098097085952759 0.6613473296165466 0.2771552503108978 37.0 10 -0.033281609416007996
-3.1099307537078857 0.6644408702850342 0.39046943187713623 55.0 11 -0.0332770012319088
-2.5798652172088623 0.5516618490219116 -0.32392874360084534 43.0 4 -0.03327469900250435
-3.0925471782684326 0.6618556976318359 0.5009031891822815 47.0 12 -0.0332723930478096
-2.696305751800537 0.577545702457428 -0.24124708771705627 7.0 5 -0.03327009081840515
-3.10224986076355 0.6644984483718872 0.6166946887969971 46.0 13 -0.0332677848637104
-2.4098620414733887 0.5166290402412415 -0.1291651576757431 22.0 6 -0.033265482634305954
-3.0771796703338623 0.660251796245575 0.7265920042991638 37.0 14 -0.033263176679611206
-3.0635039806365967 0.6584354043006897 0.8396090269088745 38.0 15 -0.03325856849551201
-3.00596022605896 0.650460422039032 0.053683605045080185 8.0 8 -0.03323553130030632
-3.0919766426086426 0.6696391701698303 0.1658003330230713 22.0 9 -0.03323092311620712
-3.097834348678589 0.6720390915870667 0.27732956409454346 36.0 10 -0.033226314932107925
-3.109532117843628 0.6757133603096008 0.3907131552696228 53.0 11 -0.03322170674800873
-2.581803321838379 0.5615077018737793 -0.32441622018814087 43.0 4 -0.03321940079331398
-3.0961263179779053 0.6733660697937012 0.5018418431282043 43.0 12 -0.03321709856390953
-2.682694911956787 0.5839413404464722 -0.2402012199163437 7.0 5 -0.03321479260921478
-3.090320348739624 0.6732330918312073 0.6147866249084473 41.0 13 -0.03321249037981033
-2.427557945251465 0.5292932391166687 -0.13021187484264374 26.0 6 -0.033210184425115585
-3.0843758583068848 0.6730666160583496 0.7288414835929871 41.0 14 -0.033207882195711136
-3.0386555194854736 0.6636444330215454 0.833397388458252 40.0 15 -0.03320327401161194
-2.3301806449890137 0.512323260307312 -0.6392830610275269 1.0 0 -0.0331825390458107
-3.007692813873291 0.6612838506698608 0.05375341325998306 8.0 8 -0.03318023309111595
-3.0974223613739014 0.6821457147598267 0.16621901094913483 22.0 9 -0.033175624907016754
-3.0954694747924805 0.6828492879867554 0.27732956409454346 36.0 10 -0.03317101672291756
-3.078198194503784 0.6796019077301025 0.3870570659637451 46.0 11 -0.03316640853881836
-2.5876803398132324 0.5717794895172119 -0.32539117336273193 41.0 4 -0.03316410630941391
-3.072540283203125 0.6794783473014832 0.4984002709388733 36.0 12 -0.03316180035471916
-2.686476469039917 0.5945932269096375 -0.24072414636611938 7.0 5 -0.03315949812531471
-3.0593175888061523 0.6771135330200195 0.6090623736381531 36.0 13 -0.033157192170619965
-2.4023897647857666 0.5321565866470337 -0.12895581126213074 22.0 6 -0.033154889941215515
-3.053588390350342 0.6769644021987915 0.7220929265022278 38.0 14 -0.03315258398652077
-3.0193469524383545 0.6704782843589783 0.8287386298179626 41.0 15 -0.03314797580242157
-2.2491068840026855 0.5031469464302063 -0.6175422668457031 2.0 0 -0.03312397003173828
-3.0168397426605225 0.6754490733146667 0.053962841629981995 8.0 8 -0.03312166780233383
-3.0851566791534424 0.6913102269172668 0.1656956523656845 23.0 9 -0.033117059618234634
-3.0735058784484863 0.689826250076294 0.27558645606040955 36.0 10 -0.03311245143413544
-3.060072183609009 0.6879332065582275 0.385107159614563 50.0 11 -0.03310784325003624
-2.573845863342285 0.579096794128418 -0.32392874360084534 36.0 4 -0.03310553729534149
-3.0642478466033936 0.6894336938858032 0.4974616467952728 37.0 12 -0.03310323506593704
-2.688166379928589 0.6053116917610168 -0.24107277393341064 5.0 5 -0.033100929111242294
-3.0547800064086914 0.6884238719940186 0.6086807250976562 38.0 13 -0.033098626881837845
-2.4081218242645264 0.543134868144989 -0.12937450408935547 22.0 6 -0.0330963209271431
-3.0547685623168945 0.6895425319671631 0.7229927778244019 38.0 14 -0.03309401869773865
-3.0281753540039062 0.6840951442718506 0.8318444490432739 44.0 15 -0.03308941051363945
-2.2360341548919678 0.5084248185157776 -0.6144364476203918 1.0 0 -0.03306867554783821
-3.026282787322998 0.6881098747253418 0.054172269999980927 8.0 8 -0.03306636959314346
-3.088567018508911 0.7034058570861816 0.16600966453552246 25.0 9 -0.033061761409044266
-3.0788488388061523 0.7023230791091919 0.2762836813926697 36.0 10 -0.03305715322494507
-2.60382342338562 0.5939639806747437 -0.4229988753795624 1.0 3 -0.03305485099554062
-3.0655150413513184 0.6998443007469177 0.38608211278915405 47.0 11 -0.03305254504084587
-2.571911096572876 0.5876289010047913 -0.32392874360084534 37.0 4 -0.03305024281144142
-3.059896945953369 0.6996855139732361 0.4971488118171692 41.0 12 -0.033047936856746674
-2.6840951442718506 0.6142464280128479 -0.2408984750509262 5.0 5 -0.033045634627342224
-3.0658769607543945 0.7016159892082214 0.6113520860671997 42.0 13 -0.033043328672647476
-2.408254623413086 0.551563560962677 -0.12947916984558105 8.0 6 -0.03304102644324303
-3.0543646812438965 0.7001034617424011 0.7234426140785217 53.0 14 -0.03303872048854828
-2.5864152908325195 0.5933186411857605 -0.04631868749856949 1.0 7 -0.03303641825914383
-3.0389490127563477 0.6976865530014038 0.8354679346084595 54.0 15 -0.03303411230444908
-3.016068696975708 0.6968687772750854 0.05403264984488487 8.0 8 -0.03301107510924339
-3.084146738052368 0.7137324213981628 0.16590499877929688 27.0 9 -0.033006466925144196
-3.0745620727539062 0.712079644203186 0.27610939741134644 41.0 10 -0.033001858741045
-2.5901880264282227 0.6003731489181519 -0.42112162709236145 12.0 3 -0.03299955278635025
-3.0707883834838867 0.7123351097106934 0.3870570659637451 57.0 11 -0.0329972505569458
-2.5775790214538574 0.5983986854553223 -0.3249036967754364 37.0 4 -0.03299494460225105
-3.0535876750946045 0.7094690799713135 0.49652308225631714 45.0 12 -0.0329926423728466
-2.676112651824951 0.6222583055496216 -0.24037553369998932 6.0 5 -0.032990336418151855
-3.0634090900421143 0.712313711643219 0.6113520860671997 46.0 13 -0.032988034188747406
-2.43743896484375 0.5672095417976379 -0.1311539113521576 19.0 6 -0.03298572823405266
-3.046208143234253 0.7094356417655945 0.7220929265022278 51.0 14 -0.03298342600464821
-3.0289700031280518 0.7065349817276001 0.833397388458252 53.0 15 -0.03297881782054901
-2.247476100921631 0.5275540947914124 -0.6185775399208069 1.0 0 -0.03295808285474777
-3.0214052200317383 0.7092198133468628 0.054172269999980927 8.0 8 -0.032955776900053024
-3.093302011489868 0.7272364497184753 0.16653302311897278 28.0 9 -0.03295116871595383
-2.4748353958129883 0.5822898149490356 -0.4941953420639038 1.0 2 -0.03294886648654938
-3.0719313621520996 0.7233437299728394 0.27610939741134644 40.0 10 -0.03294656053185463
-2.59181547164917 0.6107689142227173 -0.4217473566532135 33.0 3 -0.03294425830245018
-3.0702157020568848 0.7235052585601807 0.3873008191585541 58.0 11 -0.03294195234775543
-2.581270933151245 0.6087588667869568 -0.3256349265575409 32.0 4 -0.03293965011835098
-3.0626277923583984 0.7228456139564514 0.4984002709388733 45.0 12 -0.03293734788894653
-2.666168451309204 0.6297639608383179 -0.239678293466568 1.0 5 -0.032935041934251785
-3.064598560333252 0.7244409322738647 0.6121153235435486 42.0 13 -0.032932739704847336
-2.443118095397949 0.5779786705970764 -0.13157260417938232 30.0 6 -0.03293043375015259
-3.047380208969116 0.721493124961853 0.7229927778244019 51.0 14 -0.03292813152074814
-3.0227251052856445 0.7162136435508728 0.8323620557785034 54.0 15 -0.03292352333664894
-2.2080373764038086 0.5264354944229126 -0.6082248091697693 3.0 0 -0.032902784645557404
-3.0226755142211914 0.7212180495262146 0.054242078214883804 8.0 8 -0.032900482416152954
-3.08673095703125 0.7376406788825989 0.1663236916065216 28.0 9 -0.03289587423205376
-3.073263168334961 0.7349892854690552 0.2764580249786377 41.0 10 -0.03289126604795456
-2.574298620223999 0.6161333322525024 -0.4192444086074829 8.0 3 -0.03288896381855011
-3.0675432682037354 0.7347533702850342 0.3873008191585541 55.0 11 -0.03288665786385536
-2.6041173934936523 0.6242318749427795 -0.32880350947380066 14.0 4 -0.03288435563445091
-3.07340407371521 0.7372907996177673 0.5005903244018555 48.0 12 -0.032882049679756165
-2.652329206466675 0.6362774968147278 -0.2386324256658554 3.0 5 -0.032879747450351715
-3.0505971908569336 0.7323834300041199 0.6098255515098572 46.0 13 -0.03287744149565697
-2.423607587814331 0.5823039412498474 -0.13063055276870728 26.0 6 -0.03287513926625252
-3.0618956089019775 0.7362263798713684 0.7270418405532837 56.0 14 -0.03287283331155777
-3.0200798511505127 0.7272870540618896 0.8323620557785034 56.0 15 -0.03286822512745857
-2.2362277507781982 0.5414137840270996 -0.6165069937705994 1.0 0 -0.03284749016165733
-3.0162527561187744 0.7308223247528076 0.054172269999980927 7.0 8 -0.032845184206962585
-3.084137201309204 0.7484109997749329 0.1663236916065216 29.0 9 -0.032840579748153687
-3.0784237384796143 0.7475926280021667 0.2771552503108978 40.0 10 -0.03283597156405449
-2.59132719039917 0.629780650138855 -0.42237308621406555 38.0 3 -0.03283366560935974
-3.0726749897003174 0.7473332285881042 0.38827574253082275 55.0 11 -0.03283136337995529
-2.5845634937286377 0.629092276096344 -0.32660984992980957 19.0 4 -0.032829057425260544
-3.0727310180664062 0.7484828233718872 0.5009031891822815 51.0 12 -0.032826755195856094
-2.6713857650756836 0.6507196426391602 -0.24054984748363495 4.0 5 -0.032824449241161346
-3.055651903152466 0.7448875308036804 0.6113520860671997 46.0 13 -0.0328221470117569
-2.4099180698394775 0.5879202485084534 -0.13000252842903137 26.0 6 -0.03281984105706215
-3.0536277294158936 0.7455233931541443 0.7256921529769897 55.0 14 -0.0328175388276577
-3.0325355529785156 0.7414955496788025 0.8365032076835632 54.0 15 -0.0328129306435585
-3.025334358215332 0.7442127466201782 0.05438169836997986 8.0 8 -0.032789889723062515
-3.0815060138702393 0.7591714262962341 0.1663236916065216 29.0 9 -0.03278528153896332
-3.0835330486297607 0.7602416276931763 0.27785250544548035 41.0 10 -0.03278067335486412
-2.6006205081939697 0.6416621804237366 -0.4242503345012665 41.0 3 -0.03277837112545967
-3.071974754333496 0.7585302591323853 0.3885194957256317 55.0 11 -0.03277606517076492
-2.5842792987823486 0.6385866403579712 -0.32685360312461853 35.0 4 -0.032773762941360474
-3.073934555053711 0.7601525783538818 0.5015289187431335 46.0 12 -0.032771456986665726
-2.6826367378234863 0.6633886694908142 -0.24177002906799316 4.0 5 -0.032769154757261276
-3.0606560707092285 0.7574357986450195 0.6128785014152527 42.0 13 -0.03276684880256653
-2.4291768074035645 0.6016098260879517 -0.1311539113521576 34.0 6 -0.03276454657316208
-3.0415492057800293 0.753834068775177 0.7234426140785217 56.0 14 -0.03276224061846733
-2.614372968673706 0.6484447121620178 -0.04701678454875946 1.0 7 -0.03275993838906288
-3.0299289226531982 0.7520766258239746 0.8365032076835632 55.0 15 -0.032757632434368134
-3.0265982151031494 0.7557375431060791 0.054451506584882736 7.0 8 -0.032734595239162445
-3.082712411880493 0.7708923816680908 0.16653302311897278 29.0 9 -0.03272998705506325
-3.0769948959350586 0.7700340151786804 0.2775038778781891 38.0 10 -0.03272537887096405
-2.607945442199707 0.6531356573104858 -0.4258146584033966 42.0 3 -0.0327230729162693
-3.073159694671631 0.7702133059501648 0.38900697231292725 53.0 11 -0.03272077068686485
-2.589735984802246 0.6495358943939209 -0.3278285562992096 36.0 4 -0.032718464732170105
-3.06168270111084 0.7684736251831055 0.4999645948410034 48.0 12 -0.032716162502765656
-2.662912607192993 0.6683834791183472 -0.2402012199163437 4.0 5 -0.03271385654807091
-3.0732264518737793 0.7719404101371765 0.6159314513206482 46.0 13 -0.03271155431866646
-2.4386839866638184 0.613007664680481 -0.1317819505929947 33.0 6 -0.03270924836397171
-3.052128553390503 0.7677744626998901 0.7265920042991638 57.0 14 -0.03270694613456726
-3.027285099029541 0.7626485824584961 0.8365032076835632 56.0 15 -0.03270233795046806
-3.0200650691986084 0.7653154134750366 0.05438169836997986 7.0 8 -0.032679297029972076
-3.1014349460601807 0.7865114808082581 0.1676844209432602 36.0 9 -0.03267468884587288
-3.076219081878662 0.7812604904174805 0.2776781916618347 36.0 10 -0.03267008066177368
-2.5999064445495605 0.660774827003479 -0.42487606406211853 41.0 3 -0.03266777843236923
-3.0781474113464355 0.7828933000564575 0.3899819254875183 51.0 11 -0.032665472477674484
-2.5951478481292725 0.6605304479598999 -0.32880350947380066 36.0 4 -0.032663170248270035
-3.0763466358184814 0.7830076813697815 0.5027804374694824 48.0 12 -0.03266086429357529
-2.66249418258667 0.6781659126281738 -0.24037553369998932 4.0 5 -0.03265856206417084
-3.0705130100250244 0.7826641201972961 0.6159314513206482 45.0 13 -0.03265625983476639
-2.4423351287841797 0.622997522354126 -0.13209596276283264 36.0 6 -0.03265395388007164
-3.0607590675354004 0.7813149690628052 0.7292913794517517 61.0 14 -0.03265165165066719
-2.609898805618286 0.6662245988845825 -0.04701678454875946 1.0 7 -0.03264934569597244
-3.0191237926483154 0.7712488770484924 0.8349502682685852 58.0 15 -0.03264704346656799
-3.013637065887451 0.774330198764801 0.05431189015507698 7.0 8 -0.032624002546072006
-3.096736192703247 0.7968350648880005 0.1675797551870346 29.0 9 -0.03261939436197281
-3.083120107650757 0.7944789528846741 0.2785497307777405 38.0 10 -0.03261478617787361
-2.59578800201416 0.6688999533653259 -0.4245631992816925 38.0 3 -0.032612480223178864
-3.067845582962036 0.7911139130592346 0.38900697231292725 52.0 11 -0.032610177993774414
-2.604475736618042 0.6721088290214539 -0.33026593923568726 34.0 4 -0.032607875764369965
-3.0774199962615967 0.7947284579277039 0.5034061670303345 47.0 12 -0.03260556980967522
-2.9243857860565186 0.7557525634765625 -0.26425620913505554 9.0 5 -0.03260326758027077
-3.060297966003418 0.7908765077590942 0.6144050359725952 46.0 13 -0.03260096162557602
-2.4228529930114746 0.6265926361083984 -0.1311539113521576 33.0 6 -0.03259865939617157
-3.071357250213623 0.794878363609314 0.7324406504631042 60.0 14 -0.03259635344147682
-3.0218241214752197 0.7826216816902161 -0.05448641628026962 1.0 7 -0.03259405121207237
-3.0238938331604004 0.7837217450141907 0.8370208144187927 58.0 15 -0.032591745257377625
-3.0341360569000244 0.7908986210823059 0.054730746895074844 6.0 8 -0.03256870433688164
-3.093935966491699 0.8076391220092773 0.1675797551870346 27.0 9 -0.03256409615278244
-2.59295392036438 0.6768630743026733 -0.520908534526825 3.0 2 -0.03256179392337799
-3.099745750427246 0.8097343444824219 0.2802928686141968 41.0 10 -0.03255949169397354
-2.5915262699127197 0.6774573922157288 -0.4242503345012665 37.0 3 -0.03255718573927879
-3.063145160675049 0.8013154864311218 0.3887632191181183 48.0 11 -0.032554883509874344
-2.600193738937378 0.6806929111480713 -0.3300222158432007 31.0 4 -0.032552577555179596
-3.091825246810913 0.8099713325500488 0.5062219500541687 57.0 12 -0.032550275325775146
-3.010521411895752 0.7886720299720764 -0.27227452397346497 23.0 5 -0.0325479693710804
-3.0613162517547607 0.8025506734848022 0.6151682734489441 46.0 13 -0.03254566714167595
-2.4264466762542725 0.6365661025047302 -0.13146793842315674 36.0 6 -0.0325433611869812
-3.0572547912597656 0.8026257157325745 0.7297412753105164 60.0 14 -0.03254105895757675
-3.0577547550201416 0.8033280968666077 -0.055184509605169296 21.0 7 -0.032538753002882004
-3.0342183113098145 0.7977100014686584 0.8406442999839783 55.0 15 -0.032536450773477554
-3.0313568115234375 0.801485002040863 0.054730746895074844 7.0 8 -0.03251340985298157
-3.0891671180725098 0.8179237246513367 0.16747507452964783 10.0 9 -0.03250880166888237
-2.607656240463257 0.6904333233833313 -0.5243431329727173 8.0 2 -0.03250649943947792
-3.096900224685669 0.8205496072769165 0.2802928686141968 38.0 10 -0.03250419348478317
-2.913743495941162 0.7725650072097778 -0.4774380326271057 27.0 3 -0.03250189125537872
-3.0775976181030273 0.8165849447250366 0.3909568786621094 51.0 11 -0.032499585300683975
-3.0390827655792236 0.8069334626197815 -0.38608211278915405 31.0 4 -0.032497283071279526
-3.0756149291992188 0.8172081708908081 0.5040318965911865 47.0 12 -0.03249497711658478
-3.032782554626465 0.8058273196220398 -0.27454057335853577 28.0 5 -0.03249267488718033
-3.069880247116089 0.8162579536437988 0.617457926273346 46.0 13 -0.03249036893248558
-2.4338605403900146 0.647599995136261 -0.13199129700660706 34.0 6 -0.03248806670308113
-3.052551507949829 0.8127912878990173 0.7292913794517517 57.0 14 -0.03248576074838638
-3.051067590713501 0.8129664659500122 -0.05511470139026642 36.0 7 -0.032483458518981934
-3.038881778717041 0.8102875351905823 0.8427148461341858 63.0 15 -0.032481152564287186
-3.036266565322876 0.8141325116157532 0.0548703633248806 6.0 8 -0.0324581153690815
-3.032163619995117 0.8135996460914612 -0.7247923612594604 1.0 1 -0.03245580941438675
-2.949338912963867 0.7919283509254456 0.1600433737039566 2.0 9 -0.0324535071849823
-3.056500196456909 0.8207022547721863 -0.6151682734489441 22.0 2 -0.03245120123028755
-3.0901689529418945 0.8303208947181702 0.2799442410469055 38.0 10 -0.0324488990008831
-3.0808074474334717 0.8283820152282715 -0.5052834153175354 34.0 3 -0.032446593046188354
-3.070894479751587 0.8262913227081299 0.39046943187713623 52.0 11 -0.032444290816783905
