# .PCD v0.7 - Point Cloud Data file format
VERSION 0.7
FIELDS x y z intensity ring time
SIZE 4 4 4 4 4 4
TYPE F F F F F F
COUNT 1 1 1 1 1 1
WIDTH 530
HEIGHT 1
VIEWPOINT 0 0 0 1 0 0 0
POINTS 530
DATA ascii
-2.951139211654663 -0.30653268098831177 0.46992918848991394 1.0 12 -0.012721970677375793
-1.597301721572876 -0.16562841832637787 -0.14049506187438965 13.0 5 -0.012719666585326195
-2.9389402866363525 -0.30474647879600525 0.5743350982666016 3.0 13 -0.012717362493276596
-1.5754083395004272 -0.16308070719242096 -0.08300483226776123 8.0 6 -0.012715058401226997
-2.9560866355895996 -0.30548223853111267 0.6861007809638977 1.0 14 -0.012712754309177399
-1.5435714721679688 -0.15924018621444702 -0.027086134999990463 9.0 7 -0.0127104502171278
-2.9632420539855957 -0.30517637729644775 0.7981979846954346 3.0 15 -0.012708147056400776
-1.6528578996658325 -0.1681826412677765 -0.44516876339912415 8.0 0 -0.012687410227954388
-1.5378514528274536 -0.15620927512645721 0.026981420814990997 10.0 8 -0.012685107067227364
-1.6441010236740112 -0.1667122095823288 -0.3815170228481293 8.0 1 -0.012682802975177765
-1.5658386945724487 -0.15849994122982025 0.08248147368431091 5.0 9 -0.012680498883128166
-1.6192920207977295 -0.16362518072128296 -0.31636133790016174 10.0 2 -0.012678194791078568
-1.554119348526001 -0.15703965723514557 0.13666020333766937 22.0 10 -0.012675890699028969
-1.6175267696380615 -0.1631620228290558 -0.2574911415576935 12.0 3 -0.01267358660697937
-1.5307059288024902 -0.15413406491279602 0.188897505402565 19.0 11 -0.012671282514929771
-1.6077631711959839 -0.16160990297794342 -0.19840329885482788 7.0 4 -0.012668978422880173
-2.952191114425659 -0.2962293326854706 0.46992918848991394 1.0 12 -0.012666674330830574
-1.587957739830017 -0.15905925631523132 -0.1396235078573227 9.0 5 -0.012664370238780975
-2.9361302852630615 -0.29358261823654175 0.5735718607902527 3.0 13 -0.012662067078053951
-1.5899070501327515 -0.1586936116218567 -0.08373753726482391 7.0 6 -0.012659762986004353
-2.9687693119049072 -0.29632219672203064 0.6888001561164856 1.0 14 -0.012657458893954754
-1.550087571144104 -0.15444627404212952 -0.02719084918498993 8.0 7 -0.012655154801905155
-2.94506573677063 -0.2929188013076782 0.793021559715271 3.0 15 -0.012652850709855556
-1.6534632444381714 -0.16212384402751923 -0.44516876339912415 6.0 0 -0.012632114812731743
-1.5264724493026733 -0.1494029462337494 0.026771990582346916 8.0 8 -0.012629810720682144
-1.656338095664978 -0.1618216633796692 -0.38421642780303955 7.0 1 -0.012627506628632545
-1.5783361196517944 -0.153922900557518 0.08310950547456741 2.0 9 -0.012625202536582947
-1.625742793083191 -0.15825968980789185 -0.31750616431236267 8.0 2 -0.012622898444533348
-1.5388203859329224 -0.14979812502861023 0.13526570796966553 15.0 10 -0.01262059435248375
-1.608283281326294 -0.15627674758434296 -0.25592681765556335 11.0 3 -0.01261829026043415
-1.5391638278961182 -0.14928926527500153 0.18987245857715607 17.0 11 -0.012615986168384552
-1.6281033754348755 -0.15762902796268463 -0.20084069669246674 7.0 4 -0.012613683007657528
-2.9886488914489746 -0.2888273000717163 0.47556084394454956 1.0 12 -0.01261137891560793
-1.58853018283844 -0.15323799848556519 -0.1396235078573227 8.0 5 -0.01260907482355833
-2.946957588195801 -0.2837599813938141 0.5754799246788025 3.0 13 -0.012606770731508732
-1.5944541692733765 -0.15324777364730835 -0.08394688367843628 5.0 6 -0.012604466639459133
-2.985353946685791 -0.2869313061237335 0.6923993825912476 1.0 14 -0.012602162547409534
-1.5506432056427002 -0.14876385033130646 -0.02719084918498993 7.0 7 -0.012599858455359936
-2.9422733783721924 -0.2817542552947998 0.791986346244812 3.0 15 -0.012597554363310337
-1.6636629104614258 -0.15696942806243896 -0.44775697588920593 5.0 0 -0.012576818466186523
-1.5409460067749023 -0.1451195627450943 0.027016324922442436 7.0 8 -0.012574514374136925
-1.651099443435669 -0.15520301461219788 -0.3828667104244232 6.0 1 -0.012572210282087326
-1.5928093194961548 -0.14944295585155487 0.0838422104716301 1.0 9 -0.012569906190037727
-1.638013482093811 -0.15368415415287018 -0.3197959065437317 6.0 2 -0.012567603029310703
-1.5532450675964355 -0.1454574316740036 0.13648588955402374 12.0 10 -0.012565298937261105
-1.6206462383270264 -0.15148405730724335 -0.2578040361404419 8.0 3 -0.012562994845211506
-1.5337711572647095 -0.14309372007846832 0.18914122879505157 11.0 11 -0.012560690753161907
-1.6326231956481934 -0.15202875435352325 -0.20132817327976227 6.0 4 -0.012558386661112309
-2.989687442779541 -0.27787137031555176 0.47556084394454956 1.0 12 -0.01255608256906271
-1.5910391807556152 -0.14787639677524567 -0.13979780673980713 7.0 5 -0.012553778477013111
-2.940110921859741 -0.2727459967136383 0.5739535093307495 2.0 13 -0.012551474384963512
-1.5770806074142456 -0.14602383971214294 -0.08300483226776123 3.0 6 -0.012549170292913914
-2.9863855838775635 -0.275987446308136 0.6923993825912476 1.0 14 -0.01254686713218689
-1.5651166439056396 -0.1443651169538498 -0.0274351816624403 6.0 7 -0.012544563040137291
-2.9509811401367188 -0.2716767489910126 0.7940568327903748 4.0 15 -0.012542258948087692
-1.679592251777649 -0.15255919098854065 -0.45189806818962097 4.0 0 -0.012521523050963879
-1.557375431060791 -0.14118444919586182 0.027295565232634544 6.0 8 -0.01251921895891428
-1.6593945026397705 -0.15014062821865082 -0.3846663236618042 4.0 1 -0.012516914866864681
-1.5933213233947754 -0.14388205111026764 0.0838422104716301 1.0 9 -0.012514610774815083
-1.6522269248962402 -0.1492014229297638 -0.32246720790863037 5.0 2 -0.012512306682765484
-1.5616806745529175 -0.14075040817260742 0.13718314468860626 9.0 10 -0.012510002590715885
-1.6172302961349487 -0.14547203481197357 -0.25717827677726746 6.0 3 -0.012507698498666286
-1.5223984718322754 -0.1366739571094513 0.18767879903316498 7.0 11 -0.012505394406616688
-1.6232579946517944 -0.14544348418712616 -0.20010948181152344 4.0 4 -0.012503090314567089
-2.998509168624878 -0.2681373655796051 0.47681230306625366 1.0 12 -0.012500787153840065
-1.6133747100830078 -0.14427371323108673 -0.14171522855758667 6.0 5 -0.012498483061790466
-2.946911334991455 -0.2630048990249634 0.5750983357429504 1.0 13 -0.012496178969740868
-1.5835490226745605 -0.14104947447776794 -0.08331885188817978 2.0 6 -0.012493874877691269
-2.987330913543701 -0.2655612528324127 0.6923993825912476 1.0 14 -0.01249157078564167
-1.5656111240386963 -0.13890092074871063 -0.0274351816624403 4.0 7 -0.012489266693592072
-2.944214105606079 -0.26069262623786926 0.791986346244812 4.0 15 -0.012486962601542473
-1.6935861110687256 -0.14787200093269348 -0.4555215537548065 2.0 0 -0.01246622670441866
-1.5598509311676025 -0.13592086732387543 0.027330469340085983 4.0 8 -0.01246392261236906
-1.659908413887024 -0.14434731006622314 -0.3846663236618042 3.0 1 -0.012461618520319462
-1.5838409662246704 -0.13773241639137268 0.08331885188817978 1.0 9 -0.012459314428269863
-1.6370904445648193 -0.1420755535364151 -0.31941425800323486 5.0 2 -0.012457010336220264
-1.5601774454116821 -0.13512593507766724 0.13700881600379944 8.0 10 -0.012454706244170666
-1.6334724426269531 -0.14118674397468567 -0.25968125462532043 6.0 3 -0.012452403083443642
-1.546599268913269 -0.13340644538402557 0.19060367345809937 7.0 11 -0.012450098991394043
-1.6059316396713257 -0.13852432370185852 -0.19791583716869354 2.0 4 -0.012447794899344444
-2.9836370944976807 -0.25683704018592834 0.47430935502052307 1.0 12 -0.012445490807294846
-1.6237939596176147 -0.13949371874332428 -0.14258678257465363 3.0 5 -0.012443186715245247
-2.959548234939575 -0.25372347235679626 0.5773880481719971 1.0 13 -0.012440882623195648
-1.5860216617584229 -0.13569119572639465 -0.08342352509498596 1.0 6 -0.01243857853114605
-2.9881949424743652 -0.25565335154533386 0.6923993825912476 1.0 14 -0.01243627443909645
-1.5580933094024658 -0.13302789628505707 -0.027295565232634544 2.0 7 -0.012433970347046852
-2.9566116333007812 -0.2519124448299408 0.7950921058654785 6.0 15 -0.012431666254997253
-1.6844419240951538 -0.14144672453403473 -0.4529333710670471 2.0 0 -0.01241093035787344
-1.572249412536621 -0.13174930214881897 0.027539897710084915 2.0 8 -0.012408626265823841
-1.675913691520691 -0.140141099691391 -0.38826555013656616 2.0 1 -0.012406323105096817
-1.606182336807251 -0.13431012630462646 0.0844702422618866 0.0 9 -0.012404019013047218
-1.6297268867492676 -0.13599291443824768 -0.3178878128528595 3.0 2 -0.01240171492099762
-1.5705446004867554 -0.13077843189239502 0.1378803700208664 6.0 10 -0.012399410828948021
-1.6477117538452148 -0.13691416382789612 -0.2618713080883026 5.0 3 -0.012397106736898422
-1.543076515197754 -0.12794886529445648 0.19011619687080383 6.0 11 -0.012394802644848824
-1.614295482635498 -0.1338541954755783 -0.1988907903432846 2.0 4 -0.012392498552799225
-3.0002214908599854 -0.2482452541589737 0.47681230306625366 1.0 12 -0.012390194460749626
-1.6024057865142822 -0.13230480253696442 -0.14066936075687408 2.0 5 -0.012387890368700027
-2.9681994915008545 -0.2445525825023651 0.5789145231246948 1.0 13 -0.012385586276650429
-1.580491304397583 -0.1299399882555008 -0.08310950547456741 0.0 6 -0.01238328218460083
-2.9890263080596924 -0.24574261903762817 0.6923993825912476 1.0 14 -0.012380979023873806
-1.566497802734375 -0.12851428985595703 -0.0274351816624403 1.0 7 -0.012378674931824207
-2.9420275688171387 -0.24084553122520447 0.7909510731697083 6.0 15 -0.012376370839774609
-1.681050419807434 -0.13554951548576355 -0.45189806818962097 1.0 0 -0.012355634942650795
-1.560718059539795 -0.12557251751422882 0.027330469340085983 1.0 8 -0.012353330850601196
-1.6996791362762451 -0.13645410537719727 -0.3936643898487091 1.0 1 -0.012351026758551598
-1.6185866594314575 -0.12965992093086243 0.0850982740521431 0.0 9 -0.012348722666501999
-1.659523606300354 -0.13293924927711487 -0.3236120641231537 2.0 2 -0.0123464185744524
-1.5610393285751343 -0.12477579712867737 0.13700881600379944 6.0 10 -0.012344114482402802
-1.6284655332565308 -0.12987884879112244 -0.25874263048171997 3.0 3 -0.012341810390353203
-1.5672383308410645 -0.12472077459096909 0.19304105639457703 5.0 11 -0.012339506298303604
-1.6345415115356445 -0.12978969514369965 -0.20132817327976227 1.0 4 -0.012337202206254005
-2.9656240940093994 -0.23496189713478088 0.47118064761161804 1.0 12 -0.012334899045526981
-1.6107802391052246 -0.127619668841362 -0.1413666158914566 2.0 5 -0.012332594953477383
-2.949422597885132 -0.23316103219985962 0.5750983357429504 1.0 13 -0.012330290861427784
-1.6107795238494873 -0.12705425918102264 -0.08467958122491837 0.0 6 -0.012327986769378185
-2.989866018295288 -0.23530738055706024 0.6923993825912476 1.0 14 -0.012325682677328587
-1.5609562397003174 -0.12257610261440277 -0.027330469340085983 0.0 7 -0.012323378585278988
-2.9447762966156006 -0.2307252585887909 0.7914686799049377 7.0 15 -0.01232107449322939
-1.7200360298156738 -0.13265161216259003 -0.46225085854530334 1.0 0 -0.012300338596105576
-1.5830786228179932 -0.12181133776903152 0.027714421972632408 0.0 8 -0.012298034504055977
-1.6962590217590332 -0.13022230565547943 -0.3927645683288574 1.0 1 -0.012295730412006378
-1.6349608898162842 -0.12522943317890167 0.08593565225601196 0.0 9 -0.01229342631995678
-1.667807698249817 -0.12774531543254852 -0.32513853907585144 1.0 2 -0.01229112222790718
-1.5872911214828491 -0.12129953503608704 0.13927486538887024 3.0 10 -0.012288819067180157
-1.6308786869049072 -0.12434417754411697 -0.2590555250644684 1.0 3 -0.012286514975130558
-1.569643497467041 -0.11939986050128937 0.1932847946882248 2.0 11 -0.01228421088308096
-1.662696123123169 -0.12618595361709595 -0.204740509390831 0.0 4 -0.01228190679103136
-2.9703657627105713 -0.22490742802619934 0.4718063771724701 2.0 12 -0.012279602698981762
-1.6151891946792603 -0.12229741364717484 -0.14171522855758667 2.0 5 -0.012277298606932163
-2.977626085281372 -0.22493453323841095 0.5804409980773926 1.0 13 -0.012274994514882565
-1.631129503250122 -0.12293138355016708 -0.0857263058423996 0.0 6 -0.012272690422832966
-3.0062150955200195 -0.22603891789913177 0.6959986090660095 1.0 14 -0.012270386330783367
-1.5733391046524048 -0.118024080991745 -0.027539897710084915 0.0 7 -0.012268083170056343
-2.9474904537200928 -0.2205880582332611 0.791986346244812 8.0 15 -0.012265779078006744
-1.7089288234710693 -0.12579578161239624 -0.4591450095176697 0.0 0 -0.012245042249560356
-1.5834941864013672 -0.11628457903862 0.027714421972632408 0.0 8 -0.012242738157510757
-1.7355738878250122 -0.1271480917930603 -0.40176263451576233 0.0 1 -0.012240434996783733
-1.6473395824432373 -0.12039501965045929 0.08656367659568787 0.0 9 -0.012238130904734135
-1.678033471107483 -0.1226382702589035 -0.32704663276672363 0.0 2 -0.012235826812684536
-1.5757821798324585 -0.11488880217075348 0.13822901248931885 1.0 10 -0.012233522720634937
-1.6549447774887085 -0.12037011981010437 -0.2628099322319031 1.0 3 -0.012231218628585339
-1.5502519607543945 -0.1124834418296814 0.19084741175174713 1.0 11 -0.01222891453653574
-1.6631265878677368 -0.12038163095712662 -0.204740509390831 0.0 4 -0.012226610444486141
-2.9868946075439453 -0.21567557752132416 0.47430935502052307 2.0 12 -0.012224306352436543
-1.667273998260498 -0.12038934230804443 -0.14624732732772827 0.0 5 -0.012222002260386944
-2.9392294883728027 -0.21171818673610687 0.5728086233139038 1.0 13 -0.01221969909965992
-1.6235800981521606 -0.11666467785835266 -0.08530762046575546 0.0 6 -0.012217395007610321
-2.9681107997894287 -0.21275721490383148 0.687000572681427 1.0 14 -0.012215090915560722
-1.60166597366333 -0.11452770233154297 -0.028028564527630806 0.0 7 -0.012212786823511124
-2.9559500217437744 -0.21084848046302795 0.7940568327903748 8.0 15 -0.012210482731461525
-1.7247743606567383 -0.12091086059808731 -0.4632861018180847 0.0 0 -0.012189746834337711
-1.6078284978866577 -0.11243031919002533 0.02813328057527542 0.0 8 -0.012187442742288113
-1.739895224571228 -0.121360182762146 -0.4026624262332916 0.0 1 -0.012185138650238514
-1.5959464311599731 -0.11104004830121994 0.0838422104716301 0.0 9 -0.012182834558188915
-1.678451418876648 -0.11678043752908707 -0.32704663276672363 0.0 2 -0.012180530466139317
-1.5841240882873535 -0.1099393293261528 0.13892625272274017 1.0 10 -0.012178226374089718
-1.6632375717163086 -0.11513818800449371 -0.26406142115592957 0.0 3 -0.01217592228204012
-1.574399471282959 -0.10871225595474243 0.19377227127552032 1.0 11 -0.012173619121313095
-1.6754188537597656 -0.11539385467767715 -0.2062029391527176 0.0 4 -0.012171315029263496
-2.9679219722747803 -0.20389409363269806 0.47118064761161804 5.0 12 -0.012169010937213898
-1.6756348609924316 -0.11511490494012833 -0.1469445824623108 0.0 5 -0.012166706845164299
-2.9497439861297607 -0.202128067612648 0.5747166872024536 2.0 13 -0.0121644027531147
-1.6917260885238647 -0.11562711000442505 -0.0888664647936821 0.0 6 -0.012162098661065102
-2.957170009613037 -0.20159991085529327 0.6843011379241943 1.0 14 -0.012159794569015503
-1.629987359046936 -0.11083537340164185 -0.028517231345176697 0.0 7 -0.012157490476965904
-2.9624505043029785 -0.20092110335826874 0.7956097722053528 9.0 15 -0.012155186384916306
-1.7290410995483398 -0.11514580994844437 -0.4643213748931885 0.0 0 -0.012134450487792492
-1.6002299785614014 -0.10628709942102432 0.027993660420179367 0.0 8 -0.012132146395742893
-1.7480859756469727 -0.11580168455839157 -0.4044620394706726 0.0 1 -0.012129842303693295
-1.6003100872039795 -0.10573139041662216 0.08405155688524246 0.0 9 -0.01212753914296627
-1.6788488626480103 -0.11092039197683334 -0.32704663276672363 0.0 2 -0.012125235050916672
-1.5904624462127686 -0.10480198264122009 0.13944917917251587 1.0 10 -0.012122930958867073
-1.6793984174728394 -0.11036837846040726 -0.26656436920166016 0.0 3 -0.012120626866817474
-1.5925971269607544 -0.10438435524702072 0.19596591591835022 1.0 11 -0.012118322774767876
-1.6560028791427612 -0.10824994742870331 -0.20376555621623993 0.0 4 -0.012116018682718277
-2.97255802154541 -0.19379054009914398 0.4718063771724701 6.0 12 -0.012113714590668678
-1.6561448574066162 -0.10796936601400375 -0.14520147442817688 0.0 5 -0.01211141049861908
-2.940635919570923 -0.1911933273077011 0.5728086233139038 2.0 13 -0.012109106406569481
-1.6921194791793823 -0.1097211241722107 -0.0888664647936821 0.0 6 -0.012106802314519882
-2.952021837234497 -0.19089818000793457 0.6829514503479004 2.0 14 -0.012104498222470284
-1.6104086637496948 -0.1038583517074585 -0.02816818468272686 0.0 7 -0.01210219506174326
-2.9534945487976074 -0.18995893001556396 0.793021559715271 10.0 15 -0.01209989096969366
-1.756424903869629 -0.11081252992153168 -0.47156834602355957 0.0 0 -0.012079155072569847
-1.7912678718566895 -0.11238306015729904 -0.4143598675727844 0.0 1 -0.01207454688847065
-1.5966827869415283 -0.09989515691995621 0.0838422104716301 0.0 9 -0.012072242796421051
-1.7223331928253174 -0.10775637626647949 -0.3354422450065613 0.0 2 -0.012069938704371452
-1.5928071737289429 -0.09937400370836258 0.1396235078573227 0.0 10 -0.012067634612321854
-1.6797733306884766 -0.10450505465269089 -0.26656436920166016 0.0 3 -0.012065330520272255
-1.6206896305084229 -0.10054529458284378 0.19937825202941895 0.0 11 -0.012063026428222656
-2.9633584022521973 -0.18280425667762756 0.47024205327033997 7.0 12 -0.012058418244123459
-1.7241244316101074 -0.10635814070701599 -0.15112805366516113 0.0 5 -0.01205611415207386
-2.945204496383667 -0.18116842210292816 0.5735718607902527 3.0 13 -0.012053810991346836
-2.9507250785827637 -0.180474191904068 0.6825015544891357 3.0 14 -0.012049202807247639
-1.6906009912490845 -0.10310550779104233 -0.029564376920461655 0.0 7 -0.01204689871519804
-2.957995891571045 -0.17988330125808716 0.7940568327903748 10.0 15 -0.012044594623148441
-1.795388102531433 -0.10666597634553909 -0.48192107677459717 0.0 0 -0.01204991340637207
-1.6608353853225708 -0.09838078171014786 0.029040804132819176 0.0 8 -0.012047609314322472
-1.7683234214782715 -0.10443864017724991 -0.4089610278606415 0.0 1 -0.012045305222272873
-1.6289222240447998 -0.09620548784732819 0.08551695942878723 0.0 9 -0.012043001130223274
-1.7266361713409424 -0.1016741693019867 -0.33620548248291016 0.0 2 -0.012040697038173676
-1.6408958435058594 -0.09633753448724747 0.14380697906017303 0.0 10 -0.012038392946124077
-1.7116971015930176 -0.10019496083259583 -0.27157026529312134 0.0 3 -0.012036089785397053
-1.628974199295044 -0.0950670838356018 0.2003532201051712 0.0 11 -0.012033785693347454
-2.9620063304901123 -0.17234426736831665 0.46992918848991394 8.0 12 -0.012029177509248257
-1.7245025634765625 -0.1000385731458664 -0.15112805366516113 0.0 5 -0.012026873417198658
-2.9458487033843994 -0.17037244141101837 0.5735718607902527 3.0 13 -0.01202456932514906
-1.6928611993789673 -0.09760979562997818 -0.0888664647936821 0.0 6 -0.01202226523309946
-2.9649851322174072 -0.17044155299663544 0.6856508255004883 2.0 14 -0.012019961141049862
-2.9470338821411133 -0.16889290511608124 0.7909510731697083 11.0 15 -0.012015352956950665
-1.7764612436294556 -0.09931939840316772 -0.47674471139907837 0.0 0 -0.011994617059826851
-1.7609812021255493 -0.09845393151044846 0.030786044895648956 0.0 8 -0.011992312967777252
-1.637224793434143 -0.09096203744411469 0.08593565225601196 0.0 9 -0.01198770571500063
-1.6611156463623047 -0.09170779585838318 0.14555008709430695 0.0 10 -0.011983097530901432
-1.7159647941589355 -0.09473593533039093 -0.2721959948539734 0.0 3 -0.011980793438851833
-1.6134237051010132 -0.0887923613190651 0.19840329885482788 0.0 11 -0.011978489346802235
-2.9763967990875244 -0.16275952756404877 0.4721192717552185 8.0 12 -0.011973881162703037
-1.7248412370681763 -0.09401827305555344 -0.15112805366516113 0.0 5 -0.011971577070653439
-2.946397304534912 -0.16060329973697662 0.5735718607902527 3.0 13 -0.01196927297860384
-1.6931756734848022 -0.09199546277523041 -0.0888664647936821 0.0 6 -0.011966969817876816
-2.9577505588531494 -0.1601860225200653 0.6838512420654297 7.0 14 -0.011964665725827217
-2.9630377292633057 -0.15943510830402374 0.7950921058654785 11.0 15 -0.01196005754172802
-1.8539482355117798 -0.09748592972755432 -0.49745020270347595 0.0 0 -0.011939321644604206
-1.7613141536712646 -0.09230673313140869 0.030786044895648956 0.0 8 -0.011937017552554607
-1.585659384727478 -0.08282354474067688 0.0832141786813736 0.0 9 -0.01193240936845541
-1.7211021184921265 -0.08929573744535446 0.15077944099903107 0.0 10 -0.011927801184356213
-1.716284990310669 -0.08874548226594925 -0.2721959948539734 0.0 3 -0.011925497092306614
-1.6731977462768555 -0.08622433990240097 0.20571546256542206 0.0 11 -0.011923193000257015
-1.7763017416000366 -0.09122715890407562 -0.21838988363742828 0.0 4 -0.011920889839529991
-2.9611377716064453 -0.15207788348197937 0.4696163237094879 10.0 12 -0.011918585747480392
-2.9724292755126953 -0.15161684155464172 0.578532874584198 6.0 13 -0.011913977563381195
-1.6934864521026611 -0.08608456701040268 -0.0888664647936821 0.0 6 -0.011911673471331596
-2.960237979888916 -0.1499597728252411 0.6843011379241943 10.0 14 -0.011909369379281998
-1.6915730237960815 -0.08569172769784927 -0.029564376920461655 0.0 7 -0.011907065287232399
-3.0059969425201416 -0.15175116062164307 0.8064801692962646 14.0 15 -0.0119047611951828
-1.7848142385482788 -0.0876043364405632 -0.4788152575492859 0.0 0 -0.011884025298058987
-1.6897081136703491 -0.08293622732162476 0.029529470950365067 0.0 8 -0.011881721206009388
-1.6058878898620605 -0.07826019078493118 0.08426090329885483 0.0 9 -0.01187711302191019
-1.7214033603668213 -0.08328738063573837 0.15077944099903107 0.0 10 -0.011872505769133568
-1.6893367767333984 -0.08144037425518036 0.20766538381576538 0.0 11 -0.01186789758503437
-3.0070323944091797 -0.14391247928142548 0.47681230306625366 11.0 12 -0.011863289400935173
-3.0160584449768066 -0.14381687343120575 0.5869284868240356 7.0 13 -0.011858681216835976
-1.6937625408172607 -0.08046822249889374 -0.0888664647936821 0.0 6 -0.011856377124786377
-3.009383201599121 -0.14244580268859863 0.6955487132072449 11.0 14 -0.011854073032736778
-3.0103676319122314 -0.1414385885000229 0.8075154423713684 15.0 15 -0.011849465779960155
-1.8545687198638916 -0.08486466109752655 -0.49745020270347595 0.0 0 -0.011828728951513767
-1.6140779256820679 -0.07357718050479889 0.0282030887901783 0.0 8 -0.011826425790786743
-1.6261035203933716 -0.07355660945177078 0.08530762046575546 1.0 9 -0.011821817606687546
-1.721670150756836 -0.07757847756147385 0.15077944099903107 0.0 10 -0.011817209422588348
-1.717374324798584 -0.07678385078907013 0.2110777199268341 0.0 11 -0.011812601238489151
-3.0272507667541504 -0.1342904418706894 0.4799409806728363 12.0 12 -0.011807993054389954
-3.014580726623535 -0.1332005262374878 0.5865468978881836 8.0 13 -0.01180338580161333
-1.694033145904541 -0.07455575466156006 -0.0888664647936821 0.0 6 -0.011801081709563732
-3.015702486038208 -0.13219615817070007 0.6968984007835388 13.0 14 -0.011798777617514133
-2.99733304977417 -0.13034272193908691 0.8038920164108276 19.0 15 -0.011794169433414936
-1.6263123750686646 -0.06844702363014221 0.02841251716017723 0.0 8 -0.011771129444241524
-1.6143771409988403 -0.06738022714853287 0.08467958122491837 1.0 9 -0.011766521260142326
-1.64226233959198 -0.06768277287483215 0.2018156498670578 0.0 11 -0.011757305823266506
-3.039543628692627 -0.12420711666345596 0.48181819915771484 15.0 12 -0.011752697639167309
-2.9993340969085693 -0.12203896790742874 0.5834939479827881 10.0 13 -0.011748089455068111
-1.6783180236816406 -0.06799517571926117 -0.08802908658981323 0.0 6 -0.011745785363018513
-3.0356171131134033 -0.1224532425403595 0.7013974189758301 17.0 14 -0.011743481270968914
-1.6923776865005493 -0.06797310709953308 -0.029564376920461655 0.0 7 -0.011741177178919315
-3.005490779876709 -0.12018796056509018 0.8059625029563904 13.0 15 -0.011738873086869717
-1.6625090837478638 -0.06415809690952301 0.029040804132819176 0.0 8 -0.011715833097696304
-1.6285730600357056 -0.06227879598736763 0.08541228622198105 2.0 9 -0.011711225844919682
-1.7221696376800537 -0.06555747240781784 0.15077944099903107 0.0 10 -0.011706617660820484
-1.6623255014419556 -0.06269793957471848 0.20425304770469666 0.0 11 -0.011702009476721287
-1.7754069566726685 -0.06665316969156265 -0.21814614534378052 0.0 4 -0.011699705384671688
-3.037984609603882 -0.11352179944515228 0.4815053343772888 13.0 12 -0.01169740129262209
-3.0272085666656494 -0.11259006708860397 0.5888366103172302 8.0 13 -0.011692793108522892
-1.6825370788574219 -0.06228405609726906 -0.0882384330034256 0.0 6 -0.011690489016473293
-3.0146045684814453 -0.11106761544942856 0.6964485049247742 8.0 14 -0.01168818585574627
-1.6926045417785645 -0.06206514313817024 -0.029564376920461655 0.0 7 -0.01168588176369667
-3.030989408493042 -0.1106119155883789 0.8126918077468872 3.0 15 -0.011683577671647072
-1.6547291278839111 -0.058073874562978745 0.02890118584036827 0.0 8 -0.01166053768247366
-1.6207963228225708 -0.0563165582716465 0.08499360084533691 4.0 9 -0.011655929498374462
-1.7223880290985107 -0.05954552814364433 0.15077944099903107 0.0 10 -0.011651321314275265
-1.6387269496917725 -0.05608057975769043 0.20132817327976227 0.0 11 -0.011646713130176067
-1.7756288051605225 -0.06045496463775635 -0.21814614534378052 0.0 4 -0.011644409038126469
-3.0363881587982178 -0.10284960269927979 0.4811924695968628 1.0 12 -0.011642105877399445
-3.0942959785461426 -0.10427043586969376 0.6018115878105164 1.0 13 -0.011637497693300247
-1.662782907485962 -0.0557413175702095 -0.08719171583652496 0.0 6 -0.011635193601250648
-3.024712324142456 -0.10086867958307266 0.6986980438232422 1.0 14 -0.01163288950920105
-1.652838945388794 -0.054830409586429596 -0.028866279870271683 0.0 7 -0.011630585417151451
-3.037149667739868 -0.10022218525409698 0.8142447471618652 2.0 15 -0.011628281325101852
-1.646926999092102 -0.052044354379177094 0.028761567547917366 1.0 8 -0.01160524133592844
-1.6349570751190186 -0.05109524726867676 0.0857263058423996 6.0 9 -0.011600633151829243
-1.8543699979782104 -0.057952284812927246 -0.36062902212142944 0.0 2 -0.011598329059779644
-1.6389127969741821 -0.05035996809601784 0.20132817327976227 0.0 11 -0.011591417714953423
-1.7440824508666992 -0.05328650027513504 -0.21424633264541626 0.0 4 -0.011589113622903824
-3.044626474380493 -0.09248983860015869 0.4824439287185669 1.0 12 -0.011586809530854225
-3.0946409702301025 -0.09346933662891388 0.6018115878105164 1.0 13 -0.011582201346755028
-1.6729490756988525 -0.050236478447914124 -0.08771507441997528 0.0 6 -0.011579897254705429
-3.0211503505706787 -0.09019345790147781 0.6977982521057129 1.0 14 -0.01157759316265583
-1.6610156297683716 -0.049297843128442764 -0.029005900025367737 0.0 7 -0.011575289070606232
-3.0278258323669434 -0.08933498710393906 0.8116565346717834 2.0 15 -0.011572984978556633
-1.7592222690582275 -0.04944702982902527 -0.47156834602355957 0.0 0 -0.01155224908143282
-1.6510964632034302 -0.04640790447592735 0.028831375762820244 2.0 8 -0.01154994498938322
-1.8174657821655273 -0.05076666176319122 -0.419758677482605 0.0 1 -0.011547641828656197
-1.6331288814544678 -0.0453324057161808 0.08562163263559341 7.0 9 -0.011545337736606598
-1.6431043148040771 -0.04503534734249115 0.14380697906017303 0.0 10 -0.0115407295525074
-1.6430473327636719 -0.044746432453393936 0.2018156498670578 0.0 11 -0.011536121368408203
-1.7363202571868896 -0.04698336124420166 -0.2132713794708252 0.0 4 -0.011533817276358604
-3.0567786693573 -0.08218071609735489 0.4843211770057678 1.0 12 -0.011531513184309006
-3.0831875801086426 -0.0818130299448967 0.5995218753814697 1.0 13 -0.011526905000209808
-1.6691287755966187 -0.043999578803777695 -0.08750572800636292 0.0 6 -0.011524601839482784
-3.0370450019836426 -0.0795278325676918 0.7013974189758301 1.0 14 -0.011522297747433186
-1.6491835117340088 -0.04318539425730705 -0.028796471655368805 0.0 7 -0.011519993655383587
-3.0165319442749023 -0.07846386730670929 0.8085507154464722 2.0 15 -0.011517689563333988
-1.7786967754364014 -0.04378121346235275 -0.47674471139907837 0.0 0 -0.011496953666210175
-1.6452580690383911 -0.04020942002534866 0.02872665971517563 2.0 8 -0.011494649574160576
-1.7669873237609863 -0.04287545010447502 -0.4080612361431122 0.0 1 -0.011492345482110977
-1.6392672061920166 -0.039776358753442764 0.08593565225601196 8.0 9 -0.011490041390061378
-1.803707480430603 -0.04345191270112991 -0.35070693492889404 0.0 2 -0.01148773729801178
-1.683087944984436 -0.04025224223732948 0.14729319512844086 0.0 10 -0.011485433205962181
-1.7378419637680054 -0.041257843375205994 -0.2753247022628784 0.0 3 -0.011483129113912582
-1.6471693515777588 -0.038817960768938065 0.20230312645435333 1.0 11 -0.011480825021862984
-1.7325117588043213 -0.04052664712071419 -0.21278388798236847 1.0 4 -0.011478520929813385
-3.05507230758667 -0.07146378606557846 0.4840082824230194 1.0 12 -0.011476217769086361
-1.7269363403320312 -0.04009426757693291 -0.15112805366516113 0.0 5 -0.011473913677036762
-3.040273904800415 -0.07005586475133896 0.5911262631416321 1.0 13 -0.011471609584987164
-1.663282036781311 -0.03803554177284241 -0.08719171583652496 2.0 6 -0.011469305492937565
-3.041200637817383 -0.06901442259550095 0.7022972702980042 1.0 14 -0.011467001400887966
-1.669316053390503 -0.037882037460803986 -0.02914551831781864 1.0 7 -0.011464697308838367
-3.0206503868103027 -0.06802134960889816 0.8095860481262207 3.0 15 -0.011462393216788769
-1.7981529235839844 -0.037980034947395325 -0.48192107677459717 0.0 0 -0.011441657319664955
-1.6473817825317383 -0.03479549288749695 0.028761567547917366 5.0 8 -0.011439353227615356
-1.7749130725860596 -0.037178847938776016 -0.40986084938049316 0.0 1 -0.011437049135565758
-1.6433897018432617 -0.0341373048722744 0.08614499121904373 12.0 9 -0.011434745043516159
-1.7567400932312012 -0.03618515282869339 -0.3415481150150299 0.0 2 -0.01143244095146656
-1.5955713987350464 -0.03258645534515381 0.1396235078573227 0.0 10 -0.011430137790739536
-1.7419190406799316 -0.035575322806835175 -0.27595043182373047 0.0 3 -0.011427833698689938
-1.6333962678909302 -0.033074162900447845 0.20059694349765778 1.0 11 -0.011425529606640339
-1.7385907173156738 -0.03490066900849342 -0.21351510286331177 2.0 4 -0.01142322551459074
-3.0493781566619873 -0.06068044155836105 0.48306965827941895 1.0 12 -0.011420921422541142
-1.7270658016204834 -0.03406625613570213 -0.15112805366516113 0.0 5 -0.011418617330491543
-3.0208606719970703 -0.05958627536892891 0.5873100757598877 1.0 13 -0.011416313238441944
-1.6753803491592407 -0.03275425732135773 -0.08781974762678146 3.0 6 -0.011414009146392345
-3.0336191654205322 -0.058777932077646255 0.7004976272583008 1.0 14 -0.011411705054342747
-1.6614407300949097 -0.03190160170197487 -0.029005900025367737 1.0 7 -0.011409401893615723
-3.0247323513031006 -0.05755031108856201 0.8106213212013245 3.0 15 -0.011407097801566124
-1.8098582029342651 -0.03222320228815079 -0.48502689599990845 0.0 0 -0.011386360973119736
-1.6514918804168701 -0.029115689918398857 0.028831375762820244 6.0 8 -0.011384057812392712
-1.7633413076400757 -0.03077932819724083 -0.4071614444255829 0.0 1 -0.011381753720343113
-1.6375081539154053 -0.028297025710344315 0.08583097904920578 17.0 9 -0.011379449628293514
-1.7764800786972046 -0.030698535963892937 -0.3453643023967743 0.0 2 -0.011377145536243916
-1.611607313156128 -0.02756810188293457 0.14101798832416534 0.0 10 -0.011374841444194317
-1.7341322898864746 -0.02936127968132496 -0.274698942899704 0.0 3 -0.011372537352144718
-1.6295320987701416 -0.027305779978632927 0.20010948181152344 1.0 11 -0.01137023326009512
-1.7168688774108887 -0.028469143435359 -0.21083398163318634 2.0 4 -0.01136792916804552
-3.0535216331481934 -0.05010121315717697 0.48369544744491577 1.0 12 -0.011365625075995922
-1.7670166492462158 -0.028684180229902267 -0.15461428463459015 0.0 5 -0.011363320983946323
-3.068162679672241 -0.04980582743883133 0.5964689254760742 1.0 13 -0.0113610178232193
-1.6734874248504639 -0.026873376220464706 -0.08771507441997528 5.0 6 -0.0113587137311697
-3.0260119438171387 -0.04806511104106903 0.6986980438232422 2.0 14 -0.011356409639120102
-1.6435469388961792 -0.02581915631890297 -0.02869175560772419 2.0 7 -0.011354105547070503
-3.028778076171875 -0.04705088213086128 0.8116565346717834 4.0 15 -0.011351801455020905
-1.7597410678863525 -0.024879436939954758 -0.47156834602355957 0.0 0 -0.011331065557897091
-1.663580298423767 -0.023519903421401978 0.029040804132819176 8.0 8 -0.011328761465847492
-1.7790265083312988 -0.02484155260026455 -0.41076064109802246 1.0 1 -0.011326457373797894
-1.6575675010681152 -0.02285621501505375 0.08687769621610641 21.0 9 -0.011324153281748295
-1.7569499015808105 -0.02391991578042507 -0.3415481150150299 0.0 2 -0.011321849189698696
-1.6236509084701538 -0.021821705624461174 0.14206385612487793 0.0 10 -0.011319545097649097
-1.7263274192810059 -0.022900329902768135 -0.2734474539756775 0.0 3 -0.011317241005599499
-1.6375571489334106 -0.021722763776779175 0.2010844349861145 1.0 11 -0.011314937844872475
-1.7189427614212036 -0.022502325475215912 -0.2110777199268341 4.0 4 -0.011312633752822876
-3.035900831222534 -0.0392124317586422 0.48087960481643677 2.0 12 -0.011310329660773277
-1.7272615432739258 -0.02200823277235031 -0.15112805366516113 0.0 5 -0.011308025568723679
-3.068324565887451 -0.03856006637215614 0.5964689254760742 1.0 13 -0.01130572147667408
-1.6915487051010132 -0.0209626704454422 -0.08865711838006973 7.0 6 -0.011303417384624481
-3.024219036102295 -0.036949314177036285 0.6982480883598328 2.0 14 -0.011301113292574883
-1.6436270475387573 -0.02008151262998581 -0.02869175560772419 3.0 7 -0.011298809200525284
-3.017333507537842 -0.03633923828601837 0.8085507154464722 5.0 15 -0.011296505108475685
-1.7520902156829834 -0.018654322251677513 -0.46949777007102966 0.0 0 -0.011275769211351871
-1.659656286239624 -0.01738050952553749 0.028970995917916298 9.0 8 -0.011273465119302273
-1.7830027341842651 -0.01836145482957363 -0.41166043281555176 2.0 1 -0.011271161027252674
-1.6476542949676514 -0.016679653897881508 0.0863543376326561 22.0 9 -0.01126885786652565
-1.7648752927780151 -0.017866313457489014 -0.34307458996772766 0.0 2 -0.011266553774476051
-1.617740273475647 -0.01609446480870247 0.14154092967510223 1.0 10 -0.011264249682426453
-1.726396918296814 -0.01687413640320301 -0.2734474539756775 0.0 3 -0.011261945590376854
-1.637625813484192 -0.01572064310312271 0.2010844349861145 2.0 11 -0.011259641498327255
-1.736878752708435 -0.01637028343975544 -0.2132713794708252 6.0 4 -0.011257337406277657
-3.049851417541504 -0.028212888166308403 0.48306965827941895 2.0 12 -0.011255033314228058
-1.727327823638916 -0.015978781506419182 -0.15112805366516113 0.0 5 -0.01125272922217846
-3.0605874061584473 -0.0277780182659626 0.5949424505233765 1.0 13 -0.01125042513012886
-1.699600100517273 -0.015128999948501587 -0.08907580375671387 8.0 6 -0.011248121038079262
-3.0340728759765625 -0.02647826075553894 0.7004976272583008 2.0 14 -0.011245816946029663
-1.6516880989074707 -0.014125953428447247 -0.028831375762820244 5.0 7 -0.011243513785302639
-3.013582706451416 -0.025247491896152496 0.8075154423713684 5.0 15 -0.01124120969325304
-1.7637354135513306 -0.012621167115867138 -0.47260358929634094 1.0 0 -0.011220473796129227
-1.6577072143554688 -0.011573510244488716 0.02893608994781971 12.0 8 -0.011218169704079628
-1.7889020442962646 -0.012176820077002048 -0.4130101501941681 2.0 1 -0.01121586561203003
-1.665677547454834 -0.011047336272895336 0.08729638159275055 30.0 9 -0.01121356151998043
-1.721736192703247 -0.011419136077165604 -0.3346790075302124 0.0 2 -0.011211257427930832
-1.639702320098877 -0.010589273646473885 0.14345835149288177 2.0 10 -0.011208953335881233
-1.7402726411819458 -0.01093461737036705 -0.27563756704330444 1.0 3 -0.011206649243831635
-1.635685682296753 -0.009991994127631187 0.20084069669246674 4.0 11 -0.011204345151782036
-1.7369253635406494 -0.01030771154910326 -0.2132713794708252 7.0 4 -0.011202041059732437
-3.053882122039795 -0.017589420080184937 0.48369544744491577 2.0 12 -0.011199736967682838
-1.7353426218032837 -0.00999503955245018 -0.15182530879974365 2.0 5 -0.011197433806955814
-3.037106990814209 -0.016962742432951927 0.5903630256652832 1.0 13 -0.011195129714906216
-1.689656376838684 -0.009142117574810982 -0.08855244517326355 9.0 6 -0.011192825622856617
-3.0263521671295166 -0.015846310183405876 0.6986980438232422 2.0 14 -0.011190521530807018
-1.6757234334945679 -0.008481811732053757 -0.029250234365463257 5.0 7 -0.01118821743875742
-3.0252437591552734 -0.014784532599151134 0.8106213212013245 5.0 15 -0.011185913346707821
-1.7772916555404663 -0.0065144426189363 -0.4762270450592041 1.0 0 -0.011165177449584007
-1.6597371101379395 -0.005793500225991011 0.028970995917916298 15.0 8 -0.011162873357534409
-1.794779896736145 -0.005951649509370327 -0.4143598675727844 3.0 1 -0.01116056926548481
-1.6557188034057617 -0.005490510258823633 0.08677302300930023 33.0 9 -0.011158265173435211
-1.7629938125610352 -0.0055389790795743465 -0.3426929712295532 1.0 2 -0.011155961081385612
-1.6437140703201294 -0.004876966588199139 0.14380697906017303 5.0 10 -0.011153656989336014
-1.750177025794983 -0.004887398332357407 -0.27720189094543457 1.0 3 -0.01115135382860899
-1.635710597038269 -0.00428266916424036 0.20084069669246674 6.0 11 -0.011149049736559391
-1.7369507551193237 -0.004244185984134674 -0.2132713794708252 8.0 4 -0.011146745644509792
-3.0578742027282715 -0.007471822202205658 0.4843211770057678 3.0 12 -0.011144441552460194
-1.7333744764328003 -0.003932932857424021 -0.15165099501609802 2.0 5 -0.011142137460410595
-3.058743715286255 -0.006407031789422035 0.5945608615875244 2.0 13 -0.011139833368360996
-1.7096507549285889 -0.0032823579385876656 -0.08959916979074478 12.0 6 -0.011137529276311398
-3.0302863121032715 -0.005288991611450911 0.6995978355407715 2.0 14 -0.011135225184261799
-1.679741621017456 -0.00293178204447031 -0.029320042580366135 7.0 7 -0.0111329210922122
-3.0175485610961914 -0.004740847274661064 0.8085507154464722 6.0 15 -0.011130617000162601
-1.7927583456039429 -0.0003131471748929471 -0.48036816716194153 3.0 0 -0.011109881103038788
-1.6577476263046265 -0.00028956439928151667 0.02893608994781971 19.0 8 -0.01110757701098919
-1.7947897911071777 1.5690550014824112e-07 -0.4143598675727844 6.0 1 -0.01110527291893959
-1.6517332792282104 0.00028801505686715245 0.08656367659568787 35.0 9 -0.011102969758212566
-1.7610390186309814 0.0006144156795926392 -0.3423113524913788 3.0 2 -0.011100665666162968
-1.6596603393554688 0.0008690889226272702 0.14520147442817688 6.0 10 -0.011098361574113369
-1.7580851316452026 0.00092062953626737 -0.27845337986946106 1.0 3 -0.01109605748206377
-1.6535816192626953 0.0011540986597537994 0.20303435623645782 8.0 11 -0.011093753390014172
-1.7349700927734375 0.0015141076873987913 -0.21302762627601624 11.0 4 -0.011091449297964573
-3.0401031970977783 0.0031836633570492268 0.4815053343772888 3.0 12 -0.011089145205914974
-1.741347074508667 0.0021270664874464273 -0.15234823524951935 4.0 5 -0.011086841113865376
-3.043041944503784 0.003717095358297229 0.5915079116821289 2.0 13 -0.011084537021815777
-1.719638466835022 0.0024010753259062767 -0.0901225283741951 15.0 6 -0.011082233861088753
-3.043928384780884 0.004781373310834169 0.702747106552124 2.0 14 -0.011079929769039154
-1.6857407093048096 0.002941743703559041 -0.02942475862801075 9.0 7 -0.011077625676989555
-3.0214107036590576 0.005800613667815924 0.8095860481262207 6.0 15 -0.011075321584939957
-1.8043404817581177 0.005668337456882 -0.4834739863872528 4.0 0 -0.011054585687816143
-1.6817346811294556 0.00557707529515028 0.029354946687817574 22.0 8 -0.011052281595766544
-1.8103686571121216 0.006319181527942419 -0.417959064245224 6.0 1 -0.011049977503716946
-1.6637057065963745 0.006097604986280203 0.08719171583652496 35.0 9 -0.011047673411667347
-1.7688802480697632 0.0064830775372684 -0.34383782744407654 4.0 2 -0.011045369319617748
-1.6656253337860107 0.006395730655640364 0.14572440087795258 7.0 10 -0.01104306522756815
-1.769923448562622 0.0071046925149858 -0.2803305983543396 5.0 3 -0.011040761135518551
-1.6555525064468384 0.006934529170393944 0.2032780796289444 9.0 11 -0.011038457043468952
-1.7548049688339233 0.007656939793378115 -0.2154650241136551 15.0 4 -0.011036153882741928
-3.0361227989196777 0.013777016662061214 0.48087960481643677 3.0 12 -0.01103384979069233
-1.7253903150558472 0.008130430243909359 -0.1509537398815155 6.0 5 -0.01103154569864273
-3.0547900199890137 0.01439486350864172 0.5937976241111755 2.0 13 -0.011029241606593132
-1.7176222801208496 0.00839400663971901 -0.09001784771680832 19.0 6 -0.011026937514543533
-3.0360984802246094 0.01536654494702816 0.7009475231170654 5.0 14 -0.011024633422493935
-1.6757218837738037 0.00877415668219328 -0.029250234365463257 12.0 7 -0.011022329330444336
-3.023303508758545 0.01635780557990074 0.8101036548614502 7.0 15 -0.011020025238394737
-1.8004441261291504 0.012255271896719933 -0.48243871331214905 5.0 0 -0.010999289341270924
-1.6537097692489624 0.011256479658186436 0.028866279870271683 24.0 8 -0.010996985249221325
-1.812284231185913 0.012652164325118065 -0.41840898990631104 8.0 1 -0.010994681157171726
-1.681649088859558 0.012033657170832157 0.08813375979661942 42.0 9 -0.010992377065122128
-1.7668814659118652 0.012951944023370743 -0.3434562087059021 6.0 2 -0.010990073904395103
-1.659613847732544 0.012455285526812077 0.14520147442817688 11.0 10 -0.010987769812345505
-1.7698854207992554 0.0135921910405159 -0.2803305983543396 5.0 3 -0.010985465720295906
-1.6575032472610474 0.012729129754006863 0.20352181792259216 11.0 11 -0.010983161628246307
-1.7627077102661133 0.01384429819881916 -0.21643997728824615 18.0 4 -0.010980857536196709
-3.0538341999053955 0.02451779507100582 0.48369544744491577 5.0 12 -0.01097855344414711
-1.7313282489776611 0.014202605932950974 -0.1514766812324524 8.0 5 -0.010976249352097511
-3.0429375171661377 0.025492506101727486 0.5915079116821289 3.0 13 -0.010973945260047913
-1.7275660037994385 0.014774372801184654 -0.09054121375083923 23.0 6 -0.010971641167998314
-3.0360217094421387 0.026495076715946198 0.7009475231170654 5.0 14 -0.010969337075948715
-1.7036757469177246 0.014867817983031273 -0.029738901183009148 17.0 7 -0.010967032983899117
-3.019364595413208 0.02687598019838333 0.8090683817863464 7.0 15 -0.010964728891849518
-1.811980962753296 0.018659325316548347 -0.4855445325374603 8.0 0 -0.010943993926048279
-1.659656286239624 0.017380403354763985 0.028970995917916298 29.0 8 -0.01094168983399868
-1.80832839012146 0.019252970814704895 -0.41750916838645935 10.0 1 -0.010939385741949081
-1.685588002204895 0.01824038103222847 0.08834310621023178 42.0 9 -0.010937081649899483
-1.7962726354599 0.019438140094280243 -0.3491804599761963 9.0 2 -0.010934777557849884
-1.6655369997024536 0.01831410825252533 0.14572440087795258 14.0 10 -0.010932473465800285
-1.7658767700195312 0.019725659862160683 -0.27970486879348755 6.0 3 -0.010930169373750687
-1.6574454307556152 0.018803730607032776 0.20352181792259216 15.0 11 -0.010927865281701088
-1.7705849409103394 0.020396344363689423 -0.21741491556167603 20.0 4 -0.01092556118965149
-3.0576741695404053 0.03575674444437027 0.4843211770057678 6.0 12 -0.01092325709760189
-1.7392370700836182 0.020338809117674828 -0.15217392146587372 9.0 5 -0.010920953005552292
-3.036940574645996 0.036044370383024216 0.5903630256652832 3.0 13 -0.010918648913502693
-1.7215124368667603 0.02073291502892971 -0.09022720158100128 26.0 6 -0.010916345752775669
-3.045653820037842 0.03721173480153084 0.7031970620155334 2.0 14 -0.01091404166072607
-1.7196060419082642 0.021309854462742805 -0.030018137767910957 22.0 7 -0.010911737568676472
-3.025040864944458 0.03801592439413071 0.8106213212013245 8.0 15 -0.010909433476626873
-1.8157680034637451 0.025037527084350586 -0.4865798354148865 8.0 0 -0.01088869757950306
-1.6815799474716187 0.023480745032429695 0.029354946687817574 32.0 8 -0.01088639348745346
-1.80435311794281 0.025510050356388092 -0.41660937666893005 10.0 1 -0.010884089395403862
-1.6875110864639282 0.02415269985795021 0.08844777196645737 45.0 9 -0.010881785303354263
-1.7903047800064087 0.025623945519328117 -0.34803563356399536 10.0 2 -0.010879481211304665
-1.6774160861968994 0.024301020428538322 0.14677026867866516 19.0 10 -0.010877177119255066
-1.773697853088379 0.026005487889051437 -0.28095632791519165 8.0 3 -0.010874873027205467
-1.659354567527771 0.02461867406964302 0.20376555621623993 18.0 11 -0.010872568935155869
-1.7605785131454468 0.026427792385220528 -0.2161962240934372 23.0 4 -0.010870265774428844
-3.0792572498321533 0.04675981029868126 0.4877626895904541 7.0 12 -0.010867961682379246
-1.7670457363128662 0.02683332934975624 -0.15461428463459015 15.0 5 -0.010865657590329647
-3.0446484088897705 0.04676574841141701 0.5918895602226257 3.0 13 -0.010863353498280048
-1.7274208068847656 0.026835108175873756 -0.09054121375083923 32.0 6 -0.01086104940623045
-3.0532991886138916 0.047964613884687424 0.704996645450592 5.0 14 -0.010858745314180851
-1.7155224084854126 0.027248801663517952 -0.02994832955300808 26.0 7 -0.010856441222131252
-3.032616138458252 0.04869920760393143 0.8126918077468872 8.0 15 -0.010854137130081654
-1.8253273963928223 0.0315420925617218 -0.4891680181026459 12.0 0 -0.01083340123295784
-1.6834872961044312 0.029385359957814217 0.02938985452055931 38.0 8 -0.010831097140908241
-1.815943717956543 0.03201441466808319 -0.41930878162384033 16.0 1 -0.010828793048858643
-1.6794288158416748 0.02990049496293068 0.08802908658981323 45.0 9 -0.010826488956809044
-1.790204405784607 0.031872741878032684 -0.34803563356399536 15.0 2 -0.01082418579608202
-1.691265344619751 0.030406896024942398 0.14799045026302338 22.0 10 -0.010821881704032421
-1.7795212268829346 0.032304298132658005 -0.2818949222564697 9.0 3 -0.010819577611982822
-1.6612433195114136 0.03044717386364937 0.2040092945098877 25.0 11 -0.010817273519933224
-1.760475516319275 0.03257324546575546 -0.2161962240934372 25.0 4 -0.010814969427883625
-3.0573501586914062 0.05710246041417122 0.4843211770057678 6.0 12 -0.010812665335834026
-1.7569811344146729 0.03281532600522041 -0.1537427306175232 19.0 5 -0.010810361243784428
-3.052318572998047 0.0575421005487442 0.5934159755706787 3.0 13 -0.010808057151734829
-1.733307123184204 0.03297838568687439 -0.09085522592067719 34.0 6 -0.01080575305968523
-3.0238873958587646 0.058061253279447556 0.6982480883598328 3.0 14 -0.010803449898958206
-1.7114182710647583 0.03315990790724754 -0.0298785213381052 30.0 7 -0.010801145806908607
-3.028564929962158 0.059208568185567856 0.8116565346717834 8.0 15 -0.010798841714859009
-1.8194118738174438 0.0377936065196991 -0.48761510848999023 17.0 0 -0.01077810488641262
-1.69736909866333 0.03555484488606453 0.02963418699800968 42.0 8 -0.010775801725685596
-1.82166588306427 0.038476116955280304 -0.42065849900245667 18.0 1 -0.010773497633635998
-1.6932917833328247 0.03606073185801506 0.08876179158687592 45.0 9 -0.010771193541586399
-1.7959705591201782 0.038247402757406235 -0.3491804599761963 15.0 2 -0.0107688894495368
-1.6951327323913574 0.03639591112732887 0.14833906292915344 28.0 10 -0.010766585357487202
-1.797171950340271 0.038900140672922134 -0.28471076488494873 12.0 3 -0.010764281265437603
-1.67303466796875 0.03650568798184395 0.20547173917293549 28.0 11 -0.010761977173388004
-1.7663049697875977 0.03884925693273544 -0.2169274538755417 28.0 4 -0.010759673081338406
-3.047257900238037 0.06755471229553223 0.4827568233013153 7.0 12 -0.010757369920611382
-1.746896505355835 0.03872697800397873 -0.15287116169929504 23.0 5 -0.010755065828561783
-3.061912775039673 0.06841495633125305 0.5953240990638733 5.0 13 -0.010752761736512184
