# .PCD v0.7 - Point Cloud Data file format
VERSION 0.7
FIELDS x y z intensity ring time
SIZE 4 4 4 4 4 4
TYPE F F F F F F
COUNT 1 1 1 1 1 1
WIDTH 550
HEIGHT 1
VIEWPOINT 0 0 0 1 0 0 0
POINTS 550
DATA ascii
1.471994400024414 -2.0928826332092285 0.5907214879989624 4.0 14 -0.07934366166591644
1.4721548557281494 -2.0938875675201416 -0.04467816278338432 6.0 7 -0.079341359436512
1.477397084236145 -2.102123260498047 0.6884586811065674 6.0 15 -0.07933905720710754
0.8183631896972656 -1.1674420833587646 -0.3820169270038605 7.0 0 -0.0793183222413063
1.4688639640808105 -2.0961973667144775 0.04467816278338432 6.0 8 -0.07931602001190186
0.9928107857704163 -1.4173539876937866 -0.3995131254196167 6.0 1 -0.07931371033191681
1.4724383354187012 -2.102078676223755 0.13450342416763306 5.0 9 -0.07931140810251236
1.2465665340423584 -1.7802815437316895 -0.42245110869407654 19.0 2 -0.07930910587310791
1.4795411825180054 -2.1137888431549072 0.22573336958885193 4.0 10 -0.07930680364370346
1.516370177268982 -2.167210817337036 -0.4189315736293793 107.0 3 -0.07930449396371841
1.4688360691070557 -2.1000545024871826 0.31466665863990784 3.0 11 -0.07930219173431396
1.5128308534622192 -2.163759469985962 -0.3241724669933319 91.0 4 -0.07929988950490952
1.4646782875061035 -2.094888210296631 0.40485242009162903 4.0 12 -0.07929758727550507
1.468934178352356 -2.1017568111419678 -0.22433887422084808 1.0 5 -0.07929527759552002
1.4763264656066895 -2.113118886947632 0.5010644793510437 3.0 13 -0.07929297536611557
1.4729326963424683 -2.1090450286865234 -0.134817436337471 9.0 6 -0.07929067313671112
1.4624488353729248 -2.0948123931884766 0.5898216962814331 5.0 14 -0.07928837090730667
1.4629138708114624 -2.0954785346984863 -0.044608354568481445 6.0 7 -0.07928606122732162
1.4659957885742188 -2.1006743907928467 0.6863881349563599 6.0 15 -0.07928375899791718
0.814283013343811 -1.1702916622161865 -0.3820169270038605 7.0 0 -0.07926302403211594
1.4619046449661255 -2.1010568141937256 0.04467816278338432 6.0 8 -0.07926072180271149
0.9881051182746887 -1.4206385612487793 -0.3995131254196167 6.0 1 -0.07925841957330704
1.4650917053222656 -2.107205629348755 0.13450342416763306 6.0 9 -0.07925610989332199
1.2470675706863403 -1.794294834136963 -0.42474085092544556 19.0 2 -0.07925380766391754
1.466469645500183 -2.1107594966888428 0.22486181557178497 5.0 10 -0.07925150543451309
1.5069209337234497 -2.168982744216919 -0.41830578446388245 114.0 3 -0.07924920320510864
1.4584671258926392 -2.100022792816162 0.31393545866012573 4.0 11 -0.0792468935251236
1.5067791938781738 -2.1703951358795166 -0.32441622018814087 94.0 4 -0.07924459129571915
1.4596091508865356 -2.103233814239502 0.4054781496524811 4.0 12 -0.0792422890663147
1.4661312103271484 -2.113419532775879 -0.2250361144542694 1.0 5 -0.07923998683691025
1.4648345708847046 -2.1115505695343018 0.49953794479370117 3.0 13 -0.0792376771569252
1.4704831838607788 -2.120482921600342 -0.13523612916469574 9.0 6 -0.07923537492752075
1.4554940462112427 -2.0996506214141846 0.5898216962814331 4.0 14 -0.0792330726981163
1.4578683376312256 -2.1038596630096436 -0.04467816278338432 6.0 7 -0.07923077046871185
1.447653889656067 -2.089897871017456 0.6812117695808411 6.0 15 -0.0792284607887268
0.8125938177108765 -1.1761642694473267 -0.38305220007896423 7.0 0 -0.07920772582292557
1.4431980848312378 -2.0896928310394287 0.04432911425828934 6.0 8 -0.07920542359352112
0.980925977230072 -1.420871615409851 -0.398613303899765 6.0 1 -0.07920312136411667
1.4622647762298584 -2.118882179260254 0.1349221020936966 6.0 9 -0.07920081913471222
1.2522614002227783 -1.814578652381897 -0.42855700850486755 18.0 2 -0.07919850945472717
1.4538053274154663 -2.1074106693267822 0.22399026155471802 4.0 10 -0.07919620722532272
1.495976448059082 -2.16935133934021 -0.41736721992492676 118.0 3 -0.07919390499591827
1.445494532585144 -2.096928834915161 0.3127167820930481 4.0 11 -0.07919160276651382
1.5036994218826294 -2.1821799278259277 -0.32539117336273193 94.0 4 -0.07918929308652878
1.4511381387710571 -2.106689453125 0.40516531467437744 4.0 12 -0.07918699085712433
1.4749380350112915 -2.1412410736083984 -0.22747649252414703 1.0 5 -0.07918468862771988
1.4485480785369873 -2.103714942932129 0.49648505449295044 3.0 13 -0.07918238639831543
1.4449535608291626 -2.0992791652679443 -0.133561372756958 9.0 6 -0.07918007671833038
1.4503653049468994 -2.107929229736328 0.5907214879989624 5.0 14 -0.07917777448892593
1.4482489824295044 -2.105640411376953 -0.044608354568481445 6.0 7 -0.07917547225952148
1.444727897644043 -2.101306200027466 0.6832823157310486 6.0 15 -0.07917317003011703
0.8084833025932312 -1.1789934635162354 -0.38305220007896423 6.0 0 -0.0791524350643158
1.438156008720398 -2.0980162620544434 0.044398922473192215 6.0 8 -0.07915012538433075
0.9649447798728943 -1.408211588859558 -0.39411428570747375 6.0 1 -0.0791478231549263
1.4435728788375854 -2.1074957847595215 0.13387538492679596 6.0 9 -0.07914552092552185
1.2525765895843506 -1.8286573886871338 -0.4308467507362366 14.0 2 -0.0791432186961174
1.4610735177993774 -2.1338438987731934 0.22625631093978882 6.0 10 -0.07914090901613235
1.4727745056152344 -2.151738405227661 -0.41298702359199524 103.0 3 -0.0791386067867279
1.4314402341842651 -2.0921318531036377 0.3112543225288391 3.0 11 -0.07913630455732346
1.4848663806915283 -2.171030282974243 -0.3229537904262543 94.0 4 -0.079134002327919
1.4471203088760376 -2.1166341304779053 0.4061039388179779 5.0 12 -0.07913169264793396
1.45396089553833 -2.1266396045684814 -0.22538475692272186 1.0 5 -0.07912939041852951
1.438980221748352 -2.1055164337158203 0.4957217872142792 3.0 13 -0.07912708818912506
1.4353636503219604 -2.1010122299194336 -0.13335202634334564 9.0 6 -0.07912478595972061
1.4320083856582642 -2.096886396408081 0.5862225294113159 5.0 14 -0.07912248373031616
1.4431451559066772 -2.113986015319824 -0.04467816278338432 6.0 7 -0.07912017405033112
1.4362950325012207 -2.104740619659424 0.6827646493911743 7.0 15 -0.07911787182092667
0.804362952709198 -1.1818084716796875 -0.38305220007896423 6.0 0 -0.07909713685512543
1.4263241291046143 -2.0964102745056152 0.04425930231809616 6.0 8 -0.07909483462572098
0.9687906503677368 -1.4244624376296997 -0.3977135121822357 6.0 1 -0.07909252494573593
1.436576247215271 -2.112271308898926 0.13387538492679596 5.0 9 -0.07909022271633148
1.245082139968872 -1.8313947916030884 -0.43046510219573975 11.0 2 -0.07908792048692703
1.4468965530395508 -2.1290435791015625 0.22521042823791504 5.0 10 -0.07908561825752258
1.4774651527404785 -2.174840211868286 -0.4164285957813263 114.0 3 -0.07908330857753754
1.424128532409668 -2.097115993499756 0.3112543225288391 3.0 11 -0.07908100634813309
1.475049376487732 -2.172915458679199 -0.32246631383895874 94.0 4 -0.07907870411872864
1.4245606660842896 -2.0985400676727295 0.4017237424850464 5.0 12 -0.07907640188932419
1.417441487312317 -2.088837146759033 -0.22085265815258026 1.0 5 -0.07907409965991974
1.4327239990234375 -2.112151622772217 0.4961034059524536 4.0 13 -0.07907178997993469
1.43362557888031 -2.1142752170562744 -0.13387538492679596 10.0 6 -0.07906948775053024
1.4181199073791504 -2.092193603515625 0.5835230946540833 5.0 14 -0.0790671855211258
1.4249073266983032 -2.1022074222564697 -0.04432911425828934 6.0 7 -0.07906488329172134
1.4293076992034912 -2.109492063522339 0.6827646493911743 7.0 15 -0.0790625736117363
0.795907199382782 -1.1782058477401733 -0.3809816539287567 7.0 0 -0.07904183864593506
1.4193644523620605 -2.101128578186035 0.04425930231809616 6.0 8 -0.07903953641653061
0.9596994519233704 -1.421207070350647 -0.39591389894485474 6.0 1 -0.07903723418712616
1.4157851934432983 -2.0974080562591553 0.13261932134628296 6.0 9 -0.07903493195772171
1.2244060039520264 -1.814573049545288 -0.42550405859947205 9.0 2 -0.07903262227773666
1.4260865449905396 -2.114260196685791 0.22311870753765106 6.0 10 -0.07903032004833221
1.4680355787277222 -2.176452159881592 -0.41580286622047424 118.0 3 -0.07902801781892776
1.4160566329956055 -2.1001811027526855 0.31101056933403015 4.0 11 -0.07902571558952332
1.4656165838241577 -2.1745028495788574 -0.3219788372516632 97.0 4 -0.07902340590953827
1.4216418266296387 -2.110053062438965 0.4029752314090729 5.0 12 -0.07902110368013382
1.4657902717590332 -2.1763992309570312 -0.229568213224411 1.0 5 -0.07901880145072937
1.4235185384750366 -2.1136343479156494 0.4953401982784271 4.0 13 -0.07901649922132492
1.4232600927352905 -2.114047050476074 -0.133561372756958 9.0 6 -0.07901418954133987
1.423142433166504 -2.114668607711792 0.5884720087051392 6.0 14 -0.07901188731193542
1.4108631610870361 -2.09721302986145 -0.04411968216300011 7.0 7 -0.07900958508253098
1.4122331142425537 -2.1000406742095947 0.6781059503555298 6.0 15 -0.07900728285312653
0.7941479682922363 -1.1840474605560303 -0.3820169270038605 6.0 0 -0.07898654788732529
1.4031128883361816 -2.092782974243164 0.04398006573319435 6.0 8 -0.07898423820734024
0.9590724110603333 -1.4310235977172852 -0.3977135121822357 6.0 1 -0.07898193597793579
1.4154937267303467 -2.112046003341675 0.13324734568595886 6.0 9 -0.07897963374853134
1.1910638809204102 -1.777847170829773 -0.41596361994743347 6.0 2 -0.07897733151912689
1.4168503284454346 -2.1156668663024902 0.2227700799703598 5.0 10 -0.07897502183914185
1.4560338258743286 -2.174997329711914 -0.41455137729644775 118.0 3 -0.0789727196097374
1.414237141609192 -2.1133599281311035 0.3122292757034302 4.0 11 -0.07897041738033295
1.4580172300338745 -2.179605484008789 -0.3219788372516632 94.0 4 -0.0789681151509285
1.4102435111999512 -2.1081879138946533 0.4017237424850464 5.0 12 -0.07896580547094345
1.4117677211761475 -2.1120615005493164 0.493813693523407 4.0 13 -0.07896120101213455
1.4147626161575317 -2.1173417568206787 -0.13345670700073242 10.0 6 -0.0789588987827301
1.4038459062576294 -2.1017978191375732 0.5835230946540833 6.0 14 -0.07895658910274506
1.3994581699371338 -2.095228672027588 -0.04398006573319435 6.0 7 -0.0789542868733406
1.400970458984375 -2.098285675048828 0.6760354042053223 6.0 15 -0.07895198464393616
0.7921509146690369 -1.1900285482406616 -0.38305220007896423 7.0 0 -0.07893124967813492
1.391732931137085 -2.0907657146453857 0.0438404455780983 6.0 8 -0.07892894744873047
0.9500033855438232 -1.4277065992355347 -0.39591389894485474 6.0 1 -0.07892663776874542
1.4081125259399414 -2.116974115371704 0.13324734568595886 6.0 9 -0.07892433553934097
1.1913731098175049 -1.7918033599853516 -0.4182533621788025 6.0 2 -0.07892203330993652
1.4083536863327026 -2.1189403533935547 0.22259576618671417 6.0 10 -0.07891973108053207
1.44443941116333 -2.1732332706451416 -0.41329991817474365 114.0 3 -0.07891742140054703
1.3962359428405762 -2.101503849029541 0.3097918927669525 4.0 11 -0.07891511917114258
1.4529778957366943 -2.1877357959747314 -0.32246631383895874 94.0 4 -0.07891281694173813
1.3985055685043335 -2.1065149307250977 0.4004722833633423 6.0 12 -0.07891051471233368
1.398242473602295 -2.106916904449463 0.49152401089668274 4.0 13 -0.07890590280294418
1.3989007472991943 -2.1087071895599365 -0.13261932134628296 10.0 6 -0.07890360057353973
1.3990224599838257 -2.109689712524414 0.5844228863716125 6.0 14 -0.07890129834413528
1.3976603746414185 -2.1084346771240234 -0.04415459185838699 7.0 7 -0.07889899611473083
1.3925704956054688 -2.1015524864196777 0.675517737865448 7.0 15 -0.07889668643474579
0.7835257053375244 -1.1864757537841797 -0.3809816539287567 6.0 0 -0.07999253273010254
1.3903049230575562 -2.106107473373413 0.04404987394809723 6.0 8 -0.07999023050069809
0.9423677325248718 -1.4280906915664673 -0.39501407742500305 6.0 1 -0.07998792827129364
1.3911758661270142 -2.109027862548828 0.1324099898338318 6.0 9 -0.0799856185913086
1.1837166547775269 -1.7945189476013184 -0.41787171363830566 6.0 2 -0.07998331636190414
1.3994812965393066 -2.122424602508545 0.22242143750190735 6.0 10 -0.0799810141324997
1.4360841512680054 -2.1787633895874023 -0.41329991817474365 118.0 3 -0.07997871190309525
1.3772345781326294 -2.090273380279541 0.30735450983047485 4.0 11 -0.0799764022231102
1.4358317852020264 -2.1800358295440674 -0.3205164074897766 99.0 4 -0.07997409999370575
1.3925793170928955 -2.115169048309326 0.40109801292419434 5.0 12 -0.0799717977643013
1.3966180086135864 -2.1221096515655518 0.493813693523407 4.0 13 -0.0799671858549118
1.3918911218643188 -2.1157312393188477 -0.13272398710250854 10.0 6 -0.07996488362550735
1.3834162950515747 -2.1036486625671387 0.5812735557556152 6.0 14 -0.0799625813961029
1.3895542621612549 -2.113785982131958 -0.04415459185838699 7.0 7 -0.07996027916669846
1.3876736164093018 -2.1117279529571533 0.677070677280426 7.0 15 -0.07995796948671341
0.7857329249382019 -1.198898196220398 -0.384087473154068 7.0 0 -0.07993723452091217
1.3763694763183594 -2.1009116172790527 0.0438404455780983 6.0 8 -0.07993493229150772
0.9373770952224731 -1.4313714504241943 -0.39501407742500305 6.0 1 -0.07993263006210327
1.381617546081543 -2.1105287075042725 0.13220062851905823 5.0 9 -0.07993032783269882
1.1774455308914185 -1.7986400127410889 -0.41787171363830566 6.0 2 -0.07992801815271378
1.3898820877075195 -2.123962640762329 0.22207282483577728 5.0 10 -0.07992571592330933
1.4284703731536865 -2.183762788772583 -0.41329991817474365 114.0 3 -0.07992341369390488
1.3775345087051392 -2.1066977977752686 0.309060662984848 4.0 11 -0.07992111146450043
1.4238688945770264 -2.1783881187438965 -0.31954145431518555 99.0 4 -0.07991880178451538
1.3797850608825684 -2.1117489337921143 0.3995336890220642 6.0 12 -0.07991649955511093
1.3784664869308472 -2.110534906387329 0.4899975061416626 4.0 13 -0.07991189509630203
1.368119239807129 -2.095491409301758 -0.1311539113521576 10.0 6 -0.07990958541631699
1.3749995231628418 -2.106832981109619 0.5808236598968506 5.0 14 -0.07990728318691254
1.3712410926818848 -2.1018755435943604 -0.04380554333329201 7.0 7 -0.07990498095750809
1.375017523765564 -2.1084678173065186 0.6744824647903442 7.0 15 -0.07990267872810364
0.7731167674064636 -1.1886779069900513 -0.37994638085365295 7.0 0 -0.0798819437623024
1.3712078332901 -2.109055995941162 0.043910253793001175 6.0 8 -0.07987963408231735
0.9323749542236328 -1.434634804725647 -0.39501407742500305 6.0 1 -0.0798773318529129
1.3746111392974854 -2.1150989532470703 0.13220062851905823 6.0 9 -0.07987502962350845
1.1636730432510376 -1.7912147045135498 -0.415200412273407 6.0 2 -0.079872727394104
1.3726933002471924 -2.113762617111206 0.220504030585289 6.0 10 -0.07987041771411896
1.4154609441757202 -2.1804516315460205 -0.41173556447029114 111.0 3 -0.07986811548471451
1.368011236190796 -2.1081631183624268 0.3085731863975525 4.0 11 -0.07986581325531006
1.4162561893463135 -2.183345317840576 -0.31954145431518555 97.0 4 -0.07986351102590561
1.3673996925354004 -2.1080265045166016 0.3979693353176117 6.0 12 -0.07986120134592056
1.3753622770309448 -2.1219236850738525 0.49152401089668274 4.0 13 -0.07985659688711166
1.3705706596374512 -2.115339994430542 -0.13209596276283264 10.0 6 -0.07985429465770721
1.367636799812317 -2.111619710922241 0.5808236598968506 6.0 14 -0.07985199242830276
1.357740879058838 -2.0963404178619385 -0.04359611123800278 8.0 7 -0.07984968274831772
1.3575190305709839 -2.096799373626709 0.6693060994148254 7.0 15 -0.07984738051891327
0.7668676972389221 -1.1881232261657715 -0.3789111077785492 7.0 0 -0.07982664555311203
1.3533620834350586 -2.0967905521392822 0.04356120526790619 7.0 8 -0.07982434332370758
0.9318384528160095 -1.444268822669983 -0.39681369066238403 6.0 1 -0.07982203364372253
1.3715497255325317 -2.1265981197357178 0.13261932134628296 6.0 9 -0.07981973141431808
1.1552859544754028 -1.7919657230377197 -0.4144371747970581 6.0 2 -0.07981742918491364
1.359910488128662 -2.1101675033569336 0.21963247656822205 5.0 10 -0.07981512695550919
1.407152533531189 -2.1834728717803955 -0.4114226996898651 118.0 3 -0.07981281727552414
1.3599377870559692 -2.1110193729400635 0.3083294630050659 4.0 11 -0.07981051504611969
1.4068586826324463 -2.1846916675567627 -0.3190539479255676 101.0 4 -0.07980821281671524
1.3632407188415527 -2.117769718170166 0.39890795946121216 6.0 12 -0.07980591058731079
1.3640687465667725 -2.119868755340576 0.4899975061416626 5.0 13 -0.0798012986779213
1.3592263460159302 -2.1131539344787598 -0.1316772699356079 10.0 6 -0.07979899644851685
1.3606270551681519 -2.116143226623535 0.5808236598968506 5.0 14 -0.0797966942191124
1.3547399044036865 -2.1077957153320312 -0.04373573139309883 8.0 7 -0.07979439198970795
1.3460146188735962 -2.0950241088867188 0.6672354936599731 7.0 15 -0.0797920823097229
0.7650079131126404 -1.1939127445220947 -0.37994638085365295 7.0 0 -0.07977134734392166
1.348191499710083 -2.1048696041107178 0.04363101348280907 6.0 8 -0.07976904511451721
0.9162835478782654 -1.4311009645462036 -0.3923146724700928 6.0 1 -0.07976674288511276
1.360182523727417 -2.124406337738037 0.13220062851905823 6.0 9 -0.07976443320512772
1.1535704135894775 -1.8024009466171265 -0.41596361994743347 6.0 2 -0.07976213097572327
1.357200026512146 -2.1213786602020264 0.22032971680164337 6.0 10 -0.07975982874631882
1.3931365013122559 -2.1783864498138428 -0.4095454514026642 118.0 3 -0.07975752651691437
1.3493529558181763 -2.1107358932495117 0.3075982630252838 4.0 11 -0.07975522428750992
1.397086262702942 -2.186243772506714 -0.3185664713382721 99.0 4 -0.07975291460752487
1.348764419555664 -2.1106269359588623 0.3967178463935852 5.0 12 -0.07975061237812042
1.354547381401062 -2.1213080883026123 0.4892342984676361 4.0 13 -0.07974600791931152
1.3464690446853638 -2.1094682216644287 -0.1311539113521576 11.0 6 -0.07974369823932648
1.3584730625152588 -2.129093885421753 0.5830731391906738 6.0 14 -0.07974139600992203
1.3498941659927368 -2.1156482696533203 -0.04380554333329201 7.0 7 -0.07973909378051758
1.3452929258346558 -2.109248638153076 0.6703413724899292 7.0 15 -0.07973679155111313
0.7629088759422302 -1.1998363733291626 -0.3809816539287567 7.0 0 -0.07971604913473129
1.3369123935699463 -2.10257887840271 0.04349139705300331 7.0 8 -0.07971374690532684
0.9052606821060181 -1.4242637157440186 -0.3896152675151825 6.0 1 -0.0797114446759224
1.350616455078125 -2.125769853591919 0.13199129700660706 6.0 9 -0.07970914244651794
1.1388514041900635 -1.7931586503982544 -0.41291067004203796 6.0 2 -0.0797068402171135
1.3487190008163452 -2.1244211196899414 0.22015538811683655 6.0 10 -0.07970453053712845
1.3880226612091064 -2.1863298416137695 -0.410171240568161 118.0 3 -0.079702228307724
1.3349006175994873 -2.103466510772705 0.30589208006858826 3.0 11 -0.07969992607831955
1.3834484815597534 -2.18080735206604 -0.3171040713787079 99.0 4 -0.0796976238489151
1.3413885831832886 -2.1153221130371094 0.3967178463935852 6.0 12 -0.07969531416893005
1.3433011770248413 -2.1191554069519043 0.48770785331726074 4.0 13 -0.07969070971012115
1.3319830894470215 -2.102112054824829 -0.1304212212562561 11.0 6 -0.0796884074807167
1.3368067741394043 -2.110539197921753 0.576774537563324 6.0 14 -0.07968609780073166
1.3392918109893799 -2.115278959274292 -0.04370082914829254 8.0 7 -0.07968379557132721
1.3317230939865112 -2.104137420654297 0.6672354936599731 7.0 15 -0.07968149334192276
0.7589260339736938 -1.202359676361084 -0.3809816539287567 7.0 0 -0.07966075837612152
1.331699013710022 -2.1106152534484863 0.04356120526790619 7.0 8 -0.07965845614671707
0.9106793999671936 -1.4438979625701904 -0.39411428570747375 6.0 1 -0.07965614646673203
1.3367969989776611 -2.1203343868255615 0.13136327266693115 6.0 9 -0.07965384423732758
1.137087106704712 -1.8035684823989868 -0.4144371747970581 6.0 2 -0.07965154200792313
1.3374176025390625 -2.1221396923065186 0.21945816278457642 6.0 10 -0.07964923977851868
1.3793293237686157 -2.1894900798797607 -0.4098583459854126 118.0 3 -0.07964693009853363
1.3338967561721802 -2.118191957473755 0.30735450983047485 3.0 11 -0.07964462786912918
1.3758277893066406 -2.1856231689453125 -0.3171040713787079 99.0 4 -0.07964232563972473
1.331892728805542 -2.116647720336914 0.39609211683273315 6.0 12 -0.07964002341032028
1.3379863500595093 -2.127155065536499 0.48847106099128723 5.0 13 -0.07963541150093079
1.3331420421600342 -2.1202752590179443 -0.13125859200954437 12.0 6 -0.07963310927152634
1.327357530593872 -2.1118929386138916 0.5758747458457947 6.0 14 -0.07963080704212189
1.3159425258636475 -2.0945425033569336 -0.04317725449800491 8.0 7 -0.07962849736213684
1.3325896263122559 -2.121860980987549 0.671376645565033 7.0 15 -0.07962619513273239
0.7485715746879578 -1.1951780319213867 -0.37787580490112305 7.0 0 -0.07960546016693115
1.3243237733840942 -2.115250825881958 0.04356120526790619 7.0 8 -0.0796031579375267
0.8994307518005371 -1.4371566772460938 -0.3914148807525635 6.0 1 -0.07960085570812225
1.325150489807129 -2.1182148456573486 0.13094457983970642 6.0 9 -0.07959854602813721
1.1245372295379639 -1.797540307044983 -0.4121474623680115 6.0 2 -0.07959624379873276
1.3342273235321045 -2.133552312850952 0.22015538811683655 6.0 10 -0.07959394156932831
1.3674899339675903 -2.187591791152954 -0.4086068868637085 111.0 3 -0.07959163933992386
1.321234941482544 -2.114417791366577 0.30613580346107483 4.0 11 -0.07958932965993881
1.3597769737243652 -2.176943063735962 -0.31515416502952576 103.0 4 -0.07958702743053436
1.3182188272476196 -2.1112306118011475 0.394214928150177 6.0 12 -0.07958472520112991
1.3284740447998047 -2.12848162651062 0.48770785331726074 5.0 13 -0.07958011329174042
1.3215042352676392 -2.1181375980377197 -0.13083989918231964 12.0 6 -0.07957781106233597
1.324102520942688 -2.1231274604797363 0.5776743292808533 6.0 14 -0.07957550883293152
1.311797022819519 -2.1042137145996094 -0.04328196495771408 8.0 7 -0.07957320660352707
1.3129141330718994 -2.106825351715088 0.6651650071144104 7.0 15 -0.07957090437412262
0.7443951368331909 -1.1977837085723877 -0.37787580490112305 8.0 0 -0.07955016195774078
1.3106006383895874 -2.1096689701080322 0.043351780623197556 7.0 8 -0.07954785972833633
0.9005770683288574 -1.4502203464508057 -0.39411428570747375 6.0 1 -0.07954555749893188
1.3156417608261108 -2.119433879852295 0.13073523342609406 6.0 9 -0.07954325526952744
1.1161848306655884 -1.7981187105178833 -0.4113842248916626 6.0 2 -0.07954094558954239
1.3173171281814575 -2.122960329055786 0.21858659386634827 6.0 10 -0.07953864336013794
1.350474238395691 -2.17724347114563 -0.4057910442352295 105.0 3 -0.07953634113073349
1.3180307149887085 -2.125765323638916 0.3071107864379883 4.0 11 -0.07953403890132904
1.358444094657898 -2.191800117492676 -0.31661656498908997 101.0 4 -0.079531729221344
1.311881422996521 -2.1174983978271484 0.39452776312828064 6.0 12 -0.07952942699193954
1.3169013261795044 -2.126429557800293 0.4861813485622406 4.0 13 -0.07952482253313065
1.3141024112701416 -2.1227376461029053 -0.13083989918231964 12.0 6 -0.0795225203037262
1.3177088499069214 -2.1293935775756836 0.5781242847442627 6.0 14 -0.07952021062374115
1.3054958581924438 -2.110480785369873 -0.04331687465310097 7.0 7 -0.0795179083943367
1.2994558811187744 -2.101536512374878 0.6620591282844543 7.0 15 -0.07951560616493225
0.7422375082969666 -1.20366370677948 -0.3789111077785492 8.0 0 -0.07949487119913101
1.2969326972961426 -2.1040172576904297 0.043142348527908325 7.0 8 -0.07949256151914597
0.8893757462501526 -1.4434007406234741 -0.3914148807525635 6.0 1 -0.07949025928974152
1.3124250173568726 -2.1308155059814453 0.1311539113521576 6.0 9 -0.07948795706033707
1.1140196323394775 -1.8086901903152466 -0.41291067004203796 6.0 2 -0.07948565483093262
1.3025869131088257 -2.1156694889068604 0.21736642718315125 6.0 10 -0.07948334515094757
1.3470077514648438 -2.188673734664917 -0.407042533159256 114.0 3 -0.07948104292154312
1.3002007007598877 -2.11344575881958 0.30467337369918823 4.0 11 -0.07947874069213867
1.3528647422790527 -2.1999106407165527 -0.3171040713787079 103.0 4 -0.07947643846273422
1.3055166006088257 -2.1237478256225586 0.39484065771102905 6.0 12 -0.07947413623332977
1.299192190170288 -2.1142866611480713 0.4823651611804962 4.0 13 -0.07946952432394028
1.3014578819274902 -2.118802785873413 -0.13031654059886932 11.0 6 -0.07946722209453583
1.3112872838974 -2.135640859603882 0.5785741209983826 6.0 14 -0.07946491986513138
1.2918446063995361 -2.1047990322113037 -0.04310744255781174 7.0 7 -0.07946261018514633
1.2961536645889282 -2.1126463413238525 0.6641297340393066 7.0 15 -0.07946030795574188
0.7360150218009949 -1.2029513120651245 -0.37787580490112305 8.0 0 -0.07943957298994064
1.2916667461395264 -2.111943483352661 0.0432121567428112 7.0 8 -0.0794372707605362
0.8802659511566162 -1.4398459196090698 -0.3896152675151825 6.0 1 -0.07943496108055115
1.3008131980895996 -2.1285669803619385 0.13073523342609406 6.0 9 -0.0794326588511467
1.1076992750167847 -1.812567949295044 -0.41291067004203796 6.0 2 -0.07943035662174225
1.2951939105987549 -2.1202034950256348 0.21736642718315125 6.0 10 -0.0794280543923378
1.3362711668014526 -2.1883044242858887 -0.4061039388179779 111.0 3 -0.07942575216293335
1.2866100072860718 -2.1078052520751953 0.30321094393730164 4.0 11 -0.0794234424829483
1.334837794303894 -2.187673807144165 -0.31466665863990784 103.0 4 -0.07942114025354385
1.2991241216659546 -2.1299781799316406 0.3951534926891327 6.0 12 -0.0794188380241394
1.2958922386169434 -2.1255135536193848 0.4838916063308716 5.0 13 -0.07941422611474991
1.288856863975525 -2.114805221557617 -0.129793182015419 11.0 6 -0.07941192388534546
1.285575032234192 -2.1102490425109863 0.5704758763313293 6.0 14 -0.07940962165594101
1.2917702198028564 -2.121251344680786 -0.043351780623197556 8.0 7 -0.07940731942653656
1.2847529649734497 -2.1105573177337646 0.6620591282844543 7.0 15 -0.07940500974655151
0.7358213067054749 -1.2121187448501587 -0.37994638085365295 8.0 0 -0.07938427478075027
1.2780625820159912 -2.106182098388672 0.04300273209810257 7.0 8 -0.07938197255134583
0.8812985420227051 -1.452906847000122 -0.3923146724700928 6.0 1 -0.07937967032194138
1.2850909233093262 -2.119431972503662 0.1298978626728058 6.0 9 -0.07937736809253693
1.0972940921783447 -1.809708595275879 -0.4113842248916626 6.0 2 -0.07937505841255188
1.285719394683838 -2.1213035583496094 0.2170177847146988 6.0 10 -0.07937275618314743
1.3255536556243896 -2.187887191772461 -0.40516531467437744 107.0 3 -0.07937045395374298
1.2833576202392578 -2.119075298309326 0.3041858971118927 5.0 11 -0.07936815172433853
1.3230812549591064 -2.1855273246765137 -0.3136917054653168 103.0 4 -0.07936584204435349
1.282476782798767 -2.1192898750305176 0.3923376798629761 5.0 12 -0.07936353981494904
1.2803359031677246 -2.1165857315063477 0.48083871603012085 5.0 13 -0.07935893535614014
1.2783666849136353 -2.114164113998413 -0.12947916984558105 11.0 6 -0.07935662567615509
1.2802174091339111 -2.1180591583251953 0.5713757276535034 6.0 14 -0.07935432344675064
1.2760851383209229 -2.1120550632476807 -0.04307254031300545 8.0 7 -0.07935202121734619
1.2753804922103882 -2.1117217540740967 0.6610238552093506 7.0 15 -0.07934971898794174
0.7275989055633545 -1.208060383796692 -0.37787580490112305 7.0 0 -0.0793289840221405
1.2748286724090576 -2.117483139038086 0.043142348527908325 7.0 8 -0.07932667434215546
0.8742121458053589 -1.4526348114013672 -0.3914148807525635 6.0 1 -0.07932437211275101
1.2780557870864868 -2.1236817836761475 0.1298978626728058 6.0 9 -0.07932206988334656
1.0889463424682617 -1.810163140296936 -0.4106209874153137 6.0 2 -0.07931976765394211
1.2793335914611816 -2.127486228942871 0.21719209849834442 6.0 10 -0.07931745797395706
1.322996735572815 -2.2009661197662354 -0.40672966837882996 111.0 3 -0.07931515574455261
1.274930477142334 -2.121840715408325 0.30394217371940613 4.0 11 -0.07931285351514816
1.3154442310333252 -2.1901326179504395 -0.3136917054653168 101.0 4 -0.07931055128574371
1.2673050165176392 -2.1099836826324463 0.3898347318172455 6.0 12 -0.07930824160575867
1.2810217142105103 -2.1345088481903076 0.4838916063308716 4.0 13 -0.07930363714694977
1.277144193649292 -2.128889799118042 -0.13010719418525696 12.0 6 -0.07930133491754532
1.2768250703811646 -2.129199981689453 0.573175311088562 6.0 14 -0.07929902523756027
1.2577617168426514 -2.0974104404449463 -0.04268858581781387 8.0 7 -0.07929672300815582
1.2643977403640747 -2.10931134223938 0.6589533090591431 7.0 15 -0.07929442077875137
0.7213956117630005 -1.2072762250900269 -0.3768405616283417 8.0 0 -0.07927368581295013
1.265748381614685 -2.1182661056518555 0.04307254031300545 7.0 8 -0.07927138358354568
0.8673914670944214 -1.4521797895431519 -0.3905150592327118 6.0 1 -0.07926907390356064
1.272682547569275 -2.1315598487854004 0.13010719418525696 6.0 9 -0.07926677167415619
1.0846333503723145 -1.8173249959945679 -0.4113842248916626 6.0 2 -0.07926446944475174
1.260670781135559 -2.1131179332733154 0.21527467668056488 6.0 10 -0.07926216721534729
1.3065820932388306 -2.1900734901428223 -0.40391382575035095 107.0 3 -0.07925985753536224
1.2709376811981201 -2.131171703338623 0.30467337369918823 4.0 11 -0.0792575553059578
1.3102072477340698 -2.197892665863037 -0.3141791820526123 103.0 4 -0.07925525307655334
1.26701021194458 -2.1262731552124023 0.39202481508255005 6.0 12 -0.0792529508471489
1.2638896703720093 -2.121878147125244 0.4800754487514496 4.0 13 -0.0792483389377594
1.263946771621704 -2.122816801071167 -0.12947916984558105 11.0 6 -0.07924603670835495
1.2677639722824097 -2.1300735473632812 0.5722755193710327 6.0 14 -0.0792437344789505
1.25758957862854 -2.1138179302215576 -0.04293292015790939 8.0 7 -0.07924143224954605
1.2520898580551147 -2.105410099029541 0.6563650965690613 7.0 15 -0.079239122569561
0.7154173254966736 -1.2063385248184204 -0.3758052587509155 8.0 0 -0.07921838760375977
1.2563070058822632 -2.1192312240600586 0.04300273209810257 7.0 8 -0.07921608537435532
0.8603302836418152 -1.4518458843231201 -0.3896152675151825 6.0 1 -0.07921378314495087
1.2631983757019043 -2.1325526237487793 0.1298978626728058 6.0 9 -0.07921147346496582
1.0822839736938477 -1.8278571367263794 -0.41291067004203796 6.0 2 -0.07920917123556137
1.2577171325683594 -2.1241443157196045 0.2159719318151474 6.0 10 -0.07920686900615692
1.2928926944732666 -2.1844213008880615 -0.4020366370677948 107.0 3 -0.07920456677675247
1.2574260234832764 -2.1253442764282227 0.30321094393730164 4.0 11 -0.07920225709676743
1.298485279083252 -2.195618152618408 -0.31320425868034363 103.0 4 -0.07919995486736298
1.2555593252182007 -2.1238813400268555 0.39077335596084595 6.0 12 -0.07919765263795853
1.2521100044250488 -2.119734764099121 0.4785490036010742 5.0 13 -0.07919304817914963
1.2531111240386963 -2.1222753524780273 -0.1291651576757431 11.0 6 -0.07919073849916458
1.2662657499313354 -2.1445541381835938 0.5749749541282654 6.0 14 -0.07918843626976013
1.2481706142425537 -2.114750385284424 -0.042863111943006516 8.0 7 -0.07918613404035568
1.2447330951690674 -2.1097676753997803 0.6563650965690613 7.0 15 -0.07918383181095123
0.712949812412262 -1.2122828960418701 -0.3768405616283417 8.0 0 -0.0791630893945694
1.244477391242981 -2.1169257164001465 0.042863111943006516 7.0 8 -0.07916078716516495
0.8530285358428955 -1.4516290426254272 -0.3887154459953308 6.0 1 -0.0791584849357605
1.2553737163543701 -2.1371681690216064 0.1298978626728058 6.0 9 -0.07915618270635605
1.0735892057418823 -1.8284258842468262 -0.4121474623680115 6.0 2 -0.0791538804769516
1.2519408464431763 -2.132175922393799 0.21632054448127747 6.0 10 -0.07915157079696655
1.2908769845962524 -2.199366807937622 -0.40391382575035095 114.0 3 -0.0791492685675621
1.2456095218658447 -2.1230897903442383 0.30223599076271057 5.0 11 -0.07914696633815765
1.286412239074707 -2.1935131549835205 -0.3122292757034302 103.0 4 -0.0791446641087532
1.2457689046859741 -2.125060558319092 0.3901476263999939 6.0 12 -0.07914235442876816
1.240363359451294 -2.1175334453582764 0.4770224988460541 5.0 13 -0.07913774996995926
1.2402786016464233 -2.1182363033294678 -0.12864179909229279 11.0 6 -0.07913544774055481
1.2505199909210205 -2.1357274055480957 0.5713757276535034 6.0 14 -0.07913313806056976
1.2404109239578247 -2.1193110942840576 -0.042863111943006516 8.0 7 -0.07913083583116531
1.2477229833602905 -2.132657766342163 0.6620591282844543 7.0 15 -0.07912853360176086
0.7123945355415344 -1.2215632200241089 -0.3789111077785492 9.0 0 -0.07910779863595963
1.2387245893478394 -2.1249279975891113 0.04293292015790939 7.0 8 -0.07910549640655518
0.8437777161598206 -1.4480109214782715 -0.38691583275794983 6.0 1 -0.07910318672657013
1.2398613691329956 -2.127732038497925 0.12906047701835632 6.0 9 -0.07910088449716568
1.0592950582504272 -1.8185906410217285 -0.40909451246261597 7.0 2 -0.07909858226776123
1.2381027936935425 -2.1264193058013916 0.21527467668056488 6.0 10 -0.07909628003835678
1.2788325548171997 -2.1972544193267822 -0.40266236662864685 107.0 3 -0.07909397035837173
1.2378196716308594 -2.127640962600708 0.30223599076271057 5.0 11 -0.07909166812896729
1.27874755859375 -2.1979904174804688 -0.3122292757034302 103.0 4 -0.07908936589956284
1.2323850393295288 -2.119150400161743 0.38827037811279297 6.0 12 -0.07908706367015839
1.2388824224472046 -2.132035255432129 0.4793122112751007 5.0 13 -0.07908245176076889
1.2378926277160645 -2.131188154220581 -0.1291651576757431 11.0 6 -0.07908014953136444
1.2352268695831299 -2.126598596572876 0.5677765011787415 6.0 14 -0.07907784730195999
1.2309976816177368 -2.1201694011688232 -0.04279330000281334 8.0 7 -0.07907553762197495
1.2305740118026733 -2.1202917098999023 0.6568827629089355 7.0 15 -0.0790732353925705
0.700598418712616 -1.2105426788330078 -0.37476998567581177 8.0 0 -0.07905250042676926
1.2296684980392456 -2.1255621910095215 0.042863111943006516 7.0 8 -0.07905019819736481
0.8448247313499451 -1.4609228372573853 -0.3896152675151825 6.0 1 -0.07904789596796036
1.234798550605774 -2.1352896690368652 0.1292698234319687 6.0 9 -0.07904558628797531
1.0532586574554443 -1.8220934867858887 -0.40909451246261597 6.0 2 -0.07904328405857086
1.2310441732406616 -2.1305136680603027 0.21527467668056488 6.0 10 -0.07904098182916641
1.2715394496917725 -2.2014830112457275 -0.40266236662864685 114.0 3 -0.07903867959976196
1.2307571172714233 -2.1317341327667236 0.30223599076271057 5.0 11 -0.07903636991977692
1.2694664001464844 -2.1987805366516113 -0.31174179911613464 103.0 4 -0.07903406769037247
1.2214012145996094 -2.116382122039795 0.38701891899108887 6.0 12 -0.07903176546096802
1.231805443763733 -2.136132001876831 0.4793122112751007 5.0 13 -0.07902715355157852
1.2288236618041992 -2.1318206787109375 -0.12895581126213074 12.0 6 -0.07902485132217407
1.2271946668624878 -2.1289947032928467 0.5673266053199768 6.0 14 -0.07902254909276962
1.2159733772277832 -2.1103785037994385 -0.04251406341791153 8.0 7 -0.07902024686336517
1.2216076850891113 -2.1210129261016846 0.6558474898338318 7.0 15 -0.07901793718338013
0.6946559548377991 -1.2095088958740234 -0.3737347424030304 8.0 0 -0.07899720221757889
1.2146480083465576 -2.1157543659210205 0.04258387163281441 7.0 8 -0.07899489998817444
0.8419153094291687 -1.4670968055725098 -0.3905150592327118 6.0 1 -0.07899259775876999
1.2273374795913696 -2.139586925506592 0.1292698234319687 6.0 9 -0.07899029552936554
1.055025577545166 -1.8391999006271362 -0.4121474623680115 6.0 2 -0.0789879858493805
1.2200082540512085 -2.1276702880859375 0.21457743644714355 6.0 10 -0.07898568361997604
1.2593203783035278 -2.1971185207366943 -0.40109801292419434 111.0 3 -0.0789833813905716
1.221707820892334 -2.1323587894439697 0.30174851417541504 6.0 11 -0.07898107916116714
1.262770414352417 -2.204921007156372 -0.3119855523109436 106.0 4 -0.0789787694811821
1.2218576669692993 -2.1343472003936768 0.38952183723449707 6.0 12 -0.07897646725177765
1.2188645601272583 -2.1299808025360107 0.4770224988460541 5.0 13 -0.07897186279296875
1.2237308025360107 -2.1393511295318604 -0.1291651576757431 12.0 6 -0.0789695531129837
1.2197556495666504 -2.133265495300293 0.5673266053199768 6.0 14 -0.07896725088357925
1.2095917463302612 -2.116346597671509 -0.04254896938800812 9.0 7 -0.0789649486541748
1.2074881792068481 -2.113522529602051 0.652224063873291 7.0 15 -0.07896264642477036
0.6923424005508423 -1.2152832746505737 -0.37476998567581177 8.0 0 -0.07894191145896912
1.209234356880188 -2.1234569549560547 0.042653679847717285 8.0 8 -0.07893960177898407
0.8310047388076782 -1.4598652124404907 -0.3878156542778015 7.0 1 -0.07893729954957962
1.219861626625061 -2.143857955932617 0.1292698234319687 6.0 9 -0.07893499732017517
1.0466574430465698 -1.8394584655761719 -0.4113842248916626 6.0 2 -0.07893269509077072
1.2056787014007568 -2.119793176651001 0.21335725486278534 6.0 10 -0.07893038541078568
1.2448090314865112 -2.1894803047180176 -0.39890795946121216 107.0 3 -0.07892808318138123
1.212295413017273 -2.1331586837768555 0.3012610375881195 6.0 11 -0.07892578095197678
1.2540854215621948 -2.2075893878936768 -0.31174179911613464 101.0 4 -0.07892347872257233
1.2104982137680054 -2.131728172302246 0.38827037811279297 6.0 12 -0.07892116904258728
1.2036690711975098 -2.1205637454986572 0.47396957874298096 6.0 13 -0.07891656458377838
1.2063993215560913 -2.1262385845184326 -0.12811844050884247 11.0 6 -0.07891426235437393
1.2171088457107544 -2.1459856033325195 0.5695760846138 6.0 14 -0.07891196012496948
1.204169511795044 -2.124034881591797 -0.042618777602910995 9.0 7 -0.07890965044498444
1.2020081281661987 -2.1210858821868896 0.6532593369483948 7.0 15 -0.07890734821557999
0.6899968385696411 -1.2210564613342285 -0.3758052587509155 8.0 0 -0.07888661324977875
1.1978811025619507 -2.1207003593444824 0.04251406341791153 7.0 8 -0.0788843110203743
0.8182389140129089 -1.4491815567016602 -0.38421642780303955 6.0 1 -0.07888200134038925
1.2084439992904663 -2.141145706176758 0.12885113060474396 6.0 9 -0.0788796991109848
1.0421600341796875 -1.8465203046798706 -0.4121474623680115 6.0 2 -0.07887739688158035
1.210019588470459 -2.1448123455047607 0.2154489904642105 6.0 10 -0.0788750946521759
1.2371586561203003 -2.193812131881714 -0.39890795946121216 107.0 3 -0.07887278497219086
1.2028921842575073 -2.1339190006256104 0.300773561000824 5.0 11 -0.07887048274278641
1.2405247688293457 -2.2015767097473145 -0.31027936935424805 103.0 4 -0.07886818051338196
1.20111083984375 -2.132498264312744 0.3876446485519409 6.0 12 -0.07886587828397751
1.196259617805481 -2.1247525215148926 0.47396957874298096 5.0 13 -0.07886126637458801
1.1970109939575195 -2.126955270767212 -0.1279090791940689 12.0 6 -0.07885896414518356
1.1981449127197266 -2.1298398971557617 0.5641772747039795 6.0 14 -0.07885666191577911
1.1967477798461914 -2.128225326538086 -0.042618777602910995 9.0 7 -0.07885435968637466
1.1955432891845703 -2.126952648162842 0.6537768840789795 7.0 15 -0.07885205000638962
0.6836283206939697 -1.2202064990997314 -0.37476998567581177 8.0 0 -0.07883131504058838
1.1924258470535278 -2.1283578872680664 0.04258387163281441 8.0 8 -0.07882901281118393
0.8122231364250183 -1.4503287076950073 -0.3837665319442749 7.0 1 -0.07882671058177948
1.1951090097427368 -2.134894371032715 0.12822310626506805 6.0 9 -0.07882440835237503
1.0325087308883667 -1.8451879024505615 -0.41100257635116577 7.0 2 -0.07882209867238998
1.204095721244812 -2.152710437774658 0.21579761803150177 6.0 10 -0.07881979644298553
1.231037974357605 -2.201780080795288 -0.3995336890220642 114.0 3 -0.07881749421358109
1.1896238327026367 -2.127708673477173 0.2993111312389374 6.0 11 -0.07881519198417664
1.2270216941833496 -2.1954967975616455 -0.30881693959236145 103.0 4 -0.07881288230419159
1.1917328834533691 -2.1332292556762695 0.38701891899108887 6.0 12 -0.07881058007478714
1.184636116027832 -2.122265338897705 0.4724431037902832 5.0 13 -0.07880597561597824
1.1911537647247314 -2.134816884994507 -0.12811844050884247 12.0 6 -0.0788036659359932
1.1912798881530762 -2.1359188556671143 0.5646272301673889 6.0 14 -0.07880136370658875
1.1824933290481567 -2.1201648712158203 -0.042374443262815475 9.0 7 -0.0787990614771843
1.1843490600585938 -2.124363660812378 0.6517063975334167 7.0 15 -0.07879675924777985
0.679364800453186 -1.2225854396820068 -0.37476998567581177 8.0 0 -0.07877602428197861
1.1826750040054321 -2.1292178630828857 0.04251406341791153 7.0 8 -0.07877371460199356
0.815415620803833 -1.4686295986175537 -0.3878156542778015 7.0 1 -0.07877141237258911
1.1911530494689941 -2.1462457180023193 0.12864179909229279 7.0 9 -0.07876911014318466
1.013676643371582 -1.8264650106430054 -0.40604156255722046 6.0 2 -0.07876680791378021
1.19077467918396 -2.146446943283081 0.21475175023078918 6.0 10 -0.07876449823379517
1.225260615348816 -2.2095186710357666 -0.40015941858291626 107.0 3 -0.07876219600439072
1.187591552734375 -2.1424720287323 0.300773561000824 5.0 11 -0.07875989377498627
1.2208908796310425 -2.2034518718719482 -0.309304416179657 107.0 4 -0.07875759154558182
1.1781635284423828 -2.127214193344116 0.3851417005062103 6.0 12 -0.07875528186559677
1.1895825862884521 -2.148716688156128 0.4774041175842285 6.0 13 -0.07875067740678787
1.1856286525726318 -2.1424567699432373 -0.12832777202129364 12.0 6 -0.07874837517738342
1.1800436973571777 -2.1332433223724365 0.5628275871276855 6.0 14 -0.07874606549739838
1.1698763370513916 -2.115734815597534 -0.04219992086291313 9.0 7 -0.07874376326799393
1.1746857166290283 -2.1253085136413574 0.650671124458313 7.0 15 -0.07874146103858948
0.6730149388313293 -1.221683144569397 -0.3737347424030304 8.0 0 -0.07872072607278824
1.173305630683899 -2.1298305988311768 0.04244425520300865 8.0 8 -0.07871842384338379
0.8102840781211853 -1.4714670181274414 -0.3878156542778015 6.0 1 -0.07871611416339874
1.1788383722305298 -2.141641855239868 0.12811844050884247 6.0 9 -0.0787138119339943
1.0126539468765259 -1.8404885530471802 -0.4083312749862671 6.0 2 -0.07871150970458984
1.1771386861801147 -2.140322208404541 0.2137058824300766 6.0 10 -0.0787092074751854
1.209540843963623 -2.200146436691284 -0.3976564407348633 114.0 3 -0.07870689779520035
1.1820183992385864 -2.150083303451538 0.3012610375881195 5.0 11 -0.0787045955657959
1.2151039838790894 -2.211179733276367 -0.3097918927669525 103.0 4 -0.07870229333639145
1.1688292026519775 -2.1278512477874756 0.3845159709453583 6.0 12 -0.078699991106987
1.1731981039047241 -2.1375725269317627 0.47396957874298096 5.0 13 -0.0786953791975975
1.1768074035644531 -2.1450369358062744 -0.12822310626506805 12.0 6 -0.07869307696819305
1.1759651899337769 -2.1443889141082764 0.5646272301673889 6.0 14 -0.0786907747387886
1.1653683185577393 -2.125065565109253 -0.0423046313226223 8.0 7 -0.07868847250938416
1.1635454893112183 -2.122620105743408 0.6486005187034607 7.0 15 -0.07868616282939911
0.6710273623466492 -1.227181315422058 -0.37476998567581177 8.0 0 -0.07904696464538574
1.1681544780731201 -2.137218713760376 0.04251406341791153 8.0 8 -0.07904466241598129
0.7997941374778748 -1.463884949684143 -0.38511624932289124 7.0 1 -0.07904236018657684
1.1736446619033813 -2.149044990539551 0.12832777202129364 6.0 9 -0.0790400505065918
1.008749008178711 -1.8471068143844604 -0.40909451246261597 7.0 2 -0.07903774827718735
1.16849946975708 -2.140512228012085 0.21335725486278534 6.0 10 -0.0790354460477829
1.200730562210083 -2.200467586517334 -0.39703071117401123 114.0 3 -0.07903314381837845
1.1691786050796509 -2.1435348987579346 0.2997986078262329 6.0 11 -0.0790308341383934
1.204913854598999 -2.209968328475952 -0.309060662984848 106.0 4 -0.07902853190898895
1.1655476093292236 -2.138653516769409 0.3857674300670624 6.0 12 -0.0790262296795845
1.1645983457565308 -2.1377995014190674 0.4732063114643097 6.0 13 -0.07902161777019501
1.1643321514129639 -2.1381990909576416 -0.12759508192539215 12.0 6 -0.07901931554079056
1.1692227125167847 -2.1480727195739746 0.5646272301673889 6.0 14 -0.07901701331138611
1.1611822843551636 -2.134187936782837 -0.042409345507621765 9.0 7 -0.07901471108198166
1.159269094467163 -2.1315579414367676 0.6501534581184387 7.0 15 -0.07901240140199661
0.6648977398872375 -1.2261197566986084 -0.3737347424030304 8.0 0 -0.07899166643619537
1.156875491142273 -2.134251117706299 0.042374443262815475 8.0 8 -0.07898936420679092
0.7928225994110107 -1.4632411003112793 -0.38421642780303955 7.0 1 -0.07898706197738647
1.1623311042785645 -2.146103620529175 0.1279090791940689 7.0 9 -0.07898475974798203
0.9966853260993958 -1.8402588367462158 -0.4068048298358917 6.0 2 -0.07898245006799698
1.1629176139831543 -2.1480822563171387 0.2137058824300766 6.0 10 -0.07898014783859253
1.1883416175842285 -2.1959588527679443 -0.3954663872718811 104.0 3 -0.07897784560918808
1.1503556966781616 -2.1266510486602783 0.2968737483024597 6.0 11 -0.07897554337978363
1.1924715042114258 -2.205430030822754 -0.3078419864177704 103.0 4 -0.07897323369979858
1.1486828327178955 -2.125331163406372 0.38263875246047974 6.0 12 -0.07897093147039413
1.1543292999267578 -2.136669874191284 0.47206148505210876 6.0 13 -0.07896632701158524
1.155912160873413 -2.1404926776885986 -0.12749040126800537 12.0 6 -0.07896401733160019
1.156163215637207 -2.1418516635894775 0.5619277954101562 7.0 14 -0.07896171510219574
1.1499272584915161 -2.1311888694763184 -0.04226972907781601 9.0 7 -0.07895941287279129
1.1490705013275146 -2.130490779876709 0.6486005187034607 7.0 15 -0.07895711064338684
0.667933464050293 -1.2420445680618286 -0.37787580490112305 8.0 0 -0.0789363756775856
1.1494184732437134 -2.1382765769958496 0.042374443262815475 7.0 8 -0.07893406599760056
0.7877100110054016 -1.4659996032714844 -0.38421642780303955 6.0 1 -0.0789317637681961
1.1491625308990479 -2.1395909786224365 0.127281054854393 6.0 9 -0.07892946153879166
0.9883976578712463 -1.840267539024353 -0.40604156255722046 6.0 2 -0.07892715930938721
1.1516427993774414 -2.145106792449951 0.21300862729549408 6.0 10 -0.07892484962940216
1.1862735748291016 -2.2105374336242676 -0.39734360575675964 111.0 3 -0.07892254739999771
1.1485555171966553 -2.1411492824554443 0.2983361780643463 6.0 11 -0.07892024517059326
1.1800754070281982 -2.200831651687622 -0.30662328004837036 106.0 4 -0.07891794294118881
1.1449899673461914 -2.136291980743408 0.3838902413845062 6.0 12 -0.07891563326120377
1.1440825462341309 -2.1354947090148926 0.47091662883758545 6.0 13 -0.07891102880239487
1.144661784172058 -2.137472152709961 -0.12707172334194183 12.0 6 -0.07890872657299042
1.1394829750061035 -2.1286938190460205 0.557428777217865 6.0 14 -0.07890642434358597
1.138707160949707 -2.1281371116638184 -0.042130108922719955 9.0 7 -0.07890411466360092
1.1434489488601685 -2.1378958225250244 0.6496358513832092 7.0 15 -0.07890181243419647
0.6542893648147583 -1.2274366617202759 -0.37269943952560425 8.0 0 -0.07888107746839523
1.140066146850586 -2.138746500015259 0.0423046313226223 7.0 8 -0.07887877523899078
0.7825879454612732 -1.4687403440475464 -0.38421642780303955 7.0 1 -0.07887646555900574
1.1416869163513184 -2.1435892581939697 0.127281054854393 6.0 9 -0.07887416332960129
0.9761104583740234 -1.8334800004959106 -0.4037518799304962 6.0 2 -0.07887186110019684
1.1456447839736938 -2.1528310775756836 0.21335725486278534 6.0 10 -0.07886955887079239
1.1763079166412354 -2.2113821506500244 -0.3967178463935852 104.0 3 -0.07886724919080734
1.1466678380966187 -2.155660629272461 0.2997986078262329 6.0 11 -0.0788649469614029
1.1751819849014282 -2.210195541381836 -0.30735450983047485 103.0 4 -0.07886264473199844
1.1375257968902588 -2.140275716781616 0.3838902413845062 6.0 12 -0.078860342502594
1.1334854364395142 -2.1344716548919678 0.46977177262306213 6.0 13 -0.0788557305932045
1.137756586074829 -2.1434171199798584 -0.12717638909816742 12.0 6 -0.07885342836380005
1.135326623916626 -2.1397414207458496 0.5592283606529236 6.0 14 -0.0788511261343956
1.1247107982635498 -2.1197338104248047 -0.041885774582624435 8.0 7 -0.07884882390499115
1.1341688632965088 -2.138460874557495 0.6486005187034607 7.0 15 -0.0788465142250061
0.648195207118988 -1.2262972593307495 -0.3716641664505005 8.0 0 -0.07882577925920486
