# .PCD v0.7 - Point Cloud Data file format
VERSION 0.7
FIELDS x y z intensity ring time
SIZE 4 4 4 4 4 4
TYPE F F F F F F
COUNT 1 1 1 1 1 1
WIDTH 540
HEIGHT 1
VIEWPOINT 0 0 0 1 0 0 0
POINTS 540
DATA ascii
-3.258173704147339 2.8243095874786377 1.1553683280944824 84.0 15 -0.0039508449845016
-2.3929197788238525 2.079399824142456 -0.8494440913200378 5.0 0 -0.003930109087377787
-2.9429190158843994 2.5582408905029297 0.068064384162426 47.0 8 -0.003927804995328188
-2.701326847076416 2.3490548133850098 -0.8264702558517456 5.0 1 -0.003925500903278589
-3.3287274837493896 2.895658016204834 0.2312202751636505 7.0 9 -0.0039231968112289906
-3.3201065063476562 2.8891782760620117 0.3850540518760681 57.0 10 -0.0039185890927910805
-1.8907222747802734 1.6458981037139893 -0.39703071117401123 22.0 3 -0.003916285000741482
-3.293469190597534 2.8680176734924316 0.5362251400947571 33.0 11 -0.003913980908691883
-3.0295305252075195 2.639105796813965 -0.49332717061042786 11.0 4 -0.003911676816642284
-3.3031601905822754 2.8784844875335693 0.6939433813095093 17.0 12 -0.003909373190253973
-3.0086612701416016 2.6218485832214355 -0.34914588928222656 12.0 5 -0.003907069098204374
-3.2897889614105225 2.867844343185425 0.8483368158340454 57.0 13 -0.0039047650061547756
-3.0617611408233643 2.6700034141540527 -0.21290269494056702 53.0 6 -0.003902460914105177
-3.2967817783355713 2.875964403152466 1.0100302696228027 72.0 14 -0.003900157054886222
-2.775282382965088 2.4218862056732178 -0.06429466605186462 4.0 7 -0.003897852962836623
-3.2628486156463623 2.848370313644409 1.1605446338653564 80.0 15 -0.0038955488707870245
-2.384192705154419 2.0864686965942383 -0.8489265441894531 5.0 0 -0.003874812973663211
-2.9429993629455566 2.5764005184173584 0.06827381253242493 37.0 8 -0.003872508881613612
-2.690178394317627 2.3559021949768066 -0.8255704045295715 5.0 1 -0.003870205022394657
-3.311593770980835 2.900101661682129 0.230696901679039 6.0 9 -0.0038679009303450584
-3.330979585647583 2.9191336631774902 0.38749441504478455 61.0 10 -0.0038632929790765047
-1.8552576303482056 1.626443862915039 -0.39077335596084595 2.0 3 -0.003860988887026906
-3.3088088035583496 2.901747941970825 0.5403686761856079 14.0 11 -0.003858685027807951
-3.0203003883361816 2.6496639251708984 -0.49332717061042786 30.0 4 -0.0038563809357583523
-3.3129007816314697 2.906358003616333 0.6980106830596924 16.0 12 -0.0038540770765393972
-3.020456552505493 2.6507339477539062 -0.3515862822532654 13.0 5 -0.0038517729844897985
-3.2945117950439453 2.8922626972198486 0.8521530032157898 59.0 13 -0.0038494688924402
-3.044919013977051 2.674084424972534 -0.2123793214559555 60.0 6 -0.003847165033221245
-3.288186550140381 2.8887412548065186 1.0104801654815674 69.0 14 -0.003844860941171646
-2.77775239944458 2.4403140544891357 -0.06453900039196014 4.0 7 -0.0038425568491220474
-3.2678961753845215 2.871927499771118 1.16572105884552 87.0 15 -0.0038402529899030924
-2.379794120788574 2.097332239151001 -0.8499617576599121 4.0 0 -0.003819516859948635
-2.9554426670074463 2.6046559810638428 0.06876248121261597 44.0 8 -0.00381721300072968
-2.6911215782165527 2.3725426197052 -0.8282698392868042 4.0 1 -0.0038149089086800814
-3.3074424266815186 2.9169280529022217 0.23111560940742493 5.0 9 -0.0038126050494611263
-3.3327202796936035 2.9412901401519775 0.3888889253139496 63.0 10 -0.003807996865361929
-1.8424487113952637 1.6260517835617065 -0.38920900225639343 1.0 3 -0.003805693006142974
-3.309584856033325 2.921901226043701 0.5420749187469482 10.0 11 -0.003803388914093375
-3.0338151454925537 2.6793758869171143 -0.49698320031166077 100.0 4 -0.00380108505487442
-3.317539691925049 2.930983781814575 0.7011393904685974 23.0 12 -0.0037987809628248215
-3.0335776805877686 2.6810529232025146 -0.35420092940330505 39.0 5 -0.0037964768707752228
-3.2996132373809814 2.916173219680786 0.8559691905975342 63.0 13 -0.0037941730115562677
-3.0360348224639893 2.6841671466827393 -0.2123793214559555 60.0 6 -0.003791868919506669
-3.2873475551605225 2.9073755741119385 1.0131796598434448 69.0 14 -0.003789565060287714
-2.769216537475586 2.449995994567871 -0.06453900039196014 2.0 7 -0.0037872609682381153
-3.2723183631896973 2.8961198329925537 1.170897364616394 84.0 15 -0.0037849568761885166
-2.3497045040130615 2.0846986770629883 -0.841679573059082 2.0 0 -0.003764220979064703
-2.938854694366455 2.6083197593688965 0.06858795881271362 38.0 8 -0.0037619168870151043
-2.6740798950195312 2.374159097671509 -0.8255704045295715 4.0 1 -0.0037596130277961493
-3.291266679763794 2.923150062561035 0.230696901679039 3.0 9 -0.0037573089357465506
-3.3318843841552734 2.9602653980255127 0.389934778213501 64.0 10 -0.003752700984477997
-1.857432246208191 1.6508451700210571 -0.3935891389846802 1.0 3 -0.003750396892428398
-3.315685272216797 2.947944402694702 0.5447559952735901 35.0 11 -0.003748093033209443
-3.021477699279785 2.6873116493225098 -0.4964957535266876 70.0 4 -0.0037457889411598444
-3.3131911754608154 2.947798252105713 0.7023908495903015 43.0 12 -0.0037434850819408894
-3.0276479721069336 2.6937460899353027 -0.3545495569705963 59.0 5 -0.0037411809898912907
-3.30407977104187 2.9407248497009277 0.8597853183746338 61.0 13 -0.003738876897841692
-3.019188642501831 2.688107967376709 -0.21185597777366638 55.0 6 -0.003736573038622737
-3.2946410179138184 2.93438720703125 1.0185785293579102 69.0 14 -0.0037342689465731382
-2.756168842315674 2.455656051635742 -0.06443428248167038 2.0 7 -0.003731965087354183
-3.265073537826538 2.910095691680908 1.1719326972961426 102.0 15 -0.0037296609953045845
-2.2689425945281982 2.0272440910339355 -0.815280020236969 1.0 0 -0.003708925098180771
-2.928241014480591 2.61722993850708 0.06855305284261703 39.0 8 -0.003706621006131172
-2.687567949295044 2.4029619693756104 -0.8323189616203308 4.0 1 -0.0037043169140815735
-3.2810428142547607 2.9346210956573486 0.230696901679039 3.0 9 -0.0037020130548626184
-3.3334097862243652 2.982506513595581 0.391329288482666 63.0 10 -0.003697404870763421
-1.860489845275879 1.6652233600616455 -0.3954663872718811 7.0 3 -0.003695101011544466
-3.01503586769104 2.700490713119507 -0.49698320031166077 60.0 4 -0.0036904930602759123
-2.9959683418273926 2.6843550205230713 -0.35193488001823425 45.0 5 -0.003685884876176715
-3.305490493774414 2.962723731994629 0.8628383278846741 61.0 13 -0.00368358101695776
-3.0053255558013916 2.6946308612823486 -0.21154196560382843 59.0 6 -0.003681276924908161
-3.301786184310913 2.9614837169647217 1.023977279663086 66.0 14 -0.003678973065689206
-2.7728829383850098 2.487964630126953 -0.06502766162157059 8.0 7 -0.0036766689736396074
-3.2663965225219727 2.931797981262207 1.1760737895965576 102.0 15 -0.0036743648815900087
-2.227385997772217 2.0041401386260986 -0.8028567433357239 1.0 0 -0.003653628984466195
-2.9176013469696045 2.6260969638824463 0.06851814687252045 48.0 8 -0.0036513248924165964
-2.655991792678833 2.391465902328491 -0.8251205086708069 4.0 1 -0.0036490210331976414
-3.284135103225708 2.9580864906311035 0.23163895308971405 2.0 9 -0.0036467169411480427
-3.334820508956909 3.0047926902770996 0.39272376894950867 57.0 10 -0.003642108989879489
-1.8781425952911377 1.6928685903549194 -0.4004722833633423 25.0 3 -0.0036398048978298903
-3.3156635761260986 2.989630699157715 0.5481683611869812 36.0 11 -0.003637501038610935
-2.9982216358184814 2.704350709915161 -0.4957645535469055 50.0 4 -0.0036351969465613365
-3.3203964233398438 2.996000051498413 0.7083353400230408 41.0 12 -0.003632892854511738
-2.9806630611419678 2.689457893371582 -0.35123762488365173 46.0 5 -0.003630588995292783
-3.300957679748535 2.9795055389404297 0.8643648028373718 64.0 13 -0.003628284903243184
-2.978111743927002 2.6890435218811035 -0.21028588712215424 59.0 6 -0.003625981044024229
-3.3044443130493164 2.9847464561462402 1.0280263423919678 63.0 14 -0.0036236769519746304
-2.761214017868042 2.494947671890259 -0.06495785713195801 8.0 7 -0.0036213728599250317
-3.2733397483825684 2.958728075027466 1.1822854280471802 102.0 15 -0.0036190690007060766
-2.0915350914001465 1.8951575756072998 -0.7562692761421204 1.0 0 -0.0035983328707516193
-2.961754322052002 2.684612989425659 0.06977471709251404 20.0 8 -0.0035960290115326643
-2.65484619140625 2.4072675704956055 -0.8273700475692749 4.0 1 -0.0035937249194830656
-3.2013022899627686 2.903780698776245 0.22651003301143646 2.0 9 -0.0035914210602641106
-3.343492269515991 3.033820867538452 0.39498981833457947 55.0 10 -0.003586812876164913
-1.8751471042633057 1.7020694017410278 -0.40109801292419434 29.0 3 -0.003584509016945958
-2.962313175201416 2.6907756328582764 -0.49137720465660095 44.0 4 -0.0035799010656774044
-2.9653584957122803 2.694486379623413 -0.3505403995513916 45.0 5 -0.003575292881578207
-3.305065393447876 3.0042147636413574 0.8681809902191162 66.0 13 -0.003572989022359252
-2.9583637714385986 2.690016269683838 -0.20955318212509155 55.0 6 -0.0035706849303096533
-3.3040964603424072 3.005441904067993 1.0311757326126099 61.0 14 -0.0035683810710906982
-2.7376980781555176 2.491111993789673 -0.06460881233215332 4.0 7 -0.0035660769790410995
-3.2772791385650635 2.983139753341675 1.1874618530273438 102.0 15 -0.003563772886991501
-2.0363874435424805 1.8581734895706177 -0.7386695742607117 1.0 0 -0.0035430369898676872
-2.9435036182403564 2.6868467330932617 0.0695652961730957 14.0 8 -0.0035407328978180885
-2.650744676589966 2.420461416244507 -0.8287197351455688 3.0 1 -0.0035384290385991335
-3.1046369075775146 2.8349218368530273 0.22033439576625824 1.0 9 -0.003536124946549535
-1.8046832084655762 1.6484792232513428 -0.4751144051551819 1.0 2 -0.0035338210873305798
-3.3520023822784424 3.0629451274871826 0.39725586771965027 56.0 10 -0.003531516995280981
-1.8706527948379517 1.7099369764328003 -0.40141090750694275 27.0 3 -0.0035292129032313824
-3.3254756927490234 3.0408365726470947 0.5532869100570679 35.0 11 -0.0035269090440124273
-2.9470436573028564 2.6957404613494873 -0.4904022812843323 44.0 4 -0.0035246049519628286
-3.326162338256836 3.0425305366516113 0.713966965675354 41.0 12 -0.0035223010927438736
-2.9471161365509033 2.6967501640319824 -0.3494945168495178 44.0 5 -0.003519997000694275
-3.3148322105407715 3.034292221069336 0.8735235929489136 61.0 13 -0.003517692908644676
-2.943063735961914 2.6949315071105957 -0.20913450419902802 53.0 6 -0.003515389049425721
-3.2978968620300293 3.0209052562713623 1.0325254201889038 67.0 14 -0.0035130849573761225
-2.7235238552093506 2.494774103164673 -0.06446918845176697 4.0 7 -0.0035107810981571674
-3.2844600677490234 3.009652614593506 1.1936733722686768 87.0 15 -0.0035084770061075687
-2.0085511207580566 1.8456642627716064 -0.7309049963951111 2.0 0 -0.003487741108983755
-2.921325445175171 2.684415578842163 0.069251149892807 12.0 8 -0.0034854370169341564
-2.6470072269439697 2.433194875717163 -0.8300694227218628 4.0 1 -0.0034831329248845577
-1.798917531967163 1.6547691822052002 -0.4751144051551819 1.0 2 -0.003478524973616004
-3.3442232608795166 3.077324867248535 0.39760449528694153 56.0 10 -0.0034762208815664053
-1.873693585395813 1.724156379699707 -0.4032880961894989 27.0 3 -0.0034739170223474503
-3.3255975246429443 3.061257839202881 0.5549930334091187 9.0 11 -0.0034716129302978516
-2.9205644130706787 2.6893622875213623 -0.4874773919582367 48.0 4 -0.003469308838248253
-3.3140697479248047 3.052783489227295 0.713654100894928 7.0 12 -0.003467004979029298
-2.9259634017944336 2.6962203979492188 -0.34810003638267517 44.0 5 -0.003464700886979699
-3.322077512741089 3.061232089996338 0.8781030178070068 63.0 13 -0.003462397027760744
-2.931173801422119 2.7019689083099365 -0.20892515778541565 55.0 6 -0.0034600929357111454
-3.3064844608306885 3.048999786376953 1.0383741855621338 69.0 14 -0.0034577888436615467
-2.7221477031707764 2.5110459327697754 -0.06464371830224991 1.0 7 -0.0034554849844425917
-3.2867119312286377 3.032890558242798 1.1983321905136108 104.0 15 -0.003453180892392993
-1.9924931526184082 1.8431315422058105 -0.7272815704345703 2.0 0 -0.0034324449952691793
-2.9031314849853516 2.6864469051361084 0.06904172152280807 11.0 8 -0.0034301409032195807
-2.6442182064056396 2.4477150440216064 -0.8318690657615662 5.0 1 -0.0034278370440006256
-1.8035043478012085 1.6700628995895386 -0.47778576612472534 3.0 2 -0.0034232288599014282
-3.344231128692627 3.0978755950927734 0.39882466197013855 55.0 10 -0.003420925000682473
-1.858970284461975 1.7226306200027466 -0.40141090750694275 27.0 3 -0.0034186209086328745
-3.339639663696289 3.095790386199951 0.5591366291046143 28.0 11 -0.0034163170494139194
-2.8878703117370605 2.677943706512451 -0.48357757925987244 45.0 4 -0.0034140129573643208
-3.3367021083831787 3.095231771469116 0.7208501100540161 30.0 12 -0.003411708865314722
-2.89947772026062 2.6896486282348633 -0.34600830078125 45.0 5 -0.003409405006095767
-3.325761556625366 3.086164712905884 0.8819192051887512 57.0 13 -0.0034071009140461683
-2.9187963008880615 2.7094666957855225 -0.20871581137180328 55.0 6 -0.0034047970548272133
-3.312958240509033 3.076435089111328 1.0437729358673096 69.0 14 -0.0034024929627776146
-2.7031099796295166 2.5110058784484863 -0.06439937651157379 1.0 7 -0.003400188870728016
-3.286011219024658 3.0535502433776855 1.2019556760787964 87.0 15 -0.003397885011509061
-1.9902877807617188 1.8540258407592773 -0.7288345098495483 3.0 0 -0.0033771488815546036
-2.8732550144195557 2.677478790283203 0.06855305284261703 10.0 8 -0.0033748450223356485
-2.635657787322998 2.45693039894104 -0.8318690657615662 5.0 1 -0.00337254093028605
-1.7847410440444946 1.6642975807189941 -0.474351167678833 2.0 2 -0.003367932979017496
-3.352337121963501 3.1271984577178955 0.40109071135520935 50.0 10 -0.0033656288869678974
-1.8572783470153809 1.733152151107788 -0.40234947204589844 28.0 3 -0.0033633250277489424
-3.3259105682373047 3.104719638824463 0.5586491227149963 48.0 11 -0.0033610209356993437
-2.8973662853240967 2.7056210041046143 -0.4867461919784546 49.0 4 -0.0033587170764803886
-3.3374252319335938 3.117647886276245 0.7233530282974243 68.0 12 -0.00335641298443079
-2.8871593475341797 2.697033166885376 -0.34565967321395874 46.0 5 -0.0033541088923811913
-3.3178374767303467 3.100436210632324 0.8826825022697449 59.0 13 -0.003351805033162236
-2.888895034790039 2.7005434036254883 -0.2072504162788391 61.0 6 -0.0033495009411126375
-3.3150079250335693 3.0999600887298584 1.0478219985961914 67.0 14 -0.0033471970818936825
-2.6695024967193604 2.4972028732299805 -0.06380599737167358 13.0 7 -0.003344892989844084
-3.29226016998291 3.080841064453125 1.208167314529419 84.0 15 -0.003342588897794485
-1.9880305528640747 1.864927053451538 -0.7303873300552368 3.0 0 -0.0033218530006706715
-2.8595166206359863 2.68338680267334 0.06844833493232727 9.0 8 -0.0033195489086210728
-2.6185405254364014 2.458112955093384 -0.8291696310043335 5.0 1 -0.0033172450494021177
-2.8055949211120605 2.6346287727355957 0.2017027884721756 11.0 9 -0.003314940957352519
-1.7832140922546387 1.6745492219924927 -0.4754960536956787 3.0 2 -0.003312637098133564
-3.355922222137451 3.152522563934326 0.40283384919166565 50.0 10 -0.0033103330060839653
-1.8598538637161255 1.74774169921875 -0.404226690530777 28.0 3 -0.0033080289140343666
-3.3324098587036133 3.1326255798339844 0.5615739822387695 67.0 11 -0.0033057250548154116
-2.8734428882598877 2.7021193504333496 -0.48430880904197693 50.0 4 -0.003303420962765813
-3.346665143966675 3.148228645324707 0.7277332544326782 64.0 12 -0.003301117103546858
-2.8729019165039062 2.703500986099243 -0.34513673186302185 50.0 5 -0.003298813011497259
-3.3198630809783936 3.1241068840026855 0.8861169815063477 53.0 13 -0.0032965089194476604
-2.8663620948791504 2.6982898712158203 -0.20630836486816406 60.0 6 -0.0032942048273980618
-3.314098596572876 3.1208653450012207 1.0509713888168335 63.0 14 -0.0032919009681791067
-2.6884257793426514 2.532557487487793 -0.06446918845176697 42.0 7 -0.0032895971089601517
-3.2955451011657715 3.105563163757324 1.2133437395095825 84.0 15 -0.003287293016910553
-1.9615249633789062 1.8536244630813599 -0.7231404185295105 2.0 0 -0.0032665568869560957
-2.847226142883301 2.6906046867370605 0.06837853044271469 9.0 8 -0.0032642530277371407
-2.612776279449463 2.4699158668518066 -0.8300694227218628 4.0 1 -0.003261948935687542
-2.8021860122680664 2.649895191192627 0.20212148129940033 7.0 9 -0.0032596448436379433
-1.785622477531433 1.6891685724258423 -0.47778576612472534 12.0 2 -0.0032573409844189882
-3.361710786819458 3.1812350749969482 0.4049255847930908 52.0 10 -0.0032550368923693895
-1.85343599319458 1.7545462846755981 -0.404226690530777 28.0 3 -0.0032527330331504345
-3.338754177093506 3.1606154441833496 0.5644989013671875 63.0 11 -0.003250428941100836
-2.855344295501709 2.703944206237793 -0.48284637928009033 49.0 4 -0.003248124849051237
-3.335655927658081 3.159891128540039 0.7277332544326782 63.0 12 -0.003245820989832282
-2.8591089248657227 2.7094013690948486 -0.34461379051208496 46.0 5 -0.0032435168977826834
-3.3212125301361084 3.1484105587005615 0.88955157995224 57.0 13 -0.0032412130385637283
-2.8535547256469727 2.706028938293457 -0.2060990184545517 60.0 6 -0.0032389089465141296
-3.313948631286621 3.1437196731567383 1.0545705556869507 63.0 14 -0.003236604854464531
-2.6795690059661865 2.541926622390747 -0.06446918845176697 41.0 7 -0.003234300995245576
-3.298696994781494 3.1303467750549316 1.2185200452804565 84.0 15 -0.003231996903195977
-1.9578412771224976 1.863124132156372 -0.7241756916046143 2.0 0 -0.0032112610060721636
-2.8272063732147217 2.691371440887451 0.06813419610261917 9.0 8 -0.003208956914022565
-2.6234638690948486 2.4982895851135254 -0.8363680839538574 5.0 1 -0.00320665305480361
-2.847881317138672 2.7119991779327393 0.2060990184545517 1.0 9 -0.003204348962754011
-1.7726072072982788 1.688620924949646 -0.47587767243385315 28.0 2 -0.0032020448707044125
-3.3606820106506348 3.2025716304779053 0.40614575147628784 53.0 10 -0.0031997410114854574
-1.8601689338684082 1.773271918296814 -0.407042533159256 33.0 3 -0.0031974369194358587
-3.342949628829956 3.1879005432128906 0.5671799778938293 60.0 11 -0.0031951330602169037
-2.836796998977661 2.706169366836548 -0.48138394951820374 49.0 4 -0.003192828968167305
-3.3360397815704346 3.1824233531951904 0.7302361726760864 65.0 12 -0.0031905248761177063
-2.8381028175354004 2.7083611488342285 -0.3432193100452423 37.0 5 -0.0031882210168987513
-3.3343443870544434 3.1830296516418457 0.8960390686988831 59.0 13 -0.0031859169248491526
-2.8354249000549316 2.7076971530914307 -0.2054709792137146 60.0 6 -0.0031836130656301975
-3.317044734954834 3.1687304973602295 1.0590696334838867 60.0 14 -0.003181308973580599
-2.6663410663604736 2.547121524810791 -0.0643644779920578 30.0 7 -0.003179004881531
-3.296130657196045 3.1498501300811768 1.2216259241104126 85.0 15 -0.003176701022312045
-1.9443517923355103 1.8632638454437256 -0.7215875387191772 2.0 0 -0.003155964892357588
-2.809603214263916 2.6924304962158203 0.06792476773262024 8.0 8 -0.0031536610331386328
-2.617978096008301 2.5096726417541504 -0.8372678756713867 5.0 1 -0.003151356941089034
-2.838397264480591 2.721923828125 0.2060990184545517 1.0 9 -0.003149053081870079
-1.7723689079284668 1.7002346515655518 -0.4774041175842285 43.0 2 -0.0031467489898204803
-3.353795051574707 3.218421697616577 0.40666869282722473 48.0 10 -0.0031444448977708817
-1.848576545715332 1.7739601135253906 -0.4057910442352295 29.0 3 -0.0031421410385519266
-3.3567047119140625 3.222339391708374 0.5713235139846802 63.0 11 -0.003139836946502328
-2.8278074264526367 2.715561866760254 -0.48138394951820374 50.0 4 -0.003137533087283373
-3.340580940246582 3.2091023921966553 0.7336776852607727 66.0 12 -0.003135228995233774
-3.329432964324951 3.1995105743408203 0.8975655436515808 59.0 13 -0.0031306210439652205
-2.822110414505005 2.712932586669922 -0.20515696704387665 61.0 6 -0.0031283169519156218
-3.3261845111846924 3.198622703552246 1.0653681755065918 56.0 14 -0.0031260130926966667
-2.661757707595825 2.5605716705322266 -0.06446918845176697 22.0 7 -0.003123709000647068
-3.2906832695007324 3.1666946411132812 1.2236964702606201 84.0 15 -0.0031214049085974693
-1.9562368392944336 1.887137770652771 -0.7283168435096741 2.0 0 -0.0031006690114736557
-2.780042886734009 2.6827805042266846 0.0674360990524292 8.0 8 -0.003098364919424057
-2.609201669692993 2.51879620552063 -0.8372678756713867 6.0 1 -0.0030960608273744583
-2.8231310844421387 2.7262661457061768 0.20568034052848816 1.0 9 -0.0030937569681555033
-1.7667210102081299 1.706102728843689 -0.4774041175842285 55.0 2 -0.0030914531089365482
-3.3660314083099365 3.2516744136810303 0.4094576835632324 52.0 10 -0.0030891490168869495
-1.8409528732299805 1.7790290117263794 -0.4054781496524811 32.0 3 -0.003086844924837351
-3.351144790649414 3.239555597305298 0.5722984671592712 63.0 11 -0.003084540832787752
-2.812602996826172 2.7198963165283203 -0.48040899634361267 50.0 4 -0.003082236973568797
-3.3478164672851562 3.238597869873047 0.7377449870109558 63.0 12 -0.0030799328815191984
-2.1465635299682617 2.0765345096588135 -0.2612929046154022 1.0 5 -0.0030776290223002434
-3.33235239982605 3.2247660160064697 0.90138179063797 59.0 13 -0.0030753249302506447
-2.8011434078216553 2.7116539478302 -0.20431959629058838 63.0 6 -0.003073020838201046
-3.3331973552703857 3.227837085723877 1.0712169408798218 55.0 14 -0.003070716978982091
-2.6700387001037598 2.5865437984466553 -0.06488804519176483 15.0 7 -0.0030684128869324923
-3.296257257461548 3.1942949295043945 1.2299082279205322 87.0 15 -0.003066109027713537
-1.9219245910644531 1.8670324087142944 -0.7179640531539917 1.0 0 -0.00304537289775908
-2.7706611156463623 2.6924681663513184 0.0674360990524292 8.0 8 -0.003043069038540125
-2.589214563369751 2.5170223712921143 -0.8336686491966248 5.0 1 -0.003040764946490526
-2.793551206588745 2.7166101932525635 0.2042149156332016 1.0 9 -0.0030384608544409275
-1.7649770975112915 1.7163654565811157 -0.4785490036010742 63.0 2 -0.0030361569952219725
-3.370370388031006 3.2786853313446045 0.41137510538101196 53.0 10 -0.0030338529031723738
-1.8403940200805664 1.7909555435180664 -0.40672966837882996 32.0 3 -0.0030315490439534187
-3.3526177406311035 3.26369571685791 0.5744921565055847 69.0 11 -0.00302924495190382
-2.7888705730438232 2.7158477306365967 -0.477971613407135 46.0 4 -0.0030269408598542213
-3.3591299057006836 3.2723195552825928 0.7427509427070618 63.0 12 -0.0030246370006352663
-2.7729570865631104 2.7012951374053955 -0.3386872112751007 9.0 5 -0.0030223329085856676
-3.330918073654175 3.245969772338867 0.9040530920028687 57.0 13 -0.0030200290493667126
-2.7802200317382812 2.710261106491089 -0.2034822255373001 61.0 6 -0.003017724957317114
-3.3274905681610107 3.2448952198028564 1.07301664352417 55.0 14 -0.003015420865267515
-2.6681509017944336 2.602830171585083 -0.06506257504224777 11.0 7 -0.00301311700604856
-3.3044440746307373 3.224670171737671 1.2371550798416138 102.0 15 -0.0030108129139989614
-1.930586338043213 1.8885902166366577 -0.7236580848693848 3.0 0 -0.002990077016875148
-2.7555291652679443 2.696528911590576 0.06729648262262344 7.0 8 -0.002987772924825549
-2.5999085903167725 2.5451302528381348 -0.8399673104286194 6.0 1 -0.002985469065606594
-2.781198024749756 2.7235496044158936 0.20400558412075043 1.0 9 -0.0029831649735569954
-1.7519620656967163 1.715647578239441 -0.476640909910202 70.0 2 -0.0029808608815073967
-3.380253553390503 3.3113439083099365 0.41398975253105164 52.0 10 -0.0029785570222884417
-1.8425966501235962 1.8056644201278687 -0.4086068868637085 32.0 3 -0.002976252930238843
-3.3582165241241455 3.292053699493408 0.5774170160293579 69.0 11 -0.002973949071019888
-3.3561477661132812 3.292325019836426 0.7446281313896179 63.0 12 -0.0029693408869206905
-2.7763116359710693 2.723515510559082 -0.3402560353279114 52.0 5 -0.002967036794871092
-3.3405864238739014 3.278202772140503 0.9097773432731628 59.0 13 -0.002964732935652137
-2.763615369796753 2.712954521179199 -0.2029588669538498 60.0 6 -0.0029624290764331818
-3.3217051029205322 3.2619521617889404 1.0748162269592285 52.0 14 -0.002960124984383583
-2.66190242767334 2.614929676055908 -0.06513237953186035 11.0 7 -0.0029578208923339844
-3.312457323074341 3.2551426887512207 1.2444019317626953 87.0 15 -0.0029555168002843857
-1.912972092628479 1.8844717741012573 -0.7195169925689697 4.0 0 -0.002934780903160572
-2.7432503700256348 2.703324794769287 0.06722667068243027 6.0 8 -0.0029324768111109734
-2.5937845706939697 2.5569257736206055 -0.8408671021461487 5.0 1 -0.0029301729518920183
-2.7745182514190674 2.736046075820923 0.2042149156332016 1.0 9 -0.0029278690926730633
-1.7431669235229492 1.7189956903457642 -0.47587767243385315 75.0 2 -0.0029255650006234646
-3.3786025047302246 3.332918405532837 0.41520997881889343 53.0 10 -0.002923260908573866
-1.8447188138961792 1.820409893989563 -0.41048407554626465 36.0 3 -0.002920956816524267
-3.3678951263427734 3.324674606323242 0.5810730457305908 72.0 11 -0.002918652957305312
-2.125758409500122 2.0992119312286377 -0.36682677268981934 1.0 4 -0.002916349098086357
-3.3558778762817383 3.3151252269744873 0.7471310496330261 61.0 12 -0.0029140450060367584
-2.7455272674560547 2.712186336517334 -0.33764132857322693 56.0 5 -0.0029117409139871597
-3.3444838523864746 3.305023193359375 0.913975179195404 53.0 13 -0.002909436821937561
-2.7569692134857178 2.725393056869507 -0.20316819846630096 60.0 6 -0.002907132962718606
-3.3269267082214355 3.2899692058563232 1.0802149772644043 55.0 14 -0.002904829103499651
-2.6499147415161133 2.621393918991089 -0.06506257504224777 12.0 7 -0.0029025250114500523
-3.306567430496216 3.2721214294433594 1.2464725971221924 87.0 15 -0.0029002209194004536
-1.9063827991485596 1.8911373615264893 -0.7195169925689697 3.0 0 -0.00287948502227664
-2.725281000137329 2.7044320106506348 0.06701724231243134 6.0 8 -0.0028771809302270412
-2.5723965167999268 2.553607940673828 -0.8368179798126221 4.0 1 -0.0028748768381774426
-2.7677853107452393 2.7485289573669434 0.20442426204681396 1.0 9 -0.0028725729789584875
-1.7343696355819702 1.722303032875061 -0.4751144051551819 78.0 2 -0.0028702691197395325
-3.376842737197876 3.354520082473755 0.41643014550209045 50.0 10 -0.0028679650276899338
-1.832748532295227 1.8212685585021973 -0.40923261642456055 34.0 3 -0.002865660935640335
-3.370346784591675 3.3504066467285156 0.5835104584693909 72.0 11 -0.0028633568435907364
-2.1071574687957764 2.095421075820923 -0.3648768663406372 2.0 4 -0.0028610529843717813
-3.361090898513794 3.3435373306274414 0.750885546207428 59.0 12 -0.0028587491251528263
-2.724742889404297 2.71051287651062 -0.3362468481063843 53.0 5 -0.0028564450331032276
-3.341275453567505 3.3249871730804443 0.9162648320198059 53.0 13 -0.002854140941053629
-2.7375316619873047 2.7251362800598145 -0.20243550837039948 37.0 6 -0.0028518368490040302
-3.333373546600342 3.3194386959075928 1.0860637426376343 56.0 14 -0.002849532989785075
-2.6634154319763184 2.6532082557678223 -0.06562104821205139 24.0 7 -0.00284722913056612
-3.311547040939331 3.300006151199341 1.252684235572815 87.0 15 -0.0028449250385165215
-1.8792684078216553 1.8773012161254883 -0.7117524147033691 1.0 0 -0.002824189141392708
-2.698850393295288 2.6969668865203857 0.06659838557243347 7.0 8 -0.002821885049343109
-2.7384023666381836 2.7384018898010254 0.2029588669538498 1.0 9 -0.0028172768652439117
-1.7311235666275024 1.7311233282089233 -0.47587767243385315 82.0 2 -0.0028149730060249567
-3.3791987895965576 3.380378246307373 0.41817325353622437 50.0 10 -0.002812668913975358
-1.8277759552001953 1.8290520906448364 -0.4095454514026642 33.0 3 -0.002810365054756403
-3.3698551654815674 3.373385429382324 0.585460364818573 72.0 11 -0.0028080609627068043
-2.722625255584717 2.726428985595703 -0.4730968475341797 35.0 4 -0.0028057568706572056
-3.3633551597595215 3.369229793548584 0.7540141940116882 64.0 12 -0.0028034530114382505
-2.6674063205718994 2.672065496444702 -0.3303202688694 26.0 5 -0.002801148919388652
-3.3393571376800537 3.3463573455810547 0.9189361929893494 50.0 13 -0.002798845060169697
-3.3369016647338867 3.34623384475708 1.091012716293335 55.0 14 -0.0027942368760704994
-2.6795501708984375 2.6879804134368896 -0.06624933332204819 48.0 7 -0.0027919330168515444
-3.31364369392395 3.3252294063568115 1.257860541343689 84.0 15 -0.0027896289248019457
-1.8917711973190308 1.9030306339263916 -0.7189993262290955 1.0 0 -0.0027688927948474884
-2.686600685119629 2.7035341262817383 0.0665285736322403 6.0 8 -0.0027665889356285334
-1.9268667697906494 1.939688801765442 -0.6312127113342285 1.0 1 -0.0027642850764095783
-2.7091240882873535 2.7281033992767334 0.20149344205856323 1.0 9 -0.0027619809843599796
-1.7264535427093506 1.7385486364364624 -0.4762592613697052 86.0 2 -0.002759676892310381
-3.3856258392333984 3.4105348587036133 0.42043930292129517 46.0 10 -0.0027573728002607822
-1.818597435951233 1.832616925239563 -0.40891972184181213 31.0 3 -0.002755068941041827
-3.366447687149048 3.3935840129852295 0.586922824382782 68.0 11 -0.002752765081822872
-2.6991138458251953 2.721820831298828 -0.47065943479537964 48.0 4 -0.0027504609897732735
-3.3682620525360107 3.3977839946746826 0.7577686309814453 61.0 12 -0.0027481568977236748
-2.6075665950775146 2.6304214000701904 -0.3240450322628021 20.0 5 -0.002745852805674076
-3.345620632171631 3.37612247467041 0.9238971471786499 55.0 13 -0.002743548946455121
-3.340285062789917 3.3730924129486084 1.095961570739746 60.0 14 -0.0027389409951865673
-2.6743714809417725 2.7015810012817383 -0.06635405123233795 41.0 7 -0.0027366369031369686
-3.321040391921997 3.3560006618499756 1.26510751247406 78.0 15 -0.00273433281108737
-1.868830680847168 1.8931248188018799 -0.7127876877784729 1.0 0 -0.0027135969139635563
-2.6743383407592773 2.7100484371185303 0.06645876169204712 6.0 8 -0.0027112928219139576
-1.8858702182769775 1.9117200374603271 -0.619965136051178 11.0 1 -0.0027089889626950026
-2.6743416786193848 2.7119457721710205 0.19960935413837433 1.0 9 -0.0027066851034760475
-1.710724949836731 1.7347793579101562 -0.4735879600048065 82.0 2 -0.002704381011426449
-3.3890867233276367 3.437939167022705 0.4223567247390747 47.0 10 -0.00270207691937685
-1.8232814073562622 1.8502099514007568 -0.4114226996898651 33.0 3 -0.0026997728273272514
-3.369905471801758 3.420870304107666 0.5896039605140686 64.0 11 -0.0026974689681082964
-2.6923820972442627 2.7340545654296875 -0.47114691138267517 19.0 4 -0.0026951651088893414
-3.370239019393921 3.423598527908325 0.7608973383903503 64.0 12 -0.0026928610168397427
-2.606755256652832 2.648026704788208 -0.3250909149646759 1.0 5 -0.002690556924790144
-3.3530938625335693 3.4073710441589355 0.9292398691177368 55.0 13 -0.0026882528327405453
-2.5869882106781006 2.62978196144104 -0.19332905113697052 1.0 6 -0.0026859489735215902
-3.336688756942749 3.393068313598633 1.0986610651016235 56.0 14 -0.002683645114302635
-2.660719394683838 2.7066218852996826 -0.06624933332204819 31.0 7 -0.0026813410222530365
-3.322845935821533 3.3813517093658447 1.2702839374542236 80.0 15 -0.002679036930203438
-1.8791086673736572 1.9155350923538208 -0.7189993262290955 1.0 0 -0.0026292800903320312
-2.6490094661712646 2.7013044357299805 0.06603990495204926 10.0 8 -0.0026269759982824326
-1.8866764307022095 1.9245928525924683 -0.6222146153450012 1.0 1 -0.0026246721390634775
-2.654625177383423 2.7089221477508545 0.19877198338508606 11.0 9 -0.002622368047013879
-1.7011439800262451 1.735938549041748 -0.4724431037902832 86.0 2 -0.0026200641877949238
-3.386634111404419 3.4571099281311035 0.4234026074409485 47.0 10 -0.002617760095745325
-1.8243708610534668 1.8629852533340454 -0.41298702359199524 34.0 3 -0.0026154560036957264
-3.3771941661834717 3.4498813152313232 0.5927725434303284 58.0 11 -0.0026131521444767714
-2.7143242359161377 2.7737128734588623 -0.476509153842926 9.0 4 -0.0026108480524271727
-3.3594675064086914 3.434168815612793 0.7608973383903503 65.0 12 -0.0026085441932082176
-3.3615894317626953 3.4375393390655518 0.934582531452179 55.0 13 -0.0026039360091090202
-2.626182794570923 2.686455249786377 -0.19688788056373596 1.0 6 -0.002601632149890065
-3.343719005584717 3.42165207862854 1.104509711265564 57.0 14 -0.0025993280578404665
-2.6536002159118652 2.716398000717163 -0.06628423929214478 35.0 7 -0.0025970241986215115
-3.3203048706054688 3.400067090988159 1.2733896970748901 82.0 15 -0.0025947201065719128
-1.8616260290145874 1.9110130071640015 -0.7148582339286804 1.0 0 -0.0025739839766174555
-2.633983850479126 2.704803943634033 0.0659002885222435 17.0 8 -0.0025716801173985004
-2.5229077339172363 2.5916454792022705 -0.8350183367729187 3.0 1 -0.0025693760253489017
-2.640974760055542 2.7138779163360596 0.1984579712152481 20.0 9 -0.0025670721661299467
-1.6950740814208984 1.741866111755371 -0.4724431037902832 89.0 2 -0.002564768074080348
-3.388439178466797 3.4831905364990234 0.4251457154750824 52.0 10 -0.0025624639820307493
-1.8109707832336426 1.8622612953186035 -0.4114226996898651 33.0 3 -0.0025601601228117943
-3.381734848022461 3.478729248046875 0.5956974029541016 58.0 11 -0.0025578560307621956
-2.860955238342285 2.9440391063690186 -0.5040516257286072 33.0 4 -0.0025555521715432405
-3.3722338676452637 3.471379280090332 0.7665289640426636 65.0 12 -0.002553248079493642
-3.3618791103363037 3.461928606033325 0.9380170702934265 59.0 13 -0.002548640128225088
-2.840768337249756 2.9263298511505127 -0.21374006569385529 34.0 6 -0.0025463360361754894
-3.3521111011505127 3.4542813301086426 1.1112582683563232 56.0 14 -0.0025440321769565344
-2.6496713161468506 2.7313857078552246 -0.06642386317253113 12.0 7 -0.0025417280849069357
-3.316486120223999 3.4199564456939697 1.2764955759048462 85.0 15 -0.002539423992857337
-1.8630036115646362 1.9258302450180054 -0.7179640531539917 4.0 0 -0.0025186880957335234
-2.6495485305786133 2.739856481552124 0.0665285736322403 2.0 8 -0.0025163840036839247
-2.508427381515503 2.5948326587677 -0.8332187533378601 3.0 1 -0.0025140801444649696
-2.6536922454833984 2.7460591793060303 0.20013271272182465 2.0 9 -0.002511776052415371
-1.6917122602462769 1.7505956888198853 -0.4732063114643097 89.0 2 -0.002509472193196416
-3.392871618270874 3.512193202972412 0.42723745107650757 52.0 10 -0.002507168101146817
-1.8030864000320435 1.867150902748108 -0.4111098051071167 34.0 3 -0.0025048640090972185
-3.3819804191589355 3.5033655166625977 0.5978910326957703 64.0 11 -0.0025025601498782635
-2.8740947246551514 2.9782907962799072 -0.508195161819458 33.0 4 -0.0025002560578286648
-3.3806679248809814 3.5044546127319336 0.7712219953536987 66.0 12 -0.0024979521986097097
-2.5295608043670654 2.623098134994507 -0.3188157081604004 5.0 5 -0.002495648106560111
-3.3525004386901855 3.476468086242676 0.9387802481651306 52.0 13 -0.0024933440145105124
-2.85548734664917 2.962110996246338 -0.21562416851520538 41.0 6 -0.0024910401552915573
-3.360316276550293 3.4870097637176514 1.1180068254470825 55.0 14 -0.0024887360632419586
-2.674805164337158 2.7766213417053223 -0.06729648262262344 26.0 7 -0.00248643197119236
-3.325968027114868 3.453778028488159 1.2847777605056763 85.0 15 -0.002484128111973405
-1.8760038614273071 1.953546404838562 -0.7257286310195923 4.0 0 -0.0024633919820189476
-3.3408203125 3.4789092540740967 0.08419041335582733 35.0 8 -0.0024610881227999926
-2.5074522495269775 2.6120071411132812 -0.835918128490448 3.0 1 -0.002458784030750394
-3.421276330947876 3.565181255340576 0.2589583396911621 23.0 9 -0.002456480171531439
-1.688002586364746 1.7596184015274048 -0.47396957874298096 89.0 2 -0.00245417607948184
-3.3992817401885986 3.5447373390197754 0.429677814245224 50.0 10 -0.0024518719874322414
-1.8044333457946777 1.8823026418685913 -0.41298702359199524 34.0 3 -0.0024495681282132864
-3.3793468475341797 3.5251805782318115 0.5995972156524658 66.0 11 -0.0024472640361636877
-2.869174003601074 2.9940390586853027 -0.5091701149940491 33.0 4 -0.0024449601769447327
-3.3861799240112305 3.5347776412963867 0.7752892971038818 59.0 12 -0.002442656084895134
-2.5383033752441406 2.6506190299987793 -0.3210817575454712 10.0 5 -0.0024403519928455353
-3.3587417602539062 3.5085880756378174 0.9441229701042175 50.0 13 -0.0024380481336265802
-2.8542773723602295 2.9826579093933105 -0.21635687351226807 42.0 6 -0.0024357440415769815
-3.3542492389678955 3.506342649459839 1.1202563047409058 50.0 14 -0.0024334401823580265
-2.6747727394104004 2.7960562705993652 -0.06754080951213837 22.0 7 -0.002431136090308428
-3.335254430770874 3.487705945968628 1.293060064315796 85.0 15 -0.002428831998258829
-1.865173578262329 1.9558889865875244 -0.7241756916046143 4.0 0 -0.0024080961011350155
-3.339085102081299 3.5027098655700684 0.08446964621543884 37.0 8 -0.002405792009085417
-2.4830734729766846 2.605661630630493 -0.8309692740440369 3.0 1 -0.0024034881498664618
-3.4184553623199463 3.5872230529785156 0.259691059589386 31.0 9 -0.002401184057816863
-1.676433801651001 1.7598134279251099 -0.4724431037902832 89.0 2 -0.002398880198597908
-3.406123399734497 3.5767810344696045 0.43211814761161804 50.0 10 -0.0023965761065483093
-1.8005757331848145 1.8914512395858765 -0.4136127531528473 36.0 3 -0.0023942720144987106
-3.386930465698242 3.5591132640838623 0.6032533049583435 60.0 11 -0.0023919681552797556
-2.8663909435272217 3.0131635665893555 -0.5106325745582581 33.0 4 -0.002389664063230157
-3.3792667388916016 3.5523009300231934 0.7765407562255859 57.0 12 -0.002387360204011202
-2.5372724533081055 2.6681265830993652 -0.3221276104450226 10.0 5 -0.002385056111961603
-3.3762333393096924 3.5515940189361572 0.9525185227394104 49.0 13 -0.0023827520199120045
-2.858982563018799 3.008528709411621 -0.2175082564353943 39.0 6 -0.0023804481606930494
-3.3473575115203857 3.5236825942993164 1.122056007385254 49.0 14 -0.0023781440686434507
-2.671881914138794 2.8126256465911865 -0.06771533936262131 23.0 7 -0.0023758402094244957
-3.344343900680542 3.521740674972534 1.301342248916626 75.0 15 -0.002373536117374897
-1.864976406097412 1.969401240348816 -0.726763904094696 3.0 0 -0.0023528002202510834
-3.350825548171997 3.5384469032287598 0.08506302535533905 36.0 8 -0.0023504961282014847
-2.4945144653320312 2.6351096630096436 -0.8377177715301514 3.0 1 -0.002348192036151886
-3.4237592220306396 3.617992877960205 0.2610517740249634 30.0 9 -0.002345888176932931
-1.6729789972305298 1.7685070037841797 -0.4732063114643097 100.0 2 -0.0023435840848833323
-3.4018311500549316 3.597334861755371 0.4331640303134918 48.0 10 -0.0023412799928337336
-1.8024370670318604 1.906023383140564 -0.4154900014400482 34.0 3 -0.0023389761336147785
-3.396928310394287 3.5934064388275146 0.6071531176567078 62.0 11 -0.00233667204156518
-2.8768346309661865 3.044294595718384 -0.5142886638641357 33.0 4 -0.002334368182346225
-3.3776981830596924 3.5755629539489746 0.7790436744689941 57.0 12 -0.002332064090296626
-2.5306801795959473 2.679863691329956 -0.32247623801231384 10.0 5 -0.0023297599982470274
-3.375220775604248 3.574190139770508 0.9555715322494507 46.0 13 -0.0023274561390280724
-2.8640713691711426 3.033968925476074 -0.2186596393585205 38.0 6 -0.0023251520469784737
-3.3557167053222656 3.5560216903686523 1.1288044452667236 52.0 14 -0.0023228481877595186
-2.6661643981933594 2.826298952102661 -0.06782004982233047 24.0 7 -0.00232054409570992
-3.3426342010498047 3.5446364879608154 1.305483341217041 72.0 15 -0.0023182400036603212
-1.851817011833191 1.9685394763946533 -0.7241756916046143 3.0 0 -0.0022975041065365076
-3.341193675994873 3.5530357360839844 0.08513283729553223 38.0 8 -0.002295200014486909
-2.4799625873565674 2.6381211280822754 -0.835918128490448 3.0 1 -0.002292896155267954
-3.426154136657715 3.6459319591522217 0.2622031569480896 28.0 9 -0.002290592063218355
-1.6617275476455688 1.7683225870132446 -0.4716798663139343 100.0 2 -0.0022882879711687565
-3.4062530994415283 3.6260221004486084 0.4352557957172394 48.0 10 -0.0022859841119498014
-1.790364384651184 1.9065433740615845 -0.4142385423183441 36.0 3 -0.0022836800199002028
-3.3979506492614746 3.6197152137756348 0.6095905303955078 63.0 11 -0.0022813761606812477
-2.88249135017395 3.071688652038574 -0.5172135829925537 31.0 4 -0.002279072068631649
-3.392225503921509 3.6161468029022217 0.785301148891449 57.0 12 -0.0022767679765820503
-2.519052505493164 2.685335397720337 -0.3221276104450226 10.0 5 -0.0022744641173630953
-3.369438409805298 3.5931103229522705 0.9574795961380005 45.0 13 -0.0022721600253134966
-2.872586488723755 3.064347982406616 -0.22012506425380707 27.0 6 -0.0022698561660945415
-3.3592729568481445 3.5847785472869873 1.134203314781189 55.0 14 -0.002267552074044943
-2.674055337905884 2.854559898376465 -0.06827381253242493 23.0 7 -0.002265247981995344
-3.3408048152923584 3.567563772201538 1.309624433517456 69.0 15 -0.002262944122776389
-1.859440565109253 1.9905205965042114 -0.7298697233200073 3.0 0 -0.002242207992821932
-3.3465144634246826 3.583676338195801 0.08558660000562668 41.0 8 -0.002239904133602977
-2.46807861328125 2.6439132690429688 -0.8350183367729187 3.0 1 -0.002237600041553378
-3.435208559036255 3.6812331676483154 0.2638779282569885 33.0 9 -0.002235296182334423
-1.6528657674789429 1.771241545677185 -0.47091662883758545 92.0 2 -0.0022329920902848244
-3.411243200302124 3.6568291187286377 0.4375218451023102 38.0 10 -0.0022306879982352257
-1.7810033559799194 1.909892201423645 -0.4136127531528473 36.0 3 -0.0022283841390162706
-3.393416404724121 3.6402666568756104 0.6110529899597168 63.0 11 -0.002226080046966672
-2.886638641357422 3.0977063179016113 -0.5198946595191956 28.0 4 -0.002223776187747717
-3.3930468559265137 3.64241886138916 0.788429856300354 53.0 12 -0.002221472095698118
-2.5069479942321777 2.6911959648132324 -0.3217789828777313 10.0 5 -0.0022191680036485195
-3.3715932369232178 3.620654821395874 0.9616774320602417 49.0 13 -0.0022168641444295645
-2.8700385093688965 3.08312726020813 -0.22075310349464417 11.0 6 -0.0022145600523799658
-3.3653252124786377 3.6164541244506836 1.140501856803894 52.0 14 -0.0022122561931610107
-2.6790568828582764 2.8799824714660645 -0.0686577707529068 22.0 7 -0.002209952101111412
-3.346747875213623 3.599010467529297 1.3168714046478271 67.0 15 -0.0022076480090618134
-1.9102894067764282 2.059316396713257 -0.7526458501815796 3.0 0 -0.0021869121119379997
-3.353020191192627 3.6158640384674072 0.08607526868581772 39.0 8 -0.002184608019888401
-2.4482359886169434 2.6410794258117676 -0.8314191102981567 3.0 1 -0.002182304160669446
-3.430483818054199 3.701990842819214 0.26450595259666443 33.0 9 -0.0021800000686198473
-1.6493422985076904 1.7798800468444824 -0.4716798663139343 83.0 2 -0.0021776962094008923
-3.416058301925659 3.687716245651245 0.4397878348827362 42.0 10 -0.0021753921173512936
-1.7770103216171265 1.9189963340759277 -0.4142385423183441 36.0 3 -0.002173088025301695
-3.3982198238372803 3.6710267066955566 0.6142215728759766 59.0 11 -0.00217078416608274
-2.897379159927368 3.1310763359069824 -0.5237944722175598 1.0 4 -0.002168480074033141
-3.4031155109405518 3.678892135620117 0.7937486171722412 60.0 12 -0.002166176214814186
-2.5051841735839844 2.7091426849365234 -0.3228248655796051 10.0 5 -0.0021638721227645874
-3.3775954246520996 3.652580976486206 0.9670200347900391 50.0 13 -0.0021615680307149887
-3.36458420753479 3.6410608291625977 1.1445510387420654 56.0 14 -0.002156960079446435
-2.69069766998291 2.9128189086914062 -0.06921624392271042 22.0 7 -0.00215465622022748
-3.34727144241333 3.6248631477355957 1.3220477104187012 69.0 15 -0.0021523521281778812
-2.051910400390625 2.2283120155334473 -0.8116565346717834 3.0 0 -0.0021316162310540676
-3.3593409061431885 3.648141622543335 0.08656392991542816 39.0 8 -0.002129312139004469
-2.4587996006011963 2.6711151599884033 -0.838167667388916 5.0 1 -0.0021270080469548702
-3.4283595085144043 3.7257003784179688 0.2653433084487915 35.0 9 -0.0021247039549052715
-1.6454651355743408 1.7888033390045166 -0.4724431037902832 82.0 2 -0.0021224000956863165
-3.4173548221588135 3.716343641281128 0.4417053163051605 41.0 10 -0.002120096003636718
-1.7753124237060547 1.931313157081604 -0.4154900014400482 34.0 3 -0.0021177921444177628
-3.4028491973876953 3.7018654346466064 0.6173901557922363 55.0 11 -0.002115488052368164
-3.3942630290985107 3.695112705230713 0.7946872115135193 53.0 12 -0.0021108801010996103
-2.4957115650177 2.71787166595459 -0.3228248655796051 3.0 5 -0.0021085760090500116
-3.384098529815674 3.686631202697754 0.9727442860603333 55.0 13 -0.0021062721498310566
-2.2712996006011963 2.475216865539551 -0.17605817317962646 1.0 6 -0.002103968057781458
-3.3670241832733154 3.6706013679504395 1.1499499082565308 56.0 14 -0.002101663965731859
-2.6832170486450195 2.925140857696533 -0.0692860558629036 22.0 7 -0.002099360106512904
-3.3502657413482666 3.653611421585083 1.3282594680786133 70.0 15 -0.0020970560144633055
-2.1066951751708984 2.3038928508758545 -0.8365032076835632 4.0 0 -0.002076320117339492
-3.363487482070923 3.679616689682007 0.08701769262552261 36.0 8 -0.002074016025289893
-2.434532403945923 2.66428542137146 -0.8332187533378601 4.0 1 -0.002071712166070938
-3.4416213035583496 3.7677340507507324 0.2674367427825928 37.0 9 -0.0020694080740213394
-1.6325911283493042 1.7872881889343262 -0.470535010099411 71.0 2 -0.0020671039819717407
-3.420482873916626 3.745905637741089 0.4437970221042633 41.0 10 -0.0020648001227527857
-1.7738864421844482 1.9433348178863525 -0.4167414605617523 36.0 3 -0.002062496030703187
-3.405313491821289 3.73190975189209 0.6203150153160095 53.0 11 -0.002060192171484232
-1.6307600736618042 1.7877883911132812 -0.2971175014972687 2.0 4 -0.0020578880794346333
-3.399329662322998 3.7279646396636963 0.7990673780441284 57.0 12 -0.0020555839873850346
-3.387079954147339 3.7158327102661133 0.9773237109184265 53.0 13 -0.002050976036116481
-2.292240858078003 2.515608072280884 -0.1783609539270401 2.0 6 -0.002048672176897526
-3.3764991760253906 3.7068233489990234 1.1575982570648193 55.0 14 -0.002046368084847927
-2.676516532897949 2.9393911361694336 -0.06939076632261276 24.0 7 -0.0020440639927983284
-3.347254514694214 3.677294969558716 1.3324004411697388 70.0 15 -0.0020417601335793734
-2.1233150959014893 2.338406801223755 -0.8463383316993713 5.0 0 -0.002021024003624916
-3.358686685562134 3.70021915435791 0.08722712844610214 38.0 8 -0.002018720144405961
-2.4435513019561768 2.6929712295532227 -0.83951735496521 3.0 1 -0.0020164160523563623
-3.445892333984375 3.7989561557769775 0.26879748702049255 39.0 9 -0.0020141121931374073
-1.63029944896698 1.7973387241363525 -0.4716798663139343 52.0 2 -0.0020118081010878086
-3.416754722595215 3.7681543827056885 0.4450172185897827 45.0 10 -0.00200950400903821
-1.7538255453109741 1.934878945350647 -0.4136127531528473 19.0 3 -0.002007200149819255
-3.4122607707977295 3.765838861465454 0.6239711046218872 61.0 11 -0.002004896057769656
-1.6218438148498535 1.7905277013778687 -0.29662999510765076 2.0 4 -0.002002592198550701
-3.4022061824798584 3.7573792934417725 0.8028218150138855 58.0 12 -0.0020002881065011024
-1.5980713367462158 1.764901876449585 -0.20830221474170685 2.0 5 -0.0019979840144515038
-3.389899253845215 3.745098829269409 0.9819031953811646 53.0 13 -0.0019956801552325487
-2.2780847549438477 2.5176708698272705 -0.17794226109981537 2.0 6 -0.00199337606318295
-3.3805336952209473 3.737375020980835 1.1634470224380493 50.0 14 -0.001991072203963995
-2.6850168704986572 2.9694812297821045 -0.0698794350028038 20.0 7 -0.0019887681119143963
-3.344761371612549 3.7004220485687256 1.3365415334701538 75.0 15 -0.0019864640198647976
-2.1448936462402344 2.3788034915924072 -0.858244001865387 6.0 0 -0.001965728122740984
-3.359138250350952 3.726773977279663 0.08757617324590683 35.0 8 -0.0019634240306913853
-2.430222749710083 2.697141170501709 -0.838167667388916 3.0 1 -0.0019611201714724302
