# .PCD v0.7 - Point Cloud Data file format
VERSION 0.7
FIELDS x y z intensity ring time
SIZE 4 4 4 4 4 4
TYPE F F F F F F
COUNT 1 1 1 1 1 1
WIDTH 541
HEIGHT 1
VIEWPOINT 0 0 0 1 0 0 0
POINTS 541
DATA ascii
0.6062196493148804 0.08142540603876114 -0.053513623774051666 4.0 5 -0.08786692470312119
0.6421226859092712 0.08613401651382446 0.1259339451789856 100.0 13 -0.08786461502313614
0.6354437470436096 0.0851249024271965 -0.03359968587756157 68.0 6 -0.08786231279373169
1.4486486911773682 0.19380557537078857 0.3374266028404236 60.0 14 -0.08786001056432724
0.6441769599914551 0.08606625348329544 -0.011344064027071 75.0 7 -0.08785770833492279
1.4208420515060425 0.18958072364330292 0.384087473154068 2.0 15 -0.08785539865493774
1.4574612379074097 0.1926548182964325 -0.3939225971698761 40.0 0 -0.0878346636891365
0.6125913858413696 0.08086705207824707 0.010785587131977081 6.0 8 -0.08783236145973206
1.4393579959869385 0.18975070118904114 -0.33517709374427795 45.0 1 -0.0878300592303276
0.6336551308631897 0.08342230319976807 0.033495016396045685 45.0 9 -0.08782775700092316
1.44037926197052 0.18962958455085754 -0.2823973298072815 47.0 2 -0.08782544732093811
0.636075496673584 0.0836283341050148 0.05612830072641373 68.0 10 -0.08782314509153366
0.6208657026290894 0.08151809126138687 -0.0991794615983963 94.0 3 -0.08782084286212921
0.6219654083251953 0.08155205845832825 0.07702143490314484 46.0 11 -0.08781854063272476
0.6219795942306519 0.08144380897283554 -0.07702143490314484 92.0 4 -0.08781623095273972
0.6091561913490295 0.07965625077486038 0.09730225056409836 2.0 12 -0.08781392872333527
0.6381092667579651 0.08344230055809021 -0.05630260705947876 3.0 5 -0.08781162649393082
0.6416785717010498 0.08368092775344849 -0.03391370177268982 60.0 6 -0.08780701458454132
1.4454514980316162 0.18824464082717896 0.3365267813205719 60.0 14 -0.08780471235513687
0.6286095380783081 0.08175376802682877 -0.01106482557952404 73.0 7 -0.08780241012573242
1.4214951992034912 0.18461951613426208 0.384087473154068 2.0 15 -0.08780010789632797
1.4581247568130493 0.18756647408008575 -0.3939225971698761 38.0 0 -0.08777937293052673
0.6208036541938782 0.07974719256162643 0.010925207287073135 6.0 8 -0.08777706325054169
1.4496761560440063 0.18596461415290833 -0.3374266028404236 46.0 1 -0.08777476102113724
0.6220560073852539 0.07968736439943314 0.032866984605789185 53.0 9 -0.08777245879173279
1.4371377229690552 0.18410195410251617 -0.2816340923309326 51.0 2 -0.08777015656232834
0.6363635659217834 0.081407330930233 0.05612830072641373 61.0 10 -0.08776784688234329
0.6270249485969543 0.08010116219520569 -0.10011807084083557 91.0 3 -0.08776554465293884
0.6340611577033997 0.08088786900043488 0.07848386466503143 30.0 11 -0.0877632424235344
0.6261984705924988 0.07977376133203506 -0.07750891149044037 86.0 4 -0.08776094019412994
0.6094305515289307 0.07752925157546997 0.09730225056409836 4.0 12 -0.0877586305141449
0.6265379190444946 0.07970557361841202 -0.055256739258766174 8.0 5 -0.08775632828474045
0.7147696614265442 0.09080364555120468 0.14005380868911743 100.0 13 -0.087754026055336
0.6280969977378845 0.07968144863843918 -0.033180996775627136 57.0 6 -0.08775172382593155
1.4499664306640625 0.18368737399578094 0.3374266028404236 45.0 14 -0.0877494215965271
0.62293940782547 0.07880622148513794 -0.010960111394524574 76.0 7 -0.08774711191654205
1.4221309423446655 0.17965741455554962 0.384087473154068 2.0 15 -0.0877448096871376
1.472188949584961 0.18415360152721405 -0.39754605293273926 41.0 0 -0.08772407472133636
0.615125298500061 0.07683594524860382 0.01082049123942852 6.0 8 -0.08772177249193192
1.4715875387191772 0.1835574209690094 -0.3423755168914795 41.0 1 -0.08771946281194687
0.618353009223938 0.07712981849908829 0.03265763819217682 51.0 9 -0.08771716058254242
1.4494608640670776 0.18053986132144928 -0.28392380475997925 43.0 2 -0.08771485835313797
0.6069865226745605 0.07549657672643661 0.053513623774051666 15.0 10 -0.08771255612373352
0.6214196681976318 0.07718194276094437 -0.0991794615983963 77.0 3 -0.08771024644374847
0.6461595892906189 0.0801398903131485 0.07994629442691803 29.0 11 -0.08770794421434402
0.6363233327865601 0.07880718261003494 -0.0787276029586792 82.0 4 -0.08770564198493958
0.6351693868637085 0.07866427302360535 0.10136953741312027 11.0 12 -0.08770333975553513
0.6070390343666077 0.07507311552762985 -0.053513623774051666 4.0 5 -0.08770103752613068
1.4730305671691895 0.181909441947937 0.2885032296180725 42.0 13 -0.08769872784614563
0.6481938362121582 0.07993277162313461 -0.03422771766781807 52.0 6 -0.08769642561674118
1.4680057764053345 0.1807694435119629 0.3414757251739502 52.0 14 -0.08769412338733673
0.6311361193656921 0.07771775871515274 -0.011099730618298054 76.0 7 -0.08769182115793228
1.4054621458053589 0.1728181689977646 0.3794287443161011 3.0 15 -0.08768951147794724
1.4804939031600952 0.17994555830955505 -0.3996165990829468 41.0 0 -0.087668776512146
0.6233170628547668 0.0757606253027916 0.010960111394524574 3.0 8 -0.08766647428274155
1.4644500017166138 0.17773687839508057 -0.3405759036540985 43.0 1 -0.0876641720533371
0.6265495419502258 0.07593189179897308 0.03307632729411125 50.0 9 -0.08766186982393265
1.4598273038864136 0.17665810883045197 -0.28583186864852905 44.0 2 -0.0876595601439476
0.6072462797164917 0.07337746769189835 0.053513623774051666 7.0 10 -0.08765725791454315
0.6138278245925903 0.07417275756597519 -0.097927987575531 79.0 3 -0.0876549556851387
0.6227721571922302 0.07514329254627228 0.07702143490314484 62.0 11 -0.08765265345573425
0.642493724822998 0.0774087980389595 -0.0794588178396225 75.0 4 -0.0876503437757492
0.6413238644599915 0.07715462148189545 0.10230815410614014 24.0 12 -0.08764804154634476
0.6191664338111877 0.0743793398141861 -0.05455949530005455 8.0 5 -0.08764573931694031
1.459980845451355 0.17538486421108246 0.28583186864852905 39.0 13 -0.08764343708753586
0.6266418099403381 0.07516611367464066 -0.03307632729411125 55.0 6 -0.08764112740755081
1.4647274017333984 0.17543645203113556 0.3405759036540985 50.0 14 -0.08763882517814636
0.6234613656997681 0.07456417381763458 -0.010960111394524574 70.0 7 -0.08763652294874191
1.4233208894729614 0.16997241973876953 0.384087473154068 4.0 15 -0.08763422071933746
1.4887562990188599 0.17594300210475922 -0.4016871750354767 37.0 0 -0.08761348575353622
0.643436849117279 0.07592827081680298 0.011309158988296986 3.0 8 -0.08761117607355118
1.4669969081878662 0.1728515475988388 -0.34102579951286316 46.0 1 -0.08760887384414673
0.6188637018203735 0.07291872799396515 0.03265763819217682 49.0 9 -0.08760657161474228
1.4721040725708008 0.1731935441493988 -0.28812161087989807 45.0 2 -0.08760426938533783
0.6668497323989868 0.07833711057901382 0.05874297022819519 6.0 10 -0.08760195970535278
0.6180068254470825 0.07248973101377487 -0.09855373203754425 83.0 3 -0.08759965747594833
0.6250023245811462 0.07319968938827515 0.077265165746212 85.0 11 -0.08759735524654388
0.6171284914016724 0.07216864079236984 -0.07629022002220154 46.0 4 -0.08759505301713943
0.661196231842041 0.07732203602790833 0.10543683916330338 53.0 12 -0.08759274333715439
0.6293043494224548 0.07348088920116425 -0.055431053042411804 12.0 5 -0.08759044110774994
1.4586342573165894 0.17005978524684906 0.285450279712677 28.0 13 -0.08758813887834549
0.6288841962814331 0.07320963591337204 -0.033180996775627136 65.0 6 -0.08758583664894104
1.4556524753570557 0.16919715702533722 0.3383263945579529 45.0 14 -0.087583526968956
0.6316505670547485 0.07341964542865753 -0.011099730618298054 65.0 7 -0.08758122473955154
1.4277145862579346 0.16569729149341583 0.38512274622917175 5.0 15 -0.0875789225101471
1.4932001829147339 0.17118488252162933 -0.40272244811058044 37.0 0 -0.08755818754434586
0.6516318917274475 0.07470500469207764 0.011448778212070465 3.0 8 -0.0875558853149414
1.4772424697875977 0.1690942496061325 -0.3432753086090088 48.0 1 -0.08755357563495636
0.615145742893219 0.07030460238456726 0.03244829550385475 49.0 9 -0.08755127340555191
1.4726996421813965 0.1680534929037094 -0.28812161087989807 53.0 2 -0.08754897117614746
0.6394050121307373 0.07285108417272568 0.05630260705947876 6.0 10 -0.08754666894674301
0.6221691370010376 0.07088730484247208 -0.0991794615983963 80.0 3 -0.08754435926675797
0.6272140145301819 0.07135121524333954 0.07750891149044037 100.0 11 -0.08754205703735352
0.6153919696807861 0.06989756971597672 -0.07604647427797318 12.0 4 -0.08753975480794907
0.6516481041908264 0.07390042394399643 0.10387250036001205 85.0 12 -0.08753745257854462
0.64737468957901 0.07330136001110077 -0.05699985474348068 30.0 5 -0.08753514289855957
1.4747965335845947 0.16698922216892242 0.2885032296180725 18.0 13 -0.08753284066915512
0.6469851136207581 0.0731428936123848 -0.03412304446101189 70.0 6 -0.08753053843975067
1.4503960609436035 0.16371366381645203 0.33697667717933655 35.0 14 -0.08752823621034622
0.6219674348831177 0.07009443640708923 -0.010925207287073135 60.0 7 -0.08752593398094177
1.4359632730484009 0.16157697141170502 0.3871932923793793 5.0 15 -0.08752362430095673
1.5014687776565552 0.16682451963424683 -0.40479302406311035 32.0 0 -0.08747315406799316
0.624076247215271 0.0692296251654625 0.010960111394524574 3.0 8 -0.08747085183858871
1.4894737005233765 0.16496619582176208 -0.34597474336624146 45.0 1 -0.08746854960918427
0.6153993606567383 0.0680493488907814 0.03244829550385475 50.0 9 -0.08746623992919922
1.4752286672592163 0.16312716901302338 -0.2885032296180725 47.0 2 -0.08746393769979477
0.6634197235107422 0.07324244827032089 0.05839434638619423 6.0 10 -0.08746163547039032
0.6322422623634338 0.06968872994184494 -0.10074380785226822 84.0 3 -0.08745933324098587
0.6333908438682556 0.06970315426588058 0.07824012637138367 99.0 11 -0.08745702356100082
0.641295850276947 0.07046011090278625 -0.07921507954597473 5.0 4 -0.08745472133159637
0.6244242191314697 0.06849610805511475 0.09949233382940292 60.0 12 -0.08745241910219193
0.6218799352645874 0.06821701675653458 -0.05473380535840988 100.0 5 -0.08745011687278748
1.4793016910552979 0.16200977563858032 0.289266437292099 8.0 13 -0.08744780719280243
0.6313654184341431 0.06903450936079025 -0.03328566998243332 55.0 6 -0.08744550496339798
1.4703587293624878 0.16051170229911804 0.3414757251739502 12.0 14 -0.08744320273399353
0.6261959671974182 0.06824779510498047 -0.010995016433298588 55.0 7 -0.08744090050458908
3.610569477081299 0.3928726017475128 0.973159670829773 27.0 15 -0.08743859082460403
1.5039626359939575 0.16178932785987854 -0.40531066060066223 30.0 0 -0.0874178558588028
0.63226717710495 0.0679047554731369 0.011099730618298054 3.0 8 -0.08741555362939835
1.497791051864624 0.16059660911560059 -0.34777435660362244 42.0 1 -0.0874132513999939
0.6335063576698303 0.0678141713142395 0.0333903431892395 52.0 9 -0.08741094917058945
1.4816454648971558 0.15860387682914734 -0.2896480858325958 44.0 2 -0.0874086394906044
0.6715957522392273 0.07177294045686722 0.05909159407019615 6.0 10 -0.08740633726119995
0.6285532116889954 0.06706206500530243 -0.10011807084083557 91.0 3 -0.0874040350317955
0.6395520567893982 0.06812267005443573 0.07897134125232697 97.0 11 -0.08740173280239105
0.6454858183860779 0.068640798330307 -0.07970255613327026 5.0 4 -0.087399423122406
0.6344811916351318 0.0673585832118988 0.10105667263269424 74.0 12 -0.08739712089300156
0.6379644274711609 0.06772837042808533 -0.05612830072641373 100.0 5 -0.0873948186635971
0.7399291396141052 0.07842268794775009 0.1446332186460495 3.0 13 -0.08739251643419266
0.6276302337646484 0.06640972942113876 -0.03307632729411125 23.0 6 -0.08739020675420761
1.482537865638733 0.15660610795021057 0.3441751301288605 7.0 14 -0.08738790452480316
0.6244416832923889 0.06585195660591125 -0.010960111394524574 39.0 7 -0.08738560229539871
3.6023128032684326 0.37925463914871216 0.9705714583396912 57.0 15 -0.08738330006599426
1.5179686546325684 0.15793831646442413 -0.408934086561203 32.0 0 -0.08736256510019302
0.6543793678283691 0.06796969473361969 0.011483684182167053 9.0 8 -0.08736025542020798
1.5099725723266602 0.15657363831996918 -0.3504737615585327 40.0 1 -0.08735795319080353
0.6396992206573486 0.0662195086479187 0.03370435908436775 51.0 9 -0.08735565096139908
1.4958596229553223 0.15484634041786194 -0.2923193871974945 36.0 2 -0.08735334873199463
0.6837332844734192 0.07065683603286743 0.06013746187090874 6.0 10 -0.08735103905200958
0.6130638718605042 0.06324602663516998 -0.09761511534452438 90.0 3 -0.08734873682260513
0.6279380321502686 0.06466975808143616 0.07750891149044037 100.0 11 -0.08734643459320068
0.6575695872306824 0.0676051452755928 -0.08116498589515686 5.0 4 -0.08734413236379623
0.6465027928352356 0.06635365635156631 0.10293389111757278 76.0 12 -0.08734182268381119
0.6421607732772827 0.06590801477432251 -0.05647691711783409 100.0 5 -0.08733952045440674
0.7030908465385437 0.07203755527734756 0.13738247752189636 7.0 13 -0.08733721822500229
0.6218975782394409 0.06360865384340286 -0.032762311398983 7.0 6 -0.08733491599559784
1.500523328781128 0.15321198105812073 0.3482242524623871 2.0 14 -0.08733261376619339
0.624667763710022 0.06367167830467224 -0.010960111394524574 23.0 7 -0.08733030408620834
3.6209123134613037 0.3684370219707489 0.9752302169799805 101.0 15 -0.0873280018568039
1.5281213521957397 0.15360502898693085 -0.4115222990512848 34.0 0 -0.08730726689100266
0.6506331562995911 0.06528590619564056 0.011413874104619026 27.0 8 -0.0873049646615982
1.512449026107788 0.15149571001529694 -0.35092365741729736 46.0 1 -0.08730265498161316
0.6260149478912354 0.06259526312351227 0.03297165781259537 48.0 9 -0.08730035275220871
1.5139726400375366 0.151382178068161 -0.29575395584106445 45.0 2 -0.08729805052280426
0.6720804572105408 0.06708256155252457 0.05909159407019615 6.0 10 -0.08729574829339981
0.6211434602737427 0.06188889220356941 -0.09886659681797028 87.0 3 -0.08729343861341476
0.6261846423149109 0.0622808113694191 0.077265165746212 100.0 11 -0.08729113638401031
0.6340970396995544 0.06295603513717651 -0.07824012637138367 5.0 4 -0.08728883415460587
0.6447647213935852 0.06390153616666794 0.10262101888656616 78.0 12 -0.08728653192520142
0.6384216547012329 0.0632728859782219 -0.05612830072641373 100.0 5 -0.08728422969579697
0.705291748046875 0.06977596879005432 0.137764111161232 21.0 13 -0.08728192001581192
0.6161530017852783 0.06084870547056198 -0.03244829550385475 5.0 6 -0.08727961778640747
1.458383560180664 0.14376689493656158 0.3383263945579529 1.0 14 -0.08727731555700302
0.6348366141319275 0.06247008219361305 -0.011134634725749493 23.0 7 -0.08727501332759857
3.620253801345825 0.3556073307991028 0.974712610244751 120.0 15 -0.08727270364761353
1.542108178138733 0.14957508444786072 -0.41514575481414795 37.0 0 -0.08725196868181229
0.6448858380317688 0.062436386942863464 0.011309158988296986 43.0 8 -0.08724966645240784
1.5168479681015015 0.14659059047698975 -0.35182347893714905 37.0 1 -0.08724736422300339
0.6242415904998779 0.060217734426259995 0.032866984605789185 46.0 9 -0.08724505454301834
1.5125377178192139 0.14590759575366974 -0.29537233710289 48.0 2 -0.08724275231361389
0.6247134208679199 0.060153208673000336 0.05490811914205551 7.0 10 -0.08724045008420944
0.6370862126350403 0.06123235821723938 -0.10136953741312027 84.0 3 -0.08723814785480499
0.6343023180961609 0.06085306778550148 0.07824012637138367 99.0 11 -0.08723584562540054
0.6323369145393372 0.060552842915058136 -0.0779963880777359 5.0 4 -0.0872335359454155
0.6371181607246399 0.0608987957239151 0.10136953741312027 78.0 12 -0.08723123371601105
0.6584721207618713 0.06293990463018417 -0.057871412485837936 100.0 5 -0.0872289314866066
0.7016221880912781 0.06694083660840988 0.13700087368488312 30.0 13 -0.08722662925720215
0.6203382015228271 0.05907608941197395 -0.03265763819217682 2.0 6 -0.0872243195772171
1.5054364204406738 0.14310070872306824 0.3491240441799164 2.0 14 -0.08722201734781265
0.6270877718925476 0.05949831008911133 -0.010995016433298588 23.0 7 -0.0872197151184082
3.625319480895996 0.3433314561843872 0.97574782371521 120.0 15 -0.08721741288900375
1.5426208972930908 0.14419080317020416 -0.41514575481414795 29.0 0 -0.08719667047262192
0.6450998783111572 0.06018507480621338 0.011309158988296986 81.0 8 -0.08719436824321747
1.5406345129013062 0.14346270263195038 -0.3572222888469696 30.0 1 -0.08719206601381302
0.636380136013031 0.05914720147848129 0.033495016396045685 27.0 9 -0.08718976378440857
1.509128212928772 0.14026318490505219 -0.29460909962654114 37.0 2 -0.08718746155500412
0.6407904624938965 0.059444621205329895 0.05630260705947876 6.0 10 -0.08718515187501907
0.641230046749115 0.05937221646308899 -0.10199528187513351 94.0 3 -0.08718284964561462
0.640440821647644 0.0591864213347435 0.07897134125232697 100.0 11 -0.08718054741621017
0.6325443983078003 0.05834564194083214 -0.0779963880777359 5.0 4 -0.08717824518680573
0.6392939686775208 0.058855392038822174 0.10168241709470749 81.0 12 -0.08717593550682068
0.6348798274993896 0.05844901502132416 -0.055779676884412766 100.0 5 -0.08717363327741623
0.7135816812515259 0.0655689612030983 0.13929057121276855 43.0 13 -0.08717133104801178
0.6364519000053406 0.05837002396583557 -0.033495016396045685 5.0 6 -0.08716902881860733
3.6328542232513428 0.3325338065624237 0.8422167897224426 3.0 14 -0.08716671913862228
0.619326114654541 0.056581106036901474 -0.010855397209525108 26.0 7 -0.08716441690921783
3.618799924850464 0.3299753963947296 0.9736772775650024 117.0 15 -0.08716211467981339
1.5565834045410156 0.14001700282096863 -0.4187692105770111 17.0 0 -0.08714137971401215
0.6273809671401978 0.05632347986102104 0.010995016433298588 94.0 8 -0.0871390774846077
1.5566537380218506 0.13947486877441406 -0.36082151532173157 30.0 1 -0.08713676780462265
0.6564657092094421 0.05881877988576889 0.03454173356294632 6.0 9 -0.0871344655752182
1.5115641355514526 0.13516968488693237 -0.2949907183647156 35.0 2 -0.08713216334581375
0.6390095949172974 0.05703020468354225 0.05612830072641373 48.0 10 -0.0871298611164093
0.6296279430389404 0.05608184635639191 -0.10011807084083557 98.0 3 -0.08712755143642426
0.644598126411438 0.057302188128232956 0.0794588178396225 95.0 11 -0.0871252492070198
0.6544846892356873 0.05818106234073639 -0.08067751675844193 5.0 4 -0.08712294697761536
0.6493238806724548 0.057608071714639664 0.10324675589799881 82.0 12 -0.08712064474821091
0.6291261315345764 0.05570516362786293 -0.055256739258766174 100.0 5 -0.08711833506822586
0.711850643157959 0.06290503591299057 0.13890895247459412 68.0 13 -0.08711603283882141
0.6366517543792725 0.05614786595106125 -0.033495016396045685 2.0 6 -0.08711373060941696
3.651407480239868 0.32202649116516113 0.8462659120559692 1.0 14 -0.08711142838001251
0.6354462504386902 0.055929481983184814 -0.011134634725749493 47.0 7 -0.08710911870002747
3.6198742389678955 0.31797221302986145 0.9736772775650024 120.0 15 -0.08710681647062302
1.5570390224456787 0.13485471904277802 -0.4187692105770111 2.0 0 -0.08708608150482178
0.6195952296257019 0.05355373024940491 0.010855397209525108 81.0 8 -0.08708377927541733
1.5609906911849976 0.13464803993701935 -0.36172130703926086 23.0 1 -0.08708147704601288
0.6526774168014526 0.056298695504665375 0.03433239087462425 3.0 9 -0.08707916736602783
1.5335201025009155 0.1320088803768158 -0.2991885244846344 22.0 2 -0.08707686513662338
0.6332399249076843 0.05439908802509308 0.05560535937547684 70.0 10 -0.08707456290721893
0.6258740425109863 0.05365628004074097 -0.09949233382940292 84.0 3 -0.08707226067781448
0.63885098695755 0.05465678870677948 0.0787276029586792 82.0 11 -0.08706995099782944
0.6566517949104309 0.05617973580956459 -0.0809212476015091 9.0 4 -0.08706764876842499
0.6495113968849182 0.05545433983206749 0.10324675589799881 74.0 12 -0.08706534653902054
0.6471741199493408 0.05514102429151535 -0.05682554095983505 100.0 5 -0.08706304430961609
0.6983619332313538 0.0593799352645874 0.13623763620853424 63.0 13 -0.08706073462963104
0.6109631061553955 0.051840946078300476 -0.0321342796087265 2.0 6 -0.08705843240022659
3.7611942291259766 0.31914180517196655 0.8714604377746582 1.0 14 -0.08705613017082214
0.6396133899688721 0.05415952950716019 -0.01120444480329752 47.0 7 -0.0870538279414177
3.6170589923858643 0.30564191937446594 0.9726420044898987 120.0 15 -0.08705152571201324
3.11110520362854 0.2590598464012146 -0.8365032076835632 82.0 0 -0.08703078329563141
0.6157837510108948 0.05116772651672363 0.010785587131977081 87.0 8 -0.08702848106622696
1.5827914476394653 0.1312425583600998 -0.36667025089263916 2.0 1 -0.08702617883682251
0.6528699398040771 0.05401990935206413 0.03433239087462425 3.0 9 -0.08702387660741806
1.5574284791946411 0.1288650780916214 -0.30376794934272766 0.0 2 -0.08702156692743301
0.6493019461631775 0.05361058935523033 0.05699985474348068 74.0 10 -0.08701926469802856
0.6299859881401062 0.05190534517168999 -0.10011807084083557 91.0 3 -0.08701696246862411
0.6291367411613464 0.05172453075647354 0.07750891149044037 46.0 11 -0.08701466023921967
0.6588223576545715 0.05404938757419586 -0.08116498589515686 16.0 4 -0.08701235055923462
0.649700939655304 0.053187232464551926 0.10324675589799881 74.0 12 -0.08701004832983017
0.6374337673187256 0.05207069590687752 -0.0559539832174778 100.0 5 -0.08700774610042572
0.7024685144424438 0.05738325044512749 0.13700087368488312 63.0 13 -0.08700544387102127
0.6330288648605347 0.0515996515750885 -0.03328566998243332 2.0 6 -0.08700314164161682
0.6338191032409668 0.05144137144088745 -0.011099730618298054 39.0 7 -0.08699852973222733
3.6219546794891357 0.2933250963687897 0.9736772775650024 117.0 15 -0.08699622750282288
3.113959550857544 0.2478092759847641 -0.8370208144187927 67.0 0 -0.08697549253702164
0.6279188990592957 0.0499698631465435 0.010995016433298588 87.0 8 -0.08697318285703659
3.1140289306640625 0.24726790189743042 -0.7211931347846985 100.0 1 -0.08697088062763214
0.6371263861656189 0.0504784993827343 0.033495016396045685 3.0 9 -0.08696857839822769
3.1020803451538086 0.2452295422554016 -0.6048645377159119 86.0 2 -0.08696627616882324
0.6455216407775879 0.05091722682118416 0.05665123090147972 82.0 10 -0.0869639664888382
0.6518341898918152 0.05130036547780037 -0.10355963557958603 100.0 3 -0.08696166425943375
0.6510821580886841 0.051241181790828705 0.08019004017114639 14.0 11 -0.0869593620300293
0.639216959476471 0.05019543692469597 -0.0787276029586792 41.0 4 -0.08695705980062485
0.6538212895393372 0.051227450370788574 0.10387250036001205 74.0 12 -0.0869547575712204
0.6495296955108643 0.05077683553099632 -0.05699985474348068 100.0 5 -0.08695244789123535
0.6987594366073608 0.05450300872325897 0.13623763620853424 48.0 13 -0.0869501456618309
0.6391873955726624 0.049744173884391785 -0.03359968587756157 5.0 6 -0.08694784343242645
3.6934378147125244 0.2867881655693054 0.8552640080451965 1.0 14 -0.086945541203022
0.641969621181488 0.04984767735004425 -0.011239349842071533 47.0 7 -0.08694323152303696
3.6306612491607666 0.28127798438072205 0.97574782371521 120.0 15 -0.08694092929363251
3.103247880935669 0.23605801165103912 -0.8339149951934814 77.0 0 -0.08692019432783127
0.6280978918075562 0.04766792804002762 0.010995016433298588 94.0 8 -0.08691789209842682
3.103255271911621 0.23497064411640167 -0.7184937596321106 72.0 1 -0.08691558241844177
0.643281877040863 0.048594459891319275 0.033809032291173935 3.0 9 -0.08691328018903732
3.106832981109619 0.23469474911689758 -0.6056278347969055 95.0 2 -0.08691097795963287
0.6456953883171082 0.04866345226764679 0.05665123090147972 89.0 10 -0.08690867573022842
0.6382204294204712 0.04798838496208191 -0.10136953741312027 91.0 3 -0.08690637350082397
0.6710608601570129 0.05033959075808525 0.08262742310762405 13.0 11 -0.08690406382083893
0.637417197227478 0.04770394787192345 -0.07848386466503143 84.0 4 -0.08690176159143448
0.6480950117111206 0.04838963970541954 0.10293389111757278 80.0 12 -0.08689945936203003
0.6199000477790833 0.04628447815775871 -0.05438518151640892 99.0 5 -0.08689715713262558
0.6969876289367676 0.05191752687096596 0.1358560025691986 41.0 13 -0.08689484745264053
0.66325843334198 0.04928869381546974 -0.03485574945807457 12.0 6 -0.08689254522323608
0.7054566144943237 0.052300773561000824 0.16331447660923004 3.0 14 -0.08689024299383163
0.644142210483551 0.04764204099774361 -0.011274254880845547 50.0 7 -0.08688794076442719
3.6239609718322754 0.26739946007728577 0.9736772775650024 117.0 15 -0.08688563108444214
3.094419002532959 0.2245243787765503 -0.8313267827033997 69.0 0 -0.0868648961186409
0.6242715120315552 0.04518657177686691 0.010925207287073135 87.0 8 -0.08686259388923645
3.1118311882019043 0.22469739615917206 -0.7202933430671692 70.0 1 -0.086860291659832
0.6573922634124756 0.047352973371744156 0.03454173356294632 3.0 9 -0.08685798943042755
3.109591245651245 0.2239886224269867 -0.6060094237327576 87.0 2 -0.0868556797504425
0.6379122734069824 0.04583819955587387 0.0559539832174778 91.0 10 -0.08685337752103806
0.6344435214996338 0.04547765478491783 -0.10074380785226822 87.0 3 -0.0868510752916336
0.6613323092460632 0.04728874936699867 0.08140873163938522 14.0 11 -0.08684877306222916
0.6355997323989868 0.04533754661679268 -0.07824012637138367 86.0 4 -0.08684646338224411
0.6522008180618286 0.0464073047041893 0.10355963557958603 87.0 12 -0.08684416115283966
0.6359567642211914 0.04525145888328552 -0.055779676884412766 34.0 5 -0.08684185892343521
0.6873729825019836 0.04878907650709152 0.1339479237794876 34.0 13 -0.08683955669403076
0.6494805216789246 0.04598590359091759 -0.03412304446101189 25.0 6 -0.08683724701404572
0.721186101436615 0.05093646049499512 0.1669136881828308 14.0 14 -0.08683494478464127
0.6562731266021729 0.046236321330070496 -0.011483684182167053 57.0 7 -0.08683264255523682
3.617164373397827 0.25420689582824707 0.9716067314147949 120.0 15 -0.08683034032583237
3.0990381240844727 0.2139897495508194 -0.8323620557785034 69.0 0 -0.08680960536003113
0.6184405088424683 0.042594801634550095 0.01082049123942852 74.0 8 -0.08680729568004608
3.1048200130462646 0.21330010890960693 -0.7184937596321106 72.0 1 -0.08680499345064163
0.6515679955482483 0.0447625070810318 0.03422771766781807 2.0 9 -0.08680269122123718
3.1123127937316895 0.21326912939548492 -0.6063910126686096 79.0 2 -0.08680038899183273
0.6480071544647217 0.04429032281041145 0.05682554095983505 100.0 10 -0.08679807931184769
0.634598433971405 0.04326258599758148 -0.10074380785226822 98.0 3 -0.08679577708244324
0.6773374676704407 0.046057481318712234 0.08335863798856735 6.0 11 -0.08679347485303879
0.6535713076591492 0.04444143548607826 -0.08043377101421356 88.0 4 -0.08679117262363434
0.6543219089508057 0.044377755373716354 0.10387250036001205 76.0 12 -0.08678886294364929
0.6361108422279358 0.04303111135959625 -0.055779676884412766 11.0 5 -0.08678656071424484
0.6757863163948059 0.045596566051244736 0.13165821135044098 36.0 13 -0.0867842584848404
0.6675718426704407 0.04492528736591339 -0.03506509214639664 71.0 6 -0.08678195625543594
0.7271840572357178 0.048936981707811356 0.16826339066028595 17.0 14 -0.0867796465754509
0.6424564123153687 0.04312247410416603 -0.011239349842071533 55.0 7 -0.08677734434604645
3.625697135925293 0.2427257001399994 0.9736772775650024 117.0 15 -0.086775042116642
3.111297130584717 0.20447105169296265 -0.8354679346084595 67.0 0 -0.08675430715084076
0.628555417060852 0.04119780287146568 0.010995016433298588 71.0 8 -0.08675200492143631
3.1055104732513428 0.20300212502479553 -0.7184937596321106 70.0 1 -0.08674969524145126
0.6457338333129883 0.04221056029200554 0.03391370177268982 3.0 9 -0.08674739301204681
3.1247575283050537 0.20371262729167938 -0.6086807250976562 79.0 2 -0.08674509078264236
0.6521268486976624 0.042399875819683075 0.057174164801836014 100.0 10 -0.08674278855323792
0.6406520009040833 0.041541531682014465 -0.10168241709470749 100.0 3 -0.08674047887325287
0.6616388559341431 0.04278641566634178 0.08140873163938522 7.0 11 -0.08673817664384842
0.641829252243042 0.04150538146495819 -0.07897134125232697 86.0 4 -0.08673587441444397
0.6643218994140625 0.042843494564294815 0.10543683916330338 87.0 12 -0.08673357218503952
0.6163672208786011 0.039642784744501114 -0.05403655767440796 8.0 5 -0.08673126250505447
0.6837706565856934 0.043858133256435394 0.13318468630313873 34.0 13 -0.08672896027565002
0.6517716646194458 0.041691455990076065 -0.03422771766781807 97.0 6 -0.08672665804624557
0.7059499025344849 0.04515703767538071 0.16331447660923004 20.0 14 -0.08672435581684113
0.646587073802948 0.041246198117733 -0.011309158988296986 30.0 7 -0.08672205358743668
3.630338430404663 0.23094718158245087 0.974712610244751 120.0 15 -0.08671974390745163
3.1254546642303467 0.19499516487121582 -0.8390913605690002 12.0 0 -0.08669900894165039
0.6266927123069763 0.0389888696372509 0.010960111394524574 58.0 8 -0.08669670671224594
3.1139464378356934 0.19318604469299316 -0.7202933430671692 40.0 1 -0.08669440448284149
0.6518576145172119 0.0403260663151741 0.03422771766781807 7.0 9 -0.08669209480285645
3.1214969158172607 0.19310611486434937 -0.6079174876213074 50.0 2 -0.086689792573452
0.6542525291442871 0.040359605103731155 0.057348478585481644 92.0 10 -0.08668749034404755
0.6328997015953064 0.038931820541620255 -0.1004309356212616 100.0 3 -0.0866851881146431
0.6895163059234619 0.042293380945920944 0.08482106775045395 6.0 11 -0.08668287843465805
0.6419702172279358 0.039264556020498276 -0.07897134125232697 86.0 4 -0.0866805762052536
0.6447502374649048 0.03932195156812668 0.10230815410614014 87.0 12 -0.08667827397584915
0.6403664946556091 0.0389421172440052 -0.05612830072641373 11.0 5 -0.0866759717464447
0.6741141676902771 0.04099438712000847 0.13127659261226654 40.0 13 -0.08667366951704025
0.6499127745628357 0.03940880298614502 -0.03412304446101189 97.0 6 -0.0866713598370552
0.7061032652854919 0.04269268363714218 0.16331447660923004 20.0 14 -0.08666905760765076
0.6407389640808105 0.03862806409597397 -0.01120444480329752 13.0 7 -0.08666675537824631
3.6388356685638428 0.2187362015247345 0.9767830967903137 120.0 15 -0.08666445314884186
0.6268249750137329 0.03680119663476944 0.010960111394524574 35.0 8 -0.08664140850305557
0.6519944071769714 0.03805055096745491 0.03422771766781807 11.0 9 -0.08663680404424667
0.6583741307258606 0.03819229453802109 0.057697102427482605 100.0 10 -0.08663219213485718
0.6567030549049377 0.03798036277294159 -0.10418536514043808 100.0 3 -0.08662988990545273
0.6698418855667114 0.03874024748802185 0.08238368481397629 7.0 11 -0.08662758767604828
0.6341762542724609 0.03656647726893425 -0.0779963880777359 88.0 4 -0.08662528544664383
0.6448835730552673 0.03707094117999077 0.10230815410614014 85.0 12 -0.08662297576665878
0.6245854496955872 0.03579474613070488 -0.05473380535840988 8.0 5 -0.08662067353725433
0.6821001172065735 0.03897145763039589 0.1328030675649643 46.0 13 -0.08661837130784988
0.6580289602279663 0.03748094663023949 -0.03454173356294632 100.0 6 -0.08661606907844543
0.6984726190567017 0.039662301540374756 0.16151487827301025 15.0 14 -0.08661375939846039
0.6189085841178894 0.03514431044459343 -0.01082049123942852 7.0 7 -0.08661145716905594
3.631862163543701 0.20559699833393097 0.974712610244751 120.0 15 -0.08660915493965149
0.6369390487670898 0.03505278006196022 0.011134634725749493 31.0 8 -0.0865861177444458
0.6621008515357971 0.0362057164311409 0.034751079976558685 45.0 9 -0.0865815058350563
0.6445773243904114 0.03513464331626892 0.05647691711783409 100.0 10 -0.0865769013762474
0.6371069550514221 0.03461623564362526 -0.10105667263269424 100.0 3 -0.08657459169626236
0.6739437580108643 0.036499422043561935 0.08287115395069122 6.0 11 -0.08657228946685791
0.6461992263793945 0.03488372638821602 -0.0794588178396225 86.0 4 -0.08656998723745346
0.6627678871154785 0.035662464797496796 0.10512397438287735 91.0 12 -0.08656768500804901
0.6247065663337708 0.033614449203014374 -0.05473380535840988 8.0 5 -0.08656537532806396
0.684192419052124 0.0366952084004879 0.13318468630313873 65.0 13 -0.08656307309865952
0.6601502299308777 0.03529021516442299 -0.0346464067697525 100.0 6 -0.08656077086925507
0.7044446468353271 0.03753514587879181 0.1628645807504654 13.0 14 -0.08655846863985062
0.6210301518440247 0.03298155590891838 -0.010855397209525108 5.0 7 -0.08655615895986557
3.628732681274414 0.19207900762557983 0.9736772775650024 117.0 15 -0.08655385673046112
1.4681776762008667 0.07591694593429565 -0.3939225971698761 0.0 0 -0.08653312176465988
0.6350604891777039 0.032726455479860306 0.011099730618298054 31.0 8 -0.08653081953525543
1.5238553285598755 0.07826190441846848 -0.3522733747959137 0.0 1 -0.08652851730585098
0.6602285504341125 0.03379269689321518 0.0346464067697525 55.0 9 -0.08652620762586594
1.5136510133743286 0.0774737000465393 -0.29460909962654114 0.0 2 -0.08652390539646149
0.6606144905090332 0.03369653970003128 0.057871412485837936 66.0 10 -0.08652160316705704
0.6352511644363403 0.032291658222675323 -0.10074380785226822 91.0 3 -0.08651930093765259
0.6681193709373474 0.03384554386138916 0.08213994652032852 14.0 11 -0.08651699125766754
0.6463170051574707 0.03262799233198166 -0.0794588178396225 91.0 4 -0.08651468902826309
0.6589425206184387 0.0331500768661499 0.1044982373714447 87.0 12 -0.08651238679885864
0.6248201131820679 0.03143344447016716 -0.05473380535840988 8.0 5 -0.0865100845694542
0.6764732003211975 0.03391365334391594 0.13165821135044098 80.0 13 -0.08650777488946915
0.6463059186935425 0.032288193702697754 -0.03391370177268982 95.0 6 -0.0865054726600647
0.6987324953079224 0.03478507697582245 0.16151487827301025 11.0 14 -0.08650317043066025
0.6231387257575989 0.030912764370441437 -0.010890301316976547 5.0 7 -0.0865008682012558
3.6332404613494873 0.1796027421951294 0.974712610244751 117.0 15 -0.08649855852127075
1.4491376876831055 0.06986095756292343 -0.3887462317943573 1.0 0 -0.08647782355546951
0.6371682286262512 0.0306052528321743 0.011134634725749493 43.0 8 -0.08647552132606506
1.4735097885131836 0.07052040100097656 -0.3405759036540985 1.0 1 -0.08647321909666061
0.6423822045326233 0.030743638053536415 0.03370435908436775 51.0 9 -0.08647091686725616
1.4825358390808105 0.07069304585456848 -0.2885032296180725 1.0 2 -0.08646860718727112
0.6428167819976807 0.030539244413375854 0.05630260705947876 13.0 10 -0.08646630495786667
0.6471989750862122 0.03063454106450081 -0.10262101888656616 100.0 3 -0.08646400272846222
0.6503874659538269 0.030671704560518265 0.07994629442691803 44.0 11 -0.08646170049905777
0.6424611806869507 0.03018522821366787 -0.07897134125232697 91.0 4 -0.08645939081907272
0.6491828560829163 0.03050103969871998 0.10293389111757278 82.0 12 -0.08645708858966827
0.6408478021621704 0.02999764122068882 -0.05612830072641373 7.0 5 -0.08645478636026382
0.6707040667533875 0.03127788379788399 0.13051335513591766 88.0 13 -0.08645248413085938
0.6464146971702576 0.030031798407435417 -0.03391370177268982 95.0 6 -0.08645017445087433
0.6871696710586548 0.03180504962801933 0.15881545841693878 11.0 14 -0.08644787222146988
0.6332255601882935 0.029308293014764786 -0.01106482557952404 5.0 7 -0.08644556999206543
3.6376755237579346 0.16773217916488647 0.97574782371521 115.0 15 -0.08644326776266098
1.472531795501709 0.06583715975284576 -0.39495787024497986 1.0 0 -0.08642253279685974
0.6452569961547852 0.028849555179476738 0.011274254880845547 56.0 8 -0.0864202231168747
1.471788763999939 0.06554726511240005 -0.34012600779533386 2.0 1 -0.08641792088747025
0.6444809436798096 0.028589457273483276 0.033809032291173935 53.0 9 -0.0864156186580658
1.4827736616134644 0.06551720201969147 -0.2885032296180725 0.0 2 -0.08641331642866135
0.6269958019256592 0.027594832703471184 0.05490811914205551 7.0 10 -0.0864110067486763
0.6374296545982361 0.02805403806269169 -0.10105667263269424 80.0 3 -0.08640870451927185
0.6485024690628052 0.02842765860259533 0.07970255613327026 81.0 11 -0.0864064022898674
0.6425577402114868 0.02805471234023571 -0.07897134125232697 86.0 4 -0.08640410006046295
0.6552058458328247 0.02849268913269043 0.10387250036001205 91.0 12 -0.0864017903804779
0.6250243186950684 0.027070611715316772 -0.05473380535840988 8.0 5 -0.08639948815107346
0.6747269034385681 0.02922329492866993 0.13127659261226654 88.0 13 -0.086397185921669
0.6544923782348633 0.028232473880052567 -0.03433239087462425 100.0 6 -0.08639488369226456
0.6892182230949402 0.029610246419906616 0.15926535427570343 11.0 14 -0.08639258146286011
0.6253325939178467 0.02675595134496689 -0.010925207287073135 5.0 7 -0.08639027178287506
3.6459593772888184 0.15536130964756012 0.9778183698654175 115.0 15 -0.08638796955347061
1.4457191228866577 0.059834882616996765 -0.38771092891693115 0.0 0 -0.08636723458766937
0.6413578391075134 0.02643246203660965 0.01120444480329752 62.0 8 -0.08636493235826492
1.5012151002883911 0.06160756200551987 -0.34687453508377075 1.0 1 -0.08636262267827988
0.6485633254051208 0.026616042479872704 0.034018374979496 53.0 9 -0.08636032044887543
1.4751362800598145 0.0602787509560585 -0.28697675466537476 1.0 2 -0.08635801821947098
0.6469912528991699 0.026325320824980736 0.05665123090147972 6.0 10 -0.08635571599006653
0.6493663191795349 0.026308443397283554 -0.10293389111757278 70.0 3 -0.08635340631008148
0.6604985594749451 0.026643680408596992 0.08116498589515686 100.0 11 -0.08635110408067703
0.6446352601051331 0.025891397148370743 -0.07921507954597473 69.0 4 -0.08634880185127258
0.6552967429161072 0.026319609954953194 0.10387250036001205 99.0 12 -0.08634649962186813
0.6350646615028381 0.025395989418029785 -0.05560535937547684 12.0 5 -0.08634419739246368
0.6787482500076294 0.027023909613490105 0.13203983008861542 88.0 13 -0.08634188771247864
0.654586911201477 0.02594783529639244 -0.03433239087462425 95.0 6 -0.08633958548307419
0.6776341199874878 0.026742979884147644 0.15656594932079315 12.0 14 -0.08633728325366974
0.6254178881645203 0.02468225359916687 -0.010925207287073135 5.0 7 -0.08633498102426529
3.6348724365234375 0.14281395077705383 0.974712610244751 117.0 15 -0.08633267134428024
1.4536410570144653 0.05508160963654518 -0.38978150486946106 1.0 0 -0.086311936378479
0.6294523477554321 0.023851314559578896 0.010995016433298588 68.0 8 -0.08630963414907455
1.5014110803604126 0.056628599762916565 -0.34687453508377075 1.0 1 -0.0863073319196701
0.6526439785957336 0.024501657113432884 0.03422771766781807 48.0 9 -0.08630502969026566
1.4635663032531738 0.05469033867120743 -0.2846870422363281 1.0 2 -0.08630272001028061
0.627169132232666 0.02332606166601181 0.05490811914205551 7.0 10 -0.08630041778087616
0.6415538787841797 0.02386106736958027 -0.10168241709470749 84.0 3 -0.08629811555147171
0.66455078125 0.02460024319589138 0.08165246248245239 100.0 11 -0.08629581332206726
0.6526525616645813 0.024046052247285843 -0.08019004017114639 22.0 4 -0.08629350364208221
0.6652548909187317 0.02439378760755062 0.10543683916330338 100.0 12 -0.08629120141267776
0.6431136727333069 0.02346952073276043 -0.05630260705947876 27.0 5 -0.08628889918327332
0.6749101877212524 0.02462988905608654 0.13127659261226654 88.0 13 -0.08628659695386887
0.6566653251647949 0.023849627003073692 -0.034437064081430435 100.0 6 -0.08628428727388382
0.6894038319587708 0.024917861446738243 0.15926535427570343 11.0 14 -0.08628198504447937
0.6274985671043396 0.022570699453353882 -0.010960111394524574 5.0 7 -0.08627968281507492
3.6353487968444824 0.13012750446796417 0.974712610244751 117.0 15 -0.08627738058567047
1.4692614078521729 0.05079443380236626 -0.3939225971698761 0.0 0 -0.08625664561986923
0.6315302848815918 0.021722543984651566 0.011029920540750027 74.0 8 -0.08625433593988419
1.501599669456482 0.051387667655944824 -0.34687453508377075 1.0 1 -0.08625203371047974
0.6627020835876465 0.022678958252072334 0.034751079976558685 46.0 9 -0.08624973148107529
0.6788926124572754 0.023114407435059547 -0.13203983008861542 3.0 2 -0.08624742925167084
0.675032913684845 0.0228650514036417 0.05909159407019615 6.0 10 -0.08624511957168579
0.633736252784729 0.021355504170060158 -0.1004309356212616 77.0 3 -0.08624281734228134
0.6586806178092957 0.02208099141716957 0.0809212476015091 100.0 11 -0.08624051511287689
0.6487646102905273 0.02163522318005562 -0.07970255613327026 11.0 4 -0.08623821288347244
0.6673064827919006 0.02225356362760067 0.1057497188448906 100.0 12 -0.0862359032034874
0.6571270227432251 0.02179897390305996 -0.057522788643836975 86.0 5 -0.08623360097408295
0.6671433448791504 0.022015003487467766 0.1297501176595688 90.0 13 -0.0862312987446785
0.6547483801841736 0.02149159274995327 -0.03433239087462425 87.0 6 -0.08622899651527405
0.6836435198783875 0.02232028916478157 0.1579156517982483 13.0 14 -0.086226686835289
0.6435590982437134 0.02101157046854496 -0.011239349842071533 7.0 7 -0.08622438460588455
3.6396217346191406 0.11819594353437424 0.97574782371521 117.0 15 -0.0862220823764801
1.4385350942611694 0.04470495134592056 -0.385640412569046 0.0 0 -0.08620134741067886
0.6375950574874878 0.01981436088681221 0.011134634725749493 65.0 8 -0.08619904518127441
1.4939706325531006 0.04616743326187134 -0.34507492184638977 1.0 1 -0.08619673550128937
0.6507992744445801 0.019997643306851387 0.03412304446101189 43.0 9 -0.08619443327188492
0.6789692044258118 0.020744310691952705 -0.13203983008861542 3.0 2 -0.08619213104248047
0.6671427488327026 0.020266760140657425 0.05839434638619423 6.0 10 -0.08618982881307602
0.6476248502731323 0.01967383548617363 -0.10262101888656616 70.0 3 -0.08618751913309097
0.6468451023101807 0.01953715644776821 0.0794588178396225 100.0 11 -0.08618521690368652
0.6766114830970764 0.020317699760198593 -0.08311489969491959 7.0 4 -0.08618291467428207
0.673303484916687 0.020101074129343033 0.10668832063674927 100.0 12 -0.08618061244487762
0.6532161235809326 0.019387276843190193 -0.057174164801836014 100.0 5 -0.08617830276489258
0.6691750884056091 0.01986093446612358 0.13013173639774323 86.0 13 -0.08617600053548813
0.6408412456512451 0.01890775002539158 -0.03359968587756157 47.0 6 -0.08617369830608368
0.6661826372146606 0.01953938975930214 0.15386652946472168 18.0 14 -0.08617139607667923
0.6656157374382019 0.019406495615839958 -0.011623302474617958 20.0 7 -0.08616909384727478
3.643874168395996 0.10560151189565659 0.9767830967903137 117.0 15 -0.08616678416728973
1.4773117303848267 0.04049105942249298 -0.395993173122406 0.0 0 -0.08246588706970215
0.645662248134613 0.0175839364528656 0.011274254880845547 78.0 8 -0.0824635848402977
1.5175131559371948 0.0410628542304039 -0.3504737615585327 1.0 1 -0.08246128261089325
0.6468751430511475 0.017503993585705757 0.03391370177268982 42.0 9 -0.0824589729309082
3.1439976692199707 0.08452530205249786 -0.6113520860671997 1.0 2 -0.08245667070150375
0.6672125458717346 0.01782125234603882 0.05839434638619423 6.0 10 -0.0824543684720993
0.6536197066307068 0.0173440370708704 -0.10355963557958603 74.0 3 -0.08245206624269485
0.6588217616081238 0.017367014661431313 0.0809212476015091 100.0 11 -0.08244975656270981
0.6608092188835144 0.01730399951338768 -0.08116498589515686 7.0 4 -0.08244745433330536
0.6536257266998291 0.017115892842411995 0.10355963557958603 100.0 12 -0.08244515210390091
0.669216513633728 0.017407281324267387 -0.05856866016983986 100.0 5 -0.08244284987449646
0.6692464351654053 0.017291182652115822 0.13013173639774323 78.0 13 -0.08244054019451141
0.6409091353416443 0.01644711010158062 -0.03359968587756157 7.0 6 -0.08243823796510696
0.6584603786468506 0.016782522201538086 0.1520669311285019 18.0 14 -0.08243593573570251
0.6636833548545837 0.016915643587708473 -0.01158839836716652 50.0 7 -0.08243363350629807
3.648099422454834 0.09234391897916794 0.9778183698654175 117.0 15 -0.08243132382631302
1.4465432167053223 0.03459463641047478 -0.38771092891693115 0.0 0 -0.08241058886051178
0.6397196650505066 0.015299140475690365 0.01116954069584608 71.0 8 -0.08240828663110733
3.1346397399902344 0.07442022860050201 -0.7238925695419312 2.0 1 -0.08240598440170288
0.6509257555007935 0.015340118668973446 0.03412304446101189 39.0 9 -0.08240368217229843
3.1678261756896973 0.07410027831792831 -0.6159314513206482 1.0 2 -0.08240137249231339
0.6752380728721619 0.015677260234951973 0.05909159407019615 6.0 10 -0.08239907026290894
0.6536736488342285 0.015176590532064438 -0.10355963557958603 74.0 3 -0.08239676803350449
0.6628448963165283 0.015273780561983585 0.08140873163938522 100.0 11 -0.08239446580410004
0.6529247164726257 0.01493087038397789 -0.08019004017114639 9.0 4 -0.08239215612411499
0.6635558009147644 0.015058428980410099 0.10512397438287735 100.0 12 -0.08238985389471054
0.6553300619125366 0.014757329598069191 -0.057348478585481644 100.0 5 -0.08238755166530609
0.6889276504516602 0.015513911843299866 0.1339479237794876 77.0 13 -0.08238524943590164
0.640960156917572 0.01432151161134243 -0.03359968587756157 7.0 6 -0.0823829397559166
0.6624089479446411 0.014685412868857384 0.1529667228460312 18.0 14 -0.08238063752651215
0.6677367687225342 0.01468693744391203 -0.011658207513391972 97.0 7 -0.0823783352971077
3.6445364952087402 0.07952385395765305 0.9767830967903137 117.0 15 -0.08237603306770325
1.4543757438659668 0.02995765022933483 -0.38978150486946106 0.0 0 -0.08235529810190201
0.6397691965103149 0.013066143728792667 0.01116954069584608 56.0 8 -0.08235298842191696
3.134880542755127 0.06347700953483582 -0.7238925695419312 3.0 1 -0.08235068619251251
0.6529722213745117 0.01310778222978115 0.03422771766781807 38.0 9 -0.08234838396310806
0.6398919820785522 0.012845209799706936 -0.12440747022628784 4.0 2 -0.08234608173370361
0.6513823866844177 0.012962142005562782 0.05699985474348068 6.0 10 -0.08234377205371857
0.6537225842475891 0.012894577346742153 -0.10355963557958603 77.0 3 -0.08234146982431412
0.6589247584342957 0.01288214698433876 0.0809212476015091 100.0 11 -0.08233916759490967
0.66488116979599 0.012882515788078308 -0.08165246248245239 7.0 4 -0.08233686536550522
0.6557042002677917 0.012590228579938412 0.10387250036001205 100.0 12 -0.08233455568552017
0.645415186882019 0.012392668053507805 -0.05647691711783409 100.0 5 -0.08233225345611572
0.6752372980117798 0.012847397476434708 0.13127659261226654 76.0 13 -0.08232995122671127
0.6350155472755432 0.011971254833042622 -0.03328566998243332 5.0 6 -0.08232764899730682
0.6760948896408081 0.012627643533051014 0.1561160385608673 16.0 14 -0.08232534676790237
0.6717827320098877 0.012429822236299515 -0.011728017590939999 90.0 7 -0.08232303708791733
3.6409289836883545 0.0667315274477005 0.97574782371521 117.0 15 -0.08232073485851288
1.450608491897583 0.02481427974998951 -0.3887462317943573 0.0 0 -0.08229999989271164
0.6338126063346863 0.010731426998972893 0.01106482557952404 16.0 8 -0.08229769766330719
3.127289056777954 0.052403900772333145 -0.7220929265022278 2.0 1 -0.08229538798332214
0.6649958491325378 0.011027229018509388 0.03485574945807457 33.0 9 -0.0822930857539177
0.6438589096069336 0.010676727630198002 -0.12517070770263672 8.0 2 -0.08229078352451324
0.6653685569763184 0.010917256586253643 0.0582200363278389 19.0 10 -0.0822884812951088
0.643887996673584 0.01045240368694067 -0.10199528187513351 64.0 3 -0.08228617161512375
0.6549960374832153 0.010518383234739304 0.08043377101421356 100.0 11 -0.0822838693857193
0.6768311262130737 0.010750873945653439 -0.08311489969491959 7.0 4 -0.08228156715631485
0.6814209222793579 0.01070450060069561 0.10793979465961456 100.0 12 -0.0822792649269104
0.6454545259475708 0.010139500722289085 -0.05647691711783409 100.0 5 -0.08227696269750595
0.6634999513626099 0.010307470336556435 0.1289868950843811 78.0 13 -0.0822746530175209
0.637050449848175 0.009785068221390247 -0.0333903431892395 5.0 6 -0.08227235078811646
3.6690549850463867 0.055716048926115036 0.8471657633781433 12.0 14 -0.082270048558712
0.6598252058029175 0.009904840029776096 -0.011518588289618492 97.0 7 -0.08226774632930756
