# .PCD v0.7 - Point Cloud Data file format
VERSION 0.7
FIELDS x y z intensity ring time
SIZE 4 4 4 4 4 4
TYPE F F F F F F
COUNT 1 1 1 1 1 1
WIDTH 537
HEIGHT 1
VIEWPOINT 0 0 0 1 0 0 0
POINTS 537
DATA ascii
3.0159566402435303 1.0573550462722778 0.7378395199775696 60.0 14 -0.0034404010511934757
1.4814512729644775 0.5190871357917786 -0.02740027755498886 36.0 7 -0.003438096959143877
3.0157103538513184 1.0560883283615112 0.8561733961105347 67.0 15 -0.003435793099924922
2.925795793533325 1.0205882787704468 -0.8302915096282959 64.0 0 -0.0034150569699704647
2.927809000015259 1.0201460123062134 -0.7157943248748779 61.0 1 -0.003410449018701911
2.9839119911193848 1.039108395576477 0.16559097170829773 59.0 9 -0.003408145159482956
2.9331085681915283 1.0214167833328247 -0.6037196516990662 66.0 2 -0.0034058410674333572
2.997515916824341 1.0432593822479248 0.2776781916618347 60.0 10 -0.0034035369753837585
2.94411563873291 1.0240962505340576 -0.49370723962783813 64.0 3 -0.0034012331161648035
2.9887752532958984 1.0390477180480957 0.3885194957256317 67.0 11 -0.003398929024115205
1.4776021242141724 0.5133994221687317 -0.19206610321998596 27.0 4 -0.0033966251648962498
3.0080978870391846 1.0445870161056519 0.5043447613716125 71.0 12 -0.003394321072846651
1.4661846160888672 0.5091447830200195 -0.13578864932060242 54.0 5 -0.0033920169807970524
3.013930082321167 1.0460244417190552 0.6201292872428894 60.0 13 -0.0033897131215780973
1.4623979330062866 0.5072587132453918 -0.08112073689699173 49.0 6 -0.0033874090295284986
3.032517910003662 1.0512882471084595 0.7409887909889221 70.0 14 -0.0033851051703095436
1.454911708831787 0.5040931105613708 -0.02687670662999153 39.0 7 -0.003382801078259945
3.0230298042297363 1.046818733215332 0.8572087287902832 70.0 15 -0.0033804969862103462
2.9220354557037354 1.0078486204147339 -0.8282209634780884 64.0 0 -0.0033597610890865326
1.4727164506912231 0.5076725482940674 0.02719084918498993 3.0 8 -0.003357456997036934
2.923982858657837 1.0073798894882202 -0.7139947414398193 61.0 1 -0.003355153137817979
2.9873409271240234 1.0292083024978638 0.16559097170829773 59.0 9 -0.00335284904576838
2.9310877323150635 1.009253978729248 -0.60257488489151 64.0 2 -0.003350545186549425
2.9936037063598633 1.0301971435546875 0.2769809365272522 60.0 10 -0.0033482410944998264
2.947671890258789 1.01381516456604 -0.49370723962783813 69.0 3 -0.0033459370024502277
2.99613881111145 1.0298985242843628 0.38900697231292725 65.0 11 -0.0033436331432312727
1.477419376373291 0.5078510046005249 -0.1918223649263382 32.0 4 -0.003341329051181674
3.0022034645080566 1.0313990116119385 0.5027804374694824 62.0 12 -0.003339025191962719
1.4604148864746094 0.5014366507530212 -0.1350913941860199 54.0 5 -0.0033367210999131203
3.0157060623168945 1.0348594188690186 0.6197476387023926 61.0 13 -0.0033344170078635216
1.456602931022644 0.49955877661705017 -0.0807020515203476 55.0 6 -0.003332112915813923
3.01202392578125 1.033008337020874 0.7351400852203369 61.0 14 -0.003329809056594968
1.4527919292449951 0.4979691505432129 -0.026806894689798355 45.0 7 -0.003327505197376013
3.011864185333252 1.0317788124084473 0.8530676364898682 69.0 15 -0.003325201105326414
2.918048143386841 0.9956584572792053 -0.8261504173278809 64.0 0 -0.003304464975371957
1.4668209552764893 0.5002046227455139 0.027051230892539024 22.0 8 -0.003302161116153002
2.934685707092285 1.0001919269561768 -0.7157943248748779 61.0 1 -0.003299857024103403
2.998300075531006 1.0218727588653564 0.16600966453552246 59.0 9 -0.0032975529320538044
2.9381349086761475 1.0007951259613037 -0.6033380627632141 72.0 2 -0.0032952490728348494
2.9932308197021484 1.0189807415008545 0.2766323387622833 61.0 10 -0.0032929449807852507
2.943537473678589 1.0014889240264893 -0.49245578050613403 69.0 3 -0.0032906411215662956
3.0108139514923096 1.0237923860549927 0.39046943187713623 65.0 11 -0.003288337029516697
1.4809746742248535 0.5035882592201233 -0.19206610321998596 42.0 4 -0.0032860329374670982
3.009347677230835 1.0227093696594238 0.5034061670303345 67.0 12 -0.003283729078248143
1.4545236825942993 0.49402761459350586 -0.13439415395259857 54.0 5 -0.0032814249861985445
3.0191211700439453 1.0248538255691528 0.6197476387023926 61.0 13 -0.0032791211269795895
1.4658169746398926 0.49729272723197937 -0.08112073689699173 57.0 6 -0.0032768170349299908
3.015432834625244 1.023015022277832 0.7351400852203369 60.0 14 -0.003274512942880392
1.4525415897369385 0.4925062358379364 -0.026771990582346916 52.0 7 -0.003272209083661437
3.009779691696167 1.019925832748413 0.8515146970748901 66.0 15 -0.0032699049916118383
2.9286556243896484 0.9884467124938965 -0.8282209634780884 64.0 0 -0.0032491690944880247
1.4533133506774902 0.49022412300109863 0.026771990582346916 30.0 8 -0.003246865002438426
2.932446241378784 0.9885875582695007 -0.7144445776939392 59.0 1 -0.003244561143219471
3.0018489360809326 1.011399745941162 0.16600966453552246 39.0 9 -0.0032422570511698723
2.9377169609069824 0.9897920489311218 -0.60257488489151 72.0 2 -0.0032399529591202736
2.9928171634674072 1.0077766180038452 0.2762836813926697 60.0 10 -0.0032376490999013186
2.93748140335083 0.9885725378990173 -0.4908914268016815 31.0 3 -0.00323534500785172
2.999140501022339 1.0087389945983887 0.3885194957256317 65.0 11 -0.003233041148632765
1.4883681535720825 0.5003133416175842 -0.19279730319976807 44.0 4 -0.003230737056583166
3.012899398803711 1.012197732925415 0.5034061670303345 67.0 12 -0.0032284329645335674
1.4561538696289062 0.48920175433158875 -0.13439415395259857 54.0 5 -0.0032261291053146124
3.013197660446167 1.0117112398147583 0.6178395748138428 60.0 13 -0.0032238250132650137
1.4598838090896606 0.48988789319992065 -0.0807020515203476 63.0 6 -0.0032215211540460587
3.039308786392212 1.0192996263504028 0.7400889992713928 63.0 14 -0.00321921706199646
1.4561480283737183 0.4880680441856384 -0.026806894689798355 58.0 7 -0.0032169129699468613
3.018817186355591 1.011255145072937 0.8530676364898682 67.0 15 -0.0032146091107279062
2.9302549362182617 0.9776084423065186 -0.8277033567428589 65.0 0 -0.003193872980773449
1.4531188011169434 0.4845152199268341 0.026737086474895477 46.0 8 -0.003191569121554494
2.930332899093628 0.9764963984489441 -0.7130948901176453 61.0 1 -0.003189265029504895
2.9411535263061523 0.9795334339141846 -0.60257488489151 64.0 2 -0.0031846570782363415
3.0038788318634033 0.9998398423194885 0.2769809365272522 59.0 10 -0.0031823529861867428
2.998875856399536 0.9970119595527649 0.38803204894065857 67.0 11 -0.003177745034918189
1.4750350713729858 0.49010714888572693 -0.19084741175174713 47.0 4 -0.003175441175699234
3.012665271759033 1.0004287958145142 0.5027804374694824 65.0 12 -0.0031731370836496353
1.459743618965149 0.4847433865070343 -0.1345684677362442 59.0 5 -0.0031708329916000366
3.020437002182007 1.0024243593215942 0.6186028122901917 60.0 13 -0.0031685291323810816
1.463480830192566 0.48541730642318726 -0.08080672472715378 64.0 6 -0.003166225040331483
3.035449266433716 1.0062305927276611 0.7382894158363342 70.0 14 -0.003163921181112528
1.4616392850875854 0.48424026370048523 -0.02687670662999153 61.0 7 -0.003161617089062929
3.025996685028076 1.0019248723983765 0.8541029095649719 67.0 15 -0.0031593129970133305
2.937319040298462 0.9685831069946289 -0.8287386298179626 65.0 0 -0.003138577099889517
1.4510027170181274 0.4781884551048279 0.0266672782599926 60.0 8 -0.003136273007839918
2.9300215244293213 0.9650430083274841 -0.712195098400116 63.0 1 -0.0031339689157903194
1.4740639925003052 0.4852181077003479 0.0813300833106041 3.0 9 -0.0031316650565713644
2.9370954036712646 0.9668046832084656 -0.6010483503341675 74.0 2 -0.0031293611973524094
3.007350444793701 0.9893488883972168 0.2769809365272522 60.0 10 -0.0031270571053028107
1.5218842029571533 0.500370442867279 -0.2537367343902588 5.0 3 -0.003124753013253212
3.0004515647888184 0.9859188199043274 0.3877882957458496 70.0 11 -0.0031224489212036133
1.4691929817199707 0.48247748613357544 -0.18987245857715607 47.0 4 -0.0031201450619846582
3.0142619609832764 0.9892911314964294 0.5024675726890564 71.0 12 -0.0031178409699350595
1.468998908996582 0.4821304976940155 -0.13526570796966553 57.0 5 -0.0031155371107161045
3.027648448944092 0.9930993914604187 0.6193659901618958 60.0 13 -0.003113233018666506
1.46896231174469 0.48154979944229126 -0.08101607114076614 64.0 6 -0.003110928926616907
3.0185725688934326 0.988955557346344 0.7333405017852783 65.0 14 -0.003108625067397952
1.457619309425354 0.477268785238266 -0.026771990582346916 67.0 7 -0.0031063209753483534
3.0331478118896484 0.9925569891929626 0.8551381826400757 69.0 15 -0.0031040171161293983
2.925987720489502 0.9535360336303711 -0.8245974779129028 61.0 0 -0.003083280986174941
1.4526633024215698 0.47312021255493164 0.0266672782599926 63.0 8 -0.003080977126955986
2.9370787143707275 0.9560149908065796 -0.7130948901176453 63.0 1 -0.0030786730349063873
1.4719500541687012 0.4788343608379364 0.08112073689699173 14.0 9 -0.0030763689428567886
2.936718225479126 0.9553323984146118 -0.6002851128578186 74.0 2 -0.0030740650836378336
2.9956276416778564 0.973916232585907 0.27558645606040955 60.0 10 -0.003071760991588235
1.523621678352356 0.49505460262298584 -0.2537367343902588 21.0 3 -0.00306945713236928
3.0057625770568848 0.97605299949646 0.38803204894065857 67.0 11 -0.003067153040319681
1.4784207344055176 0.47979751229286194 -0.19084741175174713 47.0 4 -0.0030648489482700825
3.0120599269866943 0.9769342541694641 0.5015289187431335 63.0 12 -0.0030625450890511274
1.4593018293380737 0.47331130504608154 -0.13421984016895294 59.0 5 -0.0030602409970015287
3.029228925704956 0.9819201231002808 0.6189844012260437 60.0 13 -0.0030579371377825737
1.4725341796875 0.4770350754261017 -0.08112073689699173 63.0 6 -0.003055633045732975
3.0201525688171387 0.9778116345405579 0.7328906059265137 63.0 14 -0.0030533289536833763
1.451666235923767 0.4697149991989136 -0.02663237228989601 71.0 7 -0.0030510250944644213
3.0255651473999023 0.9783974289894104 0.8520323038101196 70.0 15 -0.0030487210024148226
2.9182655811309814 0.9397629499435425 -0.8214917182922363 61.0 0 -0.003027985105291009
1.4409809112548828 0.46375852823257446 0.02642294391989708 55.0 8 -0.0030256810132414103
2.944108247756958 0.9469509124755859 -0.7139947414398193 63.0 1 -0.003023377154022455
1.479233980178833 0.4757848083972931 0.08143475651741028 22.0 9 -0.0030210730619728565
2.9456427097320557 0.9468771815299988 -0.6014299988746643 78.0 2 -0.003018768969923258
2.9990086555480957 0.9634543061256409 0.27558645606040955 61.0 10 -0.003016465110704303
1.523459553718567 0.4891296327114105 -0.25342386960983276 33.0 3 -0.003014161018654704
3.00537109375 0.9643411040306091 0.38754454255104065 66.0 11 -0.003011857159435749
1.4725253582000732 0.47220954298973083 -0.18987245857715607 44.0 4 -0.0030095530673861504
3.013401985168457 0.9663379788398743 0.5012161135673523 63.0 12 -0.0030072489753365517
1.4609451293945312 0.4682147800922394 -0.13421984016895294 49.0 5 -0.003004944883286953
3.023289918899536 0.9683451056480408 0.6170763373374939 60.0 13 -0.003002641024067998
1.4646793603897095 0.4688479006290436 -0.08059737831354141 60.0 6 -0.003000337164849043
3.0309715270996094 0.9696391820907593 0.7346901893615723 63.0 14 -0.002998033072799444
1.4455974102020264 0.4624616205692291 -0.026492753997445107 60.0 7 -0.0029957289807498455
3.021432399749756 0.9660062789916992 0.8499617576599121 67.0 15 -0.002993424888700247
2.93625545501709 0.9342555999755859 -0.8256327509880066 65.0 0 -0.002972688991576433
1.4367942810058594 0.4571581482887268 0.026318227872252464 47.0 8 -0.0029703848995268345
2.9398036003112793 0.9348210692405701 -0.712195098400116 64.0 1 -0.0029680810403078794
1.4732720851898193 0.46819838881492615 0.08101607114076614 31.0 9 -0.0029657771810889244
2.948930263519287 0.93658846616745 -0.6014299988746643 60.0 2 -0.0029634730890393257
3.0023534297943115 0.9529805779457092 0.27558645606040955 61.0 10 -0.002961168996989727
1.491182565689087 0.47331804037094116 -0.24779222905635834 38.0 3 -0.0029588649049401283
3.000983953475952 0.9519678950309753 0.3865695893764496 67.0 11 -0.0029565610457211733
1.4740831851959229 0.4673234820365906 -0.18987245857715607 46.0 4 -0.0029542571865022182
3.014873504638672 0.9552173614501953 0.5009031891822815 67.0 12 -0.0029519530944526196
1.4530733823776245 0.46010470390319824 -0.133348286151886 43.0 5 -0.002949649002403021
3.0227413177490234 0.9571281671524048 0.616313099861145 60.0 13 -0.002947344910353422
1.4586094617843628 0.46157756447792053 -0.08017869293689728 49.0 6 -0.002945041051134467
3.0360279083251953 0.9601710438728333 0.7351400852203369 65.0 14 -0.002942737191915512
1.4548299312591553 0.4598229229450226 -0.02663237228989601 60.0 7 -0.0029404330998659134
3.028470516204834 0.9566165804862976 0.8509970307350159 69.0 15 -0.0029381290078163147
2.9356513023376465 0.9233562350273132 -0.8245974779129028 65.0 0 -0.002917393110692501
1.4364736080169678 0.45154067873954773 0.026283323764801025 52.0 8 -0.0029150890186429024
2.935612440109253 0.9222165942192078 -0.7103955149650574 64.0 1 -0.0029127849265933037
1.4501252174377441 0.4552757740020752 0.07965533435344696 31.0 9 -0.0029104810673743486
2.9707508087158203 0.9326856136322021 -0.6052461862564087 9.0 2 -0.0029081772081553936
3.0054972171783447 0.94301837682724 0.27558645606040955 61.0 10 -0.002905873116105795
1.4852863550186157 0.46574535965919495 -0.24654075503349304 55.0 3 -0.002903569024056196
2.996711492538452 0.9391127228736877 0.38559460639953613 67.0 11 -0.0029012649320065975
1.4624449014663696 0.4580223560333252 -0.1881662756204605 52.0 4 -0.0028989610727876425
3.0257303714752197 0.9470470547676086 0.5021546483039856 65.0 12 -0.0028966572135686874
1.4469853639602661 0.45290330052375793 -0.13265103101730347 46.0 5 -0.0028943531215190887
3.027937173843384 0.9471576809883118 0.6166946887969971 60.0 13 -0.00289204902946949
1.4468677043914795 0.45231205224990845 -0.07944599539041519 43.0 6 -0.0028897449374198914
3.0263407230377197 0.9454987049102783 0.7319908142089844 62.0 14 -0.0028874410782009363
1.4564259052276611 0.4547421336174011 -0.02663237228989601 50.0 7 -0.0028851372189819813
3.0354793071746826 0.9471909999847412 0.8520323038101196 69.0 15 -0.0028828331269323826
2.9443912506103516 0.9148221015930176 -0.8261504173278809 64.0 0 -0.002862097229808569
1.434221625328064 0.44533732533454895 0.026213515549898148 52.0 8 -0.0028597931377589703
2.942535877227783 0.9131194949150085 -0.7112953066825867 64.0 1 -0.0028574890457093716
1.4497978687286377 0.449619859457016 0.07955066114664078 37.0 9 -0.002855184953659773
1.5226218700408936 0.47220444679260254 -0.3098738193511963 0.0 2 -0.002852881094440818
3.0201895236968994 0.9360595941543579 0.2766323387622833 52.0 10 -0.002850577002391219
1.4887897968292236 0.4611426889896393 -0.24685361981391907 45.0 3 -0.002848273143172264
3.009453058242798 0.9315823912620544 0.38681334257125854 70.0 11 -0.0028459690511226654
1.4716205596923828 0.4552609622478485 -0.18914122879505157 43.0 4 -0.0028436649590730667
3.0176944732666016 0.9329778552055359 0.5002774596214294 67.0 12 -0.0028413610998541117
1.4523645639419556 0.4490262269973755 -0.13299965858459473 52.0 5 -0.002839057007804513
3.0349762439727783 0.9377421736717224 0.617457926273346 62.0 13 -0.002836753148585558
1.4503462314605713 0.4478476643562317 -0.07955066114664078 42.0 6 -0.0028344490565359592
3.020312547683716 0.9320550560951233 0.7297412753105164 65.0 14 -0.0028321449644863605
1.4236085414886475 0.4390479326248169 -0.026004087179899216 30.0 7 -0.0028298411052674055
3.0387673377990723 0.9365885853767395 0.8520323038101196 70.0 15 -0.002827537013217807
2.962341785430908 0.9090720415115356 -0.8302915096282959 15.0 0 -0.0028068008832633495
1.4242963790893555 0.43681132793426514 0.026004087179899216 46.0 8 -0.0028044970240443945
2.9457056522369385 0.9028417468070984 -0.7112953066825867 57.0 1 -0.0028021931648254395
1.4418102502822876 0.4416312575340271 0.07902730256319046 39.0 9 -0.0027998890727758408
1.520506739616394 0.4657362997531891 -0.3091106116771698 14.0 2 -0.002797584980726242
1.5036133527755737 0.4599877595901489 -0.24904370307922363 38.0 3 -0.0027929770294576883
3.0126867294311523 0.92107093334198 0.38681334257125854 68.0 11 -0.0027906731702387333
1.4769974946975708 0.45128241181373596 -0.1896287202835083 42.0 4 -0.0027883690781891346
3.019043445587158 0.9218621850013733 0.4999645948410034 70.0 12 -0.002786064986139536
1.4386787414550781 0.43929925560951233 -0.13160517811775208 50.0 5 -0.002783760894089937
3.034475803375244 0.9259955286979675 0.6166946887969971 61.0 13 -0.002781457034870982
1.4499900341033936 0.4422006905078888 -0.07944599539041519 44.0 6 -0.002779153175652027
3.029139757156372 0.9232116341590881 0.7310910224914551 68.0 14 -0.0027768490836024284
1.4308712482452393 0.4358234703540802 -0.026108799502253532 51.0 7 -0.0027745449915528297
3.034626007080078 0.9237245917320251 0.8499617576599121 69.0 15 -0.002772240899503231
1.4181572198867798 0.4295179843902588 0.02586446702480316 54.0 8 -0.0027492009103298187
1.4490779638290405 0.43833082914352417 0.07934131473302841 41.0 9 -0.0027445931918919086
1.524002194404602 0.4609946012496948 -0.30949220061302185 29.0 2 -0.00274228909984231
1.4856714010238647 0.4491170048713684 0.13578864932060242 0.0 10 -0.0027399850077927113
1.5033189058303833 0.45416468381881714 -0.2487308233976364 39.0 3 -0.0027376809157431126
3.019684076309204 0.9116972088813782 0.3873008191585541 70.0 11 -0.0027353770565241575
1.4671610593795776 0.44268307089805603 -0.1881662756204605 38.0 4 -0.0027330731973052025
3.0279171466827393 0.9130282402038574 0.5009031891822815 73.0 12 -0.002730769105255604
1.4382959604263306 0.4336990714073181 -0.13143084943294525 55.0 5 -0.002728465013206005
3.0339300632476807 0.9142653942108154 0.6159314513206482 60.0 13 -0.0027261609211564064
1.4572620391845703 0.43886399269104004 -0.07976000756025314 51.0 6 -0.0027238570619374514
3.034210205078125 0.9131931066513062 0.731540858745575 66.0 14 -0.0027215532027184963
1.4323837757110596 0.43082648515701294 -0.026108799502253532 59.0 7 -0.0027192491106688976
3.02673077583313 0.9097915887832642 0.8468559384346008 70.0 15 -0.002716945018619299
1.4196795225143433 0.4243049621582031 -0.3970284163951874 2.0 0 -0.0026526451110839844
1.4178798198699951 0.4234967827796936 0.025829561054706573 47.0 8 -0.0026503410190343857
1.4639846086502075 0.4369892477989197 -0.35272327065467834 0.0 1 -0.0026480371598154306
1.4525887966156006 0.4335876703262329 0.07944599539041519 44.0 9 -0.002645733067765832
1.47496497631073 0.4399872124195099 -0.2991885244846344 20.0 2 -0.002643429208546877
1.5083879232406616 0.4496699869632721 0.13770607113838196 7.0 10 -0.002641125116497278
1.4861201047897339 0.4427492618560791 -0.24560213088989258 32.0 3 -0.0026388210244476795
3.0060391426086426 0.8949984312057495 0.385107159614563 67.0 11 -0.0026365171652287245
1.4763836860656738 0.43956881761550903 -0.18914122879505157 46.0 4 -0.002634213073179126
3.0255627632141113 0.9002348780632019 0.4999645948410034 68.0 12 -0.0026319092139601707
1.438040852546692 0.4276057183742523 -0.13125655055046082 54.0 5 -0.002629605121910572
3.0317723751068115 0.900932252407074 0.6147866249084473 58.0 13 -0.0026273010298609734
1.4397903680801392 0.42757901549339294 -0.07871328294277191 49.0 6 -0.0026249971706420183
3.0431408882141113 0.9037310481071472 0.7328906059265137 67.0 14 -0.0026226930785924196
1.4435384273529053 0.42841798067092896 -0.026283323764801025 54.0 7 -0.0026203892193734646
3.0337491035461426 0.8997912406921387 0.8478912711143494 69.0 15 -0.002618085127323866
1.4118149280548096 0.41685906052589417 -0.394440233707428 20.0 0 -0.0025973489973694086
1.42503023147583 0.42049074172973633 0.02593427523970604 45.0 8 -0.0025950451381504536
1.4149583578109741 0.41724956035614014 -0.3405759036540985 8.0 1 -0.002592741046100855
1.446355938911438 0.42650824785232544 0.07902730256319046 44.0 9 -0.0025904371868819
1.4406355619430542 0.4245488941669464 -0.29193776845932007 35.0 2 -0.002588133094832301
1.486936092376709 0.43791139125823975 0.1356143355369568 16.0 10 -0.0025858290027827024
1.4572601318359375 0.428894579410553 -0.2405962347984314 43.0 3 -0.0025835251435637474
3.0127992630004883 0.8861444592475891 0.38559460639953613 67.0 11 -0.0025812210515141487
1.4664069414138794 0.4313092827796936 -0.18767879903316498 48.0 4 -0.0025789171922951937
3.036112070083618 0.8924256563186646 0.5012161135673523 70.0 12 -0.002576613100245595
1.4470975399017334 0.42508038878440857 -0.13195379078388214 50.0 5 -0.0025743090081959963
3.034743547439575 0.8908727765083313 0.6147866249084473 58.0 13 -0.0025720051489770412
1.4641982316970825 0.42954933643341064 -0.07996935397386551 51.0 6 -0.0025697010569274426
3.040511131286621 0.891989529132843 0.731540858745575 65.0 14 -0.0025673971977084875
1.4449512958526611 0.4236282706260681 -0.026283323764801025 56.0 7 -0.002565093105658889
3.040424346923828 0.8908116221427917 0.8489265441894531 67.0 15 -0.00256278901360929
1.407625675201416 0.41055259108543396 -0.3928873538970947 24.0 0 -0.0025420531164854765
1.4187376499176025 0.41352415084838867 0.025794656947255135 43.0 8 -0.002539749024435878
1.4182049036026 0.41310104727745056 -0.34102579951286316 28.0 1 -0.0025374451652169228
1.4344120025634766 0.41755038499832153 0.07829459756612778 41.0 9 -0.002535141073167324
1.4250702857971191 0.4148310720920563 -0.2885032296180725 39.0 2 -0.002532837213948369
1.4864670038223267 0.4324212074279785 0.13544002175331116 23.0 10 -0.0025305331218987703
1.4510867595672607 0.42185497283935547 -0.2393447607755661 49.0 3 -0.0025282290298491716
3.00809645652771 0.8739342093467712 0.38461968302726746 67.0 11 -0.0025259251706302166
1.4793418645858765 0.4295084774494171 -0.18914122879505157 49.0 4 -0.002523621078580618
3.031620502471924 0.8796195983886719 0.4999645948410034 70.0 12 -0.002521317219361663
1.4695472717285156 0.42638668417930603 -0.13387121260166168 55.0 5 -0.002519013127312064
3.041451930999756 0.8818982839584351 0.6155498623847961 58.0 13 -0.0025167090352624655
1.4790430068969727 0.42858222126960754 -0.0807020515203476 55.0 6 -0.0025144051760435104
3.036119222640991 0.8792017102241516 0.7297412753105164 65.0 14 -0.0025121010839939117
1.4348957538604736 0.4152475595474243 -0.026073895394802094 56.0 7 -0.002509796991944313
3.043515682220459 0.8801922798156738 0.8489265441894531 70.0 15 -0.002507493132725358
1.392342209815979 0.40082627534866333 -0.3882285952568054 27.0 0 -0.0024867570027709007
1.4144072532653809 0.40691104531288147 0.02568994276225567 51.0 8 -0.0024844531435519457
1.4215112924575806 0.40868619084358215 -0.3414757251739502 45.0 1 -0.002482149051502347
1.4358608722686768 0.41254040598869324 0.07829459756612778 45.0 9 -0.002479845192283392
1.4189621210098267 0.40768519043922424 -0.28697675466537476 45.0 2 -0.0024775411002337933
1.4803072214126587 0.42503076791763306 0.13474278151988983 28.0 10 -0.0024752370081841946
1.4601455926895142 0.41896605491638184 -0.2405962347984314 49.0 3 -0.0024729331489652395
3.0244860649108887 0.8672579526901245 0.3863258361816406 70.0 11 -0.002470629056915641
1.4770153760910034 0.42324864864349365 -0.18865376710891724 46.0 4 -0.002468325197696686
3.019479990005493 0.8646818995475769 0.4974616467952728 68.0 12 -0.002466021105647087
1.4806036949157715 0.42399728298187256 -0.13474278151988983 52.0 5 -0.0024637170135974884
3.0445117950439453 0.8712754249572754 0.6155498623847961 58.0 13 -0.0024614131543785334
1.4843705892562866 0.4245154559612274 -0.08091139793395996 61.0 6 -0.0024591090623289347
3.033548355102539 0.8669924736022949 0.7283915877342224 63.0 14 -0.0024568052031099796
1.438259482383728 0.41078510880470276 -0.026108799502253532 57.0 7 -0.002454501111060381
3.0428543090820312 0.8685017228126526 0.8478912711143494 72.0 15 -0.0024521970190107822
1.3900161981582642 0.39490804076194763 -0.3871932923793793 30.0 0 -0.0024314611218869686
1.4081242084503174 0.3997870087623596 0.025550324469804764 51.0 8 -0.00242915702983737
1.4173051118850708 0.4021255671977997 -0.34012600779533386 50.0 1 -0.002426853170618415
1.4410640001296997 0.4088665843009949 0.07850394397974014 57.0 9 -0.002424549078568816
1.4184876680374146 0.40219438076019287 -0.2865951359272003 48.0 2 -0.002422245219349861
1.460695505142212 0.41388648748397827 0.1328253448009491 30.0 10 -0.0024199411273002625
1.4501954317092896 0.41063714027404785 -0.23871901631355286 49.0 3 -0.0024176370352506638
3.029404878616333 0.857236385345459 0.3865695893764496 75.0 11 -0.0024153331760317087
1.470842957496643 0.41592997312545776 -0.18767879903316498 44.0 4 -0.00241302908398211
3.0223302841186523 0.8546648025512695 0.4974616467952728 60.0 12 -0.002410725224763155
1.4801573753356934 0.41828417778015137 -0.1345684677362442 49.0 5 -0.0024084211327135563
3.0456454753875732 0.8601099252700806 0.6151682734489441 60.0 13 -0.0024061170406639576
1.4973763227462769 0.4225866198539734 -0.08153942972421646 53.0 6 -0.0024038131814450026
3.0421831607818604 0.857984185218811 0.7297412753105164 66.0 14 -0.002401509089395404
1.439613938331604 0.40601298213005066 -0.026108799502253532 59.0 7 -0.002399205230176449
3.0382792949676514 0.8563123345375061 0.8458206653594971 72.0 15 -0.00239690113812685
1.3913863897323608 0.3900532126426697 -0.3871932923793793 31.0 0 -0.0023761652410030365
1.40944242477417 0.395114928483963 0.025550324469804764 50.0 8 -0.002373861148953438
1.4017422199249268 0.3926924765110016 -0.33607688546180725 46.0 1 -0.002371557056903839
1.4444055557250977 0.40437260270118713 0.07860861718654633 51.0 9 -0.002369253197684884
1.4198830127716064 0.3972401022911072 -0.2865951359272003 48.0 2 -0.0023669491056352854
1.4698067903518677 0.41093066334724426 0.13352259993553162 34.0 10 -0.0023646450135856867
1.4420368671417236 0.4031667113304138 -0.23715467751026154 47.0 3 -0.0023623411543667316
3.015024185180664 0.8423774242401123 0.3843759298324585 70.0 11 -0.002360037062317133
1.4683903455734253 0.4099821150302887 -0.18719132244586945 48.0 4 -0.002357733203098178
3.034808874130249 0.8467633128166199 0.49902600049972534 82.0 12 -0.002355429111048579
1.4777700901031494 0.41204503178596497 -0.13421984016895294 49.0 5 -0.0023531250189989805
3.0333521366119385 0.8457862138748169 0.6121153235435486 61.0 13 -0.0023508211597800255
1.4949215650558472 0.41654616594314575 -0.0813300833106041 45.0 6 -0.002348517067730427
3.045011520385742 0.8478918671607971 0.7297412753105164 65.0 14 -0.0023462132085114717
1.4525812864303589 0.40420210361480713 -0.026318227872252464 61.0 7 -0.002343909116461873
3.0449726581573486 0.8467358350753784 0.8468559384346008 72.0 15 -0.0023416050244122744
1.3926721811294556 0.38543733954429626 -0.3871932923793793 41.0 0 -0.0023208691272884607
1.4127401113510132 0.3907259702682495 0.025585228577256203 46.0 8 -0.002318565035238862
1.3937127590179443 0.38520166277885437 -0.3338273763656616 48.0 1 -0.002316261176019907
1.4419578313827515 0.39826500415802 0.07839927077293396 44.0 9 -0.0023139570839703083
1.4211924076080322 0.3925296664237976 -0.2865951359272003 51.0 2 -0.0023116529919207096
1.4653998613357544 0.40446364879608154 0.13299965858459473 42.0 10 -0.0023093491327017546
1.4434353113174438 0.3981309235095978 -0.23715467751026154 42.0 3 -0.002307045040652156
3.010291337966919 0.8297386169433594 0.38340097665786743 70.0 11 -0.002304741181433201
1.458329677581787 0.40169063210487366 -0.18572889268398285 46.0 4 -0.002302437089383602
3.043459892272949 0.8377380967140198 0.4999645948410034 70.0 12 -0.0023001329973340034
1.4810491800308228 0.40767133235931396 -0.13439415395259857 52.0 5 -0.0022978291381150484
3.040072202682495 0.8362332582473755 0.6128785014152527 62.0 13 -0.0022955250460654497
1.4751825332641602 0.4055018723011017 -0.08017869293689728 36.0 6 -0.0022932211868464947
3.040435791015625 0.835193395614624 0.727941632270813 66.0 14 -0.002290917094796896
1.4501267671585083 0.3980700969696045 -0.026248419657349586 61.0 7 -0.0022886130027472973
3.04790997505188 0.8361009955406189 0.8468559384346008 69.0 15 -0.0022863091435283422
1.3921452760696411 0.3800651431083679 -0.3866756856441498 51.0 0 -0.002265573013573885
1.4140955209732056 0.3857918083667755 0.025585228577256203 52.0 8 -0.00226326915435493
1.395048975944519 0.3803340196609497 -0.3338273763656616 50.0 1 -0.0022609650623053312
1.4394851922988892 0.39217954874038696 0.0781899243593216 42.0 9 -0.002258661203086376
1.403611660003662 0.38240599632263184 -0.28277894854545593 47.0 2 -0.0022563571110367775
1.4725699424743652 0.4009164273738861 0.13352259993553162 45.0 10 -0.002254053018987179
1.4371920824050903 0.3910152316093445 -0.23590318858623505 42.0 3 -0.0022517491597682238
3.020831346511841 0.8213095664978027 0.3843759298324585 70.0 11 -0.002249445067718625
1.4558916091918945 0.3955570459365845 -0.18524141609668732 38.0 4 -0.00224714120849967
3.0368337631225586 0.8245205283164978 0.4984002709388733 73.0 12 -0.0022448371164500713
1.4824632406234741 0.40249863266944885 -0.13439415395259857 54.0 5 -0.0022425330244004726
3.0467617511749268 0.8266451358795166 0.6136417388916016 60.0 13 -0.0022402291651815176
1.4688782691955566 0.3982597589492798 -0.07976000756025314 30.0 6 -0.002237925073131919
3.035809278488159 0.8225359916687012 0.7261420488357544 66.0 14 -0.002235621213912964
1.4457166194915771 0.39143821597099304 -0.02614370360970497 50.0 7 -0.002233317121863365
3.054539203643799 0.8264665007591248 0.8478912711143494 69.0 15 -0.0022310130298137665
1.378540277481079 0.37118473649024963 -0.38253456354141235 51.0 0 -0.002210277132689953
1.4173645973205566 0.38137325644493103 0.02562013268470764 47.0 8 -0.002207973040640354
1.3944861888885498 0.37495630979537964 -0.333377480506897 47.0 1 -0.002205669181421399
1.4350589513778687 0.38559719920158386 0.07787591218948364 42.0 9 -0.0022033650893718004
1.4049381017684937 0.37750378251075745 -0.28277894854545593 55.0 2 -0.0022010612301528454
1.4662635326385498 0.39370667934417725 0.1328253448009491 45.0 10 -0.0021987571381032467
1.430916666984558 0.38394874334335327 -0.23465172946453094 30.0 3 -0.002196453046053648
3.0294322967529297 0.8123014569282532 0.385107159614563 66.0 11 -0.002194149186834693
1.4630159139633179 0.3920135796070099 -0.18597263097763062 21.0 4 -0.0021918450947850943
3.0320608615875244 0.8118719458580017 0.4971488118171692 65.0 12 -0.0021895412355661392
1.4684624671936035 0.39319905638694763 -0.13299965858459473 54.0 5 -0.0021872371435165405
3.0591113567352295 0.8185428977012634 0.6155498623847961 55.0 13 -0.002184933051466942
1.4779775142669678 0.3951932489871979 -0.08017869293689728 38.0 6 -0.002182629192247987
3.0405445098876953 0.8124377131462097 0.7265920042991638 58.0 14 -0.002180325100198388
1.4316182136535645 0.3822627365589142 -0.02586446702480316 42.0 7 -0.002178021240979433
3.0499396324157715 0.8138061165809631 0.8458206653594971 70.0 15 -0.0021757171489298344
1.379827618598938 0.3663700819015503 -0.38253456354141235 54.0 0 -0.0021549812518060207
1.4206198453903198 0.37693652510643005 0.02565503679215908 44.0 8 -0.002152677159756422
1.401437520980835 0.37158429622650146 -0.3347271978855133 49.0 1 -0.0021503730677068233
1.4383269548416138 0.381096750497818 0.07798058539628983 43.0 9 -0.0021480689756572247
1.3986562490463257 0.3705856502056122 -0.2812524735927582 55.0 2 -0.0021457651164382696
1.4579986333847046 0.38603731989860535 0.13195379078388214 44.0 10 -0.002143461024388671
1.4169708490371704 0.37490901350975037 -0.23214878141880035 17.0 3 -0.002141157165169716
3.0341687202453613 0.8022283911705017 0.38535091280937195 62.0 11 -0.002138853073120117
1.4662944078445435 0.3874123990535736 -0.18621638417243958 6.0 4 -0.0021365489810705185
3.0272367000579834 0.7992652058601379 0.4958972930908203 75.0 12 -0.0021342451218515635
1.4659733772277832 0.38705313205718994 -0.13265103101730347 46.0 5 -0.0021319410298019648
3.0486621856689453 0.8043529391288757 0.6128785014152527 62.0 13 -0.0021296371705830097
1.4542412757873535 0.3834134042263031 -0.0788179561495781 45.0 6 -0.002127333078533411
3.0716288089752197 0.8092657327651978 0.7333405017852783 81.0 14 -0.0021250289864838123
1.4310100078582764 0.3767535388469696 -0.025829561054706573 40.0 7 -0.0021227251272648573
3.04715633392334 0.8016822934150696 0.844267725944519 74.0 15 -0.0021204210352152586
1.3810980319976807 0.3615516424179077 -0.38253456354141235 54.0 0 -0.002099685138091445
1.4141886234283447 0.3699505925178528 0.025515416637063026 46.0 8 -0.0020973810460418463
1.389528512954712 0.36323970556259155 -0.331577867269516 51.0 1 -0.0020950771868228912
1.4589725732803345 0.381121963262558 0.07902730256319046 44.0 9 -0.0020927730947732925
1.4075393676757812 0.36768627166748047 -0.28277894854545593 59.0 2 -0.002090469002723694
1.4651206731796265 0.38245490193367004 0.13247673213481903 45.0 10 -0.002088165143504739
0.5810706615447998 0.15157398581504822 -0.09511216729879379 3.0 3 -0.00208586105145514
3.0177412033081055 0.7866257429122925 0.3829135298728943 32.0 11 -0.002083557192236185
0.6646632552146912 0.17313192784786224 -0.08433359116315842 3.0 4 -0.0020812531001865864
3.0472137928009033 0.7931709289550781 0.4987131357192993 72.0 12 -0.0020789490081369877
1.475028157234192 0.38394075632095337 -0.133348286151886 20.0 5 -0.0020766451489180326
3.040050745010376 0.7907415628433228 0.610588788986206 63.0 13 -0.002074341056868434
1.4439728260040283 0.37531983852386475 -0.0781899243593216 37.0 6 -0.002072037197649479
3.05368709564209 0.7931489944458008 0.7283915877342224 67.0 14 -0.0020697331055998802
1.4400585889816284 0.3737659156322479 -0.025969181209802628 45.0 7 -0.0020674290135502815
3.0443263053894043 0.7895850539207458 0.8427148461341858 72.0 15 -0.0020651251543313265
1.3823517560958862 0.3567281663417816 -0.38253456354141235 51.0 0 -0.002044389024376869
1.4154713153839111 0.36501219868659973 0.025515416637063026 45.0 8 -0.002042085165157914
1.3870134353637695 0.3574155271053314 -0.3306780755519867 51.0 1 -0.0020397810731083155
1.4544916152954102 0.3745323419570923 0.07871328294277191 48.0 9 -0.0020374772138893604
1.4088143110275269 0.3627704381942749 -0.28277894854545593 55.0 2 -0.0020351731218397617
1.4780240058898926 0.38031694293022156 0.13352259993553162 51.0 10 -0.002032869029790163
0.5815960764884949 0.14954514801502228 -0.09511216729879379 26.0 3 -0.002030565170571208
3.0204689502716064 0.7760862708091736 0.3829135298728943 60.0 11 -0.0020282610785216093
0.6075817346572876 0.15600043535232544 -0.07702143490314484 18.0 4 -0.0020259572193026543
3.040396213531494 0.780076801776886 0.4971488118171692 57.0 12 -0.0020236531272530556
1.487938404083252 0.3817615211009979 -0.13439415395259857 6.0 5 -0.002021349035203457
3.0465965270996094 0.7810993790626526 0.6113520860671997 62.0 13 -0.002019045175984502
1.4472088813781738 0.37077245116233826 -0.07829459756612778 16.0 6 -0.002016741083934903
3.0488853454589844 0.7805536985397339 0.7265920042991638 63.0 14 -0.002014437224715948
1.4452292919158936 0.36972776055336 -0.026038991287350655 40.0 7 -0.0020121331326663494
3.0582942962646484 0.7818236351013184 0.8458206653594971 72.0 15 -0.0020098290406167507
1.3910772800445557 0.35380637645721436 -0.3846051096916199 56.0 0 -0.001989093143492937
1.432241678237915 0.3640092611312866 0.025794656947255135 44.0 8 -0.0019867890514433384
1.3844752311706543 0.35161203145980835 -0.3297782838344574 52.0 1 -0.0019844851922243834
1.4499180316925049 0.368232399225235 0.07839927077293396 44.0 9 -0.0019821811001747847
1.402459979057312 0.35591980814933777 -0.2812524735927582 55.0 2 -0.0019798772409558296
1.4812736511230469 0.37564539909362793 0.13369689881801605 58.0 10 -0.001977573148906231
0.5840293765068054 0.14799915254116058 -0.09542503207921982 30.0 3 -0.0019752690568566322
3.0308563709259033 0.7674893736839294 0.38388845324516296 72.0 11 -0.001972965197637677
0.5831048488616943 0.14754830300807953 -0.07385282218456268 56.0 4 -0.0019706611055880785
3.0314762592315674 0.7670819163322449 0.49527156352996826 67.0 12 -0.0019683572463691235
0.5987953543663025 0.1514074206352234 -0.05403655767440796 8.0 5 -0.0019660531543195248
3.049304723739624 0.7704592347145081 0.6113520860671997 63.0 13 -0.001963749062269926
3.0421440601348877 0.7675219178199768 0.7243424654006958 65.0 14 -0.0019591411110013723
1.4445085525512695 0.3644442558288574 -0.026004087179899216 37.0 7 -0.0019568372517824173
3.057123899459839 0.7707322835922241 0.8447853922843933 70.0 15 -0.0019545331597328186
1.3773127794265747 0.3451909124851227 -0.38046398758888245 56.0 0 -0.0019337970297783613
1.4450790882110596 0.362174928188324 0.026004087179899216 45.0 8 -0.0019314931705594063
1.4045372009277344 0.3517528474330902 -0.33427727222442627 51.0 1 -0.0019291890785098076
1.4570070505142212 0.36462393403053284 0.07871328294277191 41.0 9 -0.0019268851028755307
1.4017895460128784 0.3505454957485199 -0.28087085485458374 57.0 2 -0.0019245811272412539
1.474844217300415 0.36854004859924316 0.13299965858459473 49.0 10 -0.0019222770351916552
0.5826005935668945 0.14558260142803192 -0.09511216729879379 33.0 3 -0.0019199731759727001
3.0372369289398193 0.7583954930305481 0.3843759298324585 68.0 11 -0.0019176690839231014
0.5989992618560791 0.14945855736732483 -0.07580273598432541 100.0 4 -0.0019153651082888246
3.028385639190674 0.7550609111785889 0.4943329691886902 65.0 12 -0.0019130611326545477
0.5973869562149048 0.14883477985858917 -0.05386224761605263 33.0 5 -0.001910757040604949
3.055652141571045 0.7612943649291992 0.6121153235435486 62.0 13 -0.001908453181385994
0.6143777370452881 0.15295405685901642 -0.033180996775627136 10.0 6 -0.0019061490893363953
3.0503456592559814 0.7588400840759277 0.7256921529769897 63.0 14 -0.0019038451137021184
1.4360684156417847 0.35698795318603516 -0.025829561054706573 10.0 7 -0.0019015411380678415
3.0485455989837646 0.7572640180587769 0.841679573059082 70.0 15 -0.0018992370460182428
1.3784500360488892 0.34062129259109497 -0.38046398758888245 54.0 0 -0.0018785011488944292
1.4443931579589844 0.35664868354797363 0.025969181209802628 24.0 8 -0.0018761970568448305
1.4019724130630493 0.3459153175354004 -0.333377480506897 52.0 1 -0.0018738931976258755
1.4737845659255981 0.3633602559566498 0.07955066114664078 29.0 9 -0.0018715891055762768
1.4105689525604248 0.3477745056152344 -0.2823973298072815 57.0 2 -0.001869285129942
1.4760582447052002 0.36364758014678955 0.13299965858459473 36.0 10 -0.001866981154307723
0.5792689323425293 0.1426040530204773 -0.09448643028736115 41.0 3 -0.0018646770622581244
3.039865732192993 0.7477880716323853 0.3843759298324585 28.0 11 -0.0018623730866238475
0.5898788571357727 0.14499734342098236 -0.07458404451608658 100.0 4 -0.0018600691109895706
3.042512893676758 0.7473130822181702 0.4962101876735687 60.0 12 -0.0018577651353552938
0.5901376605033875 0.14495177567005157 -0.053164999932050705 100.0 5 -0.0018554611597210169
3.0544779300689697 0.7496868371963501 0.6113520860671997 63.0 13 -0.0018531570676714182
0.6207273006439209 0.15223559737205505 -0.033495016396045685 34.0 6 -0.0018508530920371413
3.054868698120117 0.7486522793769836 0.7261420488357544 65.0 14 -0.0018485491164028645
0.5788069367408752 0.14174030721187592 -0.010401634499430656 5.0 7 -0.0018462450243532658
3.041788101196289 0.7443212866783142 0.8390913605690002 74.0 15 -0.0018439411651343107
1.3871389627456665 0.3376346826553345 -0.38253456354141235 56.0 0 -0.0018232050351798534
1.4534014463424683 0.3534952998161316 0.026108799502253532 6.0 8 -0.0018209011759608984
1.3880224227905273 0.33733728528022766 -0.3297782838344574 52.0 1 -0.0018185970839112997
1.4789257049560547 0.3591558635234833 0.07976000756025314 11.0 9 -0.0018162931082770228
1.4079588651657104 0.3419215977191925 -0.2816340923309326 57.0 2 -0.001813989132642746
1.4850633144378662 0.3603726327419281 0.13369689881801605 35.0 10 -0.0018116850405931473
0.5759236812591553 0.13965000212192535 -0.0938606932759285 42.0 3 -0.0018093811813741922
0.605816125869751 0.14667445421218872 -0.07653395086526871 100.0 4 -0.0018047731136903167
3.0508625507354736 0.7380822896957397 0.4971488118171692 16.0 12 -0.0018024691380560398
0.5925766229629517 0.14335955679416656 -0.053339313715696335 100.0 5 -0.0018001650460064411
3.045626640319824 0.7362513542175293 0.6090623736381531 62.0 13 -0.001797861186787486
0.6096063256263733 0.14725427329540253 -0.032866984605789185 89.0 6 -0.0017955570947378874
3.0650405883789062 0.7398138046264648 0.727941632270813 66.0 14 -0.0017932531191036105
0.6065136194229126 0.1462828665971756 -0.010890301316976547 21.0 7 -0.0017909491434693336
3.055636167526245 0.7364152669906616 0.8421972393989563 76.0 15 -0.001788645051419735
1.3920660018920898 0.33369219303131104 -0.3835698664188385 56.0 0 -0.0017679091542959213
0.6436917781829834 0.15418027341365814 0.011553493328392506 12.0 8 -0.0017656050622463226
1.3891913890838623 0.3324904441833496 -0.3297782838344574 53.0 1 -0.0017633010866120458
0.594399094581604 0.14215438067913055 0.03202961012721062 1.0 9 -0.001760997110977769
1.4205999374389648 0.3397456705570221 -0.28392380475997925 53.0 2 -0.001758693135343492
1.4901878833770752 0.35611239075660706 0.1340455263853073 35.0 10 -0.0017563891597092152
0.586014449596405 0.13993261754512787 -0.09542503207921982 48.0 3 -0.0017540850676596165
3.093284845352173 0.7380655407905579 0.39046943187713623 1.0 11 -0.0017517810920253396
0.5947386622428894 0.14179643988609314 -0.07507152855396271 100.0 4 -0.0017494771163910627
3.0514988899230957 0.7269696593284607 0.4968359172344208 3.0 12 -0.001747173024341464
0.6008260250091553 0.14313696324825287 -0.05403655767440796 100.0 5 -0.001744869165122509
3.071096420288086 0.7310721278190613 0.6136417388916016 42.0 13 -0.0017425650730729103
0.6178889274597168 0.14697402715682983 -0.03328566998243332 100.0 6 -0.0017402610974386334
3.054332971572876 0.7259551882743835 0.7247923612594604 68.0 14 -0.0017379571218043566
0.6070204973220825 0.14416497945785522 -0.010890301316976547 63.0 7 -0.0017356530297547579
3.0563087463378906 0.7252978086471558 0.841679573059082 72.0 15 -0.0017333491705358028
1.404503583908081 0.33149316906929016 -0.3866756856441498 56.0 0 -0.0017126130405813456
0.6208702921867371 0.14642441272735596 0.011134634725749493 28.0 8 -0.0017103091813623905
1.3903436660766602 0.3276388645172119 -0.3297782838344574 53.0 1 -0.0017080050893127918
0.6085003018379211 0.1432829201221466 0.032762311398983 6.0 9 -0.001705701113678515
1.4198663234710693 0.33433443307876587 -0.2835421860218048 55.0 2 -0.001703397138044238
1.5049978494644165 0.35410305857658386 0.13526570796966553 15.0 10 -0.0017010930459946394
0.5922682285308838 0.13924260437488556 -0.09636364877223969 48.0 3 -0.0016987891867756844
0.587499737739563 0.13790513575077057 -0.07409656792879105 100.0 4 -0.0016941811190918088
3.0540177822113037 0.7163141965866089 0.4968359172344208 1.0 12 -0.001691877143457532
0.6168399453163147 0.14467865228652954 -0.055431053042411804 100.0 5 -0.0016895730514079332
3.0774526596069336 0.7212441563606262 0.6144050359725952 7.0 13 -0.0016872691921889782
0.6028410196304321 0.14117296040058136 -0.03244829550385475 99.0 6 -0.0016849651001393795
3.0511558055877686 0.7139577269554138 0.7234426140785217 71.0 14 -0.0016826611245051026
0.6016784906387329 0.1406795084476471 -0.010785587131977081 100.0 7 -0.0016803571488708258
3.062584400177002 0.7155030369758606 0.8427148461341858 72.0 15 -0.001678053056821227
1.390598177909851 0.3230912387371063 -0.38253456354141235 56.0 0 -0.0016573171596974134
0.5980029702186584 0.1388295590877533 0.010715777985751629 81.0 8 -0.0016550130676478148
1.4009705781936646 0.3249850571155548 -0.332027792930603 56.0 1 -0.0016527090920135379
0.5972985625267029 0.13855616748332977 0.0321342796087265 18.0 9 -0.001650405116379261
1.4114619493484497 0.3271598815917969 -0.2816340923309326 53.0 2 -0.0016481011407449841
0.6114186644554138 0.14160673320293427 0.05490811914205551 7.0 10 -0.0016457971651107073
0.590826153755188 0.13672880828380585 -0.09605076909065247 48.0 3 -0.0016434930730611086
0.5957140922546387 0.13764092326164246 -0.07507152855396271 100.0 4 -0.0016388851217925549
0.5921040177345276 0.13669796288013458 -0.053164999932050705 100.0 5 -0.0016342770541086793
3.078038215637207 0.7100567817687988 0.6140233874320984 1.0 13 -0.0016319730784744024
0.6111149787902832 0.1408623307943344 -0.032866984605789185 89.0 6 -0.0016296691028401256
3.0555286407470703 0.7037394642829895 0.7238925695419312 62.0 14 -0.0016273651272058487
0.5943470001220703 0.1368880569934845 -0.010645967908203602 93.0 7 -0.0016250611515715718
3.0592920780181885 0.7040455341339111 0.8411619663238525 76.0 15 -0.0016227570595219731
1.384184718132019 0.3165122866630554 -0.38046398758888245 56.0 0 -0.0016020211623981595
0.5828649997711182 0.13327986001968384 0.01043653953820467 84.0 8 -0.0015997170703485608
1.4039403200149536 0.32077181339263916 -0.3324776887893677 53.0 1 -0.001597413094714284
0.6153029799461365 0.14047124981880188 0.03307632729411125 69.0 9 -0.001595109119080007
1.4240798950195312 0.3248503804206848 -0.28392380475997925 53.0 2 -0.0015928051434457302
0.609966516494751 0.13902898132801056 0.05473380535840988 36.0 10 -0.0015905011678114533
0.5835723280906677 0.13301298022270203 -0.09479929506778717 56.0 3 -0.0015881970757618546
0.6967911124229431 0.15869088470935822 0.08774593472480774 6.0 11 -0.0015858931001275778
0.5961672067642212 0.13566483557224274 -0.07507152855396271 100.0 4 -0.001583589124493301
0.6780262589454651 0.15416836738586426 0.11012987792491913 2.0 12 -0.001581285148859024
0.5848060846328735 0.1328647881746292 -0.05246775969862938 100.0 5 -0.0015789810568094254
0.6115787029266357 0.13883516192436218 -0.032866984605789185 100.0 6 -0.0015743731055408716
0.5987216234207153 0.13569672405719757 -0.010715777985751629 100.0 7 -0.0015697651542723179
3.0523102283477783 0.6912280321121216 0.8385737538337708 74.0 15 -0.0015674610622227192
1.3965346813201904 0.31446632742881775 -0.3835698664188385 54.0 0 -0.0015467251650989056
0.5794248580932617 0.13036641478538513 0.010366729460656643 100.0 8 -0.0015444210730493069
1.3974461555480957 0.3141597807407379 -0.3306780755519867 53.0 1 -0.00154211709741503
0.609919548034668 0.1371159702539444 0.032762311398983 70.0 9 -0.0015398131217807531
1.4289804697036743 0.3209863305091858 -0.2846870422363281 57.0 2 -0.0015375091461464763
0.6123683452606201 0.13744166493415833 0.05490811914205551 85.0 10 -0.0015352050540968776
0.5898155570030212 0.13227203488349915 -0.09573790431022644 71.0 3 -0.0015329010784626007
0.6062991619110107 0.1358572095632553 0.07629022002220154 23.0 11 -0.0015305971028283238
0.6005114316940308 0.1344502568244934 -0.07555899769067764 100.0 4 -0.001528293127194047
0.622631847858429 0.1394028514623642 0.10105667263269424 4.0 12 -0.00152598915155977
0.5969094038009644 0.13353468477725983 -0.053513623774051666 100.0 5 -0.0015236850595101714
0.6042627096176147 0.1349579393863678 -0.03244829550385475 100.0 6 -0.0015190771082416177
3.1173064708709717 0.6956594586372375 0.7373896241188049 1.0 14 -0.0015167731326073408
0.5991683006286621 0.13371066749095917 -0.010715777985751629 85.0 7 -0.001514469156973064
3.0583572387695312 0.6819425225257874 0.8396090269088745 74.0 15 -0.0015121650649234653
1.3976236581802368 0.30959054827690125 -0.3835698664188385 56.0 0 -0.0014914291677996516
0.591568112373352 0.13103950023651123 0.010576157830655575 100.0 8 -0.001489125075750053
1.3908694982528687 0.3078390955924988 -0.3288784623146057 53.0 1 -0.001486821100115776
0.592843234539032 0.13110457360744476 0.03182026371359825 55.0 9 -0.0014845171244814992
