# .PCD v0.7 - Point Cloud Data file format
VERSION 0.7
FIELDS x y z intensity ring time
SIZE 4 4 4 4 4 4
TYPE F F F F F F
COUNT 1 1 1 1 1 1
WIDTH 538
HEIGHT 1
VIEWPOINT 0 0 0 1 0 0 0
POINTS 538
DATA ascii
-0.4031282961368561 1.7888175249099731 -0.3564312160015106 97.0 2 -0.021421432495117188
-1.484610676765442 6.59310245513916 0.591264545917511 90.0 10 -0.02141912654042244
-0.4054219722747803 1.8019318580627441 -0.2925325036048889 100.0 3 -0.02141682431101799
-1.482105016708374 6.592711925506592 0.8296865224838257 94.0 11 -0.02141452021896839
-0.405913770198822 1.8070627450942993 -0.22740821540355682 84.0 4 -0.021412216126918793
-1.4781849384307861 6.5860161781311035 1.06907320022583 88.0 12 -0.021409912034869194
-0.4001081883907318 1.7826721668243408 -0.15984363853931427 98.0 5 -0.021407607942819595
-1.474845051765442 6.576506614685059 1.3100945949554443 100.0 13 -0.021405303850769997
-0.42317119240760803 1.888513445854187 -0.1014270931482315 32.0 6 -0.021402999758720398
-1.473584532737732 6.581644535064697 1.5571112632751465 100.0 14 -0.0214006956666708
-0.4068746566772461 1.818760871887207 -0.032531287521123886 19.0 7 -0.0213983915746212
-1.464857816696167 6.553394794464111 1.7993099689483643 63.0 15 -0.021396087482571602
-0.40046557784080505 1.798951506614685 -0.4938267767429352 85.0 0 -0.02135157585144043
-0.39770567417144775 1.7880247831344604 0.03197281062602997 10.0 8 -0.02134927175939083
-0.3999508023262024 1.7996004819869995 -0.4256074130535126 87.0 1 -0.021346967667341232
-0.39962849020957947 1.7996330261230469 0.09661218523979187 44.0 9 -0.021344663575291634
-0.3983573019504547 1.7939085960388184 -0.3571944534778595 94.0 2 -0.021342359483242035
-1.4651864767074585 6.603569030761719 0.5917875170707703 87.0 10 -0.021340055391192436
-0.40061450004577637 1.807053565979004 -0.29315823316574097 100.0 3 -0.021337751299142838
-1.4575235843658447 6.579892635345459 0.8274929523468018 100.0 11 -0.02133544720709324
-0.3985191583633423 1.8005762100219727 -0.22643324732780457 89.0 4 -0.02133314311504364
-1.4591946601867676 6.5983428955078125 1.0703247785568237 88.0 12 -0.02133083902299404
-0.3950536847114563 1.7878800630569458 -0.16019225120544434 96.0 5 -0.021328534930944443
-1.4516336917877197 6.569605827331543 1.307804822921753 100.0 13 -0.021326232701539993
-0.41422244906425476 1.8761814832687378 -0.10069439560174942 30.0 6 -0.021323928609490395
-1.4533214569091797 6.588143825531006 1.5575611591339111 100.0 14 -0.021321624517440796
-0.4024496376514435 1.825888752937317 -0.03263600170612335 17.0 7 -0.021319320425391197
-1.4434328079223633 6.5541911125183105 1.7982748746871948 63.0 15 -0.0213170163333416
-0.3955203890800476 1.8079562187194824 -0.4958973228931427 87.0 0 -0.02129627950489521
-0.3914613723754883 1.7894022464752197 0.03197281062602997 10.0 8 -0.02129397541284561
-0.39283472299575806 1.797178030014038 -0.4247076213359833 89.0 1 -0.021291671320796013
-0.39163902401924133 1.7932120561599731 0.09619349241256714 49.0 9 -0.021289367228746414
-0.39261627197265625 1.7991927862167358 -0.3579576909542084 94.0 2 -0.021287063136696815
-1.4409747123718262 6.608894348144531 0.5917875170707703 87.0 10 -0.021284759044647217
-0.39314720034599304 1.8046497106552124 -0.2925325036048889 100.0 3 -0.021282454952597618
-1.4332771301269531 6.579121112823486 0.8267617225646973 99.0 11 -0.02128015272319317
-0.39138665795326233 1.79807710647583 -0.22594578564167023 88.0 4 -0.02127784863114357
-1.4353150129318237 6.59953498840332 1.0696990489959717 88.0 12 -0.02127554453909397
-0.38965699076652527 1.7931421995162964 -0.1605408787727356 98.0 5 -0.021273240447044373
-1.428379774093628 6.578719139099121 1.3085681200027466 100.0 13 -0.021270936354994774
-0.4077669680118561 1.8796387910842896 -0.100799061357975 32.0 6 -0.021268632262945175
-1.4262735843658447 6.580094814300537 1.5544118881225586 100.0 14 -0.021266328170895576
-0.39776846766471863 1.835099697113037 -0.032775621861219406 15.0 7 -0.021264024078845978
-1.4221794605255127 6.566741943359375 1.8003453016281128 63.0 15 -0.02126171998679638
-0.390019953250885 1.8131030797958374 -0.49693259596824646 89.0 0 -0.02124098315834999
-0.3857410252094269 1.794735074043274 0.032042618840932846 9.0 8 -0.021238679066300392
-0.38624462485313416 1.7986059188842773 -0.4247076213359833 83.0 1 -0.021236374974250793
-0.38213133811950684 1.7809656858444214 0.09546079486608505 47.0 9 -0.021234072744846344
-0.3846864104270935 1.7928739786148071 -0.3564312160015106 91.0 2 -0.021231768652796745
-1.4178948402404785 6.613884449005127 0.5917875170707703 85.0 10 -0.021229464560747147
-0.38850075006484985 1.8137372732162476 -0.293783962726593 100.0 3 -0.021227160468697548
-1.4099862575531006 6.588212490081787 0.8272491693496704 97.0 11 -0.02122485637664795
-0.38562434911727905 1.8033818006515503 -0.22643324732780457 86.0 4 -0.02122255228459835
-1.4094642400741577 6.597024917602539 1.0684475898742676 85.0 12 -0.021220248192548752
-0.38422828912734985 1.7983880043029785 -0.16088949143886566 93.0 5 -0.021217944100499153
-1.4070478677749634 6.591344833374023 1.3100945949554443 100.0 13 -0.021215640008449554
-0.4032859206199646 1.8908175230026245 -0.10132241994142532 30.0 6 -0.021213335916399956
-1.4020789861679077 6.579315662384033 1.5530622005462646 100.0 14 -0.021211031824350357
-0.3864593207836151 1.8150306940078735 -0.03239166736602783 15.0 7 -0.02120872773230076
-1.39810311794281 6.571910381317139 1.8003453016281128 63.0 15 -0.02120642364025116
-0.38129010796546936 1.8031132221221924 -0.4938267767429352 87.0 0 -0.02118568867444992
-0.380713552236557 1.8019402027130127 0.03214733302593231 8.0 8 -0.021183384582400322
-0.3815743625164032 1.807569980621338 -0.42650723457336426 89.0 1 -0.021181080490350723
-0.37879708409309387 1.7959686517715454 0.09619349241256714 45.0 9 -0.021178776398301125
-0.37761497497558594 1.7903640270233154 -0.35566797852516174 94.0 2 -0.021176472306251526
-1.393976092338562 6.614894866943359 0.5914388298988342 87.0 10 -0.021174168214201927
-0.38135361671447754 1.8112162351608276 -0.29315823316574097 100.0 3 -0.02117186412215233
-1.3886133432388306 6.600865364074707 0.8282241225242615 95.0 11 -0.02116956003010273
-0.3768766224384308 1.7930611371994019 -0.22497083246707916 82.0 4 -0.02116725593805313
-1.3848052024841309 6.59417200088501 1.0671961307525635 88.0 12 -0.021164951846003532
-0.37467294931411743 1.7841194868087769 -0.15949499607086182 96.0 5 -0.021162647753953934
-1.3832231760025024 6.592374324798584 1.3093314170837402 100.0 13 -0.021160343661904335
-0.40037092566490173 1.909806728363037 -0.10226447135210037 40.0 6 -0.021158039569854736
-1.3795051574707031 6.586076259613037 1.5535120964050293 100.0 14 -0.021155735477805138
-0.380530446767807 1.8183258771896362 -0.03242656961083412 15.0 7 -0.02115343138575554
-1.372780203819275 6.565404891967773 1.7972395420074463 63.0 15 -0.02115112729370594
-0.37499499320983887 1.804432988166809 -0.4938267767429352 85.0 0 -0.0211303923279047
-0.37401509284973145 1.8012999296188354 0.032112427055835724 7.0 8 -0.021128088235855103
-0.37447023391723633 1.805074691772461 -0.4256074130535126 89.0 1 -0.021125784143805504
-0.3721206784248352 1.7953242063522339 0.09608882665634155 42.0 9 -0.021123480051755905
-0.372160404920578 1.7955158948898315 -0.3564312160015106 97.0 2 -0.021121175959706306
-1.368050456047058 6.606062889099121 0.5902186632156372 90.0 10 -0.021118871867656708
-0.37342751026153564 1.8047988414764404 -0.2919067442417145 100.0 3 -0.02111656777560711
-1.3643593788146973 6.59984016418457 0.8274929523468018 100.0 11 -0.02111426368355751
-0.3718203604221344 1.8001978397369385 -0.22570204734802246 85.0 4 -0.02111195959150791
-1.3617770671844482 6.598965644836426 1.0671961307525635 88.0 12 -0.021109655499458313
-0.36844247579574585 1.7854164838790894 -0.15949499607086182 98.0 5 -0.021107351407408714
-1.3594114780426025 6.593316078186035 1.3085681200027466 100.0 13 -0.021105047315359116
-0.3973291516304016 1.9287981986999512 -0.10320651531219482 37.0 6 -0.021102743223309517
-1.3561125993728638 6.5889434814453125 1.5530622005462646 100.0 14 -0.021100439131259918
-0.37377774715423584 1.8176846504211426 -0.03239166736602783 15.0 7 -0.02109813503921032
-1.3490781784057617 6.566371917724609 1.7962043285369873 63.0 15 -0.02109583094716072
-0.3679206073284149 1.8019453287124634 -0.49279147386550903 87.0 0 -0.021075095981359482
-0.36452704668045044 1.7869200706481934 0.031833190470933914 7.0 8 -0.021072791889309883
-0.3681674599647522 1.806370735168457 -0.4256074130535126 87.0 1 -0.021070487797260284
-0.36744606494903564 1.8044404983520508 0.09650751203298569 45.0 9 -0.021068183705210686
-0.3674579858779907 1.8044990301132202 -0.3579576909542084 97.0 2 -0.021065879613161087
-1.3457753658294678 6.61470365524292 0.5905672907829285 90.0 10 -0.02106357552111149
-0.3671256899833679 1.8060911893844604 -0.2919067442417145 100.0 3 -0.02106127142906189
-1.3401293754577637 6.598725318908691 0.8267617225646973 97.0 11 -0.02105896733701229
-0.36671796441078186 1.8073211908340454 -0.22643324732780457 89.0 4 -0.021056663244962692
-1.3387322425842285 6.603679180145264 1.0671961307525635 88.0 12 -0.021054359152913094
-0.3633950352668762 1.792549729347229 -0.1600179374217987 100.0 5 -0.021052055060863495
-1.333271861076355 6.582627296447754 1.3055152893066406 100.0 13 -0.021049750968813896
-0.3874243497848511 1.9145128726959229 -0.10236913710832596 35.0 6 -0.021047448739409447
-1.3350337743759155 6.6031880378723145 1.555311679840088 100.0 14 -0.021045144647359848
-0.3666399419307709 1.8150577545166016 -0.032321859151124954 14.0 7 -0.02104284055531025
-1.326147198677063 6.571041584014893 1.7962043285369873 63.0 15 -0.02104053646326065
-0.36238768696784973 1.807007074356079 -0.4938267767429352 89.0 0 -0.021019799634814262
-0.35985997319221497 1.7960243225097656 0.03197281062602997 7.0 8 -0.021017495542764664
-0.35879918932914734 1.7923582792282104 -0.4220081865787506 92.0 1 -0.021015191450715065
-0.35832348465919495 1.7899819612503052 0.09567013382911682 45.0 9 -0.021012887358665466
-0.36038637161254883 1.8019206523895264 -0.3571944534778595 97.0 2 -0.021010583266615868
-1.3234628438949585 6.62326717376709 0.5909159183502197 90.0 10 -0.02100827917456627
-0.36159202456474304 1.8112361431121826 -0.2925325036048889 100.0 3 -0.02100597508251667
-1.3147557973861694 6.5916829109191895 0.8252992630004883 95.0 11 -0.02100367099046707
-0.35994642972946167 1.8046338558197021 -0.22594578564167023 88.0 4 -0.021001368761062622
-1.3176028728485107 6.611955642700195 1.067821741104126 88.0 12 -0.020999064669013023
-0.3579140901565552 1.7977153062820435 -0.16036656498908997 100.0 5 -0.020996760576963425
-1.3102842569351196 6.5872416496276855 1.3055152893066406 100.0 13 -0.020994456484913826
-0.38385486602783203 1.9315248727798462 -0.10320651531219482 36.0 6 -0.020992152392864227
-1.3108549118041992 6.596109867095947 1.5526123046875 100.0 14 -0.02098984830081463
-0.36178675293922424 1.8221479654312134 -0.03242656961083412 11.0 7 -0.02098754420876503
-1.3051027059555054 6.579192638397217 1.7972395420074463 63.0 15 -0.02098524011671543
-0.35714009404182434 1.811989665031433 -0.49486202001571655 89.0 0 -0.020964503288269043
-0.3562197983264923 1.808979868888855 0.0321822389960289 7.0 8 -0.020962199196219444
-0.3551109731197357 1.8050107955932617 -0.4247076213359833 89.0 1 -0.020959895104169846
-0.3512294590473175 1.7852813005447388 0.09535612165927887 51.0 9 -0.020957591012120247
-0.3536511957645416 1.799252986907959 -0.3564312160015106 94.0 2 -0.020955286920070648
-1.302258014678955 6.631530284881592 0.591264545917511 90.0 10 -0.0209529846906662
-0.35444319248199463 1.8066099882125854 -0.29159387946128845 100.0 3 -0.0209506805986166
-1.2944153547286987 6.603798866271973 0.8262742161750793 97.0 11 -0.020948376506567
-0.3531959354877472 1.8019216060638428 -0.2254583090543747 90.0 4 -0.020946072414517403
-1.2911124229431152 6.593027114868164 1.0640673637390137 82.0 12 -0.020943768322467804
-0.3515684902667999 1.7969368696212769 -0.16019225120544434 100.0 5 -0.020941464230418205
-1.291820764541626 6.60889196395874 1.3089497089385986 100.0 13 -0.020939160138368607
-0.3778298497200012 1.9347474575042725 -0.10331118851900101 41.0 6 -0.020936856046319008
-1.287104845046997 6.590857982635498 1.5503627061843872 100.0 14 -0.02093455195426941
-0.35229629278182983 1.8056732416152954 -0.032112427055835724 9.0 7 -0.02093224786221981
-1.284754753112793 6.591069221496582 1.7993099689483643 63.0 15 -0.020929943770170212
-0.350395143032074 1.809370756149292 -0.4938267767429352 87.0 0 -0.020909206941723824
-0.3494596779346466 1.8062244653701782 0.032112427055835724 6.0 8 -0.020906904712319374
-0.34912291169166565 1.8061785697937012 -0.4247076213359833 87.0 1 -0.020904600620269775
-0.34688854217529297 1.7963016033172607 0.09587948024272919 54.0 9 -0.020902296528220177
-0.3469385802745819 1.7965606451034546 -0.35566797852516174 97.0 2 -0.020899992436170578
-1.2779966592788696 6.624074459075928 0.5902186632156372 90.0 10 -0.02089768834412098
-0.3499453067779541 1.815534234046936 -0.29284536838531494 100.0 3 -0.02089538425207138
-1.2725105285644531 6.608055114746094 0.8262742161750793 93.0 11 -0.020893080160021782
-0.34765517711639404 1.807041883468628 -0.22594578564167023 90.0 4 -0.020890776067972183
-1.2688343524932861 6.601373195648193 1.0646930932998657 88.0 12 -0.020888471975922585
-0.34416624903678894 1.7922834157943726 -0.15966932475566864 100.0 5 -0.020886167883872986
-1.268788456916809 6.607354640960693 1.307804822921753 100.0 13 -0.020883863791823387
-0.372541218996048 1.9418741464614868 -0.10362520813941956 36.0 6 -0.02088155969977379
-1.2644555568695068 6.597224712371826 1.5508127212524414 100.0 14 -0.02087925560772419
-0.3448624908924103 1.8010002374649048 -0.03200771287083626 7.0 7 -0.02087695151567459
-1.2588404417037964 6.580333232879639 1.7951689958572388 63.0 15 -0.020874647423624992
-0.3430408239364624 1.8068468570709229 -0.49279147386550903 85.0 0 -0.020853912457823753
-0.7952179312705994 4.188530921936035 0.07441706210374832 22.0 8 -0.020851608365774155
-0.3435427248477936 1.8112154006958008 -0.4256074130535126 89.0 1 -0.020849304273724556
-0.3413602411746979 1.8014260530471802 0.09608882665634155 52.0 9 -0.020847000181674957
-0.34108227491378784 1.801677942276001 -0.3564312160015106 94.0 2 -0.02084469608962536
-1.2529642581939697 6.6247992515563965 0.589870035648346 93.0 10 -0.02084239199757576
-0.3421888053417206 1.8109813928604126 -0.2919067442417145 100.0 3 -0.02084008790552616
-1.2494378089904785 6.612456321716309 0.8262742161750793 95.0 11 -0.020837783813476562
-0.3420812785625458 1.8121458292007446 -0.22643324732780457 92.0 4 -0.020835479721426964
-1.246880054473877 6.61158561706543 1.0656317472457886 83.0 12 -0.020833175629377365
-0.33717045187950134 1.7895578145980835 -0.15932069718837738 100.0 5 -0.020830871537327766
-1.243111491203308 6.60424280166626 1.3062784671783447 100.0 13 -0.020828567445278168
-0.36541998386383057 1.9432268142700195 -0.10362520813941956 35.0 6 -0.02082626335322857
-1.2420676946640015 6.611390590667725 1.5530622005462646 100.0 14 -0.02082395926117897
-0.34005096554756165 1.8100543022155762 -0.03214733302593231 7.0 7 -0.02082165516912937
-1.2337231636047363 6.573296070098877 1.7920631170272827 63.0 15 -0.020819351077079773
-0.33743947744369507 1.8118317127227783 -0.4938267767429352 87.0 0 -0.020798616111278534
-0.7798618078231812 4.1914167404174805 0.07441706210374832 12.0 8 -0.020796312019228935
-0.33547699451446533 1.8047987222671509 -0.4238077998161316 90.0 1 -0.020794007927179337
-0.33512043952941895 1.804628849029541 0.09619349241256714 51.0 9 -0.020791703835129738
-0.33479154109954834 1.8028576374053955 -0.3564312160015106 94.0 2 -0.02078939974308014
-1.2298362255096436 6.62913179397583 0.589870035648346 90.0 10 -0.02078709565103054
-0.3347848057746887 1.8063380718231201 -0.2909681499004364 100.0 3 -0.020784791558980942
-1.2237492799758911 6.609183311462402 0.8252992630004883 97.0 11 -0.020782487466931343
-0.3368818461894989 1.821195363998413 -0.22740821540355682 96.0 4 -0.020780183374881744
-1.2229994535446167 6.618053913116455 1.0659445524215698 85.0 12 -0.020777879282832146
-0.3327314853668213 1.8005200624465942 -0.16019225120544434 100.0 5 -0.020775575190782547
-1.218623399734497 6.600820541381836 1.304751992225647 100.0 13 -0.02077327109873295
-0.35972270369529724 1.9503825902938843 -0.10393922030925751 30.0 6 -0.02077096700668335
-1.219686508178711 6.6195197105407715 1.553961992263794 100.0 14 -0.0207686647772789
-0.3334140479564667 1.811288595199585 -0.03214733302593231 7.0 7 -0.0207663606852293
-1.2110215425491333 6.5853729248046875 1.7941336631774902 63.0 15 -0.020764056593179703
-0.33111247420310974 1.812998652458191 -0.4938267767429352 85.0 0 -0.020743319764733315
-0.32949185371398926 1.8059083223342896 0.032042618840932846 1.0 8 -0.020741015672683716
-0.3291753828525543 1.8059587478637695 -0.4238077998161316 90.0 1 -0.020738711580634117
-0.32702961564064026 1.7959628105163574 0.09567013382911682 58.0 9 -0.02073640748858452
-0.32919931411743164 1.8078783750534058 -0.3571944534778595 97.0 2 -0.02073410339653492
-1.2074002027511597 6.63730525970459 0.5902186632156372 93.0 10 -0.02073179930448532
-0.32953742146492004 1.813326120376587 -0.2919067442417145 100.0 3 -0.020729495212435722
-1.2013789415359497 6.617321491241455 0.8257867693901062 93.0 11 -0.020727191120386124
-0.32839661836624146 1.8106409311294556 -0.22594578564167023 92.0 4 -0.020724887028336525
-1.2005964517593384 6.626169681549072 1.0665702819824219 88.0 12 -0.020722582936286926
-0.3257344663143158 1.797749638557434 -0.15984363853931427 98.0 5 -0.020720280706882477
-1.1955761909484863 6.605033874511719 1.304751992225647 100.0 13 -0.020717976614832878
-0.35220110416412354 1.9476957321166992 -0.10372987389564514 32.0 6 -0.02071567252278328
-1.1941490173339844 6.610312461853027 1.5508127212524414 100.0 14 -0.02071336843073368
-0.32566922903060913 1.8045696020126343 -0.03200771287083626 8.0 7 -0.020711064338684082
-1.1880251169204712 6.589560508728027 1.7941336631774902 63.0 15 -0.020708760246634483
-0.325462281703949 1.8179465532302856 -0.49486202001571655 87.0 0 -0.020688023418188095
-0.32670697569847107 1.8267320394515991 0.03239166736602783 1.0 8 -0.020685719326138496
-0.32286977767944336 1.8070967197418213 -0.4238077998161316 89.0 1 -0.020683415234088898
-0.32036998867988586 1.7931052446365356 0.09546079486608505 63.0 9 -0.0206811111420393
-0.3215062916278839 1.801285743713379 -0.35566797852516174 97.0 2 -0.0206788070499897
-1.1842257976531982 6.641479015350342 0.5902186632156372 93.0 10 -0.0206765029579401
-0.32389894127845764 1.8183549642562866 -0.2925325036048889 100.0 3 -0.020674200728535652
-1.1768798828125 6.613656997680664 0.8248117566108704 97.0 11 -0.020671896636486053
-0.32068493962287903 1.8039581775665283 -0.22497083246707916 92.0 4 -0.020669592544436455
-1.1772351264953613 6.622334957122803 1.0653188228607178 88.0 12 -0.020667288452386856
-0.32085102796554565 1.8067225217819214 -0.1605408787727356 100.0 5 -0.020664984360337257
-1.1731971502304077 6.613032817840576 1.3055152893066406 100.0 13 -0.02066268026828766
-0.32692813873291016 1.8446828126907349 -0.09818226099014282 6.0 6 -0.02066037617623806
-1.1697065830230713 6.606764793395996 1.5490130186080933 100.0 14 -0.02065807208418846
-0.31828826665878296 1.797763466835022 -0.031868092715740204 7.0 7 -0.020655767992138863
-1.1675108671188354 6.601073741912842 1.7962043285369873 63.0 15 -0.020653463900089264
-0.31777966022491455 1.8114603757858276 -0.49279147386550903 89.0 0 -0.020632727071642876
-0.31857386231422424 1.8159877061843872 0.0321822389960289 1.0 8 -0.020630422979593277
-0.3175477385520935 1.8119964599609375 -0.4247076213359833 90.0 1 -0.020628120750188828
-0.3144528567790985 1.796180009841919 0.09556546807289124 90.0 9 -0.02062581665813923
-0.3145406246185303 1.7985291481018066 -0.35490477085113525 97.0 2 -0.02062351256608963
-1.159662127494812 6.637722015380859 0.5895214676856995 93.0 10 -0.02062120847404003
-0.31786680221557617 1.8194191455841064 -0.2925325036048889 100.0 3 -0.020618904381990433
-1.1549431085586548 6.617523193359375 0.8248117566108704 97.0 11 -0.020616600289940834
-0.3153824508190155 1.8089231252670288 -0.2254583090543747 94.0 4 -0.020614296197891235
-1.1527541875839233 6.6186203956604 1.0640673637390137 85.0 12 -0.020611992105841637
-0.31249281764030457 1.7960540056228638 -0.15949499607086182 100.0 5 -0.020609688013792038
-1.1526085138320923 6.624623775482178 1.3070416450500488 100.0 13 -0.02060738392174244
-0.31738850474357605 1.8260791301727295 -0.09713554382324219 5.0 6 -0.02060507982969284
-1.1484594345092773 6.614447593688965 1.549912929534912 100.0 14 -0.020602775737643242
-0.31201136112213135 1.798863410949707 -0.031868092715740204 5.0 7 -0.020600471645593643
-1.141824722290039 6.589880466461182 1.7920631170272827 63.0 15 -0.020598167553544044
-0.3111162781715393 1.8086963891983032 -0.4917562007904053 89.0 0 -0.020577432587742805
-0.3125719726085663 1.8190593719482422 0.03221714124083519 1.0 8 -0.020575128495693207
-0.3112211525440216 1.813093900680542 -0.4247076213359833 89.0 1 -0.020572824403643608
-0.3088565766811371 1.8012036085128784 0.095774807035923 86.0 9 -0.02057052031159401
-0.3085751235485077 1.7995622158050537 -0.35490477085113525 97.0 2 -0.02056821621954441
-1.136299967765808 6.633675575256348 0.5888242125511169 90.0 10 -0.020565912127494812
-0.31018075346946716 1.8127293586730957 -0.2912810146808624 100.0 3 -0.020563608035445213
-1.1331759691238403 6.629341125488281 0.8257867693901062 99.0 11 -0.020561303943395615
-0.3090665638446808 1.810012936592102 -0.2254583090543747 92.0 4 -0.020558999851346016
-1.1303062438964844 6.626497745513916 1.0646930932998657 88.0 12 -0.020556695759296417
-0.3052178621292114 1.7912416458129883 -0.15897206962108612 100.0 5 -0.02055439166724682
-1.128159523010254 6.6208648681640625 1.3055152893066406 100.0 13 -0.02055208757519722
-0.31034159660339355 1.8232381343841553 -0.09692620486021042 5.0 6 -0.02054978348314762
-1.1260154247283936 6.62225866317749 1.5508127212524414 100.0 14 -0.020547479391098022
-0.30606549978256226 1.8019130229949951 -0.03190299868583679 4.0 7 -0.020545175299048424
-1.1181666851043701 6.590017318725586 1.7910279035568237 62.0 15 -0.020542871206998825
-0.3057674467563629 1.817444920539856 -0.4938267767429352 87.0 0 -0.020522136241197586
-0.3052254617214203 1.8142234086990356 0.032112427055835724 0.0 8 -0.020519832149147987
-0.30424392223358154 1.8103255033493042 -0.4238077998161316 92.0 1 -0.02051752805709839
-0.30388954281806946 1.8101496696472168 0.09619349241256714 100.0 9 -0.02051522396504879
-0.30327653884887695 1.8084259033203125 -0.3564312160015106 97.0 2 -0.02051291987299919
-1.1139521598815918 6.649586200714111 0.589870035648346 90.0 10 -0.020510615780949593
-0.3038611114025116 1.8158023357391357 -0.29159387946128845 100.0 3 -0.020508311688899994
-1.109371304512024 6.629341125488281 0.8252992630004883 97.0 11 -0.020506007596850395
-0.30340152978897095 1.8149964809417725 -0.22594578564167023 96.0 4 -0.020503703504800797
-1.1071699857711792 6.6304030418396 1.0646930932998657 85.0 12 -0.020501399412751198
-0.2999463677406311 1.7981919050216675 -0.15949499607086182 100.0 5 -0.0204990953207016
-1.1025928258895874 6.617209434509277 1.3039886951446533 100.0 13 -0.020496791228652
-0.30136194825172424 1.8105722665786743 -0.09619349241256714 6.0 6 -0.0204944871366024
-1.1026962995529175 6.632107734680176 1.5521622896194458 100.0 14 -0.020492183044552803
-0.2987893521785736 1.7970526218414307 -0.031798284500837326 2.0 7 -0.020489878952503204
-1.0957908630371094 6.597691535949707 1.7920631170272827 63.0 15 -0.020487576723098755
-0.2987932860851288 1.814688801765442 -0.49279147386550903 89.0 0 -0.020466839894652367
-0.29954710602760315 1.8212496042251587 0.03221714124083519 1.0 8 -0.020464535802602768
-0.2963433861732483 1.803736686706543 -0.4220081865787506 87.0 1 -0.02046223171055317
-0.29497912526130676 1.795432686805725 0.09535612165927887 100.0 9 -0.02045992761850357
-0.29696160554885864 1.8094736337661743 -0.3564312160015106 97.0 2 -0.020457623526453972
-1.0907320976257324 6.6534342765808105 0.589870035648346 90.0 10 -0.020455319434404373
-0.29815974831581116 1.8207505941390991 -0.2922196090221405 100.0 3 -0.020453015342354774
-1.0834652185440063 6.623566627502441 0.8240805268287659 93.0 11 -0.020450711250305176
-0.2954654097557068 1.8082600831985474 -0.22497083246707916 92.0 4 -0.020448407158255577
-1.0852912664413452 6.642025947570801 1.0659445524215698 85.0 12 -0.02044610306620598
-0.2955937683582306 1.8110260963439941 -0.1605408787727356 100.0 5 -0.02044379897415638
-1.0794892311096191 6.621017932891846 1.3039886951446533 100.0 13 -0.02044149674475193
-0.2956816554069519 1.8155558109283447 -0.0964028462767601 6.0 6 -0.02043919265270233
-1.0773502588272095 6.622452259063721 1.5490130186080933 100.0 14 -0.020436888560652733
-0.2970103621482849 1.8257172107696533 -0.032286953181028366 2.0 7 -0.020434584468603134
-1.0727553367614746 6.601476192474365 1.7920631170272827 63.0 15 -0.020432280376553535
-0.29368534684181213 1.8233497142791748 -0.49486202001571655 89.0 0 -0.020411543548107147
-0.29159751534461975 1.8103874921798706 0.03200771287083626 2.0 8 -0.02040923945605755
-0.2909798324108124 1.808557391166687 -0.4229080080986023 89.0 1 -0.02040693536400795
-0.2887095808982849 1.7964515686035156 0.09535612165927887 98.0 9 -0.02040463127195835
-0.29002073407173157 1.8066225051879883 -0.35566797852516174 97.0 2 -0.020402327179908752
-1.0668745040893555 6.653265953063965 0.5895214676856995 90.0 10 -0.020400023087859154
-0.2918078899383545 1.8197788000106812 -0.2919067442417145 100.0 3 -0.020397718995809555
-1.0630627870559692 6.636924743652344 0.8252992630004883 97.0 11 -0.020395416766405106
-0.2894677221775055 1.809229850769043 -0.22497083246707916 92.0 4 -0.020393112674355507
-1.0596102476119995 6.630168437957764 1.0634416341781616 85.0 12 -0.020390808582305908
-0.2892698049545288 1.812047004699707 -0.1605408787727356 100.0 5 -0.02038850449025631
-1.0575252771377563 6.624561309814453 1.3039886951446533 100.0 13 -0.02038620039820671
-0.28745824098587036 1.8027198314666748 -0.09567013382911682 5.0 6 -0.020383896306157112
-1.0547717809677124 6.6221394538879395 1.548113226890564 100.0 14 -0.020381592214107513
-0.28686466813087463 1.8030444383621216 -0.031868092715740204 2.0 7 -0.020379288122057915
-1.050916314125061 6.612812042236328 1.7941336631774902 63.0 15 -0.020376984030008316
-0.2858315110206604 1.812864065170288 -0.4917562007904053 89.0 0 -0.020356247201561928
-0.28963205218315125 1.8390491008758545 0.0324963815510273 2.0 8 -0.02035394310951233
-0.2858758568763733 1.8172625303268433 -0.4247076213359833 87.0 1 -0.02035163901746273
-0.2821265459060669 1.7954753637313843 0.09525144845247269 100.0 9 -0.02034933492541313
-0.28280866146087646 1.7998164892196655 -0.354141503572464 97.0 2 -0.020347032696008682
-1.044185757637024 6.652831077575684 0.5891727805137634 93.0 10 -0.020344728603959084
-0.28606534004211426 1.824689507484436 -0.2925325036048889 100.0 3 -0.020342424511909485
-1.0392730236053467 6.636672496795654 0.8248117566108704 99.0 11 -0.020340120419859886
-0.28253743052482605 1.8063067197799683 -0.22448335587978363 94.0 4 -0.020337816327810287
-1.03554368019104 6.627971649169922 1.0625029802322388 83.0 12 -0.02033551223576069
-0.282336950302124 1.8070906400680542 -0.1600179374217987 100.0 5 -0.02033320814371109
-1.0362094640731812 6.639851093292236 1.3062784671783447 100.0 13 -0.02033090405166149
-0.2827022969722748 1.8135794401168823 -0.09619349241256714 2.0 6 -0.020328599959611893
-1.0313482284545898 6.6238555908203125 1.5476633310317993 100.0 14 -0.020326295867562294
-0.279339462518692 1.7961312532424927 -0.03172847628593445 1.0 7 -0.020323991775512695
-1.026049017906189 6.604986190795898 1.7910279035568237 63.0 15 -0.020321687683463097
-0.27891454100608826 1.8100321292877197 -0.4907209575176239 87.0 0 -0.020300952717661858
-0.2783431112766266 1.8084261417388916 0.03193790465593338 3.0 8 -0.02029864862561226
-0.2801232933998108 1.8221014738082886 -0.4256074130535126 92.0 1 -0.02029634453356266
-0.2770712375640869 1.8043454885482788 0.09567013382911682 100.0 9 -0.02029404044151306
-0.2780155539512634 1.8104950189590454 -0.3560495972633362 99.0 2 -0.020291736349463463
-1.0203508138656616 6.652496814727783 0.5888242125511169 93.0 10 -0.020289432257413864
-0.2781980633735657 1.8159141540527344 -0.2909681499004364 100.0 3 -0.020287128165364265
-1.016104817390442 6.640259265899658 0.8248117566108704 97.0 11 -0.020284824073314667
-0.2774297297000885 1.8151313066482544 -0.2254583090543747 92.0 4 -0.020282519981265068
-1.0138903856277466 6.641310691833496 1.0640673637390137 85.0 12 -0.02028021588921547
-0.27572616934776306 1.8060957193374634 -0.15984363853931427 100.0 5 -0.02027791179716587
-1.0112545490264893 6.631782054901123 1.3039886951446533 100.0 13 -0.020275607705116272
-0.276068776845932 1.8125807046890259 -0.09608882665634155 1.0 6 -0.020273303613066673
-1.0096840858459473 6.637048244476318 1.549912929534912 100.0 14 -0.020270999521017075
-0.27577298879623413 1.8148882389068604 -0.032042618840932846 1.0 7 -0.020268695428967476
-1.0029852390289307 6.608528137207031 1.7910279035568237 63.0 15 -0.020266391336917877
-0.2737443447113037 1.8186359405517578 -0.49279147386550903 89.0 0 -0.020245656371116638
-0.27173277735710144 1.8074091672897339 0.03190299868583679 5.0 8 -0.02024335227906704
-0.2714456617832184 1.8076510429382324 -0.4220081865787506 90.0 1 -0.02024104818701744
-0.2719755470752716 1.811179757118225 0.09598415344953537 100.0 9 -0.020238744094967842
-0.2719847559928894 1.8133959770202637 -0.3564312160015106 100.0 2 -0.020236440002918243
-0.9977179765701294 6.659958362579346 0.5891727805137634 90.0 10 -0.020234135910868645
-0.26864248514175415 1.7953840494155884 -0.28752657771110535 100.0 3 -0.020231831818819046
-0.992037832736969 6.637876033782959 0.8240805268287659 93.0 11 -0.020229527726769447
-0.27109330892562866 1.8160885572433472 -0.2254583090543747 96.0 4 -0.02022722363471985
-0.9924490451812744 6.648542404174805 1.0646930932998657 88.0 12 -0.02022491954267025
-0.2691265940666199 1.8050765991210938 -0.15966932475566864 100.0 5 -0.02022261545062065
-0.9857840538024902 6.61973762512207 1.3009357452392578 100.0 13 -0.020220311358571053
-0.26885804533958435 1.807606816291809 -0.095774807035923 1.0 6 -0.020218007266521454
-0.9870843887329102 6.644387245178223 1.5508127212524414 100.0 14 -0.020215703174471855
-0.2676956355571747 1.801946759223938 -0.031798284500837326 1.0 7 -0.020213399082422256
-0.9810664653778076 6.611817359924316 1.7910279035568237 63.0 15 -0.020211094990372658
-0.2673948407173157 1.819580316543579 -0.49279147386550903 89.0 0 -0.02019036002457142
-0.2683538794517517 1.8261064291000366 0.03221714124083519 4.0 8 -0.02018805593252182
-0.2654501497745514 1.808541178703308 -0.4220081865787506 90.0 1 -0.02018575184047222
-0.2653615474700928 1.810142159461975 0.09587948024272919 100.0 9 -0.020183447748422623
-0.26622241735458374 1.818219542503357 -0.3571944534778595 97.0 2 -0.020181143656373024
-0.9744625091552734 6.663400650024414 0.5891727805137634 93.0 10 -0.020178839564323425
-0.26640358567237854 1.8216747045516968 -0.29159387946128845 100.0 3 -0.020176535472273827
-0.9685841798782349 6.631308555603027 0.8228618502616882 93.0 11 -0.020174231380224228
-0.26392269134521484 1.8091202974319458 -0.22448335587978363 92.0 4 -0.02017192728817463
-0.9692334532737732 6.651966571807861 1.0646930932998657 88.0 12 -0.02016962319612503
-0.26368433237075806 1.8119198083877563 -0.16019225120544434 100.0 5 -0.020167319104075432
-0.9649558067321777 6.630741596221924 1.3024622201919556 100.0 13 -0.020165015012025833
-0.2634381055831909 1.812441349029541 -0.09598415344953537 1.0 6 -0.020162712782621384
-0.9644867181777954 6.6437668800354 1.549912929534912 100.0 14 -0.020160408690571785
-0.2636990547180176 1.8187023401260376 -0.032077521085739136 1.0 7 -0.020158104598522186
-0.9579823017120361 6.615201473236084 1.7910279035568237 63.0 15 -0.020155800506472588
-0.2613597810268402 1.8204569816589355 -0.49279147386550903 87.0 0 -0.0201350636780262
-0.2599906325340271 1.8131760358810425 0.03197281062602997 6.0 8 -0.0201327595859766
-0.2602401375770569 1.8171732425689697 -0.4238077998161316 90.0 1 -0.020130455493927002
-0.2587915062904358 1.8070578575134277 0.09567013382911682 100.0 9 -0.020128151401877403
-0.25880196690559387 1.8093748092651367 -0.3552863597869873 99.0 2 -0.020125847309827805
-0.9534857869148254 6.674485206604004 0.589870035648346 93.0 10 -0.020123543217778206
-0.26032164692878723 1.8245491981506348 -0.2919067442417145 100.0 3 -0.020121239125728607
-0.9471154808998108 6.646440029144287 0.8243243098258972 97.0 11 -0.02011893503367901
-0.25648680329322815 1.8021695613861084 -0.22350840270519257 96.0 4 -0.02011663094162941
-0.9466110467910767 6.651233196258545 1.0640673637390137 88.0 12 -0.02011432871222496
-0.258515864610672 1.818701982498169 -0.16071519255638123 100.0 5 -0.02011202462017536
-0.9429095983505249 6.641844272613525 1.3039886951446533 100.0 13 -0.020109720528125763
-0.25767019391059875 1.8173048496246338 -0.09619349241256714 2.0 6 -0.020107416436076164
-0.9401950836181641 6.639375686645508 1.548113226890564 100.0 14 -0.020105112344026566
-0.25514358282089233 1.8017473220825195 -0.03176337853074074 1.0 7 -0.020102808251976967
-0.9382026195526123 6.6336445808410645 1.7951689958572388 63.0 15 -0.020100504159927368
-0.2550031244754791 1.8213582038879395 -0.49279147386550903 90.0 0 -0.02007976733148098
-0.25564044713974 1.8259103298187256 0.0321822389960289 7.0 8 -0.02007746323943138
-0.25421223044395447 1.8180261850357056 -0.4238077998161316 92.0 1 -0.020075159147381783
-0.25248250365257263 1.8079501390457153 0.09567013382911682 100.0 9 -0.020072855055332184
-0.2522128224372864 1.8083229064941406 -0.35490477085113525 97.0 2 -0.020070552825927734
-0.9285306334495544 6.665932655334473 0.5888242125511169 90.0 10 -0.020068246871232986
-0.2542693018913269 1.8254023790359497 -0.2919067442417145 100.0 3 -0.020065944641828537
-0.9256150722503662 6.653476238250732 0.8248117566108704 97.0 11 -0.02006364054977894
-0.2521486282348633 1.8148072957992554 -0.22497083246707916 96.0 4 -0.02006133645772934
-0.9220287799835205 6.644713878631592 1.0625029802322388 84.0 12 -0.02005903236567974
-0.2513457238674164 1.8136725425720215 -0.16019225120544434 100.0 5 -0.020056728273630142
-0.9208804965019226 6.644934177398682 1.3039886951446533 100.0 13 -0.020054424181580544
-0.2519165277481079 1.8201276063919067 -0.09629816561937332 1.0 6 -0.020052120089530945
-0.9181711077690125 6.642457008361816 1.548113226890564 100.0 14 -0.020049815997481346
-0.25076737999916077 1.8164931535720825 -0.03200771287083626 3.0 7 -0.020047511905431747
-0.9129317998886108 6.6215691566467285 1.7910279035568237 63.0 15 -0.02004520781338215
-0.24728283286094666 1.8146240711212158 -0.4907209575176239 89.0 0 -0.019331693649291992
-0.24485190212726593 1.7991385459899902 0.03169357031583786 23.0 8 -0.019329389557242393
-0.24828076362609863 1.826712727546692 -0.4256074130535126 90.0 1 -0.019327085465192795
-0.2471996694803238 1.8187586069107056 0.09619349241256714 100.0 9 -0.019324781373143196
-0.24558281898498535 1.8092352151870728 -0.35490477085113525 99.0 2 -0.019322477281093597
-0.903023362159729 6.661393642425537 0.5881268978118896 93.0 10 -0.019320173189044
-0.24619874358177185 1.8185350894927979 -0.290655255317688 100.0 3 -0.0193178690969944
-0.9003251791000366 6.65894889831543 0.8250555396080017 93.0 11 -0.0193155650049448
-0.24570925533771515 1.8196966648101807 -0.2254583090543747 94.0 4 -0.019313260912895203
-0.898198664188385 6.651963710784912 1.0631288290023804 83.0 12 -0.019310956820845604
-0.24389736354351044 1.808658242225647 -0.15966932475566864 100.0 5 -0.019308652728796005
-0.894833505153656 6.644530296325684 1.3032255172729492 100.0 13 -0.019306350499391556
-0.24492546916007996 1.821081519126892 -0.09629816561937332 2.0 6 -0.019304046407341957
-0.8936984539031982 6.653658866882324 1.549912929534912 100.0 14 -0.01930174231529236
-0.24251024425029755 1.8055087327957153 -0.031798284500837326 5.0 7 -0.01929943822324276
-0.8881410360336304 6.621041297912598 1.7899925708770752 63.0 15 -0.01929713413119316
-0.24196326732635498 1.8231364488601685 -0.49279147386550903 89.0 0 -0.019276397302746773
-0.23835857212543488 1.795975923538208 0.031623758375644684 21.0 8 -0.019274093210697174
-0.24068500101566315 1.8159350156784058 -0.4229080080986023 90.0 1 -0.019271789118647575
-0.2413731962442398 1.8235704898834229 0.0964028462767601 100.0 9 -0.019269485026597977
-0.23978084325790405 1.8139740228652954 -0.35566797852516174 99.0 2 -0.019267180934548378
-0.8808097243309021 6.672406196594238 0.5888242125511169 90.0 10 -0.01926487684249878
-0.2401672899723053 1.8193414211273193 -0.290655255317688 100.0 3 -0.01926257275044918
-0.8774612545967102 6.655993938446045 0.8243243098258972 95.0 11 -0.01926027052104473
-0.24019214510917664 1.8244376182556152 -0.22594578564167023 96.0 4 -0.019257966428995132
-0.8762623071670532 6.66485071182251 1.0646930932998657 85.0 12 -0.019255662336945534
-0.238620325922966 1.8174000978469849 -0.16036656498908997 100.0 5 -0.019253358244895935
-0.872795820236206 6.6474609375 1.3032255172729492 100.0 13 -0.019251054152846336
-0.23758727312088013 1.8119821548461914 -0.095774807035923 4.0 6 -0.019248750060796738
-0.873651385307312 6.672043800354004 1.5535120964050293 100.0 14 -0.01924644596874714
-0.23802170157432556 1.8202240467071533 -0.032042618840932846 6.0 7 -0.01924414187669754
-0.8650252223014832 6.624101161956787 1.7899925708770752 63.0 15 -0.01924183778464794
-0.2359156757593155 1.8239288330078125 -0.49279147386550903 89.0 0 -0.019221100956201553
-0.23388156294822693 1.8106794357299805 0.031868092715740204 36.0 8 -0.019218796864151955
-0.23334704339504242 1.8090332746505737 -0.4211083948612213 87.0 1 -0.019216492772102356
-0.23276908695697784 1.8045525550842285 0.09535612165927887 100.0 9 -0.019214190542697906
-0.23401446640491486 1.8167062997817993 -0.3560495972633362 97.0 2 -0.019211886450648308
-0.8594422936439514 6.681218147277832 0.5893471240997314 96.0 10 -0.01920958235859871
-0.2345697283744812 1.8260467052459717 -0.29159387946128845 100.0 3 -0.01920727826654911
-0.8537153005599976 6.655078411102295 0.8238368034362793 95.0 11 -0.01920497417449951
-0.23230916261672974 1.813450813293457 -0.22448335587978363 94.0 4 -0.019202670082449913
-0.8541573882102966 6.66771936416626 1.0646930932998657 85.0 12 -0.019200365990400314
-0.23259177803993225 1.8181813955307007 -0.16036656498908997 100.0 5 -0.019198061898350716
-0.8495848178863525 6.650467395782471 1.3032255172729492 100.0 13 -0.019195757806301117
-0.23252494633197784 1.8227063417434692 -0.09629816561937332 7.0 6 -0.019193453714251518
-0.848387598991394 6.659587860107422 1.549912929534912 100.0 14 -0.01919114962220192
-0.23147842288017273 1.8170361518859863 -0.03197281062602997 6.0 7 -0.01918884553015232
-0.8435399532318115 6.63076639175415 1.7910279035568237 63.0 15 -0.019186541438102722
-0.23003019392490387 1.828574776649475 -0.4938267767429352 87.0 0 -0.019165806472301483
-0.22737614810466766 1.8074771165847778 0.031798284500837326 48.0 8 -0.019163502380251884
-0.2283187359571457 1.8175312280654907 -0.4229080080986023 92.0 1 -0.019161198288202286
-0.2259717881679535 1.801390528678894 0.0951467752456665 100.0 9 -0.019158894196152687
-0.2264518439769745 1.807771921157837 -0.354141503572464 99.0 2 -0.01915659010410309
-0.8363608717918396 6.686155319213867 0.5895214676856995 93.0 10 -0.01915428601205349
-0.22851340472698212 1.8268145322799683 -0.29159387946128845 100.0 3 -0.01915198192000389
-0.8316428661346436 6.657872676849365 0.8238368034362793 97.0 11 -0.019149677827954292
-0.22580234706401825 1.8102716207504272 -0.2239958643913269 94.0 4 -0.019147373735904694
-0.8303874731063843 6.666740894317627 1.0640673637390137 85.0 12 -0.019145069643855095
-0.22624410688877106 1.8189822435379028 -0.16036656498908997 100.0 5 -0.019142765551805496
-0.827527642250061 6.653247833251953 1.3032255172729492 100.0 13 -0.019140461459755898
-0.2267250269651413 1.8254497051239014 -0.0964028462767601 7.0 6 -0.0191381573677063
-0.8224625587463379 6.6314215660095215 1.5427144765853882 100.0 14 -0.0191358532756567
-0.22488895058631897 1.8158483505249023 -0.03193790465593338 7.0 7 -0.0191335491836071
-0.8218131065368652 6.6451735496521 1.7941336631774902 63.0 15 -0.019131245091557503
-0.222556933760643 1.8178222179412842 -0.4907209575176239 90.0 0 -0.019110510125756264
-0.2215503454208374 1.8122296333312988 0.031868092715740204 92.0 8 -0.019108206033706665
-0.2219724953174591 1.818317174911499 -0.4229080080986023 90.0 1 -0.019105901941657066
-0.22064946591854095 1.8100985288619995 0.09556546807289124 100.0 9 -0.019103597849607468
-0.2197434902191162 1.802666425704956 -0.35299667716026306 97.0 2 -0.01910129375755787
-0.8132193088531494 6.680980682373047 0.5888242125511169 90.0 10 -0.01909898966550827
-0.22022800147533417 1.8119134902954102 -0.28909093141555786 100.0 3 -0.01909668557345867
-0.808398962020874 6.6607346534729 0.8238368034362793 97.0 11 -0.019094381481409073
-0.21995912492275238 1.8149902820587158 -0.22448335587978363 96.0 4 -0.019092077389359474
-0.8059226870536804 6.659793376922607 1.0625029802322388 83.0 12 -0.019089773297309875
-0.21869860589504242 1.809870958328247 -0.15949499607086182 100.0 5 -0.019087469205260277
-0.804770827293396 6.659993648529053 1.3039886951446533 100.0 13 -0.019085165113210678
-0.22106888890266418 1.8321784734725952 -0.09671685099601746 8.0 6 -0.01908286102116108
-0.80117267370224 6.649730682373047 1.5463136434555054 100.0 14 -0.01908055692911148
-0.21735522150993347 1.8066953420639038 -0.03176337853074074 8.0 7 -0.019078252837061882
-0.7972278594970703 6.636493682861328 1.7910279035568237 63.0 15 -0.019075948745012283
-0.21543771028518677 1.8147889375686646 -0.48968565464019775 89.0 0 -0.019055213779211044
-0.21333850920200348 1.7971057891845703 0.031588856130838394 100.0 8 -0.019052909687161446
-0.21562440693378448 1.8190809488296509 -0.4229080080986023 89.0 1 -0.019050605595111847
-0.21526822447776794 1.8187915086746216 0.09598415344953537 100.0 9 -0.019048301503062248
-0.21382656693458557 1.8093087673187256 -0.354141503572464 99.0 2 -0.01904599741101265
-0.787794291973114 6.676001071929932 0.5881268978118896 93.0 10 -0.01904369331896305
-0.21219901740550995 1.8009376525878906 -0.2872137129306793 100.0 3 -0.019041389226913452
-0.7856065034866333 6.667459011077881 0.8243243098258972 97.0 11 -0.019039085134863853
-0.21408656239509583 1.8196897506713867 -0.22497083246707916 94.0 4 -0.019036781042814255
-0.7833635807037354 6.668451309204102 1.0634416341781616 88.0 12 -0.019034476950764656
-0.21168285608291626 1.8046869039535522 -0.15897206962108612 100.0 5 -0.019032172858715057
-0.7798969149589539 6.658999443054199 1.3032255172729492 100.0 13 -0.01902986876666546
-0.21412056684494019 1.8309926986694336 -0.09661218523979187 6.0 6 -0.01902756653726101
-0.7765702605247498 6.650686740875244 1.5458637475967407 100.0 14 -0.01902526244521141
-0.21290223300457 1.8233327865600586 -0.032042618840932846 9.0 7 -0.019022958353161812
-0.7736081480979919 6.635398864746094 1.7899925708770752 63.0 15 -0.019020654261112213
-0.20954319834709167 1.8193682432174683 -0.4907209575176239 89.0 0 -0.018999917432665825
-0.20743440091609955 1.8038356304168701 0.03169357031583786 100.0 8 -0.018997613340616226
-0.20851150155067444 1.8159867525100708 -0.4220081865787506 89.0 1 -0.018995309248566628
-0.20846286416053772 1.8155633211135864 0.095774807035923 100.0 9 -0.01899300515651703
-0.2086271494626999 1.8197964429855347 -0.3560495972633362 100.0 2 -0.01899070106446743
-0.7651638984680176 6.6846489906311035 0.5886498689651489 96.0 10 -0.01898839697241783
-0.2068088799715042 1.809517741203308 -0.2884652018547058 100.0 3 -0.018986092880368233
-0.761165201663971 6.67029333114624 0.8243243098258972 99.0 11 -0.018983788788318634
-0.20786459743976593 1.8244071006774902 -0.2254583090543747 96.0 4 -0.018981486558914185
-0.7609742283821106 6.6789960861206055 1.0646930932998657 88.0 12 -0.018979182466864586
-0.20605799555778503 1.8113535642623901 -0.15949499607086182 100.0 5 -0.018976878374814987
-0.7562061548233032 6.657779216766357 1.3024622201919556 100.0 13 -0.01897457428276539
-0.20570190250873566 1.8138681650161743 -0.09567013382911682 7.0 6 -0.01897227019071579
-0.7551025748252869 6.668848514556885 1.5494630336761475 100.0 14 -0.01896996609866619
-0.2076607495546341 1.8339998722076416 -0.03221714124083519 11.0 7 -0.018967662006616592
-0.7504461407661438 6.638058185577393 1.7899925708770752 63.0 15 -0.018965357914566994
-0.20404799282550812 1.827768325805664 -0.49279147386550903 89.0 0 -0.018944621086120605
-0.2014518827199936 1.8045135736465454 0.03169357031583786 100.0 8 -0.018942316994071007
-0.20205694437026978 1.812794804573059 -0.4211083948612213 90.0 1 -0.018940012902021408
-0.20190271735191345 1.8142950534820557 0.09567013382911682 100.0 9 -0.01893770880997181
-0.2027067244052887 1.8244162797927856 -0.35681283473968506 100.0 2 -0.01893540471792221
-0.7429284453392029 6.69718074798584 0.5895214676856995 93.0 10 -0.01893310248851776
-0.20080752670764923 1.8101935386657715 -0.2884652018547058 100.0 3 -0.018930798396468163
-0.7377286553382874 6.660943508148193 0.8228618502616882 99.0 11 -0.018928494304418564
-0.20094116032123566 1.8171939849853516 -0.22448335587978363 94.0 4 -0.018926190212368965
-0.738527238368988 6.689465045928955 1.0659445524215698 88.0 12 -0.018923886120319366
-0.20060661435127258 1.8199834823608398 -0.16019225120544434 100.0 5 -0.018921582028269768
-0.7349826097488403 6.668056011199951 1.3039886951446533 100.0 13 -0.01891927793622017
-0.19968612492084503 1.8145402669906616 -0.09567013382911682 7.0 6 -0.01891697384417057
-0.7308599352836609 6.651944160461426 1.5449639558792114 100.0 14 -0.01891466975212097
-0.19973169267177582 1.8207992315292358 -0.03197281062602997 9.0 7 -0.018912365660071373
-0.727689266204834 6.6444783210754395 1.7910279035568237 63.0 15 -0.018910061568021774
-0.19840121269226074 1.8322762250900269 -0.4938267767429352 89.0 0 -0.018889324739575386
-0.1957968771457672 1.8111701011657715 0.031798284500837326 100.0 8 -0.018887022510170937
-0.1957273930311203 1.8134891986846924 -0.4211083948612213 90.0 1 -0.018884718418121338
-0.19449809193611145 1.8050600290298462 0.0951467752456665 100.0 9 -0.01888241432607174
-0.19518283009529114 1.8114148378372192 -0.354141503572464 99.0 2 -0.01888011023402214
-0.7209269404411316 6.701588153839111 0.5896957516670227 96.0 10 -0.018877806141972542
-0.194487065076828 1.8108834028244019 -0.2884652018547058 100.0 3 -0.018875502049922943
-0.7157410979270935 6.675320625305176 0.8243243098258972 99.0 11 -0.018873197957873344
-0.19396327435970306 1.8119629621505737 -0.22375212609767914 99.0 4 -0.018870893865823746
-0.7130712866783142 6.672360420227051 1.0628159046173096 85.0 12 -0.018868589773774147
-0.19393545389175415 1.8146954774856567 -0.15966932475566864 100.0 5 -0.01886628568172455
-0.7112839221954346 6.666676998138428 1.3032255172729492 100.0 13 -0.01886398158967495
-0.19504371285438538 1.831114411354065 -0.09650751203298569 7.0 6 -0.01886167749762535
-0.7090765237808228 6.6680192947387695 1.548113226890564 100.0 14 -0.018859373405575752
