# .PCD v0.7 - Point Cloud Data file format
VERSION 0.7
FIELDS x y z intensity ring time
SIZE 4 4 4 4 4 4
TYPE F F F F F F
COUNT 1 1 1 1 1 1
WIDTH 542
HEIGHT 1
VIEWPOINT 0 0 0 1 0 0 0
POINTS 542
DATA ascii
2.0850892066955566 -2.097499370574951 0.05162421986460686 79.0 8 -0.029947055503726006
1.4986321926116943 -1.5080780982971191 -0.4908432364463806 1.0 1 -0.029944751411676407
2.080775260925293 -2.0938901901245117 0.15470509231090546 76.0 9 -0.029942447319626808
1.4458823204040527 -1.4555037021636963 -0.3987908363342285 1.0 2 -0.02994014322757721
2.0805883407592773 -2.0951645374298096 0.2583296298980713 68.0 10 -0.02993783913552761
1.4570820331573486 -1.4678022861480713 -0.3275738060474396 2.0 3 -0.029935535043478012
2.0848238468170166 -2.100895881652832 0.3634144067764282 82.0 11 -0.029933230951428413
1.4388220310211182 -1.4499140977859497 -0.25080713629722595 1.0 4 -0.029930926859378815
2.0867760181427 -2.103597402572632 0.4693034589290619 91.0 12 -0.029928622767329216
2.072110891342163 -2.089543104171753 -0.25745806097984314 75.0 5 -0.029926318675279617
2.098119020462036 -2.116508722305298 0.5792961716651917 85.0 13 -0.02992401458323002
2.084878921508789 -2.1038870811462402 -0.15522846579551697 90.0 6 -0.02992171049118042
2.1000728607177734 -2.1192197799682617 0.6888001561164856 100.0 14 -0.02991940826177597
2.067352056503296 -2.0869288444519043 -0.05127517133951187 77.0 7 -0.029917104169726372
2.078420877456665 -2.098834991455078 0.7914686799049377 80.0 15 -0.029914800077676773
1.0358911752700806 -1.048624873161316 -0.39495787024497986 5.0 0 -0.029894063249230385
2.0640711784362793 -2.0901734828948975 0.05127517133951187 81.0 8 -0.029891759157180786
1.468980312347412 -1.4880763292312622 -0.4827449917793274 2.0 1 -0.029889455065131187
2.0766265392303467 -2.1036217212677 0.15491443872451782 76.0 9 -0.02988715097308159
1.436910629272461 -1.4560980796813965 -0.3976459801197052 2.0 2 -0.02988484688103199
2.0680325031280518 -2.096379041671753 0.25763237476348877 72.0 10 -0.02988254278898239
1.4355626106262207 -1.4557479619979858 -0.3238193988800049 2.0 3 -0.029880238696932793
2.0722713470458984 -2.1021435260772705 0.36243945360183716 79.0 11 -0.029877934604883194
2.065303325653076 -2.0950748920440674 -0.3612207770347595 64.0 4 -0.029875630512833595
2.0728561878204346 -2.103470802307129 0.46773913502693176 76.0 12 -0.029873326420783997
2.059576988220215 -2.0907254219055176 -0.2567608058452606 77.0 5 -0.029871024191379547
2.0814461708068848 -2.1136627197265625 0.5766248106956482 81.0 13 -0.02986872009932995
2.0750885009765625 -2.107942581176758 -0.1550191193819046 87.0 6 -0.02986641600728035
2.073894500732422 -2.1067299842834473 0.6825015544891357 90.0 14 -0.02986411191523075
2.063225507736206 -2.096623420715332 -0.05134497955441475 77.0 7 -0.029861807823181152
2.056547164916992 -2.090566635131836 0.7857747077941895 82.0 15 -0.029859503731131554
1.0391734838485718 -1.058948278427124 -0.39754605293273926 6.0 0 -0.029838766902685165
2.0515270233154297 -2.091296672821045 0.05113555118441582 84.0 8 -0.029836462810635567
1.4558509588241577 -1.4845911264419556 -0.4800455868244171 2.0 1 -0.029834158718585968
2.066474437713623 -2.1080052852630615 0.15470509231090546 79.0 9 -0.02983185462653637
1.4416943788528442 -1.4706687927246094 -0.4003172814846039 1.0 2 -0.02982955053448677
2.0610692501068115 -2.1032252311706543 0.25763237476348877 72.0 10 -0.029827246442437172
1.4362565279006958 -1.4661449193954468 -0.325070858001709 1.0 3 -0.029824944213032722
2.0597333908081055 -2.103330373764038 0.3614645004272461 82.0 11 -0.029822640120983124
2.053811550140381 -2.098015785217285 -0.36048954725265503 58.0 4 -0.029820336028933525
2.066882610321045 -2.112105369567871 0.4680519700050354 78.0 12 -0.029818031936883926
2.0470588207244873 -2.0918476581573486 -0.2560635805130005 77.0 5 -0.029815727844834328
2.0661885738372803 -2.112133264541626 0.5743350982666016 81.0 13 -0.02981342375278473
2.0555191040039062 -2.1019606590270996 -0.15407708287239075 92.0 6 -0.02981111966073513
2.0787882804870605 -2.126497507095337 0.6865506172180176 95.0 14 -0.02980881556868553
2.051701307296753 -2.099522113800049 -0.05124026536941528 84.0 7 -0.029806511476635933
2.0519371032714844 -2.100496530532837 0.7868099212646484 82.0 15 -0.029804207384586334
1.0327742099761963 -1.0598022937774658 -0.3965107798576355 6.0 0 -0.029783470556139946
2.041424036026001 -2.095580577850342 0.05106574296951294 84.0 8 -0.029781166464090347
1.4452216625213623 -1.4840795993804932 -0.47824597358703613 2.0 1 -0.029778864234685898
2.049351453781128 -2.1051878929138184 0.15397240221500397 81.0 9 -0.0297765601426363
1.433813452720642 -1.4728788137435913 -0.399554044008255 1.0 2 -0.0297742560505867
2.050935983657837 -2.107551097869873 0.2572837471961975 72.0 10 -0.029771951958537102
2.0330586433410645 -2.089909791946411 -0.46179458498954773 52.0 3 -0.029769647866487503
2.038539171218872 -2.096276044845581 0.35902711749076843 83.0 11 -0.029767343774437904
2.036790132522583 -2.0952086448669434 -0.35878339409828186 75.0 4 -0.029765039682388306
2.059497356414795 -2.119307279586792 0.4680519700050354 78.0 12 -0.029762735590338707
2.0369672775268555 -2.096122980117798 -0.25571495294570923 77.0 5 -0.02976043149828911
2.054698944091797 -2.115108013153076 0.5731902718544006 83.0 13 -0.02975812740623951
2.039820671081543 -2.1005258560180664 -0.15344904363155365 92.0 6 -0.02975582331418991
2.0442051887512207 -2.105775833129883 0.6775525808334351 83.0 14 -0.029753519222140312
2.0443601608276367 -2.106671094894409 -0.05124026536941528 84.0 7 -0.029751215130090714
2.0392117500305176 -2.102099657058716 0.7847393751144409 84.0 15 -0.029748911038041115
1.0344421863555908 -1.0689538717269897 -0.3985813558101654 6.0 0 -0.029728176072239876
2.031315803527832 -2.0998191833496094 0.05099593102931976 79.0 8 -0.029725871980190277
1.461707353591919 -1.5115289688110352 -0.48544439673423767 2.0 1 -0.02972356788814068
2.0336616039276123 -2.103712558746338 0.15334436297416687 81.0 9 -0.02972126379609108
1.439579725265503 -1.4891670942306519 -0.4026069939136505 1.0 2 -0.02971895970404148
2.0435667037963867 -2.1146974563598633 0.2572837471961975 72.0 10 -0.029716655611991882
2.024378776550293 -2.0955731868743896 -0.4614817202091217 103.0 3 -0.029714351519942284
2.028451681137085 -2.1005232334136963 0.3585396409034729 83.0 11 -0.029712047427892685
2.0211915969848633 -2.093736171722412 -0.3573209345340729 78.0 4 -0.029709743335843086
2.0411131381988525 -2.115111827850342 0.4655490219593048 78.0 12 -0.029707439243793488
2.0296380519866943 -2.1032207012176514 -0.25571495294570923 77.0 5 -0.02970513515174389
2.0513925552368164 -2.1265060901641846 0.5743350982666016 78.0 13 -0.02970283105969429
2.0324764251708984 -2.107633113861084 -0.15344904363155365 94.0 6 -0.02970052696764469
2.043604612350464 -2.1199135780334473 0.6798021197319031 90.0 14 -0.029698222875595093
2.021730422973633 -2.0979552268981934 -0.05085631087422371 81.0 7 -0.029695918783545494
2.0318617820739746 -2.1092050075531006 0.7847393751144409 84.0 15 -0.029693614691495895
1.0253503322601318 -1.0669864416122437 -0.3965107798576355 6.0 0 -0.029672879725694656
2.0212032794952393 -2.1040124893188477 0.050926122814416885 86.0 8 -0.029670575633645058
1.4510231018066406 -1.5109997987747192 -0.4836447834968567 1.0 1 -0.02966827154159546
2.026305675506592 -2.1107985973358154 0.15334436297416687 81.0 9 -0.02966596744954586
1.4846775531768799 -1.5465855598449707 -0.41672685742378235 2.0 2 -0.02966366335749626
2.0223772525787354 -2.107442617416382 0.2555406391620636 72.0 10 -0.029661359265446663
2.0115814208984375 -2.0969247817993164 -0.4602302610874176 90.0 3 -0.029659055173397064
2.0211069583892822 -2.107590913772583 0.3585396409034729 85.0 11 -0.029656751081347466
2.0111234188079834 -2.0979127883911133 -0.35683348774909973 80.0 4 -0.029654446989297867
2.025517702102661 -2.113666296005249 0.46367183327674866 82.0 12 -0.029652142897248268
2.011256217956543 -2.0987842082977295 -0.2543204724788666 83.0 5 -0.02964983880519867
2.0371665954589844 -2.1265652179718018 0.5724270343780518 83.0 13 -0.02964753471314907
2.0223441123962402 -2.111830234527588 -0.15323969721794128 92.0 6 -0.029645230621099472
2.0334973335266113 -2.1242189407348633 0.6789023280143738 100.0 14 -0.029642926529049873
2.0033345222473145 -2.0934417247772217 -0.0505770742893219 81.0 7 -0.029640622437000275
2.0111327171325684 -2.102324962615967 0.7795630097389221 88.0 15 -0.029638320207595825
1.016284704208374 -1.0649687051773071 -0.394440233707428 6.0 0 -0.029617583379149437
2.0028042793273926 -2.0994796752929688 0.050646886229515076 84.0 8 -0.029615279287099838
1.4780168533325195 -1.5499026775360107 -0.4944424629211426 1.0 1 -0.02961297519505024
2.0137815475463867 -2.111725091934204 0.15292568504810333 84.0 9 -0.02961067110300064
1.507717490196228 -1.581600308418274 -0.42474085092544556 5.0 2 -0.029608367010951042
2.0067617893218994 -2.105834722518921 0.2544947564601898 72.0 10 -0.029606062918901443
1.9933494329452515 -2.092491626739502 -0.4577272832393646 97.0 3 -0.029603758826851845
2.0082621574401855 -2.1088829040527344 0.35756468772888184 85.0 11 -0.029601454734802246
2.0037879943847656 -2.1049201488494873 -0.35683348774909973 80.0 4 -0.029599150642752647
2.014411211013794 -2.116079330444336 0.4627332091331482 84.0 12 -0.02959684655070305
1.99842369556427 -2.1000187397003174 -0.25362318754196167 83.0 5 -0.02959454245865345
2.0189058780670166 -2.122283935546875 0.5693740844726562 78.0 13 -0.029592240229249
2.012207269668579 -2.1159818172454834 -0.15303035080432892 99.0 6 -0.029589936137199402
2.013986110687256 -2.1185927391052246 0.6748532056808472 85.0 14 -0.029587632045149803
1.9977591037750244 -2.101522922515869 -0.05061197653412819 84.0 7 -0.029585327953100204
1.9961655139923096 -2.1005804538726807 0.7764571905136108 99.0 15 -0.029583023861050606
1.0152188539505005 -1.0713142156600952 -0.3954755365848541 6.0 0 -0.029562287032604218
1.9875781536102295 -2.097400665283203 0.050437454134225845 84.0 8 -0.02955998294055462
1.9861619472503662 -2.096639394760132 -0.666754961013794 27.0 1 -0.02955767884850502
2.0036516189575195 -2.1158411502838135 0.15271633863449097 84.0 9 -0.02955537475645542
1.5089359283447266 -1.5939823389053345 -0.42664891481399536 5.0 2 -0.029553070664405823
2.0007681846618652 -2.114274024963379 0.25466907024383545 76.0 10 -0.029550766572356224
1.9809684753417969 -2.093351125717163 -0.4564758241176605 104.0 3 -0.029548462480306625
1.9958009719848633 -2.109762668609619 0.35658973455429077 82.0 11 -0.029546160250902176
1.9940688610076904 -2.108668565750122 -0.3563459813594818 80.0 4 -0.029543856158852577
2.007012367248535 -2.123098134994507 0.4627332091331482 84.0 12 -0.02954155206680298
1.9883441925048828 -2.104085683822632 -0.2532745897769928 80.0 5 -0.02953924797475338
2.0037662982940674 -2.120405673980713 0.5670843720436096 76.0 13 -0.02953694388270378
1.9846066236495972 -2.100864887237549 -0.15146027505397797 100.0 6 -0.029534639790654182
2.013639450073242 -2.1323437690734863 0.6771027445793152 100.0 14 -0.029532335698604584
1.9876658916473389 -2.1055753231048584 -0.05054216831922531 91.0 7 -0.029530031606554985
1.9888207912445068 -2.1075356006622314 0.7764571905136108 99.0 15 -0.029527727514505386
1.0116605758666992 -1.0746749639511108 -0.3954755365848541 7.0 0 -0.029506990686058998
1.977504014968872 -2.1014134883880615 0.05036764591932297 81.0 8 -0.0295046865940094
1.9761605262756348 -2.1007206439971924 -0.6658551692962646 96.0 1 -0.0295023825019598
1.988044261932373 -2.1140923500061035 0.15208829939365387 84.0 9 -0.029500078409910202
1.5090217590332031 -1.6046983003616333 -0.4281754195690155 5.0 2 -0.029497776180505753
1.9923813343048096 -2.119445562362671 0.2544947564601898 80.0 10 -0.029495472088456154
1.9777072668075562 -2.104571580886841 -0.4574144184589386 100.0 3 -0.029493167996406555
1.9748332500457764 -2.102248191833496 0.3541523516178131 83.0 11 -0.029490863904356956
1.9731072187423706 -2.1011457443237305 -0.35390859842300415 80.0 4 -0.029488559812307358
1.9941810369491577 -2.1243298053741455 0.4614817202091217 86.0 12 -0.02948625572025776
1.9786286354064941 -2.107762575149536 -0.25292596220970154 83.0 5 -0.02948395162820816
1.9882919788360596 -2.1187973022460938 0.564794659614563 76.0 13 -0.02948164753615856
1.9772610664367676 -2.1077795028686523 -0.15146027505397797 100.0 6 -0.029479343444108963
1.9861886501312256 -2.118037223815918 0.6703541874885559 76.0 14 -0.029477039352059364
1.9789361953735352 -2.111041784286499 -0.05050726234912872 88.0 7 -0.029474735260009766
1.9735262393951416 -2.1060073375701904 0.7733513712882996 88.0 15 -0.029472431167960167
1.0052645206451416 -1.0753772258758545 -0.394440233707428 6.0 0 -0.029451696202158928
1.9646952152252197 -2.102459192276001 0.05022802576422691 86.0 8 -0.02944939211010933
1.9555128812789917 -2.09336519241333 -0.6613561511039734 71.0 1 -0.02944708801805973
1.9697473049163818 -2.1093411445617676 0.1512509286403656 81.0 9 -0.029444783926010132
1.4953712224960327 -1.601346492767334 -0.42588570713996887 5.0 2 -0.029442479833960533
1.9836114645004272 -2.1249310970306396 0.2543204724788666 81.0 10 -0.029440175741910934
1.9636106491088867 -2.104241371154785 -0.4558500647544861 97.0 3 -0.029437871649861336
1.9701910018920898 -2.1120316982269287 0.35463979840278625 85.0 11 -0.029435567557811737
1.9603455066680908 -2.102213144302368 -0.3529336452484131 80.0 4 -0.02943326346576214
1.9786717891693115 -2.1226084232330322 0.45960453152656555 86.0 12 -0.02943095937371254
1.9685418605804443 -2.111741542816162 -0.2525773346424103 83.0 5 -0.02942865528166294
1.982222318649292 -2.1271612644195557 0.565176248550415 83.0 13 -0.029426351189613342
1.9671688079833984 -2.111745834350586 -0.1512509286403656 100.0 6 -0.029424047097563744
1.9774551391601562 -2.1235313415527344 0.6699042916297913 81.0 14 -0.029421743005514145
1.957930088043213 -2.103299856185913 -0.05015821382403374 88.0 7 -0.029419438913464546
1.9687950611114502 -2.1157116889953613 0.7743865847587585 86.0 15 -0.029417134821414948
1.0067620277404785 -1.0845431089401245 -0.3965107798576355 7.0 0 -0.02939639985561371
1.95734441280365 -2.109304428100586 0.05022802576422691 84.0 8 -0.02939409576356411
1.9521697759628296 -2.104464530944824 -0.6627058386802673 79.0 1 -0.02939179167151451
1.9596563577651978 -2.1132748126983643 0.15104158222675323 84.0 9 -0.029389487579464912
1.4724184274673462 -1.5878421068191528 -0.42092466354370117 4.0 2 -0.029387183487415314
1.965346336364746 -2.1201529502868652 0.25292596220970154 83.0 10 -0.029384879395365715
1.9508827924728394 -2.1052873134613037 -0.454598605632782 97.0 3 -0.029382575303316116
1.9574106931686401 -2.1130714416503906 0.3536648750305176 82.0 11 -0.029380271211266518
1.9502978324890137 -2.106130361557007 -0.35244616866111755 83.0 4 -0.02937796711921692
1.957831621170044 -2.1150059700012207 0.4564758241176605 86.0 12 -0.02937566302716732
1.9499633312225342 -2.107243537902832 -0.2511828541755676 85.0 5 -0.02937335893511772
1.9761184453964233 -2.1355085372924805 0.5655578970909119 78.0 13 -0.029371054843068123
1.955716609954834 -2.114201068878174 -0.15093690156936646 99.0 6 -0.029368750751018524
1.9673844575881958 -2.1275594234466553 0.669004499912262 81.0 14 -0.029366446658968925
1.947861671447754 -2.107184648513794 -0.05008840560913086 88.0 7 -0.029364142566919327
1.9522203207015991 -2.1126394271850586 0.7707631587982178 91.0 15 -0.029361838474869728
0.9870707988739014 -1.0711778402328491 -0.39029911160469055 7.0 0 -0.02934110350906849
1.9418390989303589 -2.1073007583618164 0.05001859739422798 84.0 8 -0.02933879941701889
1.939530611038208 -2.1055328845977783 -0.6609062552452087 79.0 1 -0.02933649532496929
1.9522677659988403 -2.120102643966675 0.15104158222675323 84.0 9 -0.029334191232919693
1.471907138824463 -1.5990058183670044 -0.42245110869407654 5.0 2 -0.029331887140870094
1.9440711736679077 -2.1126809120178223 0.2511828541755676 79.0 10 -0.029329583048820496
1.9364666938781738 -2.105154275894165 -0.45303425192832947 100.0 3 -0.029327278956770897
1.9553982019424438 -2.125734806060791 0.35463979840278625 83.0 11 -0.029324974864721298
1.9456217288970947 -2.11584734916687 -0.3529336452484131 83.0 4 -0.0293226707726717
1.953110694885254 -2.1247360706329346 0.4571015536785126 88.0 12 -0.0293203666806221
1.934507131576538 -2.1052350997924805 -0.25013697147369385 80.0 5 -0.029318062588572502
1.9536687135696411 -2.1268327236175537 0.5613601207733154 81.0 13 -0.029315758496522903
1.9533580541610718 -2.127239465713501 -0.15135560929775238 100.0 6 -0.029313456267118454
1.9608910083770752 -2.1361913681030273 0.6694543957710266 85.0 14 -0.029311152175068855
1.939141869544983 -2.1124980449676514 -0.05005349963903427 91.0 7 -0.029308848083019257
1.9343847036361694 -2.1080539226531982 0.7666220664978027 92.0 15 -0.029306543990969658
0.9885422587394714 -1.080317735671997 -0.39236968755722046 6.0 0 -0.02928580716252327
1.9206056594848633 -2.0996487140655518 0.049669548869132996 81.0 8 -0.02928350307047367
1.9239102602005005 -2.1039986610412598 -0.6582068204879761 81.0 1 -0.029281198978424072
1.9390937089920044 -2.121346950531006 0.1506228893995285 84.0 9 -0.029278894886374474
1.4649922847747803 -1.6026852130889893 -0.4220695197582245 5.0 2 -0.029276590794324875
1.933996558189392 -2.1165122985839844 0.25083422660827637 83.0 10 -0.029274286702275276
1.9237775802612305 -2.106066942214966 -0.45178279280662537 100.0 3 -0.029271982610225677
1.9315314292907715 -2.1152966022491455 0.35171496868133545 85.0 11 -0.02926967851817608
1.9325003623962402 -2.1171000003814697 -0.3519587218761444 78.0 4 -0.02926737442612648
1.93998384475708 -2.1260433197021484 0.4558500647544861 88.0 12 -0.02926507219672203
1.9267780780792236 -2.1123111248016357 -0.25013697147369385 83.0 5 -0.029262768104672432
1.9356484413146973 -2.122035503387451 0.5583071708679199 83.0 13 -0.029260464012622833
1.9257349967956543 -2.111907720565796 -0.14978553354740143 100.0 6 -0.029258159920573235
1.946858525276184 -2.135822057723999 0.6672048568725586 81.0 14 -0.029255855828523636
1.9300392866134644 -2.1181130409240723 -0.05001859739422798 95.0 7 -0.029253551736474037
1.9240436553955078 -2.1122732162475586 0.765586793422699 92.0 15 -0.02925124764442444
0.987173855304718 -1.0867936611175537 -0.3934049606323242 6.0 0 -0.02923051081597805
1.9159537553787231 -2.1093006134033203 0.04973935708403587 81.0 8 -0.02922820672392845
1.9113142490386963 -2.104930877685547 -0.6564072370529175 81.0 1 -0.029225902631878853
1.9236228466033936 -2.119229555130005 0.1499948650598526 84.0 9 -0.029223598539829254
1.4630661010742188 -1.61240553855896 -0.4232143759727478 6.0 2 -0.029221296310424805
1.928903579711914 -2.126538038253784 0.2511828541755676 79.0 10 -0.029218990355730057
1.9120649099349976 -2.1087136268615723 -0.4508441984653473 104.0 3 -0.029216688126325607
1.9188021421432495 -2.1161437034606934 0.350739985704422 82.0 11 -0.02921438403427601
1.9091005325317383 -2.1061830520629883 -0.34903383255004883 83.0 4 -0.02921207994222641
1.9325509071350098 -2.1328022480010986 0.4558500647544861 88.0 12 -0.02920977585017681
1.9193930625915527 -2.1190240383148193 -0.25013697147369385 85.0 5 -0.029207471758127213
1.9225866794586182 -2.1232948303222656 0.5567806959152222 81.0 13 -0.029205167666077614
1.912619948387146 -2.1130287647247314 -0.1493668258190155 100.0 6 -0.029202863574028015
1.9311723709106445 -2.1342735290527344 0.6645054817199707 75.0 14 -0.029200559481978416
1.9172672033309937 -2.118906021118164 -0.04987897723913193 88.0 7 -0.029198255389928818
1.9140669107437134 -2.1161112785339355 0.7645515203475952 92.0 15 -0.02919595129787922
0.9837548136711121 -1.0898895263671875 -0.3934049606323242 6.0 0 -0.029139280319213867
1.9035900831222534 -2.109703779220581 0.04959974065423012 81.0 8 -0.02913697622716427
1.8991024494171143 -2.105468988418579 -0.6546075940132141 83.0 1 -0.02913467213511467
1.9085596799850464 -2.11669659614563 0.1493668258190155 84.0 9 -0.02913236804306507
1.4593079090118408 -1.6184519529342651 -0.42359596490859985 5.0 2 -0.029130063951015472
1.919545292854309 -2.1296274662017822 0.25083422660827637 79.0 10 -0.029127759858965874
1.9014637470245361 -2.1103076934814453 -0.4499055743217468 100.0 3 -0.029125455766916275
1.9091171026229858 -2.1195449829101562 0.35025250911712646 82.0 11 -0.029123151674866676
1.8941359519958496 -2.103651285171509 -0.34757140278816223 76.0 4 -0.029120847582817078
1.9188599586486816 -2.1318578720092773 0.45428574085235596 96.0 12 -0.02911854349076748
1.9100606441497803 -2.122081756591797 -0.24978835880756378 85.0 5 -0.02911623939871788
1.9211593866348267 -2.135161876678467 0.5583071708679199 85.0 13 -0.02911393716931343
1.9019653797149658 -2.114572048187256 -0.14905281364917755 96.0 6 -0.029111633077263832
1.910125494003296 -2.1243896484375 0.6595565676689148 85.0 14 -0.029109328985214233
1.9022098779678345 -2.1163289546966553 -0.049669548869132996 95.0 7 -0.029107024893164635
1.904456615447998 -2.119572639465332 0.7635161876678467 96.0 15 -0.029104720801115036
0.9747867584228516 -1.0875625610351562 -0.3913344144821167 7.0 0 -0.029083983972668648
1.8962143659591675 -2.116335868835449 0.04959974065423012 81.0 8 -0.02908167988061905
1.8917415142059326 -2.1120851039886475 -0.6546075940132141 83.0 1 -0.02907937578856945
1.8984949588775635 -2.1203699111938477 0.14915749430656433 84.0 9 -0.02907707169651985
1.4484113454818726 -1.6176856756210327 -0.4220695197582245 5.0 2 -0.029074767604470253
1.9014698266983032 -2.1244382858276367 0.24943974614143372 77.0 10 -0.029072463512420654
1.8980371952056885 -2.1213486194610596 -0.4508441984653473 111.0 3 -0.029070159420371056
1.8990600109100342 -2.123237133026123 0.34976503252983093 82.0 11 -0.029067857190966606
1.8867813348770142 -2.110250234603882 -0.34757140278816223 80.0 4 -0.029065553098917007
1.900875449180603 -2.126760482788086 0.45178279280662537 96.0 12 -0.02906324900686741
1.8920196294784546 -2.116852283477783 -0.24839386343955994 77.0 5 -0.02906094491481781
1.9084622859954834 -2.1359989643096924 0.5567806959152222 85.0 13 -0.02905864082276821
1.8919116258621216 -2.1182191371917725 -0.14884346723556519 96.0 6 -0.029056336730718613
1.9039963483810425 -2.132498025894165 0.6600064635276794 81.0 14 -0.029054032638669014
1.885489821434021 -2.1125128269195557 -0.049425214529037476 91.0 7 -0.029051728546619415
1.8867573738098145 -2.114675760269165 0.7593751549720764 94.0 15 -0.029049424454569817
0.9735531806945801 -1.0938446521759033 -0.39236968755722046 6.0 0 -0.02902868762612343
1.8755228519439697 -2.108001947402954 0.04925068840384483 89.0 8 -0.02902638353407383
1.8791770935058594 -2.112851142883301 -0.6528080105781555 83.0 1 -0.02902407944202423
1.8910819292068481 -2.126984119415283 0.14915749430656433 87.0 9 -0.02902177721261978
1.440146803855896 -1.6197973489761353 -0.421306312084198 5.0 2 -0.029019473120570183
1.8834537267684937 -2.1191489696502686 0.24804525077342987 83.0 10 -0.029017169028520584
1.8788126707077026 -2.1146702766418457 -0.4480283558368683 107.0 3 -0.029014864936470985
1.8890005350112915 -2.126884698867798 0.3492775857448578 82.0 11 -0.029012560844421387
1.879403829574585 -2.116823434829712 -0.34757140278816223 80.0 4 -0.029010256752371788
1.889506459236145 -2.128950595855713 0.4508441984653473 92.0 12 -0.02900795266032219
1.8740386962890625 -2.111522674560547 -0.2469993680715561 83.0 5 -0.02900564856827259
1.8931770324707031 -2.133836269378662 0.5544909834861755 83.0 13 -0.029003344476222992
1.8845062255859375 -2.124810218811035 -0.14884346723556519 96.0 6 -0.029001040384173393
1.896540641784668 -2.1391313076019287 0.6600064635276794 81.0 14 -0.028998736292123795
1.8834097385406494 -2.125067710876465 -0.04956483468413353 91.0 7 -0.028996432200074196
1.8742398023605347 -2.115464687347412 0.7573045492172241 92.0 15 -0.028994128108024597
0.9722877144813538 -1.1001315116882324 -0.3934049606323242 6.0 0 -0.028973393142223358
1.857561707496643 -2.1025471687316895 0.04897145554423332 81.0 8 -0.02897108905017376
1.86663019657135 -2.1135551929473877 -0.6510083675384521 83.0 1 -0.02896878495812416
1.8836458921432495 -2.1335721015930176 0.14915749430656433 84.0 9 -0.028966480866074562
1.4305858612060547 -1.620398998260498 -0.4201614260673523 5.0 2 -0.028964176774024963
1.8786818981170654 -2.1286983489990234 0.24839386343955994 79.0 10 -0.028961872681975365
1.862271785736084 -2.110846757888794 -0.4458382725715637 111.0 3 -0.028959568589925766
1.8736865520477295 -2.124532699584961 0.3478151261806488 78.0 11 -0.028957264497876167
1.8693774938583374 -2.1203925609588623 -0.3470838963985443 80.0 4 -0.02895496040582657
1.8846756219863892 -2.1384973526000977 0.45146992802619934 92.0 12 -0.02895265631377697
1.864021897315979 -2.1150619983673096 -0.24665075540542603 80.0 5 -0.02895035222172737
1.8727389574050903 -2.1257004737854004 0.5506747961044312 85.0 13 -0.028948048129677773
1.871797800064087 -2.125380039215088 -0.14842478930950165 100.0 6 -0.028945744037628174
1.8890621662139893 -2.145738363265991 0.6600064635276794 81.0 14 -0.028943439945578575
1.877301573753357 -2.1331300735473633 -0.04959974065423012 102.0 7 -0.028941135853528976
1.8642919063568115 -2.119093418121338 0.7562692761421204 88.0 15 -0.028938831761479378
0.9684416651725769 -1.1035187244415283 -0.3934049606323242 6.0 0 -0.02891809679567814
1.8528484106063843 -2.1120247840881348 0.0490412637591362 81.0 8 -0.02891579270362854
1.8489619493484497 -2.108337163925171 -0.6474091410636902 79.0 1 -0.02891348861157894
1.863020658493042 -2.1251158714294434 0.1481107771396637 87.0 9 -0.028911184519529343
1.4339802265167236 -1.6357166767120361 -0.42283275723457336 5.0 2 -0.028908880427479744
1.868613600730896 -2.132246255874634 0.24804525077342987 81.0 10 -0.028906576335430145
1.8535903692245483 -2.1158485412597656 -0.4455254077911377 107.0 3 -0.028904272243380547
1.858412504196167 -2.1220998764038086 0.3463527262210846 78.0 11 -0.028901968151330948
1.8515039682388306 -2.1149561405181885 -0.3451339900493622 78.0 4 -0.02889966405928135
1.8732967376708984 -2.1406030654907227 0.4505313038825989 96.0 12 -0.02889735996723175
1.8566278219223022 -2.1215555667877197 -0.24665075540542603 88.0 5 -0.028895055875182152
1.8627219200134277 -2.1292693614959717 0.5499115586280823 85.0 13 -0.028892751783132553
1.85516357421875 -2.1213765144348145 -0.14769208431243896 100.0 6 -0.028890447691082954
1.8712999820709229 -2.1405820846557617 0.6564072370529175 91.0 14 -0.028888143599033356
1.8606330156326294 -2.1291298866271973 -0.0493554063141346 91.0 7 -0.028885839506983757
1.8568835258483887 -2.1255881786346436 0.7562692761421204 91.0 15 -0.02888353541493416
0.9671220183372498 -1.1098053455352783 -0.394440233707428 6.0 0 -0.02886280044913292
1.845464825630188 -2.1184794902801514 0.0490412637591362 79.0 8 -0.02886049635708332
1.83903169631958 -2.1118392944335938 -0.6465093493461609 66.0 1 -0.028858192265033722
1.8503457307815552 -2.125580310821533 0.14769208431243896 84.0 9 -0.028855888172984123
1.4334181547164917 -1.64663565158844 -0.4243592619895935 5.0 2 -0.028853584080934525
1.8585435152053833 -2.1357498168945312 0.2476966232061386 77.0 10 -0.028851279988884926
1.85137939453125 -2.128267526626587 -0.4467768967151642 114.0 3 -0.028848975896835327
1.8457833528518677 -2.122582197189331 0.34537774324417114 83.0 11 -0.02884667180478573
1.8362962007522583 -2.112416982650757 -0.343671590089798 78.0 4 -0.02884436771273613
1.8567432165145874 -2.1366918087005615 0.4483412504196167 92.0 12 -0.02884206362068653
1.8492107391357422 -2.128023624420166 -0.24665075540542603 83.0 5 -0.028839759528636932
1.8578530550003052 -2.1387228965759277 0.5506747961044312 81.0 13 -0.028837455436587334
1.84381902217865 -2.1233153343200684 -0.147378072142601 96.0 6 -0.028835153207182884
1.8472095727920532 -2.127969980239868 0.6505585312843323 92.0 14 -0.028832849115133286
1.841394066810608 -2.122018814086914 -0.0490412637591362 95.0 7 -0.028830545023083687
1.8469209671020508 -2.129138469696045 0.7552340030670166 96.0 15 -0.028828240931034088
0.9543936252593994 -1.1029484272003174 -0.3908167779445648 6.0 0 -0.0288075041025877
1.8354421854019165 -2.1218841075897217 0.04897145554423332 81.0 8 -0.0288052000105381
1.8367475271224976 -2.1241419315338135 -0.6483089923858643 50.0 1 -0.028802895918488503
1.8445932865142822 -2.1332151889801025 0.14779675006866455 79.0 9 -0.028800591826438904
1.4173905849456787 -1.639746904373169 -0.421306312084198 5.0 2 -0.028798287734389305
1.8432610034942627 -2.1331794261932373 0.24665075540542603 83.0 10 -0.028795983642339706
1.8387738466262817 -2.128737211227417 -0.4455254077911377 107.0 3 -0.028793679550290108
1.8409574031829834 -2.132017135620117 0.3458652198314667 79.0 11 -0.02879137545824051
1.831505537033081 -2.1218197345733643 -0.3441590666770935 76.0 4 -0.02878907322883606
1.8444844484329224 -2.1368558406829834 0.4470897316932678 100.0 12 -0.02878676913678646
1.8261520862579346 -2.1163642406463623 -0.24455901980400085 80.0 5 -0.028784465044736862
1.8478118181228638 -2.142221689224243 0.5499115586280823 81.0 13 -0.028782160952687263
1.8363960981369019 -2.1297385692596436 -0.147378072142601 96.0 6 -0.028779856860637665
1.8410425186157227 -2.135880947113037 0.6510083675384521 85.0 14 -0.028777552768588066
1.8252081871032715 -2.1175105571746826 -0.04879692941904068 84.0 7 -0.028775248676538467
1.8297617435455322 -2.1235432624816895 0.7510929107666016 94.0 15 -0.02877294458448887
0.9517967700958252 -1.1077383756637573 -0.3913344144821167 7.0 0 -0.02875220775604248
1.8205764293670654 -2.1188583374023438 0.04876202344894409 86.0 8 -0.028749903663992882
1.8271540403366089 -2.1272644996643066 -0.6474091410636902 26.0 1 -0.028747599571943283
1.8306301832199097 -2.1320645809173584 0.14727339148521423 84.0 9 -0.028745295479893684
1.4014286994934082 -1.632766604423523 -0.4182533621788025 5.0 2 -0.028742991387844086
1.8306139707565308 -2.133551836013794 0.2459534853696823 79.0 10 -0.028740689158439636
1.8188416957855225 -2.1198315620422363 -0.44239670038223267 100.0 3 -0.028738385066390038
1.8338772058486938 -2.1381101608276367 0.3458652198314667 79.0 11 -0.02873608097434044
1.8218750953674316 -2.1248674392700195 -0.343671590089798 76.0 4 -0.02873377688229084
1.8254445791244507 -2.1297826766967773 0.4442739486694336 96.0 12 -0.02873147279024124
1.8135682344436646 -2.116673707962036 -0.24386176466941833 77.0 5 -0.028729168698191643
1.8355882167816162 -2.142374038696289 0.5483850836753845 87.0 13 -0.028726864606142044
1.82802414894104 -2.1342995166778564 -0.14727339148521423 100.0 6 -0.028724560514092445
1.8352168798446655 -2.1434547901153564 0.6514583230018616 94.0 14 -0.028722256422042847
1.8230066299438477 -2.129945755004883 -0.048936549574136734 91.0 7 -0.028719952329993248
1.8173145055770874 -2.1240456104278564 0.7490223050117493 90.0 15 -0.02871764823794365
0.9431015849113464 -1.105010986328125 -0.3892638683319092 6.0 0 -0.02869691140949726
1.807977318763733 -2.119115114212036 0.04862240329384804 86.0 8 -0.02869460918009281
1.1444365978240967 -1.3418587446212769 -0.4071614444255829 1.0 1 -0.028692305088043213
1.8218809366226196 -2.1369218826293945 0.14716872572898865 76.0 9 -0.028690000995993614
1.4049224853515625 -1.6478626728057861 -0.42092466354370117 6.0 2 -0.028687696903944016
1.8209441900253296 -2.13657808303833 0.24560487270355225 77.0 10 -0.028685392811894417
1.8075876235961914 -2.1216564178466797 -0.4414581060409546 111.0 3 -0.028683088719844818
1.8186801671981812 -2.1354312896728516 0.3444027900695801 82.0 11 -0.02868078462779522
1.8092992305755615 -2.1251678466796875 -0.3426966071128845 80.0 4 -0.02867848053574562
1.8179991245269775 -2.136141538619995 0.4442739486694336 94.0 12 -0.028676176443696022
1.803956389427185 -2.1196413040161133 -0.24351313710212708 77.0 5 -0.028673872351646423
1.8179214000701904 -2.136805772781372 0.545332133769989 85.0 13 -0.028671568259596825
1.8140932321548462 -2.1330604553222656 -0.14675003290176392 96.0 6 -0.028669264167547226
1.8251993656158447 -2.146878242492676 0.6505585312843323 90.0 14 -0.028666960075497627
1.8103808164596558 -2.1302013397216797 -0.04879692941904068 84.0 7 -0.02866465598344803
1.8073874711990356 -2.127431631088257 0.7479870915412903 94.0 15 -0.02866235189139843
0.9467326402664185 -1.1171389818191528 -0.39236968755722046 6.0 0 -0.02864161692559719
1.8005692958831787 -2.125413417816162 0.04862240329384804 86.0 8 -0.028639312833547592
1.134708046913147 -1.3398969173431396 -0.4053618311882019 2.0 1 -0.028637008741497993
1.8027962446212769 -2.129549026489258 0.1462266743183136 84.0 9 -0.028634704649448395
1.4067728519439697 -1.6617473363876343 -0.4232143759727478 6.0 2 -0.028632400557398796
1.8160489797592163 -2.145962953567505 0.2459534853696823 83.0 10 -0.028630096465349197
1.7988948822021484 -2.1264452934265137 -0.44114524126052856 107.0 3 -0.0286277923732996
1.8009605407714844 -2.129640579223633 0.34245288372039795 85.0 11 -0.02862548828125
1.7916179895401 -2.119342803955078 -0.3407467305660248 78.0 4 -0.0286231841892004
1.810531497001648 -2.14247465133667 0.4442739486694336 94.0 12 -0.028620880097150803
1.7991183996200562 -2.128969192504883 -0.24386176466941833 80.0 5 -0.028618576005101204
1.807917594909668 -2.140138864517212 0.5445688962936401 83.0 13 -0.028616271913051605
1.7989046573638916 -2.1302239894866943 -0.14612199366092682 99.0 6 -0.028613967821002007
1.8026095628738403 -2.1353671550750732 0.6451596617698669 96.0 14 -0.028611663728952408
1.8003544807434082 -2.133451223373413 -0.048727117478847504 84.0 7 -0.02860935963690281
1.7999504804611206 -2.133727788925171 0.7479870915412903 88.0 15 -0.02860705554485321
0.9527779817581177 -1.132262110710144 -0.3965107798576355 7.0 0 -0.02858632057905197
1.790564775466919 -2.1286251544952393 0.04855259507894516 86.0 8 -0.028584016487002373
1.1425659656524658 -1.3587646484375 -0.40986084938049316 5.0 1 -0.028581712394952774
1.7927815914154053 -2.1327712535858154 0.14601734280586243 81.0 9 -0.028579408302903175
1.3895941972732544 -1.653122067451477 -0.41977980732917786 6.0 2 -0.028577104210853577
1.8008568286895752 -2.143136978149414 0.24490763247013092 75.0 10 -0.028574800118803978
1.792731761932373 -2.1342239379882812 -0.4414581060409546 118.0 3 -0.02857249602675438
1.793515682220459 -2.1359140872955322 0.34245288372039795 85.0 11 -0.02857019193470478
1.7791039943695068 -2.119502067565918 -0.33977174758911133 80.0 4 -0.028567887842655182
1.7954233884811401 -2.139702081680298 0.44239670038223267 94.0 12 -0.028565583750605583
1.7891145944595337 -2.13218355178833 -0.24351313710212708 75.0 5 -0.028563279658555984
1.800436019897461 -2.1464366912841797 0.5445688962936401 83.0 13 -0.028560975566506386
1.7914578914642334 -2.1364905834198 -0.14612199366092682 94.0 6 -0.028558671474456787
1.788885474205017 -2.13417911529541 0.6429101228713989 87.0 14 -0.028556369245052338
1.7851907014846802 -2.130526065826416 -0.04851769283413887 91.0 7 -0.02855406515300274
1.7862889766693115 -2.1325929164886475 0.7453988790512085 88.0 15 -0.02855176106095314
0.9290011525154114 -1.1118613481521606 -0.3882285952568054 6.0 0 -0.028531024232506752
1.78056001663208 -2.1317930221557617 0.04848278686404228 86.0 8 -0.028528720140457153
1.1353180408477783 -1.3597530126571655 -0.4089610278606415 6.0 1 -0.028526416048407555
1.778926968574524 -2.131349563598633 0.1454939842224121 79.0 9 -0.028524111956357956
1.3838152885437012 -1.6579625606536865 -0.41977980732917786 5.0 2 -0.028521807864308357
1.7882591485977173 -2.1432907581329346 0.2442103773355484 79.0 10 -0.02851950377225876
1.782740592956543 -2.137434720993042 -0.44083237648010254 107.0 3 -0.02851719968020916
1.7796927690505981 -2.134538173675537 0.3412342071533203 87.0 11 -0.02851489558815956
1.7716946601867676 -2.125699520111084 -0.33977174758911133 78.0 4 -0.028512591496109962
1.7790921926498413 -2.1353328227996826 0.4402066469192505 84.0 12 -0.028510287404060364
1.7689074277877808 -2.1231088638305664 -0.24177002906799316 80.0 5 -0.028507985174655914
1.7929326295852661 -2.1527082920074463 0.5445688962936401 85.0 13 -0.028505681082606316
1.7839891910552979 -2.142730712890625 -0.14612199366092682 92.0 6 -0.028503376990556717
1.7776850461959839 -2.1359169483184814 0.6415604948997498 90.0 14 -0.028501072898507118
1.7739059925079346 -2.1321330070495605 -0.048412974923849106 88.0 7 -0.02849876880645752
1.7726575136184692 -2.1313889026641846 0.7428106665611267 91.0 15 -0.02849646471440792
0.9251143932342529 -1.1150972843170166 -0.3882285952568054 6.0 0 -0.028475727885961533
1.7628954648971558 -2.1256814002990723 0.048203546553850174 89.0 8 -0.028473423793911934
1.133052110671997 -1.3667082786560059 -0.40986084938049316 6.0 1 -0.028471119701862335
1.7714763879776 -2.1375463008880615 0.1454939842224121 79.0 9 -0.028468815609812737
1.3842833042144775 -1.67034113407135 -0.42168790102005005 6.0 2 -0.028466511517763138
1.77059805393219 -2.1372456550598145 0.24281588196754456 85.0 10 -0.02846420742571354
1.763929009437561 -2.1299521923065186 -0.4380165636539459 104.0 3 -0.02846190519630909
1.772231101989746 -2.140737295150757 0.3412342071533203 87.0 11 -0.02845960110425949
1.7667949199676514 -2.134929656982422 -0.34025922417640686 80.0 4 -0.028457297012209892
1.77666437625885 -2.147617816925049 0.4414581060409546 92.0 12 -0.028454992920160294
1.7538658380508423 -2.1200592517852783 -0.24072414636611938 75.0 5 -0.028452688828110695
1.7779005765914917 -2.149876356124878 0.5422792434692383 81.0 13 -0.028450384736061096
1.776498794555664 -2.148944854736328 -0.14612199366092682 100.0 6 -0.028448080644011497
1.7727012634277344 -2.145113706588745 0.642460286617279 92.0 14 -0.0284457765519619
1.762631893157959 -2.1336867809295654 -0.04830826073884964 91.0 7 -0.0284434724599123
1.7565959692001343 -2.127136707305908 0.7391872406005859 86.0 15 -0.0284411683678627
0.9236728549003601 -1.1213020086288452 -0.3892638683319092 7.0 0 -0.028420431539416313
1.750380039215088 -2.1256473064422607 0.04806393012404442 91.0 8 -0.028418127447366714
1.115889549255371 -1.3556092977523804 -0.4053618311882019 6.0 1 -0.028415825217962265
1.765273094177246 -2.145258903503418 0.1455986350774765 81.0 9 -0.028413521125912666
1.374701976776123 -1.6706148386001587 -0.42054301500320435 5.0 2 -0.028411217033863068
1.7656586170196533 -2.1464905738830566 0.243164524435997 81.0 10 -0.02840891294181347
1.7477009296417236 -2.125415802001953 -0.43582645058631897 100.0 3 -0.02840660884976387
1.760966181755066 -2.14231014251709 0.3405029773712158 96.0 11 -0.02840430475771427
1.7542909383773804 -2.13494873046875 -0.3392842710018158 80.0 4 -0.028402000665664673
1.7653954029083252 -2.1492276191711426 0.4405195116996765 86.0 12 -0.028399696573615074
1.7464545965194702 -2.1261684894561768 -0.24072414636611938 77.0 5 -0.028397392481565475
1.7629098892211914 -2.146965742111206 0.5399894714355469 83.0 13 -0.028395088389515877
1.7588492631912231 -2.142782688140869 -0.14528462290763855 94.0 6 -0.028392784297466278
1.7627304792404175 -2.148275375366211 0.6415604948997498 94.0 14 -0.02839048020541668
1.7602459192276 -2.1460111141204834 -0.048447877168655396 91.0 7 -0.02838817611336708
1.7491602897644043 -2.1332552433013916 0.7391872406005859 84.0 15 -0.028385872021317482
0.9197531938552856 -1.1245193481445312 -0.3892638683319092 6.0 0 -0.028365137055516243
1.742949366569519 -2.131744623184204 0.04806393012404442 91.0 8 -0.028362832963466644
1.1136173009872437 -1.3625138998031616 -0.4062616229057312 6.0 1 -0.028360528871417046
1.7505658864974976 -2.141822338104248 0.1449706107378006 81.0 9 -0.028358224779367447
1.366377592086792 -1.6723626852035522 -0.41977980732917786 5.0 2 -0.028355920687317848
1.7531137466430664 -2.1464684009552 0.2424672693014145 81.0 10 -0.02835361659526825
1.7390220165252686 -2.129973888397217 -0.43551361560821533 104.0 3 -0.02835131250321865
1.748456597328186 -2.142292022705078 0.33952799439430237 96.0 11 -0.028349008411169052
1.7392984628677368 -2.1318306922912598 -0.3378218412399292 85.0 4 -0.028346704319119453
1.7545124292373657 -2.1504781246185303 0.43958091735839844 88.0 12 -0.028344400227069855
1.7365037202835083 -2.129163980484009 -0.24037553369998932 80.0 5 -0.028342096135020256
1.754164218902588 -2.1515843868255615 0.5396078824996948 78.0 13 -0.028339792042970657
1.7475734949111938 -2.1442644596099854 -0.1449706107378006 100.0 6 -0.02833748795092106
1.7453739643096924 -2.142328977584839 0.6379612684249878 94.0 14 -0.02833518385887146
1.750593662261963 -2.148735761642456 -0.04837806895375252 91.0 7 -0.02833287976682186
1.7371965646743774 -2.133052110671997 0.7371166348457336 88.0 15 -0.028330575674772263
0.9206936359405518 -1.1337215900421143 -0.3913344144821167 6.0 0 -0.028309840708971024
1.7358708381652832 -2.137512683868408 0.04806393012404442 94.0 8 -0.028307536616921425
1.1115493774414062 -1.369225263595581 -0.4071614444255829 6.0 1 -0.028305232524871826
1.7355273962020874 -2.1386148929595947 0.1443425863981247 84.0 9 -0.028302928432822227
1.358057975769043 -1.6740727424621582 -0.419016569852829 6.0 2 -0.02830062434077263
1.7456104755401611 -2.1525750160217285 0.2424672693014145 83.0 10 -0.02829832024872303
1.7307049036026 -2.1341943740844727 -0.4352007210254669 100.0 3 -0.02829601615667343
1.7338426113128662 -2.138826370239258 0.33806559443473816 95.0 11 -0.028293712064623833
1.7272202968597412 -2.1314175128936768 -0.33684688806533813 85.0 4 -0.028291407972574234
1.739534616470337 -2.1473796367645264 0.4377036690711975 88.0 12 -0.028289103880524635
1.7265533208847046 -2.1321158409118652 -0.24002692103385925 80.0 5 -0.028286799788475037
1.7457841634750366 -2.1558640003204346 0.5392262935638428 87.0 13 -0.028284495696425438
1.7379399538040161 -2.1469430923461914 -0.14476126432418823 100.0 6 -0.02828219160437584
1.7333564758300781 -2.142045259475708 0.6361616253852844 90.0 14 -0.02827988751232624
1.7242180109024048 -2.1315128803253174 -0.04785449802875519 88.0 7 -0.028277583420276642
1.7297403812408447 -2.1391029357910156 0.7371166348457336 82.0 15 -0.028275281190872192
0.9096518158912659 -1.12774658203125 -0.3882285952568054 7.0 0 -0.028254544362425804
1.72337806224823 -2.137331962585449 0.047924306243658066 89.0 8 -0.028252240270376205
1.1092090606689453 -1.3761314153671265 -0.4080612361431122 6.0 1 -0.028249936178326607
1.7255455255508423 -2.141549587249756 0.14413323998451233 81.0 9 -0.028247632086277008
1.3500356674194336 -1.6755095720291138 -0.4182533621788025 5.0 2 -0.02824532799422741
1.730963945388794 -2.1490416526794434 0.2414214164018631 85.0 10 -0.02824302390217781
1.724483609199524 -2.141761302947998 -0.43551361560821533 104.0 3 -0.028240719810128212
1.7313448190689087 -2.1510510444641113 0.3390405476093292 96.0 11 -0.028238415718078613
1.7172808647155762 -2.134340524673462 -0.336359441280365 88.0 4 -0.028236111626029015
1.723361849784851 -2.1426639556884766 0.43551361560821533 86.0 12 -0.028233807533979416
1.7166036367416382 -2.135024309158325 -0.239678293466568 80.0 5 -0.028231503441929817
1.7357877492904663 -2.1588845252990723 0.5384629964828491 81.0 13 -0.028229201212525368
1.7291841506958008 -2.151439905166626 -0.14465659856796265 99.0 6 -0.02822689712047577
1.7185455560684204 -2.138967990875244 0.6334622502326965 92.0 14 -0.02822459302842617
1.7180193662643433 -2.139077663421631 -0.047889403998851776 84.0 7 -0.02822228893637657
1.7125872373580933 -2.1330766677856445 0.7329755425453186 86.0 15 -0.028219984844326973
0.9006829261779785 -1.1250406503677368 -0.3861580491065979 6.0 0 -0.028199248015880585
1.7059087753295898 -2.1308460235595703 0.047645069658756256 91.0 8 -0.028196943923830986
1.1092692613601685 -1.3860809803009033 -0.40986084938049316 6.0 1 -0.028194639831781387
1.7205548286437988 -2.150678873062134 0.1443425863981247 84.0 9 -0.02819233573973179
1.353695034980774 -1.6927125453948975 -0.421306312084198 5.0 2 -0.02819003164768219
1.7156111001968384 -2.1460342407226562 0.24037553369998932 85.0 10 -0.02818772755563259
1.7104560136795044 -2.1403517723083496 -0.4339492619037628 107.0 3 -0.028185423463582993
1.718868613243103 -2.150878667831421 0.33806559443473816 100.0 11 -0.028183121234178543
1.7122982740402222 -2.1434237957000732 -0.33684688806533813 88.0 4 -0.028180817142128944
1.7195701599121094 -2.153297185897827 0.4364522099494934 92.0 12 -0.028178513050079346
1.7016823291778564 -2.1316604614257812 -0.2386324256658554 85.0 5 -0.028176208958029747
1.7229652404785156 -2.1590940952301025 0.5369365215301514 81.0 13 -0.02817390486598015
1.7237780094146729 -2.160885810852051 -0.144865944981575 96.0 6 -0.02817160077393055
1.7179840803146362 -2.1543939113616943 0.6361616253852844 96.0 14 -0.02816929668188095
1.71054208278656 -2.145061492919922 -0.047889403998851776 91.0 7 -0.028166992589831352
1.7027226686477661 -2.1360204219818115 0.7319402694702148 84.0 15 -0.028164688497781754
0.8991544246673584 -1.1312023401260376 -0.3871932923793793 6.0 0 -0.028143951669335365
1.6955994367599487 -2.133953094482422 0.04757525771856308 91.0 8 -0.028141647577285767
1.1017574071884155 -1.3870854377746582 -0.4089610278606415 6.0 1 -0.028139343485236168
1.710176944732666 -2.1538422107696533 0.14413323998451233 84.0 9 -0.02813703939318657
1.340453028678894 -1.688202142715454 -0.419016569852829 6.0 2 -0.02813473716378212
1.7081094980239868 -2.152009963989258 0.24037553369998932 87.0 10 -0.02813243307173252
1.6956074237823486 -2.1370246410369873 -0.4320720434188843 100.0 3 -0.028130128979682922
1.6986380815505981 -2.141611337661743 0.3356282114982605 91.0 11 -0.028127824887633324
1.701964020729065 -2.1465744972229004 -0.336359441280365 88.0 4 -0.028125520795583725
1.711666464805603 -2.159585475921631 0.4364522099494934 88.0 12 -0.028123216703534126
1.691756010055542 -2.134464740753174 -0.23828379809856415 85.0 5 -0.028120912611484528
1.7032259702682495 -2.149707078933716 0.5331203937530518 85.0 13 -0.02811860851943493
1.7025840282440186 -2.149667263031006 -0.1437145471572876 100.0 6 -0.02811630442738533
1.7080341577529907 -2.1573221683502197 0.6352618336677551 90.0 14 -0.02811400033533573
1.7001866102218628 -2.1481807231903076 -0.0478195957839489 91.0 7 -0.028111696243286133
1.6924850940704346 -2.139216899871826 0.7309049963951111 84.0 15 -0.028109392151236534
0.8975939154624939 -1.1373670101165771 -0.3882285952568054 7.0 0 -0.028088657185435295
1.6881402730941772 -2.1398587226867676 0.04757525771856308 91.0 8 -0.028086353093385696
1.0751879215240479 -1.363379716873169 -0.40086281299591064 5.0 1 -0.028084049001336098
1.692756175994873 -2.1472511291503906 0.14329586923122406 90.0 9 -0.0280817449092865
1.34306001663208 -1.7036635875701904 -0.42168790102005005 6.0 2 -0.0280794408172369
1.703053593635559 -2.161088705062866 0.24072414636611938 83.0 10 -0.0280771367251873
1.6856926679611206 -2.139826774597168 -0.4314463138580322 100.0 3 -0.028074832633137703
1.6899237632751465 -2.145968198776245 0.33538445830345154 91.0 11 -0.028072528541088104
1.6846377849578857 -2.140023946762085 -0.3344095051288605 83.0 4 -0.028070224449038506
1.6992312669754028 -2.1593375205993652 0.4352007210254669 88.0 12 -0.028067920356988907
1.6867592334747314 -2.1434884071350098 -0.2386324256658554 85.0 5 -0.028065616264939308
1.6957119703292847 -2.155639171600342 0.5331203937530518 83.0 13 -0.02806331217288971
1.691366195678711 -2.1508877277374268 -0.14340053498744965 100.0 6 -0.02806100808084011
1.6884502172470093 -2.1479504108428955 0.6307628154754639 94.0 14 -0.028058703988790512
1.6914422512054443 -2.1525299549102783 -0.04778468981385231 81.0 7 -0.028056399896740913
