# .PCD v0.7 - Point Cloud Data file format
VERSION 0.7
FIELDS x y z intensity ring time
SIZE 4 4 4 4 4 4
TYPE F F F F F F
COUNT 1 1 1 1 1 1
WIDTH 541
HEIGHT 1
VIEWPOINT 0 0 0 1 0 0 0
POINTS 541
DATA ascii
1.8265138864517212 0.19584301114082336 0.16071519255638123 100.0 10 -0.0766744390130043
1.783453106880188 0.19091111421585083 -0.2840850353240967 100.0 3 -0.07667212933301926
3.582542657852173 0.3828636407852173 0.442385733127594 100.0 11 -0.07666982710361481
1.7686048746109009 0.18869730830192566 -0.21838988363742828 100.0 4 -0.07666752487421036
3.582819938659668 0.38162848353385925 0.5706729888916016 100.0 12 -0.07666522264480591
1.790988802909851 0.19076937437057495 -0.15757757425308228 93.0 5 -0.07666292041540146
3.617514133453369 0.3846855163574219 0.707138180732727 100.0 13 -0.07666061073541641
1.7974188327789307 0.19081979990005493 -0.09472808986902237 97.0 6 -0.07665830850601196
3.6141581535339355 0.38305288553237915 0.8390675187110901 100.0 14 -0.07665600627660751
1.78178071975708 0.18853071331977844 -0.031274713575839996 100.0 7 -0.07665370404720306
3.611786127090454 0.3815267086029053 0.973159670829773 121.0 15 -0.07665139436721802
2.0386154651641846 0.21282874047756195 -0.5492140650749207 1.0 0 -0.07663065940141678
1.7920191287994385 0.1867682784795761 0.03144923597574234 100.0 8 -0.07662835717201233
3.089613676071167 0.32146143913269043 -0.7171440124511719 74.0 1 -0.07662605494260788
1.8216530084609985 0.18953540921211243 0.09598415344953537 92.0 9 -0.07662374526262283
3.095106840133667 0.3214854896068573 -0.6048645377159119 92.0 2 -0.07662144303321838
1.8172775506973267 0.1884390115737915 0.15984363853931427 92.0 10 -0.07661914080381393
1.7742842435836792 0.18366792798042297 -0.28252068161964417 100.0 3 -0.07661683857440948
3.587806463241577 0.37076306343078613 0.4428732097148895 97.0 11 -0.07661453634500504
1.777151107788086 0.1833377629518509 -0.21936483681201935 100.0 4 -0.07661222666501999
3.5879952907562256 0.37015143036842346 0.5712987184524536 100.0 12 -0.07660992443561554
1.779752254486084 0.1832922101020813 -0.15653172135353088 91.0 5 -0.07660762220621109
3.6071174144744873 0.3708500266075134 0.7048484683036804 100.0 13 -0.07660531997680664
1.8119816780090332 0.18597228825092316 -0.09546079486608505 100.0 6 -0.0766030102968216
3.6251659393310547 0.3714286684989929 0.8413169980049133 100.0 14 -0.07660070806741714
1.7903530597686768 0.18343670666217804 -0.03141433000564575 100.0 7 -0.0765984058380127
3.6091880798339844 0.36915338039398193 0.9721243977546692 122.0 15 -0.07659610360860825
2.054722309112549 0.2072618454694748 -0.5533550977706909 1.0 0 -0.07657536119222641
1.7946183681488037 0.18102489411830902 0.03148414194583893 99.0 8 -0.07657305896282196
3.086785078048706 0.31082281470298767 -0.7162442207336426 74.0 1 -0.07657075673341751
1.8262778520584106 0.18357539176940918 0.09619349241256714 92.0 9 -0.07656845450401306
3.1059770584106445 0.3116602897644043 -0.6067726016044617 96.0 2 -0.07656615227460861
1.8238714933395386 0.1826895922422409 0.16036656498908997 100.0 10 -0.07656384259462357
1.7689869403839111 0.17719204723834991 -0.2815820574760437 100.0 3 -0.07656154036521912
3.577164649963379 0.3576808273792267 0.4414108097553253 97.0 11 -0.07655923813581467
1.7797247171401978 0.1776401847600937 -0.21960857510566711 99.0 4 -0.07655693590641022
3.5931971073150635 0.3580155074596405 0.5719244480133057 100.0 12 -0.07655462622642517
1.7843464612960815 0.17747250199317932 -0.15688033401966095 96.0 5 -0.07655232399702072
3.6083273887634277 0.35888707637786865 0.7048484683036804 99.0 13 -0.07655002176761627
1.8086134195327759 0.179567351937294 -0.09525144845247269 100.0 6 -0.07654771953821182
3.632195472717285 0.3599807024002075 0.842666745185852 100.0 14 -0.07654540985822678
1.7929725646972656 0.1773824691772461 -0.03144923597574234 100.0 7 -0.07654310762882233
3.6123769283294678 0.35674330592155457 0.9726420044898987 122.0 15 -0.07654080539941788
2.0746257305145264 0.20232251286506653 -0.5585315227508545 1.0 0 -0.07652007043361664
1.7952393293380737 0.17475979030132294 0.03148414194583893 97.0 8 -0.07651776820421219
3.0820322036743164 0.29948124289512634 -0.7148945331573486 76.0 1 -0.07651545852422714
1.8149800300598145 0.17604197561740875 0.09556546807289124 92.0 9 -0.07651315629482269
3.1109020709991455 0.3017385005950928 -0.6075358986854553 96.0 2 -0.07651085406541824
1.828433632850647 0.17702479660511017 0.16071519255638123 98.0 10 -0.0765085518360138
1.7794257402420044 0.17196650803089142 -0.2831464111804962 100.0 3 -0.07650624215602875
3.5783915519714355 0.345191091299057 0.4414108097553253 100.0 11 -0.0765039399266243
1.7665023803710938 0.17009525001049042 -0.21790240705013275 100.0 4 -0.07650163769721985
3.602290153503418 0.3462274372577667 0.5731759667396545 100.0 12 -0.0764993354678154
1.7928582429885864 0.1723172515630722 -0.15757757425308228 89.0 5 -0.07649702578783035
3.6036951541900635 0.34572774171829224 0.7037036418914795 96.0 13 -0.0764947235584259
1.7913358211517334 0.1715390533208847 -0.09430939704179764 99.0 6 -0.07649242132902145
3.6256701946258545 0.3465588688850403 0.8408671021461487 100.0 14 -0.076490119099617
1.7975621223449707 0.1715029925107956 -0.031519047915935516 100.0 7 -0.07648780941963196
3.6174464225769043 0.3444969058036804 0.9736772775650024 122.0 15 -0.07648550719022751
2.0560855865478516 0.1932709664106369 -0.5533550977706909 1.0 0 -0.07646477222442627
1.7958383560180664 0.16849254071712494 0.03148414194583893 99.0 8 -0.07646246999502182
3.094700336456299 0.28981050848960876 -0.7175939083099365 74.0 1 -0.07646016776561737
1.8116062879562378 0.16933321952819824 0.09535612165927887 95.0 9 -0.07645785808563232
3.100207805633545 0.28978049755096436 -0.6052461862564087 96.0 2 -0.07645555585622787
1.8330078125 0.17101183533668518 0.1610638052225113 98.0 10 -0.07645325362682343
1.7780482769012451 0.1655704826116562 -0.2828335464000702 100.0 3 -0.07645095139741898
3.5835278034210205 0.3330645263195038 0.44189828634262085 96.0 11 -0.07644864171743393
1.77103853225708 0.16429506242275238 -0.21838988363742828 100.0 4 -0.07644633948802948
3.595608949661255 0.3329215347766876 0.5719244480133057 100.0 12 -0.07644403725862503
1.7974165678024292 0.16642485558986664 -0.15792620182037354 87.0 5 -0.07644173502922058
3.6185643672943115 0.3344101011753082 0.7063749432563782 99.0 13 -0.07643942534923553
1.803856611251831 0.16638700664043427 -0.09493743628263474 100.0 6 -0.07643712311983109
3.6210362911224365 0.3333638906478882 0.83951735496521 100.0 14 -0.07643482089042664
1.7901846170425415 0.16449490189552307 -0.03137942776083946 100.0 7 -0.07643251866102219
3.6243979930877686 0.3323993384838104 0.9752302169799805 122.0 15 -0.07643021643161774
3.082235813140869 0.2788785994052887 -0.8292562961578369 10.0 0 -0.0764094740152359
1.8003987073898315 0.16258209943771362 0.031553950160741806 94.0 8 -0.07640717178583145
3.0956928730010986 0.27900686860084534 -0.7175939083099365 74.0 1 -0.076404869556427
1.8141756057739258 0.16318781673908234 0.09546079486608505 88.0 9 -0.07640256732702255
3.097289800643921 0.2786058783531189 -0.6044829487800598 100.0 2 -0.0764002576470375
1.8256560564041138 0.16389930248260498 0.16036656498908997 100.0 10 -0.07639795541763306
1.7864855527877808 0.1600676029920578 -0.2840850353240967 100.0 3 -0.07639565318822861
3.588622808456421 0.3209080100059509 0.442385733127594 96.0 11 -0.07639335095882416
1.7716012001037598 0.15811152756214142 -0.21838988363742828 96.0 4 -0.07639104127883911
3.588879108428955 0.3196665048599243 0.5706729888916016 100.0 12 -0.07638873904943466
1.768218755722046 0.15749773383140564 -0.15531152486801147 88.0 5 -0.07638643682003021
3.6236207485198975 0.3221253454685211 0.707138180732727 99.0 13 -0.07638413459062576
1.7964686155319214 0.15938284993171692 -0.0945187509059906 92.0 6 -0.07638183236122131
3.6280014514923096 0.3212367296218872 0.8408671021461487 100.0 14 -0.07637952268123627
1.7827801704406738 0.15754127502441406 -0.031239807605743408 97.0 7 -0.07637722045183182
3.6178388595581055 0.31906598806381226 0.973159670829773 121.0 15 -0.07637491822242737
3.094738006591797 0.2691212594509125 -0.8323620557785034 82.0 0 -0.07635418325662613
1.7890021800994873 0.15525956451892853 0.031344521790742874 99.0 8 -0.07635187357664108
3.1005311012268066 0.26853615045547485 -0.7184937596321106 74.0 1 -0.07634957134723663
1.8207036256790161 0.15736962854862213 0.095774807035923 92.0 9 -0.07634726911783218
3.104111671447754 0.2682989537715912 -0.6056278347969055 92.0 2 -0.07634496688842773
1.8282021284103394 0.1576971858739853 0.1605408787727356 100.0 10 -0.07634265720844269
1.7791608572006226 0.1531541794538498 -0.2828335464000702 100.0 3 -0.07634035497903824
3.59763240814209 0.3090580701828003 0.44336071610450745 96.0 11 -0.07633805274963379
1.7760981321334839 0.15226517617702484 -0.21887736022472382 96.0 4 -0.07633575052022934
3.6057183742523193 0.3084866404533386 0.5731759667396545 100.0 12 -0.07633344829082489
1.7727279663085938 0.15166543424129486 -0.15566015243530273 91.0 5 -0.07633113861083984
3.6208109855651855 0.30913957953453064 0.7063749432563782 99.0 13 -0.0763288363814354
1.816914439201355 0.15480613708496094 -0.09556546807289124 96.0 6 -0.07632653415203094
3.631042242050171 0.3087382912635803 0.8413169980049133 100.0 14 -0.0763242319226265
1.7892969846725464 0.1518239825963974 -0.031344521790742874 100.0 7 -0.07632192224264145
3.6112308502197266 0.3057824671268463 0.9710890650749207 122.0 15 -0.076319620013237
3.1033592224121094 0.25896167755126953 -0.8344326615333557 72.0 0 -0.07629888504743576
1.7835547924041748 0.148515522480011 0.031239807605743408 100.0 8 -0.07629658281803131
3.0975654125213623 0.25738805532455444 -0.7175939083099365 72.0 1 -0.07629427313804626
1.8271867036819458 0.1518276333808899 0.09608882665634155 88.0 9 -0.07629197090864182
3.1050288677215576 0.25746411085128784 -0.6056278347969055 92.0 2 -0.07628966867923737
1.822784662246704 0.1508212387561798 0.1600179374217987 97.0 10 -0.07628736644983292
1.7816534042358398 0.1471048891544342 -0.2831464111804962 100.0 3 -0.07628506422042847
3.5947325229644775 0.2961745858192444 0.4428732097148895 97.0 11 -0.07628275454044342
1.7845324277877808 0.14671549201011658 -0.21985231339931488 94.0 4 -0.07628045231103897
3.598846673965454 0.2958794832229614 0.5719244480133057 100.0 12 -0.07627815008163452
1.7871464490890503 0.14661641418933868 -0.15688033401966095 100.0 5 -0.07627584785223007
3.608170986175537 0.2953799366950989 0.7037036418914795 96.0 13 -0.07627353817224503
1.8055000305175781 0.14748769998550415 -0.09493743628263474 96.0 6 -0.07627123594284058
3.6418094635009766 0.29685232043266296 0.8435665369033813 100.0 14 -0.07626893371343613
1.7977628707885742 0.1465398222208023 -0.03148414194583893 100.0 7 -0.07626663148403168
3.619926929473877 0.2944309711456299 0.973159670829773 122.0 15 -0.07626432180404663
3.1003928184509277 0.2478187084197998 -0.833397388458252 70.0 0 -0.07624358683824539
1.7860307693481445 0.14275991916656494 0.031274713575839996 99.0 8 -0.07624128460884094
3.0906317234039307 0.24649415910243988 -0.7157943248748779 74.0 1 -0.07623898237943649
1.8197416067123413 0.14481525123119354 0.09567013382911682 86.0 9 -0.07623668015003204
3.113737106323242 0.2472447156906128 -0.6071542501449585 92.0 2 -0.076234370470047
1.831244707107544 0.14508657157421112 0.16071519255638123 100.0 10 -0.07623206824064255
1.7801622152328491 0.1410393863916397 -0.2828335464000702 100.0 3 -0.0762297660112381
3.5917372703552246 0.28393852710723877 0.442385733127594 96.0 11 -0.07622746378183365
1.7731354236602783 0.13986074924468994 -0.21838988363742828 96.0 4 -0.0762251541018486
3.5998575687408447 0.28331440687179565 0.5719244480133057 100.0 12 -0.07622285187244415
1.7876472473144531 0.14037758111953735 -0.15688033401966095 89.0 5 -0.0762205496430397
3.615002393722534 0.2838732600212097 0.7048484683036804 99.0 13 -0.07621824741363525
1.794032096862793 0.1405639350414276 -0.09430939704179764 99.0 6 -0.07621593773365021
3.6330599784851074 0.28401365876197815 0.8413169980049133 100.0 14 -0.07621363550424576
1.7962697744369507 0.14010845124721527 -0.03144923597574234 100.0 7 -0.07621133327484131
3.628636598587036 0.2823953330516815 0.9752302169799805 121.0 15 -0.07620903104543686
3.1050500869750977 0.2378302812576294 -0.8344326615333557 75.0 0 -0.07618829607963562
1.7924998998641968 0.13698126375675201 0.03137942776083946 100.0 8 -0.07618598639965057
3.1031317710876465 0.23659537732601166 -0.7184937596321106 74.0 1 -0.07618368417024612
1.8082871437072754 0.137552872300148 0.09504210948944092 84.0 9 -0.07618138194084167
3.098879098892212 0.23572568595409393 -0.604101300239563 92.0 2 -0.07617907971143723
1.8356889486312866 0.13931505382061005 0.1610638052225113 100.0 10 -0.07617677003145218
1.7806435823440552 0.13482582569122314 -0.2828335464000702 100.0 3 -0.07617446780204773
3.588747501373291 0.2710992693901062 0.44189828634262085 96.0 11 -0.07617216557264328
1.7736127376556396 0.13367001712322235 -0.21838988363742828 100.0 4 -0.07616986334323883
3.5968847274780273 0.2704530656337738 0.5712987184524536 100.0 12 -0.07616755366325378
1.7960501909255981 0.13504667580127716 -0.15757757425308228 100.0 5 -0.07616525143384933
3.615971565246582 0.2712518572807312 0.7048484683036804 100.0 13 -0.07616294920444489
1.8104454278945923 0.1354927271604538 -0.0951467752456665 99.0 6 -0.07616064697504044
3.624312162399292 0.2706071734428406 0.8390675187110901 100.0 14 -0.07615833729505539
1.7927595376968384 0.13353988528251648 -0.03137942776083946 100.0 7 -0.07615603506565094
3.6296005249023438 0.26972633600234985 0.9752302169799805 121.0 15 -0.07615373283624649
3.098154306411743 0.2264275699853897 -0.8323620557785034 69.0 0 -0.07613299787044525
1.8069278001785278 0.1317416876554489 0.031623758375644684 99.0 8 -0.0761306956410408
3.1000514030456543 0.2254784256219864 -0.7175939083099365 74.0 1 -0.07612838596105576
1.8207083940505981 0.13210667669773102 0.09567013382911682 84.0 9 -0.0761260837316513
3.1035993099212646 0.22519047558307648 -0.6048645377159119 92.0 2 -0.07612378150224686
1.8282153606414795 0.1323314905166626 0.16036656498908997 100.0 10 -0.07612147927284241
1.7870142459869385 0.12903574109077454 -0.28377217054367065 100.0 3 -0.07611916959285736
3.5975918769836426 0.2591400742530823 0.4428732097148895 96.0 11 -0.07611686736345291
1.772088646888733 0.12733624875545502 -0.21814614534378052 99.0 4 -0.07611456513404846
3.5938663482666016 0.25761255621910095 0.5706729888916016 100.0 12 -0.07611226290464401
1.7806123495101929 0.1276363879442215 -0.15618307888507843 98.0 5 -0.07610995322465897
3.6247291564941406 0.259187251329422 0.7063749432563782 100.0 13 -0.07610765099525452
1.8168840408325195 0.1295989602804184 -0.09546079486608505 100.0 6 -0.07610534876585007
3.6407854557037354 0.2590598464012146 0.842666745185852 100.0 14 -0.07610304653644562
1.7892253398895264 0.12699751555919647 -0.031309615820646286 100.0 7 -0.07610074430704117
3.61895751953125 0.2562371492385864 0.9721243977546692 121.0 15 -0.07609843462705612
3.091217279434204 0.21507592499256134 -0.8302915096282959 73.0 0 -0.07607769966125488
1.7954072952270508 0.12460236996412277 0.03141433000564575 99.0 8 -0.07607539743185043
3.108596086502075 0.21519483625888824 -0.7193935513496399 74.0 1 -0.07607309520244598
1.8211582899093628 0.12575165927410126 0.09567013382911682 86.0 9 -0.07607078552246094
3.108283758163452 0.2146281599998474 -0.6056278347969055 87.0 2 -0.07606848329305649
1.8167400360107422 0.1251271367073059 0.15932069718837738 100.0 10 -0.07606618106365204
1.7874537706375122 0.12279748171567917 -0.28377217054367065 100.0 3 -0.07606387883424759
3.6024351119995117 0.24685443937778473 0.44336071610450745 93.0 11 -0.07606156915426254
1.7824245691299438 0.12182606011629105 -0.21936483681201935 96.0 4 -0.0760592669248581
3.5986852645874023 0.24533377587795258 0.5712987184524536 100.0 12 -0.07605696469545364
1.7790592908859253 0.1212841048836708 -0.156008780002594 98.0 5 -0.0760546624660492
3.6256117820739746 0.24653375148773193 0.7063749432563782 99.0 13 -0.07605236023664474
1.8073619604110718 0.12257982790470123 -0.09493743628263474 89.0 6 -0.0760500505566597
3.639723300933838 0.2462170571088791 0.8422167897224426 100.0 14 -0.07604774832725525
1.7856674194335938 0.12048232555389404 -0.031239807605743408 100.0 7 -0.0760454460978508
3.6198301315307617 0.24360209703445435 0.9721243977546692 121.0 15 -0.07604314386844635
3.0996594429016113 0.2047928422689438 -0.8323620557785034 69.0 0 -0.07602240145206451
1.781863808631897 0.1174144595861435 0.03116999939084053 100.0 8 -0.07602009922266006
3.1015501022338867 0.20383048057556152 -0.7175939083099365 72.0 1 -0.07601779699325562
1.8255722522735596 0.11965463310480118 0.09587948024272919 84.0 9 -0.07601549476385117
3.112931966781616 0.20403286814689636 -0.6063910126686096 92.0 2 -0.07601319253444672
1.8290945291519165 0.11956491321325302 0.16036656498908997 98.0 10 -0.07601088285446167
1.7839289903640747 0.11629986017942429 -0.2831464111804962 100.0 3 -0.07600858062505722
3.599313259124756 0.23401953279972076 0.4428732097148895 96.0 11 -0.07600627839565277
1.7868008613586426 0.11586078256368637 -0.21985231339931488 92.0 4 -0.07600397616624832
3.6034622192382812 0.23302625119686127 0.5719244480133057 100.0 12 -0.07600166648626328
1.7834482192993164 0.11533082276582718 -0.15635739266872406 96.0 5 -0.07599936425685883
3.6186134815216064 0.23337188363075256 0.7048484683036804 100.0 13 -0.07599706202745438
1.7998062372207642 0.11575783044099808 -0.0945187509059906 90.0 6 -0.07599475979804993
3.6502842903137207 0.23413501679897308 0.8444663286209106 94.0 14 -0.07599245011806488
1.7880727052688599 0.1143764853477478 -0.031274713575839996 100.0 7 -0.07599014788866043
3.62451434135437 0.23121006786823273 0.973159670829773 121.0 15 -0.07598784565925598
3.1080679893493652 0.19445495307445526 -0.8344326615333557 61.0 0 -0.07596711069345474
1.788250207901001 0.11156781762838364 0.031274713575839996 99.0 8 -0.07596480846405029
3.1022427082061768 0.19300198554992676 -0.7175939083099365 70.0 1 -0.07596249878406525
1.8100117444992065 0.11260751634836197 0.09504210948944092 84.0 9 -0.0759601965546608
3.1253821849823 0.19389550387859344 -0.6086807250976562 92.0 2 -0.07595789432525635
1.827512264251709 0.11305595189332962 0.16019225120544434 95.0 10 -0.0759555920958519
1.7646079063415527 0.10885533690452576 -0.2800177335739136 96.0 3 -0.07595328241586685
3.5882201194763184 0.22072367370128632 0.4414108097553253 97.0 11 -0.0759509801864624
1.773324966430664 0.10877176374197006 -0.21814614534378052 99.0 4 -0.07594867795705795
3.6121020317077637 0.22155821323394775 0.5731759667396545 100.0 12 -0.0759463757276535
1.787817358970642 0.10934751480817795 -0.15670602023601532 96.0 5 -0.07594406604766846
3.61940598487854 0.2207399159669876 0.7048484683036804 100.0 13 -0.07594176381826401
1.8021929264068604 0.10959538072347641 -0.09462341666221619 100.0 6 -0.07593946158885956
3.637463092803955 0.22056511044502258 0.8413169980049133 100.0 14 -0.07593715935945511
1.8024145364761353 0.109293133020401 -0.031519047915935516 100.0 7 -0.07593484967947006
3.629117727279663 0.21942509710788727 0.9741949439048767 122.0 15 -0.07593254745006561
1.8005876541137695 0.10634404420852661 0.03148414194583893 99.0 8 -0.07590951025485992
3.1067566871643066 0.18294325470924377 -0.7184937596321106 68.0 1 -0.07590720802545547
1.8064061403274536 0.10605497658252716 0.09483276307582855 88.0 9 -0.07590489834547043
3.1123204231262207 0.18218080699443817 -0.6060094237327576 84.0 2 -0.07590259611606598
1.8338629007339478 0.10702468454837799 0.16071519255638123 98.0 10 -0.07590029388666153
1.7827073335647583 0.10403922945261002 -0.2828335464000702 100.0 3 -0.07589799165725708
3.5968592166900635 0.209283709526062 0.442385733127594 97.0 11 -0.07589568197727203
1.7716940641403198 0.10277600586414337 -0.21790240705013275 100.0 4 -0.07589337974786758
3.6049647331237793 0.20849281549453735 0.5719244480133057 100.0 12 -0.07589107751846313
1.7921662330627441 0.10333594679832458 -0.15705464780330658 98.0 5 -0.07588877528905869
3.627958059310913 0.2091873437166214 0.7063749432563782 99.0 13 -0.07588646560907364
1.8065342903137207 0.10384809225797653 -0.09483276307582855 100.0 6 -0.07588416337966919
3.6342833042144775 0.2082793414592743 0.8404171466827393 100.0 14 -0.07588186115026474
1.7868133783340454 0.10208871215581894 -0.031239807605743408 97.0 7 -0.07587955892086029
3.633718729019165 0.20697452127933502 0.9752302169799805 121.0 15 -0.07587724924087524
1.79695463180542 0.09983668476343155 0.03141433000564575 97.0 8 -0.07585421204566956
3.113213300704956 0.17242147028446198 -0.7198433876037598 19.0 1 -0.0758519098162651
1.8107538223266602 0.09996851533651352 0.09504210948944092 90.0 9 -0.07584960758686066
3.1050665378570557 0.1714252382516861 -0.6044829487800598 79.0 2 -0.07584729790687561
1.8302288055419922 0.10072331130504608 0.16036656498908997 98.0 10 -0.07584499567747116
1.7909493446350098 0.09824898093938828 -0.2840850353240967 100.0 3 -0.07584269344806671
3.605496406555176 0.19715964794158936 0.44336071610450745 96.0 11 -0.07584039121866226
1.774024248123169 0.0966985821723938 -0.21814614534378052 99.0 4 -0.07583808153867722
3.597780704498291 0.19547994434833527 0.5706729888916016 100.0 12 -0.07583577930927277
1.7885371446609497 0.0968635305762291 -0.15670602023601532 96.0 5 -0.07583347707986832
3.634547233581543 0.19683969020843506 0.7075197696685791 96.0 13 -0.07583117485046387
1.810874581336975 0.09775631874799728 -0.09504210948944092 100.0 6 -0.07582886517047882
3.6408259868621826 0.19590695202350616 0.841766893863678 100.0 14 -0.07582656294107437
1.7911524772644043 0.09606466442346573 -0.031309615820646286 100.0 7 -0.07582426071166992
3.628631830215454 0.19397886097431183 0.9736772775650024 117.0 15 -0.07582195848226547
2.3170166015625 0.12061875313520432 -0.6216834187507629 1.0 0 -0.07580122351646423
1.793298363685608 0.09335514158010483 0.031344521790742874 97.0 8 -0.07579891383647919
2.3392395973205566 0.12136627733707428 -0.5407823324203491 3.0 1 -0.07579661160707474
1.8230592012405396 0.09426725655794144 0.09567013382911682 88.0 9 -0.07579430937767029
3.1272411346435547 0.16115553677082062 -0.6086807250976562 14.0 2 -0.07579200714826584
1.8186471462249756 0.09340176731348038 0.15932069718837738 98.0 10 -0.07578969746828079
1.7774877548217773 0.090977743268013 -0.2818949222564697 100.0 3 -0.07578739523887634
3.6101274490356445 0.1847783476114273 0.443848192691803 97.0 11 -0.0757850930094719
1.7802985906600952 0.09080924093723297 -0.21887736022472382 100.0 4 -0.07578279078006744
3.6102781295776367 0.18352088332176208 0.5725501775741577 100.0 12 -0.0757804811000824
1.7848845720291138 0.09041855484247208 -0.15635739266872406 96.0 5 -0.07577817887067795
3.629362106323242 0.18322092294692993 0.7063749432563782 99.0 13 -0.0757758766412735
1.8191996812820435 0.0915202796459198 -0.09546079486608505 100.0 6 -0.07577357441186905
3.6454122066497803 0.18275557458400726 0.842666745185852 100.0 14 -0.0757712721824646
1.791476845741272 0.08981216698884964 -0.031309615820646286 100.0 7 -0.07576896250247955
3.633146047592163 0.18150494992733002 0.974712610244751 117.0 15 -0.0757666602730751
2.3174235820770264 0.11252950131893158 -0.6216834187507629 1.0 0 -0.07574592530727386
1.7896336317062378 0.08658886700868607 0.031274713575839996 97.0 8 -0.07574362307786942
2.3377223014831543 0.11269841343164444 -0.5403324961662292 3.0 1 -0.07574131339788437
1.8273670673370361 0.08809488266706467 0.09587948024272919 90.0 9 -0.07573901116847992
2.3433873653411865 0.11256048083305359 -0.45603352785110474 1.0 2 -0.07573670893907547
1.8309026956558228 0.08762478828430176 0.16036656498908997 98.0 10 -0.07573440670967102
1.779767632484436 0.08486621081829071 -0.28220781683921814 100.0 3 -0.07573209702968597
3.602849245071411 0.17116586863994598 0.4428732097148895 96.0 11 -0.07572979480028152
1.7865530252456665 0.0848764106631279 -0.21960857510566711 99.0 4 -0.07572749257087708
3.6148433685302734 0.17110513150691986 0.5731759667396545 100.0 12 -0.07572519034147263
1.7891697883605957 0.08437567949295044 -0.15670602023601532 93.0 5 -0.07572288811206818
3.6221354007720947 0.17018146812915802 0.7048484683036804 99.0 13 -0.07572057843208313
1.80753755569458 0.08460958302021027 -0.09483276307582855 100.0 6 -0.07571827620267868
3.647944927215576 0.17075778543949127 0.8431165814399719 97.0 14 -0.07571597397327423
1.7937771081924438 0.08365173637866974 -0.031344521790742874 100.0 7 -0.07571367174386978
3.6298975944519043 0.16864150762557983 0.9736772775650024 117.0 15 -0.07571136206388474
2.315854072570801 0.10475719720125198 -0.6211657524108887 2.0 0 -0.0756906270980835
1.7979015111923218 0.08101416379213333 0.03141433000564575 97.0 8 -0.07568832486867905
2.304987668991089 0.10345948487520218 -0.5326840877532959 10.0 1 -0.0756860226392746
1.8116871118545532 0.08131767064332962 0.09504210948944092 84.0 9 -0.07568372040987015
2.3457088470458984 0.1048770621418953 -0.4564151465892792 3.0 2 -0.0756814107298851
1.8351640701293945 0.08173047006130219 0.16071519255638123 98.0 10 -0.07567910850048065
1.783986210823059 0.07913841307163239 -0.2828335464000702 100.0 3 -0.0756768062710762
3.6033968925476074 0.15921816229820251 0.4428732097148895 97.0 11 -0.07567450404167175
1.7769089937210083 0.0785137414932251 -0.21838988363742828 100.0 4 -0.0756721943616867
3.6232845783233643 0.15946507453918457 0.5744274258613586 100.0 12 -0.07566989213228226
1.797401785850525 0.07879064232110977 -0.15740327537059784 91.0 5 -0.07566758990287781
3.6305251121520996 0.15851235389709473 0.7063749432563782 100.0 13 -0.07566528767347336
1.7978312969207764 0.07818160951137543 -0.09430939704179764 99.0 6 -0.07566297799348831
3.644597291946411 0.15849122405052185 0.8422167897224426 97.0 14 -0.07566067576408386
1.8040337562561035 0.07813503593206406 -0.031519047915935516 100.0 7 -0.07565837353467941
3.642017364501953 0.15710367262363434 0.9767830967903137 117.0 15 -0.07565607130527496
2.3181188106536865 0.09715722501277924 -0.6216834187507629 48.0 0 -0.07563533633947372
1.8061522245407104 0.0753847286105156 0.031553950160741806 99.0 8 -0.07563302665948868
2.274165391921997 0.09452096372842789 -0.5254856944084167 28.0 1 -0.07563072443008423
1.8139424324035645 0.07539275288581848 0.0951467752456665 95.0 9 -0.07562842220067978
2.2813119888305664 0.09441808611154556 -0.4438217580318451 19.0 2 -0.07562611997127533
1.8394064903259277 0.07580798119306564 0.1610638052225113 100.0 10 -0.07562381029129028
1.7842388153076172 0.07322242110967636 -0.2828335464000702 100.0 3 -0.07562150806188583
3.603905200958252 0.14726699888706207 0.4428732097148895 96.0 11 -0.07561920583248138
1.7712093591690063 0.07237723469734192 -0.21765866875648499 99.0 4 -0.07561690360307693
3.6198458671569824 0.1472873091697693 0.5738016963005066 100.0 12 -0.07561459392309189
1.8016345500946045 0.07299146801233292 -0.1577518880367279 93.0 5 -0.07561229169368744
3.6349542140960693 0.1466294676065445 0.707138180732727 99.0 13 -0.07560998946428299
1.804067611694336 0.07245931774377823 -0.09462341666221619 100.0 6 -0.07560768723487854
3.647050142288208 0.14648163318634033 0.842666745185852 100.0 14 -0.0756053775548935
1.7922942638397217 0.07167315483093262 -0.031309615820646286 97.0 7 -0.07560307532548904
3.6425180435180664 0.14502443373203278 0.9767830967903137 117.0 15 -0.0756007730960846
2.3010544776916504 0.08880063146352768 -0.6170246005058289 58.0 0 -0.07558003813028336
1.8063923120498657 0.06939525902271271 0.031553950160741806 94.0 8 -0.0755777359008789
2.2744662761688232 0.08697841316461563 -0.5254856944084167 44.0 1 -0.07557542622089386
1.8141824007034302 0.06937658786773682 0.0951467752456665 92.0 9 -0.07557312399148941
2.2521846294403076 0.08573377877473831 -0.43809744715690613 25.0 2 -0.07557082176208496
1.8356658220291138 0.06955736130475998 0.16071519255638123 98.0 10 -0.07556851953268051
1.792367696762085 0.06760258227586746 -0.2840850353240967 100.0 3 -0.07556620985269547
3.6162757873535156 0.1357627511024475 0.4443356692790985 93.0 11 -0.07556390762329102
1.7754069566726685 0.06665258854627609 -0.21814614534378052 99.0 4 -0.07556160539388657
3.6124181747436523 0.13498833775520325 0.5725501775741577 100.0 12 -0.07555930316448212
1.7859386205673218 0.06642372906208038 -0.15635739266872406 91.0 5 -0.07555699348449707
3.6471920013427734 0.1350112110376358 0.7094278931617737 99.0 13 -0.07555469125509262
1.812281608581543 0.06677092611789703 -0.09504210948944092 100.0 6 -0.07555238902568817
3.6514103412628174 0.13453100621700287 0.8435665369033813 100.0 14 -0.07555008679628372
1.7905237674713135 0.06565552204847336 -0.031274713575839996 100.0 7 -0.07554778456687927
3.6352570056915283 0.1326635479927063 0.974712610244751 117.0 15 -0.07554547488689423
2.276265859603882 0.07948918640613556 -0.610295295715332 42.0 0 -0.07548666000366211
1.7946436405181885 0.06235779821872711 0.031344521790742874 97.0 8 -0.07548435777425766
2.2436084747314453 0.07756470888853073 -0.5182872414588928 43.0 1 -0.07548205554485321
1.8244048357009888 0.06307224184274673 0.09567013382911682 90.0 9 -0.07547974586486816
2.230901002883911 0.07673558592796326 -0.4338997006416321 28.0 2 -0.07547744363546371
1.8279434442520142 0.06255578994750977 0.1600179374217987 98.0 10 -0.07547514140605927
1.784706473350525 0.06076429784297943 -0.2828335464000702 100.0 3 -0.07547283917665482
3.6167490482330322 0.12250832468271255 0.4443356692790985 96.0 11 -0.07547052949666977
1.785569667816162 0.060169726610183716 -0.21936483681201935 96.0 4 -0.07546822726726532
3.616837739944458 0.12187939137220383 0.5731759667396545 100.0 12 -0.07546592503786087
1.7821874618530273 0.05974438041448593 -0.156008780002594 91.0 5 -0.07546362280845642
3.630002737045288 0.12105457484722137 0.7059933543205261 96.0 13 -0.07546131312847137
1.81850266456604 0.060325466096401215 -0.09535612165927887 100.0 6 -0.07545901089906693
3.657743215560913 0.12070155143737793 0.8449162244796753 97.0 14 -0.07545670866966248
1.788753867149353 0.05902693048119545 -0.031239807605743408 100.0 7 -0.07545440644025803
3.635718822479248 0.11933957040309906 0.974712610244751 117.0 15 -0.07545209676027298
2.1587443351745605 0.06784195452928543 -0.5787193775177002 23.0 0 -0.07543136179447174
1.7868456840515137 0.05615445226430893 0.03120490349829197 99.0 8 -0.07542905956506729
2.228271007537842 0.06963767856359482 -0.5146880745887756 67.0 1 -0.07542675733566284
1.8286064863204956 0.05682709068059921 0.09587948024272919 88.0 9 -0.07542445510625839
2.2115321159362793 0.06834188103675842 -0.4300835132598877 48.0 2 -0.07542214542627335
1.8321335315704346 0.05629746615886688 0.16036656498908997 100.0 10 -0.0754198431968689
1.780949354171753 0.05472468584775925 -0.28220781683921814 100.0 3 -0.07541754096746445
3.619119882583618 0.11057371646165848 0.44457942247390747 83.0 11 -0.07541523873806
1.7897276878356934 0.05436914786696434 -0.21985231339931488 94.0 4 -0.07541292905807495
3.621189832687378 0.1093735620379448 0.5738016963005066 100.0 12 -0.0754106268286705
1.7863681316375732 0.0536421462893486 -0.15635739266872406 100.0 5 -0.07540832459926605
3.6264595985412598 0.10889752954244614 0.7052300572395325 96.0 13 -0.0754060223698616
1.8027217388153076 0.05381918326020241 -0.0945187509059906 99.0 6 -0.07540371268987656
3.6542272567749023 0.10845647752285004 0.8440163731575012 97.0 14 -0.0754014104604721
1.7909477949142456 0.052841152995824814 -0.031274713575839996 94.0 7 -0.07539910823106766
3.636113166809082 0.10664857923984528 0.974712610244751 115.0 15 -0.07539680600166321
2.1396467685699463 0.06014057993888855 -0.5735430121421814 34.0 0 -0.07537607103586197
1.791028618812561 0.05002804845571518 0.031274713575839996 97.0 8 -0.07537376135587692
2.205124616622925 0.061209674924612045 -0.5092892646789551 71.0 1 -0.07537145912647247
1.816814661026001 0.05011368170380592 0.09525144845247269 86.0 9 -0.07536915689706802
2.209794521331787 0.06056739762425423 -0.42970186471939087 79.0 2 -0.07536685466766357
1.840276837348938 0.05043942853808403 0.1610638052225113 100.0 10 -0.07536454498767853
1.7870534658432007 0.04866853728890419 -0.2831464111804962 100.0 3 -0.07536224275827408
1.785937786102295 0.0480143241584301 -0.21936483681201935 96.0 4 -0.07535763829946518
3.6254990100860596 0.0968371033668518 0.5744274258613586 100.0 12 -0.07535532861948013
1.7905279397964478 0.04751231148838997 -0.15670602023601532 98.0 5 -0.07535302639007568
3.6405725479125977 0.0959681048989296 0.7079014182090759 99.0 13 -0.07535072416067123
1.800910472869873 0.047158777713775635 -0.09441407769918442 85.0 6 -0.07534842193126678
3.6506876945495605 0.09559718519449234 0.8431165814399719 97.0 14 -0.07534611970186234
1.7951194047927856 0.04669363051652908 -0.031344521790742874 94.0 7 -0.07534381002187729
3.648050546646118 0.09425392746925354 0.9778183698654175 115.0 15 -0.07534150779247284
2.13985276222229 0.052296411246061325 -0.5735430121421814 45.0 0 -0.0753207728266716
1.789200782775879 0.04341515153646469 0.031239807605743408 100.0 8 -0.07531847059726715
2.187800645828247 0.05270517244935036 -0.5052400827407837 48.0 1 -0.0753161609172821
1.8089994192123413 0.04326291382312775 0.09483276307582855 82.0 9 -0.07531385868787766
2.1943001747131348 0.05209539830684662 -0.42664891481399536 89.0 2 -0.0753115564584732
1.8364657163619995 0.043599966913461685 0.16071519255638123 100.0 10 -0.07530925422906876
1.783270239830017 0.042025648057460785 -0.28252068161964417 100.0 3 -0.07530694454908371
3.596003532409668 0.08411599695682526 0.4416545331478119 11.0 11 -0.07530464231967926
1.7781635522842407 0.04128430411219597 -0.21838988363742828 96.0 4 -0.07530234009027481
3.6179301738739014 0.08336711674928665 0.5731759667396545 100.0 12 -0.07530003786087036
1.7946736812591553 0.04104001447558403 -0.15705464780330658 98.0 5 -0.07529773563146591
3.6350114345550537 0.08249127119779587 0.706756591796875 96.0 13 -0.07529542595148087
1.8070613145828247 0.04069308191537857 -0.09472808986902237 96.0 6 -0.07529312372207642
3.6510136127471924 0.08221691101789474 0.8431165814399719 97.0 14 -0.07529082149267197
1.789280891418457 0.03997940570116043 -0.031239807605743408 97.0 7 -0.07528851926326752
3.6522340774536133 0.08096896857023239 0.9788536429405212 117.0 15 -0.07528620958328247
2.112989902496338 0.04389188811182976 -0.5662961006164551 44.0 0 -0.07526547461748123
1.7953457832336426 0.03698104992508888 0.031344521790742874 99.0 8 -0.07526317238807678
2.1587541103363037 0.0440886989235878 -0.4984915554523468 71.0 1 -0.07526087015867233
1.817126750946045 0.037111569195985794 0.09525144845247269 78.0 9 -0.07525856047868729
2.1964316368103027 0.044474709779024124 -0.4270305633544922 78.0 2 -0.07525625824928284
1.8286452293395996 0.036708272993564606 0.1600179374217987 100.0 10 -0.07525395601987839
1.7972370386123657 0.035764001309871674 -0.28471076488494873 100.0 3 -0.07525165379047394
3.614150047302246 0.07128854840993881 0.443848192691803 9.0 11 -0.07524935156106949
1.7862355709075928 0.03523322194814682 -0.21936483681201935 96.0 4 -0.07524704188108444
3.618199110031128 0.07073671370744705 0.5731759667396545 100.0 12 -0.07524473965167999
1.7868380546569824 0.03462117910385132 -0.15635739266872406 96.0 5 -0.07524243742227554
3.6431286334991455 0.06995200365781784 0.708283007144928 93.0 13 -0.0752401351928711
1.8111861944198608 0.03446052223443985 -0.09493743628263474 96.0 6 -0.07523782551288605
3.655174970626831 0.06954515725374222 0.8440163731575012 97.0 14 -0.0752355232834816
1.781412124633789 0.03358301520347595 -0.031100187450647354 88.0 7 -0.07523322105407715
3.644768238067627 0.06807451695203781 0.9767830967903137 115.0 15 -0.0752309188246727
2.1073293685913086 0.03678399696946144 -0.5647432208061218 42.0 0 -0.07521017640829086
1.7914597988128662 0.030957667157053947 0.031274713575839996 99.0 8 -0.07520787417888641
2.166682481765747 0.03706352412700653 -0.5002912282943726 74.0 1 -0.07520557194948196
1.821233868598938 0.031154241412878036 0.09546079486608505 80.0 9 -0.07520326972007751
2.1985297203063965 0.037224508821964264 -0.42741215229034424 71.0 2 -0.07520096749067307
1.8227804899215698 0.030544284731149673 0.15949499607086182 95.0 10 -0.07519865781068802
1.7815450429916382 0.02954229712486267 -0.28220781683921814 100.0 3 -0.07519635558128357
3.608412265777588 0.05920622870326042 0.4431169629096985 8.0 11 -0.07519405335187912
1.7903122901916504 0.029375147074460983 -0.21985231339931488 94.0 4 -0.07519175112247467
3.6184139251708984 0.05873866379261017 0.5731759667396545 100.0 12 -0.07518944144248962
1.7789745330810547 0.02856801263988018 -0.15566015243530273 98.0 5 -0.07518713921308517
3.635488748550415 0.05774657428264618 0.706756591796875 96.0 13 -0.07518483698368073
1.8112905025482178 0.02845371887087822 -0.09493743628263474 88.0 6 -0.07518253475427628
3.659282684326172 0.057483989745378494 0.8449162244796753 97.0 14 -0.07518022507429123
1.799508810043335 0.027955366298556328 -0.03141433000564575 100.0 7 -0.07517792284488678
3.6449739933013916 0.05598665028810501 0.9767830967903137 117.0 15 -0.07517562061548233
2.09971284866333 0.029685813933610916 -0.5626726150512695 37.0 0 -0.07515488564968109
1.7835545539855957 0.024905474856495857 0.031135093420743942 97.0 8 -0.07515258342027664
2.160947561264038 0.029797138646245003 -0.49894148111343384 64.0 1 -0.0751502737402916
1.8293198347091675 0.02490503154695034 0.09587948024272919 75.0 9 -0.07514797151088715
2.2182719707489014 0.03020036779344082 -0.4312283396720886 89.0 2 -0.0751456692814827
1.8328328132629395 0.024633802473545074 0.16036656498908997 100.0 10 -0.07514336705207825
1.7796578407287598 0.02360762469470501 -0.2818949222564697 100.0 3 -0.0751410573720932
3.6066038608551025 0.04721299186348915 0.4428732097148895 9.0 11 -0.07513875514268875
1.794373869895935 0.023177266120910645 -0.2203397899866104 92.0 4 -0.0751364529132843
3.622546911239624 0.04615705832839012 0.5738016963005066 100.0 12 -0.07513415068387985
1.7810516357421875 0.02269345335662365 -0.15583446621894836 100.0 5 -0.0751318410038948
3.6317338943481445 0.04564019292593002 0.7059933543205261 92.0 13 -0.07512953877449036
1.7993922233581543 0.022299833595752716 -0.09430939704179764 90.0 6 -0.07512723654508591
3.669203996658325 0.04483016952872276 0.8471657633781433 100.0 14 -0.07512493431568146
1.8095932006835938 0.0217936672270298 -0.031588856130838394 100.0 7 -0.07512262463569641
3.6451473236083984 0.04326548054814339 0.9767830967903137 117.0 15 -0.07512032240629196
2.0882132053375244 0.022233305498957634 -0.5595667958259583 33.0 0 -0.07509958744049072
1.7876298427581787 0.0187209639698267 0.03120490349829197 99.0 8 -0.07509728521108627
2.161038398742676 0.022254297509789467 -0.49894148111343384 68.0 1 -0.07509498298168182
1.8134182691574097 0.018358003348112106 0.09504210948944092 74.0 9 -0.07509267330169678
2.236032009124756 0.022636301815509796 -0.43466290831565857 100.0 2 -0.07509037107229233
1.8349000215530396 0.01825520768761635 0.1605408787727356 92.0 10 -0.07508806884288788
1.7896058559417725 0.017492223531007767 -0.28345927596092224 100.0 3 -0.07508576661348343
3.598806619644165 0.034547846764326096 0.44189828634262085 9.0 11 -0.07508345693349838
1.782533884048462 0.016800858080387115 -0.21887736022472382 96.0 4 -0.07508115470409393
3.634537696838379 0.03362039476633072 0.5756788849830627 100.0 12 -0.07507885247468948
1.7870968580245972 0.016531098634004593 -0.15635739266872406 100.0 5 -0.07507655024528503
3.639723777770996 0.03303483501076698 0.7075197696685791 96.0 13 -0.07507424056529999
1.79346764087677 0.01596483215689659 -0.09399539232254028 85.0 6 -0.07507193833589554
3.661543369293213 0.031952984631061554 0.8453661203384399 100.0 14 -0.07506963610649109
1.7896620035171509 0.015306235291063786 -0.031239807605743408 90.0 7 -0.07506733387708664
3.653003215789795 0.030605044215917587 0.9788536429405212 117.0 15 -0.07506503164768219
2.09214186668396 0.014971038326621056 -0.560602068901062 37.0 0 -0.07504428923130035
1.7956829071044922 0.012536222115159035 0.031344521790742874 97.0 8 -0.0750419870018959
2.170846462249756 0.014777511358261108 -0.5011910200119019 74.0 1 -0.07503968477249146
1.8054825067520142 0.011974412016570568 0.09462341666221619 65.0 9 -0.075037382543087
2.2282447814941406 0.014778277836740017 -0.4331364631652832 100.0 2 -0.07503507286310196
1.8389371633529663 0.011875342577695847 0.16088949143886566 95.0 10 -0.07503277063369751
1.7896560430526733 0.01124560460448265 -0.28345927596092224 100.0 3 -0.07503046840429306
3.6068456172943115 0.022033000364899635 0.4428732097148895 9.0 11 -0.07502816617488861
1.7825816869735718 0.010578077286481857 -0.21887736022472382 94.0 4 -0.07502585649490356
3.6267318725585938 0.02089027129113674 0.5744274258613586 96.0 12 -0.07502355426549911
1.7931208610534668 0.010328521952033043 -0.15688033401966095 96.0 5 -0.07502125203609467
3.653559446334839 0.02040540985763073 0.7101911306381226 99.0 13 -0.07501894980669022
1.799504041671753 0.009736305102705956 -0.09430939704179764 88.0 6 -0.07501664757728577
3.6538379192352295 0.019133316352963448 0.8435665369033813 100.0 14 -0.07501433789730072
1.7997028827667236 0.009109186939895153 -0.03141433000564575 98.0 7 -0.07501203566789627
3.656951665878296 0.01787140592932701 0.9798889756202698 115.0 15 -0.07500973343849182
2.086385726928711 0.007648201193660498 -0.559049129486084 35.0 0 -0.07498899847269058
1.7917163372039795 0.006254459265619516 0.031274713575839996 82.0 8 -0.07498668879270554
2.180628538131714 0.007231486961245537 -0.5034404993057251 81.0 1 -0.07498438656330109
3.6190154552459717 0.011371643282473087 0.1896655261516571 51.0 9 -0.07498208433389664
2.2204296588897705 0.0069770170375704765 -0.43160995841026306 100.0 2 -0.07497978210449219
1.8230284452438354 0.005409274250268936 0.15949499607086182 77.0 10 -0.07497747242450714
1.9694430828094482 0.00549999950453639 -0.3119303584098816 79.0 3 -0.07497517019510269
3.6227810382843018 0.009483234956860542 0.44482314586639404 9.0 11 -0.07497286796569824
2.124042510986328 0.005190354306250811 -0.26080042123794556 100.0 4 -0.07497056573629379
3.6307332515716553 0.008238486014306545 0.5750531554222107 100.0 12 -0.07496826350688934
1.8887804746627808 0.004285826347768307 -0.16524729132652283 67.0 5 -0.0749659538269043
3.6575348377227783 0.007659232709556818 0.7109543085098267 99.0 13 -0.07496365159749985
1.8734256029129028 0.0035970723256468773 -0.09818226099014282 58.0 6 -0.0749613493680954
3.663625955581665 0.006394960917532444 0.8458160161972046 100.0 14 -0.07495904713869095
1.8197206258773804 0.0028579223435372114 -0.03176337853074074 44.0 7 -0.0749567374587059
3.653127908706665 0.00510152755305171 0.9788536429405212 117.0 15 -0.07495443522930145
2.0767405033111572 0.00036306490073911846 -0.556460976600647 39.0 0 -0.07493370026350021
3.5954525470733643 -0.0 0.06275885552167892 74.0 8 -0.07493139803409576
2.182589054107666 -0.00038093363400548697 -0.5038903951644897 77.0 1 -0.07492908835411072
3.61104416847229 -0.0012604922521859407 0.18924683332443237 91.0 9 -0.07492678612470627
2.2224037647247314 -0.0007757653365842998 -0.4319916069507599 92.0 2 -0.07492448389530182
3.61419415473938 -0.0018923877505585551 0.31620103120803833 31.0 10 -0.07492218166589737
2.2302000522613525 -0.0015569735551252961 -0.3532290756702423 71.0 3 -0.07491987943649292
3.6247775554656982 -0.003163215471431613 0.4450668692588806 11.0 11 -0.07491756975650787
2.270944595336914 -0.0023781282361596823 -0.27883708477020264 75.0 4 -0.07491526752710342
3.630739688873291 -0.004435787443071604 0.5750531554222107 100.0 12 -0.07491296529769897
2.265345335006714 -0.0027676427271217108 -0.19819216430187225 45.0 5 -0.07491066306829453
3.6516497135162354 -0.005098667927086353 0.7098095417022705 96.0 13 -0.07490835338830948
1.937338948249817 -0.003043167060241103 -0.10153176635503769 49.0 6 -0.07490605115890503
3.665574550628662 -0.0063976407982409 0.8462659120559692 94.0 14 -0.07490374892950058
1.899707317352295 -0.0036471805069595575 -0.03315957263112068 7.0 7 -0.07490144670009613
3.6492598056793213 -0.007643002551048994 0.9778183698654175 120.0 15 -0.07489913702011108
2.0767290592193604 -0.006886719726026058 -0.556460976600647 39.0 0 -0.07487840205430984
3.5874319076538086 -0.012522549368441105 0.06261923164129257 79.0 8 -0.0748760998249054
2.1806256771087646 -0.007992446422576904 -0.5034404993057251 61.0 1 -0.07487379759550095
3.619006633758545 -0.013896055519580841 0.1896655261516571 85.0 9 -0.0748714953660965
2.218461036682129 -0.008518320508301258 -0.4312283396720886 76.0 2 -0.07486918568611145
3.620142698287964 -0.014532260596752167 0.31672394275665283 36.0 10 -0.074866883456707
2.2400577068328857 -0.009383185766637325 -0.35479339957237244 66.0 3 -0.07486458122730255
3.618788719177246 -0.015790045261383057 0.4443356692790985 15.0 11 -0.0748622789978981
2.2669522762298584 -0.01028717402368784 -0.2783496081829071 76.0 4 -0.07485996931791306
3.634652853012085 -0.017128024250268936 0.5756788849830627 100.0 12 -0.0748576670885086
2.277275800704956 -0.010731489397585392 -0.19923801720142365 46.0 5 -0.07485536485910416
3.6398303508758545 -0.017787707969546318 0.7075197696685791 96.0 13 -0.07485306262969971
1.9273303747177124 -0.009755178354680538 -0.10100840777158737 44.0 6 -0.07485075294971466
3.6713762283325195 -0.01922345533967018 0.8476155996322632 97.0 14 -0.07484845072031021
3.6073977947235107 -0.019518092274665833 -0.06296828389167786 71.0 7 -0.07484614849090576
3.656938076019287 -0.020424408838152885 0.9798889756202698 113.0 15 -0.07484384626150131
2.0824904441833496 -0.013811802491545677 -0.558013916015625 35.0 0 -0.07482311129570007
3.605367422103882 -0.02454133704304695 0.06293337792158127 24.0 8 -0.07482080161571503
2.172792434692383 -0.01516919769346714 -0.5016408562660217 55.0 1 -0.07481849938631058
3.6129493713378906 -0.025854164734482765 0.18935151398181915 74.0 9 -0.07481619715690613
2.2164576053619385 -0.01586090959608555 -0.4308467507362366 66.0 2 -0.07481389492750168
3.6360130310058594 -0.026653844863176346 0.31811845302581787 40.0 10 -0.07481158524751663
2.2400143146514893 -0.0168114323168993 -0.35479339957237244 71.0 3 -0.07480928301811218
3.6127614974975586 -0.027744561433792114 0.443604439496994 26.0 11 -0.07480698078870773
2.2470555305480957 -0.017648693174123764 -0.27591222524642944 76.0 4 -0.07480467855930328
3.64247727394104 -0.029244307428598404 0.5769304037094116 98.0 12 -0.07480236887931824
2.2094857692718506 -0.01812492311000824 -0.1933114379644394 32.0 5 -0.07480006664991379
3.6515305042266846 -0.029954347759485245 0.7098095417022705 96.0 13 -0.07479776442050934
1.9272873401641846 -0.016146382316946983 -0.10100840777158737 45.0 6 -0.07479546219110489
3.6634976863861084 -0.03133140876889229 0.8458160161972046 97.0 14 -0.07479315251111984
3.6313087940216064 -0.031689953058958054 -0.06338714063167572 100.0 7 -0.0747908502817154
3.6645774841308594 -0.03261992335319519 0.9819594621658325 115.0 15 -0.07478854805231094
2.0785624980926514 -0.021404633298516273 -0.5569786429405212 32.0 0 -0.0747678130865097
2.178572177886963 -0.022814786061644554 -0.5029906034469604 55.0 1 -0.07476320117712021
2.2006795406341553 -0.023814572021365166 -0.42779380083084106 61.0 2 -0.07475859671831131
3.637883424758911 -0.04000222682952881 0.3182927668094635 42.0 10 -0.07475629448890686
2.2399375438690186 -0.0250213835388422 -0.35479339957237244 74.0 3 -0.07475398480892181
