# .PCD v0.7 - Point Cloud Data file format
VERSION 0.7
FIELDS x y z intensity ring time
SIZE 4 4 4 4 4 4
TYPE F F F F F F
COUNT 1 1 1 1 1 1
WIDTH 546
HEIGHT 1
VIEWPOINT 0 0 0 1 0 0 0
POINTS 546
DATA ascii
1.8573505878448486 -1.4174851179122925 -0.2868804633617401 1.0 4 -0.05526117980480194
2.6691792011260986 -2.037790536880493 0.5318772196769714 73.0 12 -0.05525887757539749
2.644658327102661 -2.0190701484680176 -0.2911001741886139 68.0 5 -0.055256571620702744
2.663367509841919 -2.0340895652770996 0.6514219641685486 67.0 13 -0.055254269391298294
2.6472415924072266 -2.022505283355713 -0.1745927631855011 77.0 6 -0.055251963436603546
2.6553590297698975 -2.0294408798217773 0.7715821266174316 75.0 14 -0.0552496612071991
2.643409252166748 -2.021038770675659 -0.05808160826563835 72.0 7 -0.05524735897779465
2.6592650413513184 -2.0338971614837646 0.8970668315887451 76.0 15 -0.0552450530230999
2.624584197998047 -2.0124590396881104 -0.886196494102478 21.0 0 -0.05522431805729866
2.632298231124878 -2.0191032886505127 0.05790708214044571 66.0 8 -0.05522201210260391
2.6189911365509033 -2.009622573852539 -0.7621342539787292 57.0 1 -0.05521970987319946
2.6347241401672363 -2.022425651550293 0.17406940460205078 72.0 9 -0.055217403918504715
1.9529117345809937 -1.4990633726119995 -0.4785490036010742 8.0 2 -0.055215101689100266
2.6453306674957275 -2.031301259994507 0.291797399520874 75.0 10 -0.05521279573440552
1.8500860929489136 -1.4211605787277222 -0.36949828267097473 1.0 3 -0.05521049350500107
2.642805814743042 -2.0308291912078857 0.4092372953891754 89.0 11 -0.05520818755030632
1.836653232574463 -1.4118616580963135 -0.28444308042526245 1.0 4 -0.05520588532090187
2.640127182006836 -2.0302369594573975 0.5274971127510071 77.0 12 -0.05520357936620712
2.6214487552642822 -2.0166015625 -0.28935706615448 70.0 5 -0.05520127713680267
2.648470640182495 -2.037388563156128 0.649513840675354 63.0 13 -0.055198974907398224
2.632251262664795 -2.0256428718566895 -0.17406940460205078 82.0 6 -0.055196668952703476
2.646714687347412 -2.037508726119995 0.7711322903633118 78.0 14 -0.055194366723299026
2.6284167766571045 -2.024153470993042 -0.05790708214044571 69.0 7 -0.05519206076860428
2.633784770965576 -2.029019594192505 0.8908551931381226 80.0 15 -0.05518975853919983
1.8818700313568115 -1.4539498090744019 -0.6372125148773193 1.0 0 -0.05516901984810829
2.615739583969116 -2.020944118499756 0.057697657495737076 69.0 8 -0.05516671761870384
2.621328115463257 -2.0267233848571777 0.17365071177482605 70.0 9 -0.055162109434604645
1.9023686647415161 -1.4713783264160156 -0.4674820601940155 1.0 2 -0.0551598034799099
2.6205341815948486 -2.027571678161621 0.28988000750541687 69.0 10 -0.05515750125050545
1.8229951858520508 -1.4110047817230225 -0.3651180863380432 1.0 3 -0.0551551952958107
2.627851963043213 -2.033966541290283 0.4080185890197754 85.0 11 -0.05515289306640625
1.828574538230896 -1.4158337116241455 -0.2839556038379669 2.0 4 -0.0551505908370018
2.6345858573913574 -2.040649652481079 0.5278099179267883 82.0 12 -0.05514828488230705
2.608093738555908 -2.0208585262298584 -0.28865981101989746 70.0 5 -0.0551459826529026
2.6332268714904785 -2.0410683155059814 0.6476057171821594 65.0 13 -0.055143676698207855
2.621652364730835 -2.032829523086548 -0.1738600730895996 85.0 6 -0.055141374468803406
2.6330697536468506 -2.0424182415008545 0.7693326473236084 78.0 14 -0.05513906851410866
2.6150150299072266 -2.0284135341644287 -0.057767465710639954 76.0 7 -0.05513676628470421
2.6114234924316406 -2.026357650756836 0.8856788277626038 84.0 15 -0.05513446033000946
1.8264715671539307 -1.4213573932647705 -0.6201304793357849 2.0 0 -0.05511372536420822
2.595691442489624 -2.020690679550171 0.05741841718554497 66.0 8 -0.055111419409513474
1.846550703048706 -1.4380182027816772 -0.5403324961662292 2.0 1 -0.055109117180109024
2.6142375469207764 -2.0358612537384033 0.17365071177482605 74.0 9 -0.055106811225414276
1.8662457466125488 -1.4538792371749878 -0.45984968543052673 1.0 2 -0.05510450899600983
2.607154607772827 -2.0318078994750977 0.28918275237083435 69.0 10 -0.05510220676660538
1.7993639707565308 -1.4027851819992065 -0.3613636791706085 1.0 3 -0.05509990081191063
2.6078567504882812 -2.033818244934082 0.40606871247291565 80.0 11 -0.05509759858250618
1.8077218532562256 -1.410315752029419 -0.28151822090148926 1.0 4 -0.05509529262781143
2.616544485092163 -2.041328191757202 0.5256198644638062 77.0 12 -0.05509299039840698
2.5994529724121094 -2.028724193572998 -0.28848549723625183 75.0 5 -0.055090684443712234
2.607516288757324 -2.035749673843384 0.6430263519287109 67.0 13 -0.055088382214307785
2.600374221801758 -2.0309038162231445 -0.17291802167892456 86.0 6 -0.05508607625961304
2.6151750087738037 -2.043198585510254 0.7661833167076111 74.0 14 -0.05508377403020859
2.6016154289245605 -2.032604694366455 -0.0576278455555439 74.0 7 -0.05508146807551384
2.6073784828186035 -2.0378403663635254 0.8867141008377075 82.0 15 -0.05507916584610939
1.8199782371520996 -1.4265323877334595 -0.6196128129959106 1.0 0 -0.05505843088030815
2.5826807022094727 -2.024352788925171 0.057278797030448914 65.0 8 -0.0550561249256134
1.8479059934616089 -1.4489433765411377 -0.5421320796012878 1.0 1 -0.055053822696208954
2.588257312774658 -2.030182361602783 0.17239466309547424 76.0 9 -0.055051516741514206
1.8827831745147705 -1.4773520231246948 -0.46519237756729126 1.0 2 -0.055049214512109756
2.593777656555176 -2.035975217819214 0.28848549723625183 74.0 10 -0.05504690855741501
1.804025411605835 -1.4160624742507935 -0.3632408678531647 1.0 3 -0.05504460632801056
2.5854852199554443 -2.030195474624634 0.4036312997341156 80.0 11 -0.05504230037331581
1.7811799049377441 -1.3991351127624512 -0.27810585498809814 1.0 4 -0.05503999814391136
2.6109561920166016 -2.0516698360443115 0.5259327292442322 82.0 12 -0.055037692189216614
2.5813910961151123 -2.0291664600372314 -0.2872653305530548 73.0 5 -0.055035389959812164
2.5945775508880615 -2.03953218460083 0.6414998769760132 68.0 13 -0.055033084005117416
2.577925205230713 -2.027170181274414 -0.17187130451202393 86.0 6 -0.05503078177571297
2.5991952419281006 -2.044630527496338 0.7634838819503784 74.0 14 -0.05502847582101822
2.5913612842559814 -2.0392005443573 -0.05755803734064102 76.0 7 -0.05502617359161377
2.5881054401397705 -2.037369728088379 0.8825729489326477 84.0 15 -0.05502386763691902
1.8167544603347778 -1.433756709098816 -0.6201304793357849 3.0 0 -0.05500313267111778
2.567751169204712 -2.0271599292755127 0.05710427463054657 70.0 8 -0.05500083044171333
1.8703649044036865 -1.4771250486373901 -0.5502303242683411 1.0 1 -0.054998524487018585
2.568617343902588 -2.02929949760437 0.17155727744102478 72.0 9 -0.054996222257614136
1.8347395658493042 -1.449509859085083 -0.45450708270072937 1.0 2 -0.05499391630291939
2.583885431289673 -2.0420947074890137 0.28813689947128296 72.0 10 -0.05499161407351494
1.789773941040039 -1.4150004386901855 -0.3613636791706085 1.0 3 -0.05498930811882019
2.5659267902374268 -2.0293569564819336 0.40168139338493347 77.0 11 -0.05498700588941574
1.7638309001922607 -1.3954906463623047 -0.276155948638916 1.0 4 -0.05498469993472099
2.575897455215454 -2.0387048721313477 0.520301103591919 82.0 12 -0.054982397705316544
2.5683984756469727 -2.0327696800231934 -0.2865680754184723 76.0 5 -0.054980091750621796
2.581285238265991 -2.043701648712158 0.6399734020233154 68.0 13 -0.054977789521217346
2.569267511367798 -2.034916400909424 -0.17176662385463715 85.0 6 -0.0549754835665226
2.576767921447754 -2.0415890216827393 0.7589848637580872 74.0 14 -0.05497318133711815
2.571690559387207 -2.0382964611053467 -0.057278797030448914 76.0 7 -0.0549708753824234
2.5779504776000977 -2.0439910888671875 0.881537675857544 84.0 15 -0.05496857315301895
1.8132507801055908 -1.4412915706634521 -0.6206480860710144 1.0 0 -0.05494783818721771
2.5559639930725098 -2.032377243041992 0.056999560445547104 68.0 8 -0.054945532232522964
1.8377455472946167 -1.4618089199066162 -0.5421320796012878 1.0 1 -0.054943230003118515
2.5552666187286377 -2.0332791805267334 0.17113859951496124 70.0 9 -0.05494092404842377
1.8296685218811035 -1.455905556678772 -0.45450708270072937 1.0 2 -0.05493862181901932
2.5627121925354004 -2.0399341583251953 0.2865680754184723 67.0 10 -0.05493631586432457
1.7848237752914429 -1.4212393760681152 -0.3613636791706085 1.0 3 -0.05493401363492012
2.5619325637817383 -2.0407752990722656 0.402168869972229 80.0 11 -0.05493170768022537
1.7713687419891357 -1.4115359783172607 -0.27810585498809814 1.0 4 -0.05492940545082092
2.556408166885376 -2.0378332138061523 0.517798125743866 82.0 12 -0.054927099496126175
2.5457077026367188 -2.0293033123016357 -0.2848249673843384 76.0 5 -0.054924797266721725
2.5741357803344727 -2.0526998043060303 0.6399734020233154 68.0 13 -0.05492249131202698
2.555903434753418 -2.0388903617858887 -0.17134793102741241 85.0 6 -0.05492018908262253
2.563533306121826 -2.0457091331481934 0.7571852803230286 75.0 14 -0.05491788685321808
2.555182933807373 -2.0397756099700928 -0.05706937238574028 76.0 7 -0.05491558089852333
2.552685022354126 -2.038511276245117 0.8753260374069214 86.0 15 -0.05491327866911888
2.5394890308380127 -2.0337867736816406 0.05679013207554817 66.0 8 -0.054890237748622894
1.8387151956558228 -1.4730887413024902 -0.5439317226409912 1.0 1 -0.054887931793928146
2.545036792755127 -2.0396883487701416 0.17092925310134888 72.0 9 -0.0548856295645237
1.793936014175415 -1.4377278089523315 -0.4468746781349182 1.0 2 -0.05488332360982895
2.5478034019470215 -2.042635679244995 0.28569650650024414 72.0 10 -0.0548810213804245
1.7767696380615234 -1.4249889850616455 -0.3607378900051117 1.0 3 -0.05487871542572975
2.551697015762329 -2.0472209453582764 0.40168139338493347 75.0 11 -0.0548764131963253
1.7664308547973633 -1.417710542678833 -0.27810585498809814 1.0 4 -0.054874107241630554
2.54927921295166 -2.0467443466186523 0.517798125743866 82.0 12 -0.054871805012226105
2.522718667984009 -2.026144027709961 -0.28308185935020447 65.0 5 -0.054869502782821655
2.5531787872314453 -2.0506083965301514 0.6365388631820679 71.0 13 -0.05486719682812691
2.539428949356079 -2.0402939319610596 -0.1707199066877365 85.0 6 -0.05486489459872246
2.5563766956329346 -2.05464506149292 0.7571852803230286 74.0 14 -0.05486258864402771
2.540255069732666 -2.042417526245117 -0.05689484626054764 81.0 7 -0.05486028641462326
2.5305004119873047 -2.035301685333252 0.8701496720314026 86.0 15 -0.05485798045992851
2.5168094635009766 -2.0300841331481934 0.056441083550453186 66.0 8 -0.054834939539432526
1.818395972251892 -1.4672603607177734 -0.5394326448440552 1.0 1 -0.054832637310028076
2.531684637069702 -2.043541669845581 0.17051056027412415 72.0 9 -0.05483033135533333
1.8008739948272705 -1.4541603326797485 -0.4499276280403137 1.0 2 -0.05482802912592888
2.5310001373291016 -2.0444486141204834 0.28465065360069275 69.0 10 -0.05482572689652443
1.759243369102478 -1.4215593338012695 -0.3582349717617035 1.0 3 -0.05482342094182968
2.5321829319000244 -2.0461342334747314 0.39973148703575134 77.0 11 -0.05482111871242523
1.7614712715148926 -1.42386794090271 -0.27810585498809814 1.0 4 -0.054818812757730484
2.5359749794006348 -2.0506622791290283 0.5165466666221619 85.0 12 -0.054816510528326035
2.5156309604644775 -2.0349373817443848 -0.28308185935020447 65.0 5 -0.05481420457363129
2.527331829071045 -2.0451323986053467 0.6319594383239746 75.0 13 -0.05481190234422684
2.525724411010742 -2.0445613861083984 -0.17030121386051178 91.0 6 -0.05480959638953209
2.5397419929504395 -2.056642532348633 0.7544858455657959 81.0 14 -0.05480729416012764
2.5097992420196533 -2.032395362854004 -0.05637127533555031 76.0 7 -0.05480498820543289
2.5203781127929688 -2.0416903495788574 0.8691143989562988 86.0 15 -0.05480268597602844
2.5031445026397705 -2.034250259399414 0.05630146339535713 69.0 8 -0.054779645055532455
1.813005805015564 -1.473915457725525 -0.5394326448440552 1.0 1 -0.054777342826128006
2.515237331390381 -2.044807195663452 0.16988252103328705 72.0 9 -0.05477503687143326
1.792740821838379 -1.4579602479934692 -0.44916439056396484 1.0 2 -0.05477273464202881
2.5207571983337402 -2.0507559776306152 0.2843020260334015 72.0 10 -0.05477042868733406
1.7450778484344482 -1.4202102422714233 -0.35635775327682495 1.0 3 -0.05476812645792961
2.5123510360717773 -2.045375108718872 0.3977815806865692 75.0 11 -0.05476582050323486
1.7377701997756958 -1.4152716398239136 -0.27518099546432495 1.0 4 -0.054763518273830414
2.522674798965454 -2.0545122623443604 0.5152952075004578 85.0 12 -0.054761212319135666
2.502333879470825 -2.038672685623169 -0.28238460421562195 61.0 5 -0.054758910089731216
2.5216991901397705 -2.0551822185516357 0.6323410272598267 73.0 13 -0.05475660413503647
2.501544237136841 -2.039482831954956 -0.16914983093738556 86.0 6 -0.05475430190563202
2.524996757507324 -2.0593371391296387 0.7522363662719727 83.0 14 -0.05475199595093727
2.5135371685028076 -2.0499908924102783 -0.05661560595035553 81.0 7 -0.05474969372153282
2.5072484016418457 -2.04559063911438 0.8670438528060913 86.0 15 -0.054747387766838074
2.49019455909729 -2.0374748706817627 0.05616184324026108 69.0 8 -0.054724350571632385
1.8020762205123901 -1.4749823808670044 -0.5376330614089966 1.0 1 -0.05472204461693764
2.492631196975708 -2.040921449661255 0.1688358038663864 70.0 9 -0.05471974238753319
1.772452473640442 -1.4517691135406494 -0.44534823298454285 1.0 2 -0.05471743643283844
2.5074188709259033 -2.0544919967651367 0.28360477089881897 72.0 10 -0.05471513420343399
1.7403587102890015 -1.4259893894195557 -0.35635775327682495 1.0 3 -0.05471282824873924
2.50248384475708 -2.051178455352783 0.3972941040992737 77.0 11 -0.05471052601933479
1.733067512512207 -1.421026587486267 -0.27518099546432495 1.0 4 -0.054708220064640045
2.4986870288848877 -2.049525260925293 0.5118536353111267 91.0 12 -0.054705917835235596
2.492121696472168 -2.0448672771453857 -0.2820359766483307 63.0 5 -0.05470361188054085
2.502728223800659 -2.053570508956909 0.6292880773544312 76.0 13 -0.0547013096511364
2.487048387527466 -2.041430950164795 -0.16862647235393524 82.0 6 -0.05469900369644165
2.5030932426452637 -2.0553321838378906 0.7477373480796814 76.0 14 -0.0546967014670372
2.4785521030426025 -2.035905361175537 -0.055987320840358734 69.0 7 -0.05469439551234245
2.49710750579834 -2.05187726020813 0.8660085797309875 86.0 15 -0.054692093282938004
2.483067274093628 -2.046154737472534 0.05616184324026108 69.0 8 -0.05466905236244202
1.7969166040420532 -1.4812637567520142 -0.5376330614089966 1.0 1 -0.05466675013303757
2.479328155517578 -2.044527053833008 0.16841712594032288 70.0 9 -0.05466444417834282
1.7827754020690918 -1.470129132270813 -0.44916439056396484 1.0 2 -0.05466214194893837
2.485222816467285 -2.050117015838623 0.28186166286468506 69.0 10 -0.05465983599424362
1.735370397567749 -1.4320557117462158 -0.35635775327682495 1.0 3 -0.05465753376483917
2.489185094833374 -2.0548462867736816 0.39631912112236023 77.0 11 -0.054655227810144424
2.4823803901672363 -2.0506861209869385 0.5099764466285706 87.0 12 -0.05465061962604523
2.472681999206543 -2.043400526046753 -0.28064149618148804 60.0 5 -0.05464831739664078
2.50008487701416 -2.0660462379455566 0.6304329633712769 80.0 13 -0.05464601144194603
2.4814467430114746 -2.051372528076172 -0.16873113811016083 86.0 6 -0.05464370921254158
2.4913980960845947 -2.0603315830230713 0.7463876008987427 78.0 14 -0.05464140325784683
2.4714303016662598 -2.0445449352264404 -0.055987320840358734 85.0 7 -0.05463910102844238
2.4750468730926514 -2.048264503479004 0.8608322143554688 86.0 15 -0.05463679879903793
2.460521697998047 -2.042038917541504 0.05581279844045639 72.0 8 -0.054613757878541946
1.7797402143478394 -1.4775688648223877 -0.5340338349342346 1.0 1 -0.0546114519238472
2.4691035747528076 -2.050617218017578 0.1682077795267105 70.0 9 -0.05460914969444275
1.7683144807815552 -1.4691259860992432 -0.4468746781349182 1.0 2 -0.054606843739748
2.4684982299804688 -2.0515711307525635 0.28081580996513367 69.0 10 -0.05460454151034355
1.7088443040847778 -1.4207261800765991 -0.3519775867462158 1.0 3 -0.054602235555648804
2.4789443016052246 -2.0609841346740723 0.3958316743373871 77.0 11 -0.054599933326244354
2.4660956859588623 -2.051758289337158 0.5080991983413696 87.0 12 -0.05459532514214516
2.4456260204315186 -2.0354502201080322 -0.27837544679641724 67.0 5 -0.05459301918745041
2.4713728427886963 -2.0576090812683105 0.6250903010368347 72.0 13 -0.05459071695804596
2.4631683826446533 -2.051506280899048 -0.16799843311309814 85.0 6 -0.05458841472864151
2.482332944869995 -2.068201780319214 0.7459377646446228 81.0 14 -0.05458610877394676
2.4489152431488037 -2.0403592586517334 -0.05563827231526375 73.0 7 -0.05458380654454231
2.4589781761169434 -2.0494701862335205 0.8577263355255127 86.0 15 -0.054581500589847565
2.4407479763031006 -2.0407819747924805 0.05553355813026428 72.0 8 -0.05455845966935158
1.7743127346038818 -1.4840818643569946 -0.5340338349342346 1.0 1 -0.05455615743994713
2.458507537841797 -2.0570895671844482 0.16799843311309814 70.0 9 -0.05455385148525238
1.7300502061843872 -1.4475725889205933 -0.43847909569740295 1.0 2 -0.05455154925584793
2.4475717544555664 -2.048666000366211 0.2792470157146454 65.0 10 -0.05454924330115318
1.7038745880126953 -1.426682710647583 -0.3519775867462158 1.0 3 -0.054546941071748734
2.4515905380249023 -2.053485631942749 0.39266306161880493 81.0 11 -0.054544638842344284
2.4525034427642822 -2.0557074546813965 0.5068477392196655 91.0 12 -0.05454003065824509
2.4308714866638184 -2.0375752449035645 -0.2775038778781891 61.0 5 -0.05453772470355034
2.4536447525024414 -2.0573933124542236 0.6224189400672913 77.0 13 -0.05453542247414589
2.4452807903289795 -2.051107168197632 -0.16726572811603546 80.0 6 -0.05453311651945114
2.461662769317627 -2.065580368041992 0.7418886423110962 78.0 14 -0.05453081429004669
2.44754695892334 -2.0544636249542236 -0.055777888745069504 81.0 7 -0.054528508335351944
2.4455320835113525 -2.053500175476074 0.8556557893753052 86.0 15 -0.054526206105947495
2.4305503368377686 -2.04671311378479 0.055463749915361404 72.0 8 -0.05450316518545151
1.7452747821807861 -1.470178484916687 -0.5268353819847107 1.0 1 -0.05450086295604706
2.4360387325286865 -2.052788734436035 0.1669517159461975 74.0 9 -0.05449855700135231
1.7460049390792847 -1.471314549446106 -0.4438217580318451 1.0 2 -0.05449625477194786
2.4404056072235107 -2.057197093963623 0.2792470157146454 67.0 10 -0.05449394881725311
1.701904535293579 -1.4351685047149658 -0.35260334610939026 1.0 3 -0.05449164658784866
2.433786630630493 -2.0530710220336914 0.3909568786621094 80.0 11 -0.054489340633153915
2.451350450515747 -2.069352626800537 0.5080991983413696 91.0 12 -0.05448473244905472
2.414609432220459 -2.038336992263794 -0.2764580249786377 59.0 5 -0.05448243021965027
2.438948154449463 -2.059612274169922 0.6205108761787415 71.0 13 -0.05448012426495552
2.422849178314209 -2.046741485595703 -0.16621901094913483 77.0 6 -0.05447782203555107
2.4410417079925537 -2.062840223312378 0.7378395199775696 81.0 14 -0.05447551608085632
2.4311976432800293 -2.055248737335205 -0.05556846410036087 75.0 7 -0.054473213851451874
2.4324488639831543 -2.0570342540740967 0.8535852432250977 86.0 15 -0.054470907896757126
2.423391103744507 -2.055184841156006 0.055463749915361404 71.0 8 -0.05444787070155144
1.7431045770645142 -1.478783130645752 -0.5277352333068848 1.0 1 -0.05444556474685669
2.4166762828826904 -2.050941228866577 0.16611434519290924 76.0 9 -0.05444326251745224
1.7378644943237305 -1.4748594760894775 -0.44305849075317383 1.0 2 -0.05444095656275749
2.4286530017852783 -2.0618348121643066 0.2787240743637085 63.0 10 -0.05443865433335304
1.684839129447937 -1.4308708906173706 -0.3501003682613373 1.0 3 -0.054436348378658295
2.4220664501190186 -2.0576980113983154 0.39022567868232727 81.0 11 -0.054434046149253845
2.4275572299957275 -2.0638222694396973 0.5046576261520386 82.0 12 -0.05442943796515465
2.4074795246124268 -2.0467529296875 -0.2764580249786377 61.0 5 -0.0544271320104599
2.430248737335205 -2.0668411254882812 0.6201292872428894 73.0 13 -0.05442482978105545
2.4172110557556152 -2.0564804077148438 -0.1663236916065216 82.0 6 -0.0544225238263607
2.426406145095825 -2.065033197402954 0.7355900406837463 78.0 14 -0.05442022159695625
2.414872884750366 -2.0559449195861816 -0.05535903573036194 81.0 7 -0.054417915642261505
2.4223122596740723 -2.063007354736328 0.8525499701499939 82.0 15 -0.054415613412857056
2.407078742980957 -2.0558395385742188 0.055254317820072174 74.0 8 -0.05439257249236107
1.7171891927719116 -1.4671365022659302 -0.5214365720748901 1.0 1 -0.05439027026295662
2.4034290313720703 -2.054173707962036 0.1656956523656845 76.0 9 -0.05438796430826187
1.714796543121338 -1.465610146522522 -0.43847909569740295 1.0 2 -0.05438566207885742
2.4078121185302734 -2.0586469173431396 0.2771552503108978 65.0 10 -0.054383356124162674
1.6798341274261475 -1.4367433786392212 -0.3501003682613373 1.0 3 -0.054381053894758224
2.4118525981903076 -2.0635592937469482 0.38973820209503174 83.0 11 -0.05437874794006348
2.4068338871002197 -2.060720920562744 0.5018418431282043 80.0 12 -0.05437413975596428
2.3882129192352295 -2.0447778701782227 -0.27506351470947266 59.0 5 -0.05437183752655983
2.421527862548828 -2.0740346908569336 0.6197476387023926 72.0 13 -0.05436953157186508
2.4054677486419678 -2.061007022857666 -0.16600966453552246 80.0 6 -0.05436722934246063
2.41770339012146 -2.0722222328186035 0.7351400852203369 81.0 14 -0.054364923387765884
2.387946367263794 -2.047440767288208 -0.05490526929497719 76.0 7 -0.054362621158361435
2.3974997997283936 -2.0563578605651855 0.8463383316993713 78.0 15 -0.05436031520366669
2.385085344314575 -2.0507729053497314 0.05490526929497719 74.0 8 -0.05436452478170395
1.7418626546859741 -1.4982383251190186 -0.5304346084594727 1.0 1 -0.0543622188270092
2.393576145172119 -2.0595271587371826 0.16548630595207214 74.0 9 -0.05435991659760475
1.721832513809204 -1.4815325736999512 -0.44153204560279846 1.0 2 -0.054357610642910004
2.3873817920684814 -2.054922342300415 0.27558645606040955 72.0 10 -0.054355308413505554
1.6750606298446655 -1.4423059225082397 -0.3501003682613373 1.0 3 -0.054353002458810806
2.4019882678985596 -2.0689549446105957 0.3892507255077362 85.0 11 -0.05435070022940636
2.3940019607543945 -2.0635321140289307 0.5005903244018555 80.0 12 -0.05434609204530716
2.3693459033966064 -2.0422797203063965 -0.27366903424263 61.0 5 -0.05434378609061241
2.3982815742492676 -2.06795072555542 0.6155498623847961 73.0 13 -0.05434148386120796
2.3925704956054688 -2.0637545585632324 -0.16559097170829773 80.0 6 -0.054339177906513214
2.4063918590545654 -2.076409101486206 0.733790397644043 78.0 14 -0.054336875677108765
2.3781163692474365 -2.052734851837158 -0.05483546108007431 76.0 7 -0.05433456972241402
2.38189435005188 -2.0567214488983154 0.8432324528694153 80.0 15 -0.05433226749300957
2.368842124938965 -2.051231861114502 0.054695840924978256 72.0 8 -0.05430922657251358
1.7366223335266113 -1.5043094158172607 -0.5304346084594727 1.0 1 -0.05430692434310913
2.3818442821502686 -2.063946008682251 0.1651722937822342 78.0 9 -0.05430461838841438
1.6988462209701538 -1.4721057415008545 -0.4369526505470276 1.0 2 -0.054302316159009933
2.377183198928833 -2.060633659362793 0.2752378284931183 74.0 10 -0.054300010204315186
1.664046049118042 -1.4429677724838257 -0.3488488793373108 1.0 3 -0.054297707974910736
2.379756212234497 -2.064319372177124 0.38681334257125854 85.0 11 -0.05429540202021599
2.38976788520813 -2.0744659900665283 0.5012161135673523 80.0 12 -0.05429079383611679
2.3622026443481445 -2.050537586212158 -0.27366903424263 63.0 5 -0.05428849160671234
2.3821542263031006 -2.0685861110687256 0.6132601499557495 77.0 13 -0.05428618565201759
2.3687663078308105 -2.0576858520507812 -0.1644395887851715 85.0 6 -0.054283883422613144
2.3917746543884277 -2.0784049034118652 0.731540858745575 86.0 14 -0.054281577467918396
2.372445821762085 -2.06233549118042 -0.0548703633248806 72.0 7 -0.05427927523851395
2.3688695430755615 -2.059952735900879 0.8411619663238525 80.0 15 -0.0542769692838192
2.3556389808654785 -2.0542311668395996 0.0545562244951725 74.0 8 -0.05425393208861351
1.6902427673339844 -1.4744926691055298 -0.5178373456001282 1.0 1 -0.05425162613391876
2.362586498260498 -2.061741828918457 0.16433492302894592 78.0 9 -0.05424932390451431
1.693697214126587 -1.4780268669128418 -0.4369526505470276 1.0 2 -0.054247017949819565
2.366973638534546 -2.066298246383667 0.274889200925827 74.0 10 -0.054244715720415115
1.6589992046356201 -1.4487674236297607 -0.3488488793373108 1.0 3 -0.05424240976572037
2.3605759143829346 -2.0621654987335205 0.3848634362220764 83.0 11 -0.05424010753631592
2.3735885620117188 -2.0749945640563965 0.49933886528015137 77.0 12 -0.05423549935221672
2.3505303859710693 -2.0548369884490967 -0.2731460928916931 67.0 5 -0.05423319339752197
2.3630964756011963 -2.066549777984619 0.610207200050354 67.0 13 -0.05423089116811752
2.354052782058716 -2.059366464614868 -0.1639162302017212 88.0 6 -0.054228585213422775
2.3713066577911377 -2.075191020965576 0.7274917960166931 83.0 14 -0.054226282984018326
2.3547000885009766 -2.0613842010498047 -0.05462603271007538 74.0 7 -0.054223980754613876
2.358757734298706 -2.0656635761260986 0.840126633644104 80.0 15 -0.05422167479991913
2.348453998565674 -2.062441110610962 0.0545562244951725 74.0 8 -0.05419863387942314
1.6850855350494385 -1.4803836345672607 -0.5178373456001282 1.0 1 -0.05419633165001869
2.3418731689453125 -2.058110237121582 0.16339287161827087 76.0 9 -0.054194025695323944
1.6737805604934692 -1.470969796180725 -0.4331364631652832 1.0 2 -0.054191723465919495
2.355257511138916 -2.070601463317871 0.2743662893772125 76.0 10 -0.05418941751122475
1.653931975364685 -1.4545495510101318 -0.3488488793373108 1.0 3 -0.0541871152818203
2.3474013805389404 -2.065147876739502 0.38388845324516296 83.0 11 -0.05418480932712555
2.352987289428711 -2.0715198516845703 0.49652308225631714 82.0 12 -0.05418020486831665
2.3433432579040527 -2.0630295276641846 -0.2731460928916931 67.0 5 -0.0541778989136219
2.3543949127197266 -2.073488235473633 0.6098255515098572 71.0 13 -0.05417559668421745
2.343852996826172 -2.0649304389953613 -0.16370689868927002 86.0 6 -0.054173290729522705
2.349428653717041 -2.070571184158325 0.7229927778244019 78.0 14 -0.054170988500118256
2.3429903984069824 -2.0656235218048096 -0.05452131852507591 81.0 7 -0.05416868254542351
2.3457372188568115 -2.0687732696533203 0.8380560874938965 80.0 15 -0.05416638031601906
2.3352487087249756 -2.0653269290924072 0.05441660061478615 76.0 8 -0.05414333939552307
1.6740697622299194 -1.481091856956482 -0.5160377621650696 1.0 1 -0.05414103344082832
2.333178997039795 -2.064948558807373 0.1632881909608841 82.0 9 -0.054138731211423874
1.6509934663772583 -1.4611895084381104 -0.42855700850486755 1.0 2 -0.054136425256729126
2.3360817432403564 -2.068244457244873 0.2729717791080475 78.0 10 -0.054134123027324677
1.6547595262527466 -1.465552806854248 -0.3501003682613373 1.0 3 -0.05413182079792023
2.3386926651000977 -2.0720133781433105 0.3836447298526764 80.0 11 -0.05412951484322548
2.3383514881134033 -2.0731678009033203 0.49495869874954224 87.0 12 -0.05412490665912628
2.3242011070251465 -2.060622215270996 -0.2717515826225281 67.0 5 -0.05412260442972183
2.3515491485595703 -2.085602283477783 0.6109704375267029 81.0 13 -0.054120298475027084
2.3306546211242676 -2.0677974224090576 -0.1632881909608841 86.0 6 -0.054117996245622635
2.3451013565063477 -2.0813465118408203 0.7238925695419312 83.0 14 -0.05411569029092789
2.3252978324890137 -2.0644960403442383 -0.05427698418498039 91.0 7 -0.05411338806152344
2.3240575790405273 -2.064120292663574 0.8328797221183777 84.0 15 -0.05411108210682869
2.3130924701690674 -2.060166120529175 0.05406755208969116 74.0 8 -0.0540880411863327
1.6805295944213867 -1.4972972869873047 -0.5196369886398315 1.0 1 -0.05408573895692825
2.322974920272827 -2.070422410964966 0.16307885944843292 82.0 9 -0.054083436727523804
1.654676914215088 -1.4747813940048218 -0.4308467507362366 1.0 2 -0.054081130772829056
2.316950798034668 -2.065778970718384 0.27157729864120483 78.0 10 -0.054078828543424606
1.649633765220642 -1.4713201522827148 -0.3501003682613373 1.0 3 -0.05407652258872986
2.3299646377563477 -2.0788421630859375 0.38340097665786743 87.0 11 -0.05407422035932541
2.3252065181732178 -2.0760552883148193 0.49370723962783813 91.0 12 -0.05406961217522621
2.309563159942627 -2.0620882511138916 -0.2708800435066223 71.0 5 -0.054067306220531464
2.3281478881835938 -2.0794119834899902 0.6067726016044617 82.0 13 -0.054065003991127014
2.323422431945801 -2.075920343399048 -0.1632881909608841 86.0 6 -0.054062698036432266
2.333462953567505 -2.0856239795684814 0.7225428223609924 81.0 14 -0.05406039580702782
2.3061516284942627 -2.0619375705718994 -0.053997743874788284 88.0 7 -0.05405808985233307
2.305318832397461 -2.0619170665740967 0.8287386298179626 86.0 15 -0.05405578762292862
2.2969553470611572 -2.0602169036865234 0.05385812744498253 74.0 8 -0.05403274670243263
1.6752928495407104 -1.5031541585922241 -0.5196369886398315 1.0 1 -0.05403044447302818
2.3157336711883545 -2.0785183906555176 0.16307885944843292 82.0 9 -0.054028138518333435
1.658285140991211 -1.4884165525436401 -0.4331364631652832 1.0 2 -0.054025836288928986
2.309725761413574 -2.0738539695739746 0.27157729864120483 76.0 10 -0.05402353033423424
1.6150957345962524 -1.450669765472412 -0.343843013048172 1.0 3 -0.05402122810482979
2.3079280853271484 -2.073695421218872 0.38096359372138977 83.0 11 -0.05401892215013504
1.6107193231582642 -1.447754979133606 -0.26591894030570984 1.0 4 -0.05401661992073059
2.3179454803466797 -2.0841591358184814 0.49370723962783813 87.0 12 -0.05401431396603584
2.296424627304077 -2.0648088455200195 -0.2701827883720398 70.0 5 -0.05401201173663139
2.312117338180542 -2.079648494720459 0.6044829487800598 83.0 13 -0.054009705781936646
2.3057689666748047 -2.074666738510132 -0.1625555008649826 91.0 6 -0.054007403552532196
2.3203752040863037 -2.0885417461395264 0.7207432389259338 81.0 14 -0.05400509759783745
2.3004260063171387 -2.07131290435791 -0.05403264984488487 81.0 7 -0.054002795368433
2.298107385635376 -2.0699515342712402 0.8287386298179626 88.0 15 -0.05400048941373825
1.1026225090026855 -0.9955968260765076 -0.3980637192726135 0.0 0 -0.05397975444793701
2.283813953399658 -2.0628602504730225 0.053718507289886475 71.0 8 -0.05397745221853256
1.6700356006622314 -1.5089929103851318 -0.5196369886398315 1.0 1 -0.053975146263837814
2.2966103553771973 -2.0758750438690186 0.16224147379398346 82.0 9 -0.053972844034433365
1.647253394126892 -1.488930106163025 -0.43160995841026306 1.0 2 -0.05397053807973862
2.2995169162750244 -2.0792312622070312 0.2712286710739136 81.0 10 -0.05396823585033417
1.6217421293258667 -1.4668993949890137 -0.3463459312915802 1.0 3 -0.05396592989563942
2.2859556674957275 -2.068420171737671 0.3785262107849121 85.0 11 -0.05396362766623497
1.6056559085845947 -1.4533686637878418 -0.26591894030570984 1.0 4 -0.05396132171154022
2.2989418506622314 -2.0816304683685303 0.49120426177978516 87.0 12 -0.05395901948213577
2.280341863632202 -2.064788579940796 -0.2691369354724884 68.0 5 -0.053956713527441025
2.301933526992798 -2.0850706100463867 0.6037196516990662 82.0 13 -0.053954411298036575
2.280752420425415 -2.0666096210479736 -0.1612994372844696 93.0 6 -0.05395210534334183
2.2986316680908203 -2.08354115486145 0.7162442207336426 76.0 14 -0.05394980311393738
2.2842936515808105 -2.071270704269409 -0.05382322147488594 83.0 7 -0.05394750088453293
2.285144329071045 -2.0727691650390625 0.8266680836677551 86.0 15 -0.05394519492983818
1.0991405248641968 -0.9994397759437561 -0.3980637192726135 1.0 0 -0.05392445996403694
2.276599407196045 -2.070819854736328 0.053718507289886475 74.0 8 -0.053922154009342194
1.6503446102142334 -1.5016980171203613 -0.5151379704475403 1.0 1 -0.053919851779937744
2.2775347232818604 -2.0731234550476074 0.1614041030406952 78.0 9 -0.053917545825242996
1.6130093336105347 -1.4682400226593018 -0.4239776134490967 1.0 2 -0.05391524359583855
2.2892985343933105 -2.0845625400543213 0.2708800435066223 81.0 10 -0.0539129376411438
1.6341358423233032 -1.4885140657424927 -0.3501003682613373 1.0 3 -0.05391063541173935
2.278721570968628 -2.0763871669769287 0.3785262107849121 81.0 11 -0.0539083294570446
2.279984474182129 -2.0789949893951416 0.48870131373405457 91.0 12 -0.053903721272945404
2.274592638015747 -2.074078321456909 -0.26931124925613403 72.0 5 -0.053901419043540955
2.287389039993286 -2.0864779949188232 0.6018115878105164 81.0 13 -0.053899116814136505
2.2720491886138916 -2.073212146759033 -0.16119475662708282 91.0 6 -0.05389681085944176
2.2798306941986084 -2.0810418128967285 0.7126449942588806 81.0 14 -0.05389450863003731
2.26080584526062 -2.064399242401123 -0.053439266979694366 86.0 7 -0.05389220267534256
2.2750422954559326 -2.078127384185791 0.8256327509880066 88.0 15 -0.05388990044593811
1.0956450700759888 -1.0032703876495361 -0.3980637192726135 3.0 0 -0.05386916175484657
2.263458728790283 -2.0733511447906494 0.05357888713479042 68.0 8 -0.05386685952544212
1.6335984468460083 -1.4969172477722168 -0.5115387439727783 1.0 1 -0.053864553570747375
2.264394998550415 -2.075662612915039 0.16098542511463165 82.0 9 -0.053862251341342926
1.5962964296340942 -1.463248610496521 -0.42092466354370117 1.0 2 -0.05385994538664818
2.2673232555389404 -2.079075574874878 0.2691369354724884 81.0 10 -0.05385764315724373
1.5969046354293823 -1.4648324251174927 -0.34321725368499756 1.0 3 -0.05385533720254898
2.2685344219207764 -2.081644296646118 0.3780387341976166 81.0 11 -0.05385303497314453
1.5954704284667969 -1.4645427465438843 -0.26591894030570984 1.0 4 -0.05385073274374008
2.268348455429077 -2.082932472229004 0.4877626895904541 96.0 12 -0.053848426789045334
2.248260974884033 -2.0644869804382324 -0.26704519987106323 68.0 5 -0.053846124559640884
2.274308443069458 -2.089137315750122 0.6002851128578186 81.0 13 -0.053843818604946136
2.264798641204834 -2.081130266189575 -0.16119475662708282 93.0 6 -0.05384151637554169
2.2668137550354004 -2.083712100982666 0.7108453512191772 76.0 14 -0.05383921042084694
2.2432823181152344 -2.0628037452697754 -0.053194932639598846 84.0 7 -0.05383690819144249
2.253556251525879 -2.0729775428771973 0.8204563856124878 88.0 15 -0.05383460223674774
1.089295744895935 -1.0044695138931274 -0.3970284163951874 4.0 0 -0.0538138672709465
2.241509437561035 -2.067680835723877 0.05322984233498573 71.0 8 -0.053811561316251755
1.6598707437515259 -1.5316846370697021 -0.5214365720748901 1.0 1 -0.053809259086847305
2.2542004585266113 -2.0808448791503906 0.1607760637998581 82.0 9 -0.05380695313215256
1.6171456575393677 -1.492781639099121 -0.42779380083084106 1.0 2 -0.05380465090274811
2.2483420372009277 -2.0761637687683105 0.26774242520332336 81.0 10 -0.05380234867334366
1.5801736116409302 -1.4596747159957886 -0.34071433544158936 1.0 3 -0.05380004271864891
2.255422592163086 -2.0841612815856934 0.3770637810230255 83.0 11 -0.05379774048924446
1.5611945390701294 -1.4431535005569458 -0.2610441744327545 1.0 4 -0.05379543453454971
2.2567129135131836 -2.0868146419525146 0.4868241250514984 98.0 12 -0.053793132305145264
2.2322640419006348 -2.06420636177063 -0.26599931716918945 70.0 5 -0.053790826350450516
2.256913900375366 -2.087731122970581 0.5976138114929199 87.0 13 -0.053788524121046066
2.2545883655548096 -2.086310386657715 -0.16098542511463165 93.0 6 -0.05378621816635132
2.2566661834716797 -2.0889644622802734 0.709945559501648 76.0 14 -0.05378391593694687
2.234600782394409 -2.069263219833374 -0.05316003039479256 86.0 7 -0.05378160998225212
2.2378034591674805 -2.0729541778564453 0.8173506259918213 88.0 15 -0.05377930775284767
1.0971081256866455 -1.018782138824463 -0.4011695384979248 5.0 0 -0.05375857278704643
2.222557306289673 -2.0646047592163086 0.052950602024793625 72.0 8 -0.053756266832351685
1.5888475179672241 -1.4764480590820312 -0.5007410645484924 1.0 1 -0.053753964602947235
2.243997573852539 -2.0859811305999756 0.16056673228740692 78.0 9 -0.05375165864825249
1.5802903175354004 -1.4690104722976685 -0.4193982183933258 1.0 2 -0.05374935641884804
2.2410812377929688 -2.0839993953704834 0.26774242520332336 76.0 10 -0.05374705046415329
1.5606051683425903 -1.4517273902893066 -0.33758559823036194 1.0 3 -0.05374474823474884
2.2365081310272217 -2.081202983856201 0.3751138746738434 85.0 11 -0.05374244228005409
1.5852071046829224 -1.4756454229354858 -0.26591894030570984 1.0 4 -0.05374014005064964
2.247969150543213 -2.0933327674865723 0.48651123046875 93.0 12 -0.053737834095954895
2.227961301803589 -2.0747013092041016 -0.2663479447364807 70.0 5 -0.053735531866550446
2.2381205558776855 -2.0848910808563232 0.5945608615875244 85.0 13 -0.0537332259118557
2.235602617263794 -2.0832746028900146 -0.1601480394601822 93.0 6 -0.05373092368245125
2.2479350566864014 -2.0954999923706055 0.7094956636428833 78.0 14 -0.0537286177277565
2.2229766845703125 -2.0729594230651855 -0.05305531620979309 83.0 7 -0.05372631549835205
2.2291409969329834 -2.079435110092163 0.816832959651947 91.0 15 -0.0537240095436573
1.0949560403823853 -1.0239250659942627 -0.4016871750354767 6.0 0 -0.053703274577856064
2.215336799621582 -2.07235050201416 0.052950602024793625 71.0 8 -0.053700972348451614
1.5922213792800903 -1.4899744987487793 -0.5034404993057251 1.0 1 -0.053698666393756866
2.228317975997925 -2.0852231979370117 0.15993870794773102 78.0 9 -0.05369636416435242
1.592352032661438 -1.4906179904937744 -0.4239776134490967 1.0 2 -0.05369405820965767
2.230884552001953 -2.089085817337036 0.2673937976360321 78.0 10 -0.05369175598025322
1.5555282831192017 -1.4571659564971924 -0.33758559823036194 1.0 3 -0.05368945002555847
2.223435640335083 -2.0835676193237305 0.3741389214992523 81.0 11 -0.05368714779615402
1.536599040031433 -1.4404410123825073 -0.25860679149627686 1.0 4 -0.053684841841459274
2.233809232711792 -2.0940210819244385 0.4849469065666199 91.0 12 -0.053682539612054825
2.2134387493133545 -2.0756514072418213 -0.26547640562057495 72.0 5 -0.05368023365736008
2.2251017093658447 -2.087318181991577 0.5930343866348267 83.0 13 -0.05367793142795563
2.2137527465820312 -2.0773987770080566 -0.15910132229328156 91.0 6 -0.05367562547326088
2.229240655899048 -2.0926640033721924 0.7058964967727661 83.0 14 -0.05367332324385643
2.21317458152771 -2.077582359313965 -0.05298550799489021 83.0 7 -0.05367101728916168
2.219416618347168 -2.0841710567474365 0.8157976865768433 95.0 15 -0.05366871505975723
1.0899689197540283 -1.0264166593551636 -0.4011695384979248 6.0 0 -0.053647980093955994
2.2084524631500244 -2.0796854496002197 0.052950602024793625 71.0 8 -0.053645674139261246
1.6156409978866577 -1.5219709873199463 -0.5124385356903076 1.0 1 -0.053643371909856796
2.203583002090454 -2.0765514373779297 0.15868262946605682 82.0 9 -0.05364106595516205
1.5699963569641113 -1.4800070524215698 -0.4193982183933258 1.0 2 -0.0536387637257576
2.217780590057373 -2.091392755508423 0.266696572303772 76.0 10 -0.05363645777106285
1.5478131771087646 -1.4596056938171387 -0.3369598686695099 1.0 3 -0.0536341555416584
2.2121822834014893 -2.0868430137634277 0.3734076917171478 80.0 11 -0.053631849586963654
1.51737642288208 -1.4319045543670654 -0.2561693787574768 1.0 4 -0.053629547357559204
2.2135581970214844 -2.089601755142212 0.48213109374046326 85.0 12 -0.053627241402864456
2.203282594680786 -2.0806291103363037 -0.2651277482509613 72.0 5 -0.05362493917346001
2.215312957763672 -2.091989517211914 0.5922711491584778 83.0 13 -0.05362263321876526
2.2068517208099365 -2.084728479385376 -0.15910132229328156 93.0 6 -0.05362033098936081
2.2194559574127197 -2.097367763519287 0.704996645450592 83.0 14 -0.05361802875995636
2.1942834854125977 -2.074305534362793 -0.052706267684698105 83.0 7 -0.05361572280526161
2.2037060260772705 -2.0839412212371826 0.8126918077468872 90.0 15 -0.05361342057585716
1.0837551355361938 -1.0273672342300415 -0.40013426542282104 6.0 0 -0.053592681884765625
2.195375680923462 -2.0818777084350586 0.05281098559498787 71.0 8 -0.053590379655361176
1.59618079662323 -1.5141894817352295 -0.5079395174980164 1.0 1 -0.05358807370066643
2.1934235095977783 -2.0814809799194336 0.15847328305244446 78.0 9 -0.05358577147126198
1.5536870956420898 -1.4743938446044922 -0.4163452684879303 1.0 2 -0.05358346551656723
2.199273109436035 -2.087761878967285 0.26530206203460693 81.0 10 -0.05358116328716278
1.5427086353302002 -1.4649996757507324 -0.3369598686695099 1.0 3 -0.05357885733246803
2.2034449577331543 -2.09318470954895 0.37316393852233887 83.0 11 -0.05357655510306358
1.5094908475875854 -1.434457540512085 -0.2556819021701813 1.0 4 -0.053574249148368835
2.200523614883423 -2.091871500015259 0.48087960481643677 93.0 12 -0.053571946918964386
2.184818983078003 -2.0769424438476562 -0.26373329758644104 72.0 5 -0.053569644689559937
2.2051517963409424 -2.097003698348999 0.5915079116821289 85.0 13 -0.05356733873486519
2.193772792816162 -2.0869123935699463 -0.15868262946605682 93.0 6 -0.05356503650546074
2.203651189804077 -2.0970420837402344 0.7022972702980042 90.0 14 -0.05356273055076599
2.175442695617676 -2.0709221363067627 -0.052427031099796295 83.0 7 -0.05356042832136154
2.1880245208740234 -2.083627462387085 0.8095860481262207 91.0 15 -0.053558122366666794
1.0703808069229126 -1.0218063592910767 -0.3965107798576355 6.0 0 -0.053537387400865555
2.176525592803955 -2.078479766845703 0.05253174528479576 72.0 8 -0.05353508144617081
1.6106128692626953 -1.5385973453521729 -0.5142381191253662 1.0 1 -0.05353277921676636
2.1890323162078857 -2.0918846130371094 0.15868262946605682 78.0 9 -0.05353047326207161
1.5598859786987305 -1.490659475326538 -0.4193982183933258 1.0 2 -0.05352817103266716
2.177570104598999 -2.081658363342285 0.263558954000473 78.0 10 -0.05352586880326271
1.5175985097885132 -1.451262354850769 -0.33257973194122314 1.0 3 -0.05352356284856796
2.19038724899292 -2.0953750610351562 0.3721890151500702 83.0 11 -0.05352126061916351
1.4757905006408691 -1.4122684001922607 -0.25080713629722595 1.0 4 -0.053518954664468765
2.1875007152557373 -2.09407639503479 0.47962814569473267 93.0 12 -0.053516652435064316
2.164602518081665 -2.0721561908721924 -0.26216447353363037 68.0 5 -0.05351434648036957
2.1864748001098633 -2.093825340270996 0.5884549617767334 85.0 13 -0.05351204425096512
2.1879172325134277 -2.0959393978118896 -0.1587873101234436 100.0 6 -0.05350973829627037
2.199131488800049 -2.1074182987213135 0.7031970620155334 90.0 14 -0.05350743606686592
2.1682002544403076 -2.078503131866455 -0.052427031099796295 83.0 7 -0.05350513011217117
2.1723721027374268 -2.0832297801971436 0.8064801692962646 92.0 15 -0.053502827882766724
1.0682002305984497 -1.0268751382827759 -0.3970284163951874 5.0 0 -0.053482089191675186
2.1606087684631348 -2.0777480602264404 0.05232231318950653 76.0 8 -0.05347978696227074
1.5659091472625732 -1.506381630897522 -0.5016408562660217 1.0 1 -0.05347748473286629
2.1759605407714844 -2.093973398208618 0.1582639515399933 78.0 9 -0.05347517877817154
1.5433560609817505 -1.4852046966552734 -0.4163452684879303 1.0 2 -0.05347287654876709
2.170290470123291 -2.089246988296509 0.263558954000473 78.0 10 -0.05347057059407234
1.5125232934951782 -1.4565509557724 -0.33257973194122314 1.0 3 -0.05346826836466789
2.1744818687438965 -2.0947446823120117 0.3707265555858612 85.0 11 -0.053465962409973145
1.4765692949295044 -1.4229211807250977 -0.25178205966949463 2.0 4 -0.053463660180568695
2.177333116531372 -2.0989573001861572 0.4790023863315582 93.0 12 -0.05346135422587395
2.154487371444702 -2.0769338607788086 -0.2618158459663391 65.0 5 -0.0534590519964695
2.170673370361328 -2.0932681560516357 0.5861652493476868 83.0 13 -0.05345674604177475
2.164775848388672 -2.088310480117798 -0.1576359122991562 93.0 6 -0.0534544438123703
2.186152696609497 -2.109668731689453 0.7013974189758301 90.0 14 -0.05345213785767555
2.1609320640563965 -2.0860588550567627 -0.052427031099796295 83.0 7 -0.0534498356282711
2.1595280170440674 -2.0854320526123047 0.8044096231460571 86.0 15 -0.053447529673576355
1.0771013498306274 -1.0426907539367676 -0.4016871750354767 6.0 0 -0.053426794707775116
2.147596836090088 -2.0797131061553955 0.052182696759700775 79.0 8 -0.053424492478370667
1.580236792564392 -1.530821442604065 -0.5079395174980164 1.0 1 -0.05342218652367592
2.1542952060699463 -2.0876569747924805 0.15721723437309265 78.0 9 -0.05341988429427147
1.5466216802597046 -1.4987804889678955 -0.41863495111465454 1.0 2 -0.05341757833957672
2.1629843711853027 -2.0968098640441895 0.263558954000473 76.0 10 -0.05341527611017227
1.4904125928878784 -1.445319414138794 -0.3288252651691437 1.0 3 -0.053412970155477524
2.1529085636138916 -2.0885000228881836 0.36828917264938354 87.0 11 -0.053410667926073074
1.4758672714233398 -1.4322140216827393 -0.2525132894515991 3.0 4 -0.053408361971378326
2.165741205215454 -2.1024169921875 0.47806379199028015 91.0 12 -0.05340605974197388
2.1515133380889893 -2.0886049270629883 -0.262338787317276 72.0 5 -0.05340375378727913
2.159127950668335 -2.0967295169830322 0.5850204229354858 90.0 13 -0.05340145155787468
2.1488778591156006 -2.0875039100646973 -0.15700788795948029 91.0 6 -0.05339914560317993
2.1620047092437744 -2.100989818572998 0.6959986090660095 83.0 14 -0.05339684337377548
2.1507694721221924 -2.09080171585083 -0.05235722288489342 84.0 7 -0.053394537419080734
2.150850534439087 -2.091610908508301 0.8038920164108276 88.0 15 -0.053392235189676285
1.0734550952911377 -1.046444296836853 -0.4016871750354767 6.0 0 -0.053371500223875046
2.137460947036743 -2.084404468536377 0.0521128848195076 76.0 8 -0.0533691942691803
1.5581445693969727 -1.5199986696243286 -0.5025407075881958 1.0 1 -0.05336689203977585
2.1412768363952637 -2.0895845890045166 0.15679854154586792 73.0 9 -0.0533645860850811
1.5498108863830566 -1.512397050857544 -0.42092466354370117 1.0 2 -0.05336228385567665
2.149949312210083 -2.0987801551818848 0.2628616988658905 76.0 10 -0.0533599779009819
1.507970929145813 -1.4725953340530396 -0.33383119106292725 1.0 3 -0.053357675671577454
2.139925003051758 -2.090453863143921 0.36731424927711487 88.0 11 -0.053355369716882706
1.459500789642334 -1.426257848739624 -0.250563383102417 4.0 4 -0.053353067487478256
2.1527390480041504 -2.104440689086914 0.47681230306625366 91.0 12 -0.05335076153278351
2.1399354934692383 -2.0919244289398193 -0.2618158459663391 68.0 5 -0.05334845930337906
2.1531994342803955 -2.105626106262207 0.5854020118713379 83.0 13 -0.05334615334868431
2.141577959060669 -2.0949923992156982 -0.15700788795948029 91.0 6 -0.05334385111927986
2.150479555130005 -2.1044349670410156 0.6946488618850708 95.0 14 -0.053341545164585114
2.1291685104370117 -2.084307909011841 -0.05200817435979843 75.0 7 -0.053339242935180664
2.1380155086517334 -2.0936992168426514 0.8018214106559753 84.0 15 -0.053336940705776215
1.0615242719650269 -1.042064905166626 -0.3985813558101654 6.0 0 -0.05331620201468468
2.1358790397644043 -2.0974574089050293 0.05225250497460365 76.0 8 -0.05331389978528023
1.5333666801452637 -1.506309151649475 -0.49624204635620117 1.0 1 -0.05331159383058548
2.1325454711914062 -2.095646381378174 0.15669387578964233 68.0 9 -0.05330929160118103
1.4941116571426392 -1.468259334564209 -0.4071864187717438 1.0 2 -0.05330698564648628
2.1255602836608887 -2.0895113945007324 0.26076996326446533 70.0 10 -0.05330468341708183
1.491553783416748 -1.4667695760726929 -0.33132821321487427 1.0 3 -0.053302377462387085
2.132614850997925 -2.0979108810424805 0.36731424927711487 87.0 11 -0.053300075232982635
1.4573434591293335 -1.4341285228729248 -0.2510508894920349 6.0 4 -0.05329776927828789
