# .PCD v0.7 - Point Cloud Data file format
VERSION 0.7
FIELDS x y z intensity ring time
SIZE 4 4 4 4 4 4
TYPE F F F F F F
COUNT 1 1 1 1 1 1
WIDTH 544
HEIGHT 1
VIEWPOINT 0 0 0 1 0 0 0
POINTS 544
DATA ascii
0.703374445438385 -2.189441680908203 -0.040140535682439804 51.0 7 -0.08634036034345627
0.7074886560440063 -2.203568696975708 0.6201304793357849 8.0 15 -0.08633805066347122
0.39748072624206543 -1.2439723014831543 -0.34992337226867676 10.0 0 -0.08631731569766998
0.6987169981002808 -2.1867337226867676 0.04007072374224663 24.0 8 -0.08631501346826553
0.4825437068939209 -1.5110983848571777 -0.3662203252315521 7.0 1 -0.08631271123886108
0.7019611597061157 -2.1995346546173096 0.121000736951828 16.0 9 -0.08631040900945663
0.597164511680603 -1.8722914457321167 -0.3819996416568756 7.0 2 -0.08630809932947159
0.7025092840194702 -2.2039077281951904 0.2023756206035614 11.0 10 -0.08630579710006714
0.7217074632644653 -2.2641360759735107 -0.37638136744499207 100.0 3 -0.08630349487066269
0.7001553177833557 -2.1978495121002197 0.2832243740558624 10.0 11 -0.08630119264125824
0.7190428376197815 -2.258500814437866 -0.29102399945259094 100.0 4 -0.0862988829612732
0.6995588541030884 -2.1986303329467773 0.3654309809207916 9.0 12 -0.08629658073186874
0.6846687197685242 -2.153132677078247 -0.19766922295093536 55.0 5 -0.0862942785024643
0.7038084864616394 -2.2133231163024902 0.45145413279533386 8.0 13 -0.08629197627305984
0.6980637907981873 -2.1965837478637695 -0.12079139798879623 32.0 6 -0.0862896665930748
0.6984282732009888 -2.199061155319214 0.5326840877532959 7.0 14 -0.08628736436367035
0.6902826428413391 -2.174729347229004 -0.03982638940215111 51.0 7 -0.0862850621342659
0.6951192617416382 -2.191293478012085 0.6159893274307251 8.0 15 -0.08628275990486145
0.3991721272468567 -1.2637048959732056 -0.35509976744651794 10.0 0 -0.08626202493906021
0.6874679327011108 -2.177717924118042 0.039861299097537994 24.0 8 -0.08625971525907516
0.47726601362228394 -1.5127736330032349 -0.3662203252315521 7.0 1 -0.08625741302967072
0.6954802870750427 -2.2057814598083496 0.12121009081602097 15.0 9 -0.08625511080026627
0.592133104801178 -1.878006100654602 -0.3827628493309021 7.0 2 -0.08625280857086182
0.6904062628746033 -2.191023111343384 0.20098112523555756 12.0 10 -0.08625049889087677
0.7102395296096802 -2.2553365230560303 -0.3745041489601135 100.0 3 -0.08624819666147232
0.6906916499137878 -2.1945996284484863 0.28249314427375793 9.0 11 -0.08624589443206787
0.7123457789421082 -2.264784574508667 -0.29151150584220886 100.0 4 -0.08624359220266342
0.6918801665306091 -2.2010586261749268 0.3654309809207916 9.0 12 -0.08624128252267838
0.6783431172370911 -2.159311056137085 -0.19801783561706543 84.0 5 -0.08623898029327393
0.6913712024688721 -2.200782299041748 0.44840118288993835 7.0 13 -0.08623667806386948
0.6951777935028076 -2.214251756668091 -0.1216287761926651 32.0 6 -0.08623437583446503
0.692497968673706 -2.207063913345337 0.5340338349342346 7.0 14 -0.08623207360506058
0.6838840842247009 -2.1809418201446533 -0.039896201342344284 52.0 7 -0.08622976392507553
0.6851552128791809 -2.186332941055298 0.6139188408851624 8.0 15 -0.08622746169567108
0.395687997341156 -1.268847942352295 -0.3561350107192993 9.0 0 -0.08620672672986984
0.6768851280212402 -2.1705594062805176 0.03968677297234535 25.0 8 -0.0862044245004654
0.4737221300601959 -1.5200117826461792 -0.36757004261016846 7.0 1 -0.08620211482048035
0.6871826648712158 -2.2062888145446777 0.12110541760921478 17.0 9 -0.0861998125910759
0.5794109106063843 -1.8614184856414795 -0.3789466917514801 5.0 2 -0.08619751036167145
0.6823713779449463 -2.1935386657714844 0.20098112523555756 12.0 10 -0.086195208132267
0.6996228098869324 -2.2503793239593506 -0.3732526898384094 100.0 3 -0.08619289845228195
0.6830267310142517 -2.1969971656799316 0.28249314427375793 9.0 11 -0.0861905962228775
0.7044360637664795 -2.2672572135925293 -0.29151150584220886 100.0 4 -0.08618829399347305
0.6841927170753479 -2.203460454940796 0.3654309809207916 9.0 12 -0.0861859917640686
0.6678488254547119 -2.152151346206665 -0.19714628159999847 75.0 5 -0.08618368953466415
0.6803926825523376 -2.1939258575439453 0.44649308919906616 8.0 13 -0.08618137985467911
0.6841013431549072 -2.2072460651397705 -0.12110541760921478 35.0 6 -0.08617907762527466
0.6849806904792786 -2.2114486694335938 0.5344837307929993 7.0 14 -0.08617677539587021
0.6774500012397766 -2.187136173248291 -0.03996601328253746 56.0 7 -0.08617447316646576
0.6809470653533936 -2.1997838020324707 0.6170246005058289 8.0 15 -0.08617216348648071
0.39353132247924805 -1.2776063680648804 -0.3582055866718292 8.0 0 -0.08615142852067947
0.6701020002365112 -2.1768479347229004 0.03975658118724823 27.0 8 -0.08614912629127502
0.46413663029670715 -1.5086997747421265 -0.36442074179649353 7.0 1 -0.08614682406187057
0.6783022880554199 -2.2048563957214355 0.12089607119560242 18.0 9 -0.08614451438188553
0.5763716697692871 -1.874688982963562 -0.38123640418052673 5.0 2 -0.08614221215248108
0.6770510077476501 -2.2035253047943115 0.20167838037014008 12.0 10 -0.08613990992307663
0.69234299659729 -2.2546961307525635 -0.37356552481651306 100.0 3 -0.08613760769367218
0.6703109741210938 -2.1843037605285645 0.2805432379245758 10.0 11 -0.08613530546426773
0.6937931180000305 -2.262232542037964 -0.2905365228652954 100.0 4 -0.08613299578428268
0.6799720525741577 -2.2171664237976074 0.3673081696033478 9.0 12 -0.08613069355487823
0.66208416223526 -2.160184383392334 -0.19766922295093536 63.0 5 -0.08612839132547379
0.6750301122665405 -2.203795909881592 0.44801953434944153 8.0 13 -0.08612608909606934
0.6717155575752258 -2.1943423748016357 -0.12026803940534592 43.0 6 -0.08612377941608429
0.6721265316009521 -2.197054862976074 0.5304346084594727 7.0 14 -0.08612147718667984
0.6709815859794617 -2.193312168121338 -0.04003582149744034 56.0 7 -0.08611917495727539
0.6721342206001282 -2.1984524726867676 0.6159893274307251 8.0 15 -0.08611687272787094
0.38794460892677307 -1.2752759456634521 -0.35717031359672546 9.0 0 -0.0860961303114891
0.6652071475982666 -2.186710834503174 0.039896201342344284 33.0 8 -0.08609382808208466
0.4613984525203705 -1.517688512802124 -0.3662203252315521 7.0 1 -0.0860915258526802
0.6659570932388306 -2.191922426223755 0.12005870044231415 18.0 9 -0.08608922362327576
0.566972017288208 -1.867296576499939 -0.37932828068733215 6.0 2 -0.08608692139387131
0.6693553328514099 -2.2058751583099365 0.20167838037014008 13.0 10 -0.08608461171388626
0.6842889785766602 -2.255089282989502 -0.3732526898384094 100.0 3 -0.08608230948448181
0.6630637645721436 -2.1865146160125732 0.2805432379245758 10.0 11 -0.08608000725507736
0.6851359605789185 -2.260721206665039 -0.29004907608032227 100.0 4 -0.08607770502567291
0.6687930226325989 -2.2081832885742188 0.3654309809207916 9.0 12 -0.08607539534568787
0.6556942462921143 -2.1662960052490234 -0.19801783561706543 66.0 5 -0.08607309311628342
0.6699936389923096 -2.213538885116577 0.44954603910446167 8.0 13 -0.08607079088687897
0.664435088634491 -2.1965577602386475 -0.12026803940534592 44.0 6 -0.08606848865747452
0.6670926809310913 -2.206733226776123 0.532234251499176 7.0 14 -0.08606617897748947
0.6610082983970642 -2.187983751296997 -0.039896201342344284 68.0 7 -0.08606387674808502
0.6666897535324097 -2.2081825733184814 0.6180598735809326 8.0 15 -0.08606157451868057
0.3814893066883087 -1.2691549062728882 -0.35509976744651794 9.0 0 -0.08604083955287933
0.6558444499969482 -2.183274269104004 0.03979148715734482 30.0 8 -0.08603853732347488
0.45609787106513977 -1.5192898511886597 -0.3662203252315521 7.0 1 -0.08603622764348984
0.6605974435806274 -2.20188570022583 0.12047737836837769 19.0 9 -0.08603392541408539
0.5630335211753845 -1.8766882419586182 -0.3808547556400299 6.0 2 -0.08603162318468094
0.659747838973999 -2.200448989868164 0.20098112523555756 13.0 10 -0.08602932095527649
0.6803818941116333 -2.270709991455078 -0.375442773103714 100.0 3 -0.08602701127529144
0.65941321849823 -2.202127695083618 0.28224945068359375 11.0 11 -0.086024709045887
0.6772405505180359 -2.263098955154419 -0.29004907608032227 100.0 4 -0.08602240681648254
0.6565531492233276 -2.195363759994507 0.36292800307273865 9.0 12 -0.0860201045870781
0.6439398527145386 -2.1531877517700195 -0.19662334024906158 65.0 5 -0.08601779490709305
0.662262499332428 -2.2158641815185547 0.44954603910446167 8.0 13 -0.0860154926776886
0.6579070091247559 -2.202691078186035 -0.12047737836837769 44.0 6 -0.08601319044828415
0.658271074295044 -2.2053136825561523 0.5313344597816467 7.0 14 -0.0860108882188797
0.6545097231864929 -2.19411039352417 -0.03996601328253746 81.0 7 -0.08600857853889465
0.6545624136924744 -2.195686101913452 0.6139188408851624 8.0 15 -0.0860062763094902
0.37430843710899353 -1.2612189054489136 -0.35251155495643616 11.0 0 -0.08598554134368896
0.6459450721740723 -2.1778814792633057 0.039651867002248764 32.0 8 -0.08598323911428452
0.44857656955718994 -1.5133991241455078 -0.36442074179649353 7.0 1 -0.08598093688488007
0.6546090245246887 -2.209923267364502 0.12079139798879623 21.0 9 -0.08597862720489502
0.5542487502098083 -1.871112585067749 -0.37932828068733215 6.0 2 -0.08597632497549057
0.6509316563606262 -2.1989176273345947 0.2006325125694275 14.0 10 -0.08597402274608612
0.6696494817733765 -2.2635998725891113 -0.3738784193992615 100.0 3 -0.08597172051668167
0.6522853374481201 -2.206319570541382 0.28249314427375793 10.0 11 -0.08596941083669662
0.6704616546630859 -2.269256591796875 -0.2905365228652954 100.0 4 -0.08596710860729218
0.6539203524589539 -2.2146928310394287 0.36574381589889526 9.0 12 -0.08596480637788773
0.6352914571762085 -2.1516008377075195 -0.19627472758293152 58.0 5 -0.08596250414848328
0.6528569459915161 -2.2125132083892822 0.44840118288993835 8.0 13 -0.08596019446849823
0.6496489644050598 -2.2030587196350098 -0.1203727126121521 46.0 6 -0.08595789223909378
0.6500179171562195 -2.205728769302368 0.5308845043182373 7.0 14 -0.08595559000968933
0.6423275470733643 -2.1810355186462402 -0.03968677297234535 81.0 7 -0.08595328778028488
0.6447122097015381 -2.190544366836548 0.6118482351303101 8.0 15 -0.08595098555088043
0.36718788743019104 -1.2532482147216797 -0.34992337226867676 18.0 0 -0.0859302431344986
0.6366528868675232 -2.174365520477295 0.0395471528172493 36.0 8 -0.08592794090509415
0.44329121708869934 -1.514955759048462 -0.36442074179649353 7.0 1 -0.0859256386756897
0.6457701325416565 -2.2083606719970703 0.12058205902576447 21.0 9 -0.08592333644628525
0.5482652187347412 -1.8749202489852905 -0.379709929227829 6.0 2 -0.0859210267663002
0.6443696618080139 -2.20500111579895 0.20098112523555756 15.0 10 -0.08591872453689575
0.6584213376045227 -2.254546642303467 -0.37200120091438293 100.0 3 -0.0859164223074913
0.6429115533828735 -2.2028660774230957 0.28176194429397583 10.0 11 -0.08591412007808685
0.6636479496955872 -2.2753944396972656 -0.29102399945259094 100.0 4 -0.0859118103981018
0.6461855173110962 -2.2169620990753174 0.36574381589889526 9.0 12 -0.08590950816869736
0.6307439804077148 -2.1653921604156494 -0.1973206102848053 92.0 5 -0.08590720593929291
0.6445804238319397 -2.2128937244415283 0.44801953434944153 8.0 13 -0.08590490370988846
0.6408385634422302 -2.201477289199829 -0.12016335874795914 46.0 6 -0.08590260148048401
0.6450363993644714 -2.2173402309417725 0.5331340432167053 8.0 14 -0.08590029180049896
0.6386178135871887 -2.1967062950134277 -0.03993110731244087 98.0 7 -0.08589798957109451
0.6381399035453796 -2.1964914798736572 0.6128835082054138 8.0 15 -0.08589568734169006
0.3604465425014496 -1.2471619844436646 -0.34785282611846924 30.0 0 -0.08587495237588882
0.6296144723892212 -2.1784956455230713 0.039582058787345886 41.0 8 -0.08587264269590378
0.43800029158592224 -1.5164939165115356 -0.36442074179649353 7.0 1 -0.08587034046649933
0.6341801881790161 -2.197169303894043 0.11984935402870178 22.0 9 -0.08586803823709488
0.5386689901351929 -1.8674854040145874 -0.3778018355369568 6.0 2 -0.08586573600769043
0.6368356943130493 -2.2092626094818115 0.20115545392036438 16.0 10 -0.08586342632770538
0.6517939567565918 -2.262639284133911 -0.372939795255661 100.0 3 -0.08586112409830093
0.6319208741188049 -2.1936519145965576 0.28029951453208923 10.0 11 -0.08585882186889648
0.6524065136909485 -2.266251564025879 -0.28956159949302673 100.0 4 -0.08585651963949203
0.636258602142334 -2.2116105556488037 0.36449235677719116 9.0 12 -0.08585421741008759
0.623732328414917 -2.1694955825805664 -0.19749490916728973 91.0 5 -0.08585190773010254
0.6353814601898193 -2.2114672660827637 0.44725629687309265 8.0 13 -0.08584960550069809
0.6305606961250305 -2.1961326599121094 -0.1197446808218956 51.0 6 -0.08584730327129364
0.6336801648139954 -2.2084505558013916 0.5304346084594727 8.0 14 -0.08584500104188919
0.6314976215362549 -2.2008440494537354 -0.03996601328253746 100.0 7 -0.08584269136190414
0.6283388733863831 -2.1912777423858643 0.6108129620552063 9.0 15 -0.0858403891324997
0.36138981580734253 -1.266990065574646 -0.35302919149398804 42.0 0 -0.08581965416669846
0.6194328665733337 -2.173096179962158 0.03944243863224983 44.0 8 -0.085817351937294
0.4313713312149048 -1.5143406391143799 -0.36352092027664185 7.0 1 -0.08581504225730896
0.6265069842338562 -2.1993696689605713 0.11984935402870178 22.0 9 -0.08581274002790451
0.5337595343589783 -1.8750189542770386 -0.3789466917514801 6.0 2 -0.08581043779850006
0.6274845004081726 -2.2057230472564697 0.2006325125694275 15.0 10 -0.08580813556909561
0.6422716379165649 -2.2592005729675293 -0.37200120091438293 100.0 3 -0.08580583333969116
0.6249614953994751 -2.199772357940674 0.28078699111938477 10.0 11 -0.08580352365970612
0.6451799869537354 -2.272446870803833 -0.29004907608032227 100.0 4 -0.08580122143030167
0.6258368492126465 -2.2043168544769287 0.36292800307273865 9.0 12 -0.08579891920089722
0.616155743598938 -2.171659469604492 -0.19749490916728973 91.0 5 -0.08579661697149277
0.6287291646003723 -2.217449426651001 0.44801953434944153 8.0 13 -0.08579430729150772
0.6245243549346924 -2.204085350036621 -0.12005870044231415 48.0 6 -0.08579200506210327
0.6238439083099365 -2.20314884185791 0.5286350250244141 8.0 14 -0.08578970283269882
0.6199979186058044 -2.1895663738250732 -0.03972167521715164 100.0 7 -0.08578740060329437
0.6269981265068054 -2.215764045715332 0.6170246005058289 8.0 15 -0.08578509092330933
0.35591813921928406 -1.2645245790481567 -0.3519938886165619 28.0 0 -0.08576435595750809
0.6149321794509888 -2.184763193130493 0.039616964757442474 45.0 8 -0.08576205372810364
0.42634716629981995 -1.5157628059387207 -0.36352092027664185 7.0 1 -0.08575975149869919
0.6188260912895203 -2.201543092727661 0.11984935402870178 23.0 9 -0.08575744926929474
0.5187163949012756 -1.8466291427612305 -0.3728407919406891 6.0 2 -0.08575513958930969
0.6181658506393433 -2.2021453380584717 0.2001095712184906 16.0 10 -0.08575283735990524
0.6369117498397827 -2.268925428390503 -0.3732526898384094 100.0 3 -0.0857505351305008
0.6176632642745972 -2.2018327713012695 0.28078699111938477 11.0 11 -0.08574823290109634
0.6365692019462585 -2.2707509994506836 -0.28956159949302673 100.0 4 -0.0857459232211113
0.6176058053970337 -2.204585552215576 0.3626151382923126 9.0 12 -0.08574362099170685
0.6031997799873352 -2.1546108722686768 -0.19575178623199463 91.0 5 -0.0857413187623024
0.6234893798828125 -2.2270846366882324 0.44954603910446167 8.0 13 -0.08573901653289795
0.6166738867759705 -2.2042205333709717 -0.11995401978492737 51.0 6 -0.0857367068529129
0.619682788848877 -2.216466188430786 0.5313344597816467 7.0 14 -0.08573440462350845
0.610736608505249 -2.1859397888183594 -0.039616964757442474 100.0 7 -0.085732102394104
0.6130255460739136 -2.195611000061035 0.6108129620552063 8.0 15 -0.08572980016469955
0.3527573347091675 -1.2694207429885864 -0.35302919149398804 19.0 0 -0.08570906519889832
0.6073023080825806 -2.186896324157715 0.039616964757442474 48.0 8 -0.08570675551891327
0.4210537075996399 -1.5172417163848877 -0.36352092027664185 7.0 1 -0.08570445328950882
0.6127383708953857 -2.209463357925415 0.12016335874795914 25.0 9 -0.08570215106010437
0.51836097240448 -1.8691494464874268 -0.3770385980606079 6.0 2 -0.08569984883069992
0.6103277206420898 -2.202263355255127 0.19993527233600616 18.0 10 -0.08569753915071487
0.6258246302604675 -2.2597126960754395 -0.3713754713535309 100.0 3 -0.08569523692131042
0.6105033755302429 -2.205888509750366 0.28103071451187134 11.0 11 -0.08569293469190598
0.6286388635635376 -2.2729592323303223 -0.28956159949302673 100.0 4 -0.08569063246250153
0.6099066138267517 -2.206727981567383 0.3626151382923126 9.0 12 -0.08568832278251648
0.5949902534484863 -2.1527585983276367 -0.19540317356586456 85.0 5 -0.08568602055311203
0.6104850769042969 -2.2103233337402344 0.4457298517227173 8.0 13 -0.08568371832370758
0.6126956343650818 -2.219836711883545 -0.12068671733140945 58.0 6 -0.08568141609430313
0.6088327765464783 -2.2073442935943604 0.5286350250244141 8.0 14 -0.08567910641431808
0.5993830561637878 -2.174563407897949 -0.039372626692056656 100.0 7 -0.08567680418491364
0.6063839197158813 -2.2014622688293457 0.6118482351303101 9.0 15 -0.08567450195550919
0.349856436252594 -1.2762336730957031 -0.35458213090896606 17.0 0 -0.08565376698970795
0.5980799198150635 -2.1832170486450195 0.03951225057244301 49.0 8 -0.0856514647603035
0.4147258698940277 -1.5149431228637695 -0.36262112855911255 7.0 1 -0.08564915508031845
0.6050223112106323 -2.2115886211395264 0.12016335874795914 25.0 9 -0.085646852850914
0.5102792978286743 -1.8652665615081787 -0.3758937418460846 6.0 2 -0.08564455062150955
0.6031622290611267 -2.2063019275665283 0.2001095712184906 19.0 10 -0.0856422483921051
0.6184532046318054 -2.263788938522339 -0.3716883361339569 100.0 3 -0.08563993871212006
0.5996630191802979 -2.1965160369873047 0.27956831455230713 11.0 11 -0.0856376364827156
0.6227908134460449 -2.2827999591827393 -0.2905365228652954 100.0 4 -0.08563533425331116
0.6032390594482422 -2.2126553058624268 0.3632408678531647 10.0 12 -0.08563303202390671
0.5895681977272034 -2.162511110305786 -0.1961004137992859 88.0 5 -0.08563072234392166
0.5981212258338928 -2.1953928470611572 0.44229528307914734 8.0 13 -0.08562842011451721
0.5970731377601624 -2.1930551528930664 -0.1191166415810585 54.0 6 -0.08562611788511276
0.6021474003791809 -2.213216781616211 0.5295348167419434 8.0 14 -0.08562381565570831
0.5975597500801086 -2.197868585586548 -0.03975658118724823 100.0 7 -0.08562151342630386
0.5976827144622803 -2.1998372077941895 0.6108129620552063 9.0 15 -0.08561920374631882
0.3469121754169464 -1.2830417156219482 -0.3561350107192993 17.0 0 -0.08559846878051758
0.5888904929161072 -2.179499864578247 0.03940753638744354 52.0 8 -0.08559616655111313
0.4084191620349884 -1.512618899345398 -0.36172130703926086 7.0 1 -0.08559386432170868
0.5952172875404358 -2.2059741020202637 0.1197446808218956 26.0 9 -0.08559155464172363
0.5052992105484009 -1.8727227449417114 -0.3770385980606079 7.0 2 -0.08558925241231918
0.5964944362640381 -2.2122414112091064 0.20045821368694305 19.0 10 -0.08558695018291473
0.6105475425720215 -2.2659337520599365 -0.3716883361339569 100.0 3 -0.08558464795351028
0.5899272561073303 -2.1909284591674805 0.2785933315753937 11.0 11 -0.08558233827352524
0.6117240190505981 -2.27345871925354 -0.2890741229057312 100.0 4 -0.08558003604412079
0.5970507860183716 -2.2204701900482178 0.36417946219444275 10.0 12 -0.08557773381471634
0.5830509662628174 -2.1684041023254395 -0.19644904136657715 85.0 5 -0.08557543158531189
0.595548689365387 -2.2164275646209717 0.44611144065856934 8.0 13 -0.08557312935590744
0.5888963341712952 -2.193197011947632 -0.11901197582483292 59.0 6 -0.0855708196759224
0.5944183468818665 -2.2153050899505615 0.5295348167419434 8.0 14 -0.08556851744651794
0.5919556021690369 -2.2076668739318848 -0.039896201342344284 100.0 7 -0.0855662152171135
0.5920000672340393 -2.209373950958252 0.6128835082054138 8.0 15 -0.08556391298770905
0.3434267044067383 -1.287978172302246 -0.35717031359672546 14.0 0 -0.08554317057132721
0.5823087096214294 -2.1854066848754883 0.03947734460234642 54.0 8 -0.08554086834192276
0.4001283049583435 -1.5027365684509277 -0.3590219020843506 8.0 1 -0.08553856611251831
0.5854593515396118 -2.2003180980682373 0.11932599544525146 26.0 9 -0.08553626388311386
0.4942159354686737 -1.8573999404907227 -0.37360402941703796 6.0 2 -0.08553396165370941
0.5897925496101379 -2.218161106109619 0.20080682635307312 21.0 10 -0.08553165197372437
0.6031414270401001 -2.269960403442383 -0.37200120091438293 100.0 3 -0.08552934974431992
0.5843138694763184 -2.2006490230560303 0.27956831455230713 12.0 11 -0.08552704751491547
0.601747989654541 -2.2679052352905273 -0.28809913992881775 100.0 4 -0.08552474528551102
0.5882834792137146 -2.218722343444824 0.3635537326335907 10.0 12 -0.08552243560552597
0.5744566917419434 -2.166574478149414 -0.1961004137992859 88.0 5 -0.08552013337612152
0.5868028402328491 -2.2146973609924316 0.44534823298454285 8.0 13 -0.08551783114671707
0.5837932825088501 -2.204892873764038 -0.11953534185886383 64.0 6 -0.08551552891731262
0.5846877694129944 -2.2098309993743896 0.5277352333068848 8.0 14 -0.08551321923732758
0.5822014212608337 -2.201986789703369 -0.03975658118724823 100.0 7 -0.08551091700792313
0.5832972526550293 -2.2076916694641113 0.6118482351303101 8.0 15 -0.08550861477851868
0.33745524287223816 -1.2835639715194702 -0.35561737418174744 11.0 0 -0.08548787981271744
0.5772174000740051 -2.197096347808838 0.039651867002248764 56.0 8 -0.08548557758331299
0.3839936852455139 -1.4626569747924805 -0.3491240441799164 11.0 1 -0.08548326790332794
0.578159511089325 -2.202247381210327 0.11932599544525146 26.0 9 -0.08548096567392349
0.4822494685649872 -1.83822500705719 -0.36940622329711914 6.0 2 -0.08547866344451904
0.5805303454399109 -2.2144246101379395 0.20028388500213623 20.0 10 -0.0854763612151146
0.5967158675193787 -2.277784585952759 -0.372939795255661 100.0 3 -0.08547405153512955
0.5771311521530151 -2.2045953273773193 0.2798120379447937 12.0 11 -0.0854717493057251
0.5948325395584106 -2.2738327980041504 -0.2885866165161133 100.0 4 -0.08546944707632065
0.5799229741096497 -2.2168385982513428 0.36292800307273865 10.0 12 -0.0854671448469162
0.5648750066757202 -2.160856008529663 -0.19540317356586456 85.0 5 -0.08546483516693115
0.5815494656562805 -2.226229429244995 0.44725629687309265 8.0 13 -0.0854625329375267
0.5760931968688965 -2.2069175243377686 -0.11953534185886383 64.0 6 -0.08546023070812225
0.5779544115066528 -2.2156295776367188 0.5286350250244141 8.0 14 -0.0854579284787178
0.5653060078620911 -2.1671411991119385 -0.039093390107154846 100.0 7 -0.08545561879873276
0.5769475698471069 -2.2133524417877197 0.6128835082054138 8.0 15 -0.08545331656932831
0.327641099691391 -1.2641634941101074 -0.34992337226867676 9.0 0 -0.08543258160352707
0.5654128193855286 -2.18157696723938 0.039337724447250366 54.0 8 -0.08543027937412262
0.37474411725997925 -1.4469438791275024 -0.34507492184638977 18.0 1 -0.08542797714471817
0.5739718675613403 -2.217787027359009 0.12005870044231415 30.0 9 -0.08542566746473312
0.48074522614479065 -1.858904242515564 -0.3732224106788635 6.0 2 -0.08542336523532867
0.5703045725822449 -2.206792116165161 0.19941233098506927 21.0 10 -0.08542106300592422
0.5866881012916565 -2.270188331604004 -0.3713754713535309 100.0 3 -0.08541876077651978
0.5718029737472534 -2.2141852378845215 0.28078699111938477 13.0 11 -0.08541645109653473
0.588280975818634 -2.279637336730957 -0.2890741229057312 100.0 4 -0.08541414886713028
0.5697147846221924 -2.2092854976654053 0.3613636791706085 11.0 12 -0.08541184663772583
0.557328999042511 -2.1628146171569824 -0.19540317356586456 94.0 5 -0.08540954440832138
0.5707346796989441 -2.2148377895355225 0.44458499550819397 9.0 13 -0.08540723472833633
0.5677754282951355 -2.2049474716186523 -0.11932599544525146 64.0 6 -0.08540493249893188
0.5706038475036621 -2.217534065246582 0.5286350250244141 8.0 14 -0.08540263026952744
0.5602274537086487 -2.1787848472595215 -0.03926791250705719 100.0 7 -0.08540032804012299
0.565372109413147 -2.2003841400146484 0.6087424159049988 8.0 15 -0.08539801836013794
0.32344740629196167 -1.2652429342269897 -0.34992337226867676 10.0 0 -0.0853772833943367
0.5558146238327026 -2.1757872104644775 0.03919810429215431 55.0 8 -0.08537498116493225
0.37017297744750977 -1.4501312971115112 -0.3455248177051544 22.0 1 -0.0853726789355278
0.5647457838058472 -2.2139711380004883 0.1197446808218956 26.0 9 -0.08537037670612335
0.47409316897392273 -1.858586072921753 -0.3728407919406891 6.0 2 -0.0853680670261383
0.5639676451683044 -2.2125327587127686 0.19976095855236053 21.0 10 -0.08536576479673386
0.5772972106933594 -2.266479253768921 -0.3704368472099304 100.0 3 -0.0853634625673294
0.5611323118209839 -2.204625129699707 0.27932456135749817 12.0 11 -0.08536116033792496
0.581298828125 -2.285524368286133 -0.28956159949302673 100.0 4 -0.08535885065793991
0.5649191737174988 -2.222747564315796 0.3632408678531647 10.0 12 -0.08535654842853546
0.5506445169448853 -2.1665821075439453 -0.1955774873495102 88.0 5 -0.08535424619913101
0.5601000785827637 -2.205399513244629 0.44229528307914734 8.0 13 -0.08535194396972656
0.5586015582084656 -2.201107978820801 -0.11901197582483292 66.0 6 -0.08534963428974152
0.5638177394866943 -2.223290205001831 0.5295348167419434 8.0 14 -0.08534733206033707
0.5526188611984253 -2.180727005004883 -0.03926791250705719 100.0 7 -0.08534502983093262
0.5600590705871582 -2.2117083072662354 0.6113306283950806 9.0 15 -0.08534272760152817
0.32374805212020874 -1.2850974798202515 -0.35509976744651794 9.0 0 -0.08532199263572693
0.5506573915481567 -2.1874101161956787 0.039372626692056656 56.0 8 -0.08531968295574188
0.3722398281097412 -1.4797626733779907 -0.3522733747959137 20.0 1 -0.08531738072633743
0.5540926456451416 -2.2043068408966064 0.1191166415810585 27.0 9 -0.08531507849693298
0.4661667048931122 -1.8545174598693848 -0.37169593572616577 6.0 2 -0.08531277626752853
0.557211697101593 -2.2183525562286377 0.2001095712184906 21.0 10 -0.08531046658754349
0.5698630809783936 -2.2703967094421387 -0.37074974179267883 100.0 3 -0.08530816435813904
0.5515018701553345 -2.198868989944458 0.2783496081829071 12.0 11 -0.08530586212873459
0.5694565176963806 -2.2721354961395264 -0.2876116633415222 100.0 4 -0.08530355989933014
0.5571568012237549 -2.224705934524536 0.3632408678531647 10.0 12 -0.08530125021934509
0.5416261553764343 -2.1626925468444824 -0.1950545459985733 91.0 5 -0.08529894798994064
0.5552582740783691 -2.218768358230591 0.44458499550819397 9.0 13 -0.0852966457605362
0.5499454736709595 -2.199169397354126 -0.11880263686180115 68.0 6 -0.08529434353113174
0.5541638135910034 -2.217682361602783 0.5277352333068848 8.0 14 -0.0852920413017273
0.546941339969635 -2.190403461456299 -0.03940753638744354 100.0 7 -0.08528973162174225
0.5532706379890442 -2.2173984050750732 0.6123659014701843 9.0 15 -0.0852874293923378
0.3164680004119873 -1.2749698162078857 -0.3519938886165619 8.0 0 -0.08526669442653656
0.5430182218551636 -2.189318895339966 0.039372626692056656 61.0 8 -0.08526439219713211
0.3736354112625122 -1.5075340270996094 -0.35857200622558594 12.0 1 -0.08526208251714706
0.5449545979499817 -2.200411558151245 0.11880263686180115 30.0 9 -0.08525978028774261
0.45733076333999634 -1.8466049432754517 -0.3697878420352936 5.0 2 -0.08525747805833817
0.5499433875083923 -2.2222180366516113 0.20028388500213623 22.0 10 -0.08525517582893372
0.5628827810287476 -2.276207447052002 -0.3713754713535309 100.0 3 -0.08525286614894867
0.5442993640899658 -2.202707290649414 0.2785933315753937 14.0 11 -0.08525056391954422
0.5615217685699463 -2.274109363555908 -0.2876116633415222 100.0 4 -0.08524826169013977
0.5489144921302795 -2.224719524383545 0.36292800307273865 11.0 12 -0.08524595946073532
0.5375111103057861 -2.1801390647888184 -0.19644904136657715 94.0 5 -0.08524365723133087
0.5484495759010315 -2.2245054244995117 0.44534823298454285 9.0 13 -0.08524134755134583
0.5441768169403076 -2.2088327407836914 -0.11922132223844528 68.0 6 -0.08523904532194138
0.5445560812950134 -2.212034225463867 0.5259355902671814 8.0 14 -0.08523674309253693
0.5388140678405762 -2.1903574466705322 -0.039372626692056656 100.0 7 -0.08523444086313248
0.5473718047142029 -2.226820230484009 0.6144364476203918 9.0 15 -0.08523213118314743
0.3108758330345154 -1.27236807346344 -0.3509586453437805 8.0 0 -0.08521139621734619
0.5377461314201355 -2.200913906097412 0.0395471528172493 64.0 8 -0.08520909398794174
0.37021979689598083 -1.5164016485214233 -0.3603716194629669 11.0 1 -0.08520679175853729
0.5386901497840881 -2.2081212997436523 0.1191166415810585 31.0 9 -0.08520448952913284
0.4482346475124359 -1.8387317657470703 -0.3678797483444214 6.0 2 -0.0852021798491478
0.5413234829902649 -2.222282886505127 0.2001095712184906 23.0 10 -0.08519987761974335
0.5554705858230591 -2.2820937633514404 -0.37200120091438293 100.0 3 -0.0851975753903389
0.5394237041473389 -2.2161669731140137 0.2800557613372803 14.0 11 -0.08519527316093445
0.5545183420181274 -2.2799131870269775 -0.28809913992881775 100.0 4 -0.0851929634809494
0.5383466482162476 -2.2151050567626953 0.3610507845878601 11.0 12 -0.08519066125154495
0.5256661772727966 -2.164576768875122 -0.19488023221492767 88.0 5 -0.0851883590221405
0.542144775390625 -2.2341320514678955 0.4468746781349182 8.0 13 -0.08518605679273605
0.5356066823005676 -2.208871364593506 -0.1191166415810585 71.0 6 -0.08518374711275101
0.5382804870605469 -2.221590995788574 0.5277352333068848 8.0 14 -0.08518144488334656
0.5283399224281311 -2.1805641651153564 -0.03916320204734802 100.0 7 -0.08517914265394211
0.5345948934555054 -2.2080636024475098 0.6087424159049988 9.0 15 -0.08517684042453766
0.3055286109447479 -1.2696889638900757 -0.34992337226867676 9.0 0 -0.08515610545873642
0.525935709476471 -2.1873157024383545 0.03926791250705719 67.0 8 -0.08515379577875137
0.3632936179637909 -1.5120638608932495 -0.3590219020843506 9.0 1 -0.08515149354934692
0.5315261483192444 -2.2139651775360107 0.11932599544525146 33.0 9 -0.08514919131994247
0.4413551986217499 -1.8383761644363403 -0.36749815940856934 6.0 2 -0.08514688909053802
0.5317038297653198 -2.216409206390381 0.19941233098506927 23.0 10 -0.08514457941055298
0.5442781448364258 -2.2705721855163574 -0.36981111764907837 100.0 3 -0.08514227718114853
0.5303726196289062 -2.214268207550049 0.27956831455230713 14.0 11 -0.08513997495174408
0.5470824241638184 -2.2857913970947266 -0.2885866165161133 100.0 4 -0.08513767272233963
0.5316026210784912 -2.2228267192840576 0.36198940873146057 11.0 12 -0.08513536304235458
0.5163398385047913 -2.160675525665283 -0.19435729086399078 91.0 5 -0.08513306081295013
0.5316049456596375 -2.2245540618896484 0.44458499550819397 8.0 13 -0.08513075858354568
0.5292845964431763 -2.21655535697937 -0.11943066120147705 75.0 6 -0.08512845635414124
0.5296177268028259 -2.219665288925171 0.5268353819847107 8.0 14 -0.08512614667415619
0.5203441381454468 -2.182486057281494 -0.03916320204734802 100.0 7 -0.08512384444475174
0.5269460082054138 -2.2118875980377197 0.6092600226402283 9.0 15 -0.08512154221534729
0.2990925908088684 -1.2632807493209839 -0.34785282611846924 9.0 0 -0.08510080724954605
0.5182973146438599 -2.189138174057007 0.03926791250705719 63.0 8 -0.0850985050201416
0.3589107394218445 -1.517115592956543 -0.3599216938018799 8.0 1 -0.08509619534015656
0.5242540836334229 -2.2177505493164062 0.11943066120147705 36.0 9 -0.0850938931107521
0.4341628849506378 -1.8380707502365112 -0.3671165406703949 6.0 2 -0.08509159088134766
0.5240340828895569 -2.220282554626465 0.1995866596698761 25.0 10 -0.0850892886519432
0.5364058017730713 -2.274474620819092 -0.3701240122318268 100.0 3 -0.08508697897195816
0.5212733745574951 -2.2103097438812256 0.27883708477020264 15.0 11 -0.08508467674255371
0.5391004085540771 -2.287687063217163 -0.2885866165161133 100.0 4 -0.08508237451314926
0.5224816203117371 -2.218900680541992 0.3610507845878601 11.0 12 -0.08508007228374481
0.5129016041755676 -2.179919719696045 -0.19592611491680145 100.0 5 -0.08507776260375977
0.5207523703575134 -2.2150206565856934 0.44229528307914734 9.0 13 -0.08507546037435532
0.5193299055099487 -2.210703134536743 -0.11901197582483292 75.0 6 -0.08507315814495087
0.5241506695747375 -2.2329747676849365 0.5295348167419434 8.0 14 -0.08507085591554642
0.5131795406341553 -2.1862356662750244 -0.03919810429215431 100.0 7 -0.08506855368614197
0.5187809467315674 -2.2118325233459473 0.6087424159049988 8.0 15 -0.08506624400615692
0.29710111021995544 -1.271687388420105 -0.34992337226867676 8.0 0 -0.08503246307373047
0.5100535154342651 -2.1849141120910645 0.03916320204734802 70.0 8 -0.08503016084432602
0.35060131549835205 -1.5030534267425537 -0.3563224971294403 7.0 1 -0.08502785861492157
0.515924334526062 -2.2135512828826904 0.1191166415810585 38.0 9 -0.08502554893493652
0.42870742082595825 -1.8393508195877075 -0.3671165406703949 6.0 2 -0.08502324670553207
0.5183480978012085 -2.225708484649658 0.19993527233600616 24.0 10 -0.08502094447612762
0.5301024913787842 -2.277979850769043 -0.3704368472099304 100.0 3 -0.08501864224672318
0.5116295218467712 -2.2003352642059326 0.27737462520599365 16.0 11 -0.08501633256673813
0.5292152166366577 -2.277768135070801 -0.2871242165565491 100.0 4 -0.08501403033733368
0.517295241355896 -2.2282280921936035 0.3623022735118866 11.0 12 -0.08501172810792923
0.5051501393318176 -2.1776387691497803 -0.1955774873495102 93.0 5 -0.08500942587852478
0.5150651335716248 -2.220381021499634 0.44305849075317383 9.0 13 -0.08500711619853973
0.5123175382614136 -2.2102885246276855 -0.11890730261802673 75.0 6 -0.08500481396913528
0.5140055418014526 -2.219331979751587 0.5259355902671814 8.0 14 -0.08500251173973083
0.5094645619392395 -2.20147442817688 -0.03944243863224983 100.0 7 -0.08500020951032639
0.5131353139877319 -2.2190980911254883 0.610295295715332 9.0 15 -0.08499789983034134
0.29416847229003906 -1.2802988290786743 -0.3519938886165619 9.0 0 -0.0849771648645401
0.5055583715438843 -2.2003233432769775 0.03940753638744354 63.0 8 -0.08497486263513565
0.3462246060371399 -1.5080666542053223 -0.3572222888469696 7.0 1 -0.0849725604057312
0.5055147409439087 -2.2036588191986084 0.1184886172413826 38.0 9 -0.08497025817632675
0.4202084243297577 -1.8332552909851074 -0.36559006571769714 6.0 2 -0.0849679484963417
0.5110765099525452 -2.2314774990081787 0.20028388500213623 24.0 10 -0.08496564626693726
0.5221903920173645 -2.2818331718444824 -0.37074974179267883 100.0 3 -0.0849633440375328
0.505716860294342 -2.209848165512085 0.2783496081829071 16.0 11 -0.08496104180812836
0.5212613344192505 -2.279601573944092 -0.2871242165565491 100.0 4 -0.08495873212814331
0.5086339712142944 -2.226168394088745 0.36167651414871216 13.0 12 -0.08495642989873886
0.4966586232185364 -2.1755034923553467 -0.19522884488105774 100.0 5 -0.08495412766933441
0.5086700320243835 -2.229910135269165 0.44458499550819397 9.0 13 -0.08495182543992996
0.505988359451294 -2.2199409008026123 -0.11932599544525146 75.0 6 -0.08494951575994492
0.5050023794174194 -2.2174010276794434 0.5250357985496521 8.0 14 -0.08494721353054047
0.49822479486465454 -2.1876416206359863 -0.03916320204734802 100.0 7 -0.08494491130113602
0.5053860545158386 -2.2208757400512695 0.610295295715332 9.0 15 -0.08494260907173157
0.2879936695098877 -1.2737808227539062 -0.34992337226867676 9.0 0 -0.08492187410593033
0.4944058358669281 -2.1885077953338623 0.03916320204734802 74.0 8 -0.08491956442594528
0.3406949043273926 -1.5093255043029785 -0.3572222888469696 7.0 1 -0.08491726219654083
0.49957871437072754 -2.213202714920044 0.11890730261802673 43.0 9 -0.08491495996713638
0.40862295031547546 -1.8117291927337646 -0.3610106408596039 7.0 2 -0.08491265773773193
0.5006561279296875 -2.221585988998413 0.19923801720142365 26.0 10 -0.08491034805774689
0.5142223238945007 -2.283642053604126 -0.37074974179267883 100.0 3 -0.08490804582834244
0.49935677647590637 -2.219433307647705 0.27932456135749817 15.0 11 -0.08490574359893799
0.5137731432914734 -2.285370349884033 -0.2876116633415222 100.0 4 -0.08490344136953354
0.49956026673316956 -2.2221484184265137 0.3607378900051117 12.0 12 -0.08490113168954849
0.48731529712677 -2.169448137283325 -0.1945316195487976 100.0 5 -0.08489882946014404
0.5017428994178772 -2.2355034351348877 0.44534823298454285 9.0 13 -0.0848965272307396
0.49736201763153076 -2.2177958488464355 -0.1191166415810585 73.0 6 -0.08489422500133514
0.4981114864349365 -2.2229533195495605 0.5259355902671814 8.0 14 -0.0848919227719307
0.48927387595176697 -2.1835131645202637 -0.039058487862348557 100.0 7 -0.08488961309194565
0.4967863857746124 -2.218855857849121 0.6092600226402283 9.0 15 -0.0848873108625412
0.2801898121833801 -1.2596921920776367 -0.34578225016593933 9.0 0 -0.08486657589673996
0.4875797927379608 -2.192086935043335 0.03919810429215431 69.0 8 -0.08486427366733551
0.33737900853157043 -1.5180562734603882 -0.3590219020843506 7.0 1 -0.08486196398735046
0.49228331446647644 -2.2168827056884766 0.11901197582483292 43.0 9 -0.08485966175794601
0.40102073550224304 -1.8073945045471191 -0.35986578464508057 10.0 2 -0.08485735952854156
0.4924670457839966 -2.221374988555908 0.1990637183189392 28.0 10 -0.08485505729913712
0.5032261610031128 -2.2699062824249268 -0.36824676394462585 100.0 3 -0.08485274761915207
0.49113574624061584 -2.217200994491577 0.27883708477020264 16.0 11 -0.08485044538974762
0.5061919689178467 -2.2870614528656006 -0.2876116633415222 100.0 4 -0.08484814316034317
0.4922272562980652 -2.2258076667785645 0.3610507845878601 13.0 12 -0.08484584093093872
0.47801974415779114 -2.1633543968200684 -0.19383437931537628 100.0 5 -0.08484353870153427
0.49178534746170044 -2.2256526947021484 0.44305849075317383 10.0 13 -0.08484122902154922
0.49086618423461914 -2.2233335971832275 -0.11932599544525146 85.0 6 -0.08483892679214478
0.4915766716003418 -2.2283987998962402 0.5268353819847107 8.0 14 -0.08483662456274033
0.48294001817703247 -2.1910665035247803 -0.03916320204734802 100.0 7 -0.08483432233333588
0.4873761534690857 -2.2130300998687744 0.6071895360946655 9.0 15 -0.08483201265335083
0.2793164849281311 -1.2757116556167603 -0.34992337226867676 9.0 0 -0.08481127768754959
0.4782157838344574 -2.1859617233276367 0.039058487862348557 71.0 8 -0.08480897545814514
0.32874879240989685 -1.503994345664978 -0.3554226756095886 8.0 1 -0.08480667322874069
0.4853939414024353 -2.2224903106689453 0.11922132223844528 45.0 9 -0.08480436354875565
0.3992139399051666 -1.827894926071167 -0.36368197202682495 10.0 2 -0.0848020613193512
0.4821247458457947 -2.2093698978424072 0.197843536734581 25.0 10 -0.08479975908994675
0.4923539161682129 -2.25813889503479 -0.3660567104816437 63.0 3 -0.0847974568605423
0.4804353713989258 -2.205324649810791 0.27713093161582947 16.0 11 -0.08479515463113785
0.4990498125553131 -2.292693614959717 -0.28809913992881775 100.0 4 -0.0847928449511528
0.48403483629226685 -2.2255818843841553 0.3607378900051117 14.0 12 -0.08479054272174835
0.4721578061580658 -2.172797441482544 -0.1945316195487976 100.0 5 -0.0847882404923439
0.481512188911438 -2.2158451080322266 0.4407688081264496 9.0 13 -0.08478593826293945
0.47844070196151733 -2.203563690185547 -0.11817460507154465 80.0 6 -0.0847836285829544
0.48379504680633545 -2.2301011085510254 0.5268353819847107 9.0 14 -0.08478132635354996
0.4744417667388916 -2.1888301372528076 -0.039093390107154846 100.0 7 -0.08477902412414551
0.4808748662471771 -2.22038197517395 0.6087424159049988 8.0 15 -0.08477672189474106
0.2746388614177704 -1.2767268419265747 -0.34992337226867676 9.0 0 -0.08475597947835922
0.4714232385158539 -2.191527843475342 0.039128296077251434 76.0 8 -0.08475367724895477
0.3226780295372009 -1.5013223886489868 -0.3545228838920593 7.0 1 -0.08475137501955032
0.47595590353012085 -2.216360092163086 0.11880263686180115 46.0 9 -0.08474907279014587
0.39621850848197937 -1.8466219902038574 -0.3671165406703949 8.0 2 -0.08474677056074142
0.4769469201564789 -2.2247588634490967 0.1990637183189392 28.0 10 -0.08474446088075638
0.4791094958782196 -2.2367496490478516 -0.3623022735118866 36.0 3 -0.08474215865135193
0.47273463010787964 -2.2069883346557617 0.27713093161582947 17.0 11 -0.08473985642194748
0.4877202808856964 -2.278892755508423 -0.2861492335796356 100.0 4 -0.08473755419254303
0.47791537642478943 -2.234984874725342 0.36198940873146057 14.0 12 -0.08473524451255798
0.4654031991958618 -2.1783289909362793 -0.19488023221492767 100.0 5 -0.08473294228315353
0.47420716285705566 -2.2214348316192627 0.44153204560279846 10.0 13 -0.08473064005374908
0.4686945080757141 -2.197489023208618 -0.11775590479373932 80.0 6 -0.08472833782434464
0.47643011808395386 -2.2356715202331543 0.5277352333068848 8.0 14 -0.08472602814435959
0.4676317274570465 -2.1943845748901367 -0.03916320204734802 100.0 7 -0.08472372591495514
0.4735238552093506 -2.2239365577697754 0.6092600226402283 9.0 15 -0.08472142368555069
0.27018070220947266 -1.2776776552200317 -0.34992337226867676 9.0 0 -0.08470068871974945
0.46421462297439575 -2.1971538066864014 0.03919810429215431 76.0 8 -0.084698386490345
0.317173033952713 -1.5024949312210083 -0.3545228838920593 8.0 1 -0.08469607681035995
0.46576833724975586 -2.2083182334899902 0.11827926337718964 48.0 9 -0.0846937745809555
0.3857186734676361 -1.8287837505340576 -0.3633003234863281 6.0 2 -0.08469147235155106
0.47041088342666626 -2.2322587966918945 0.1995866596698761 31.0 10 -0.0846891701221466
0.473333477973938 -2.2480733394622803 -0.3638666272163391 54.0 3 -0.08468686044216156
0.46627703309059143 -2.2164762020111084 0.27810585498809814 17.0 11 -0.08468455821275711
0.47936466336250305 -2.2806649208068848 -0.2861492335796356 100.0 4 -0.08468225598335266
0.4680965542793274 -2.2289886474609375 0.3607378900051117 12.0 12 -0.08467995375394821
0.4573868215084076 -2.177990674972534 -0.19470593333244324 100.0 5 -0.08467764407396317
0.4672562777996063 -2.226919412612915 0.44229528307914734 10.0 13 -0.08467534184455872
0.46225035190582275 -2.2049760818481445 -0.11806992441415787 88.0 6 -0.08467303961515427
0.4674249291419983 -2.2315988540649414 0.526385486125946 9.0 14 -0.08467073738574982
0.4575378894805908 -2.1862974166870117 -0.03898867964744568 100.0 7 -0.08466842770576477
0.4661603271961212 -2.2294390201568604 0.610295295715332 9.0 15 -0.08466612547636032
0.26257461309432983 -1.2634813785552979 -0.34578225016593933 9.0 0 -0.08464539051055908
0.455729216337204 -2.194844961166382 0.039128296077251434 84.0 8 -0.08464308828115463
0.31430160999298096 -1.5150415897369385 -0.3572222888469696 8.0 1 -0.08464078605175018
0.45846232771873474 -2.211886167526245 0.11838394403457642 50.0 9 -0.08463847637176514
0.3753480315208435 -1.8108950853347778 -0.35948416590690613 6.0 2 -0.08463617414236069
0.45938369631767273 -2.2182793617248535 0.19819216430187225 29.0 10 -0.08463387191295624
0.4658837914466858 -2.251646041870117 -0.36417946219444275 48.0 3 -0.08463156968355179
0.46014469861984253 -2.2258665561676025 0.2790808379650116 18.0 11 -0.08462926000356674
0.47220346331596375 -2.28621244430542 -0.28663671016693115 100.0 4 -0.08462695777416229
0.4583171010017395 -2.220935821533203 0.35917356610298157 15.0 12 -0.08462465554475784
0.44776830077171326 -2.1698179244995117 -0.19383437931537628 100.0 5 -0.0846223533153534
0.46304798126220703 -2.245842456817627 0.4457298517227173 10.0 13 -0.08462004363536835
0.45575955510139465 -2.21244478225708 -0.11838394403457642 91.0 6 -0.0846177414059639
0.4588468670845032 -2.2293994426727295 0.5254856944084167 9.0 14 -0.08461543917655945
0.4503062069416046 -2.1898398399353027 -0.03902358189225197 100.0 7 -0.084613136947155
0.45759761333465576 -2.2272679805755615 0.6092600226402283 9.0 15 -0.08461083471775055
0.2581624686717987 -1.264390230178833 -0.34578225016593933 9.0 0 -0.08459009230136871
0.4464661180973053 -2.188585042953491 0.03898867964744568 86.0 8 -0.08458779007196426
0.3066762685775757 -1.5046725273132324 -0.3545228838920593 8.0 1 -0.08458548784255981
0.45153558254241943 -2.2173871994018555 0.11859328299760818 51.0 9 -0.08458318561315536
0.37255018949508667 -1.8295081853866577 -0.3629187345504761 5.0 2 -0.08458087593317032
0.4516375660896301 -2.219869375228882 0.19819216430187225 29.0 10 -0.08457857370376587
0.4548735022544861 -2.237772226333618 -0.36167651414871216 48.0 3 -0.08457627147436142
0.453162282705307 -2.2313499450683594 0.27956831455230713 17.0 11 -0.08457396924495697
0.46422043442726135 -2.287846803665161 -0.28663671016693115 100.0 4 -0.08457165956497192
0.45291638374328613 -2.234138250350952 0.3610507845878601 16.0 12 -0.08456935733556747
0.440982848405838 -2.1752729415893555 -0.19418299198150635 100.0 5 -0.08456705510616302
0.4520880877971649 -2.2320516109466553 0.4426769018173218 10.0 13 -0.08456475287675858
0.4500148296356201 -2.2238101959228516 -0.11890730261802673 100.0 6 -0.08456245064735413
0.45067545771598816 -2.2290773391723633 0.5250357985496521 8.0 14 -0.08456014096736908
0.44226354360580444 -2.1894383430480957 -0.03898867964744568 100.0 7 -0.08455783873796463
0.44752734899520874 -2.21748948097229 0.606154203414917 9.0 15 -0.08455553650856018
0.25374746322631836 -1.2652837038040161 -0.34578225016593933 9.0 0 -0.08453480154275894
0.43725255131721497 -2.1822872161865234 0.038849055767059326 91.0 8 -0.0845324918627739
0.30065685510635376 -1.501912236213684 -0.35362306237220764 8.0 1 -0.08453018963336945
0.44418466091156006 -2.2209086418151855 0.11869796365499496 55.0 9 -0.084527887403965
0.36539188027381897 -1.8269473314285278 -0.3621554970741272 6.0 2 -0.08452558517456055
0.44388625025749207 -2.2214324474334717 0.19819216430187225 31.0 10 -0.0845232754945755
0.45092642307281494 -2.2587177753448486 -0.3648051917552948 95.0 3 -0.08452097326517105
0.44265255331993103 -2.2192909717559814 0.2778621315956116 19.0 11 -0.0845186710357666
0.4577832818031311 -2.297240734100342 -0.2876116633415222 100.0 4 -0.08451636880636215
0.4462723731994629 -2.2415177822113037 0.36198940873146057 15.0 12 -0.0845140665769577
0.4329981803894043 -2.174844741821289 -0.19400867819786072 100.0 5 -0.08451175689697266
0.44199585914611816 -2.222062826156616 0.44038718938827515 10.0 13 -0.0845094546675682
0.43991363048553467 -2.213613748550415 -0.11827926337718964 100.0 6 -0.08450715243816376
0.44782570004463196 -2.2554855346679688 0.5308845043182373 9.0 14 -0.08450485020875931
0.435785710811615 -2.196852922439575 -0.039093390107154846 100.0 7 -0.08450254052877426
0.4390327036380768 -2.2152485847473145 0.6051189303398132 9.0 15 -0.08450023829936981
0.25007569789886475 -1.269952654838562 -0.3468175232410431 8.0 0 -0.08447950333356857
0.43194830417633057 -2.1955726146698 0.039058487862348557 100.0 8 -0.08447720110416412
0.2946608364582062 -1.4991282224655151 -0.35272327065467834 7.0 1 -0.08447489142417908
0.43604692816734314 -2.218449831008911 0.1184886172413826 55.0 9 -0.08447258919477463
0.3574991226196289 -1.8205057382583618 -0.36062902212142944 5.0 2 -0.08447028696537018
0.43727970123291016 -2.2288336753845215 0.19871510565280914 34.0 10 -0.08446798473596573
0.4494989216327667 -2.2932326793670654 -0.3701240122318268 100.0 3 -0.08446568250656128
0.4333770275115967 -2.2130300998687744 0.2768871784210205 20.0 11 -0.08446337282657623
0.44671234488487244 -2.2832393646240234 -0.2856617569923401 100.0 4 -0.08446107059717178
0.4388366937637329 -2.242985248565674 0.36198940873146057 15.0 12 -0.08445876836776733
0.4265507757663727 -2.182209014892578 -0.1945316195487976 100.0 5 -0.08445646613836288
0.4334840774536133 -2.219738483428955 0.43962395191192627 11.0 13 -0.08445415645837784
0.4318014681339264 -2.2131755352020264 -0.11817460507154465 100.0 6 -0.08445185422897339
0.4339843690395355 -2.226431131362915 0.5236860513687134 9.0 14 -0.08444955199956894
