# .PCD v0.7 - Point Cloud Data file format
VERSION 0.7
FIELDS x y z intensity ring time
SIZE 4 4 4 4 4 4
TYPE F F F F F F
COUNT 1 1 1 1 1 1
WIDTH 543
HEIGHT 1
VIEWPOINT 0 0 0 1 0 0 0
POINTS 543
DATA ascii
-3.001802444458008 0.4513012766838074 -0.05298550799489021 72.0 7 -0.026087317615747452
-9.731230735778809 1.4647610187530518 2.6368486881256104 0.0 15 -0.026085013523697853
-2.576493740081787 0.39149823784828186 -0.6982938051223755 51.0 0 -0.026064276695251465
-3.020859956741333 0.45901966094970703 0.0533345565199852 32.0 8 -0.026061972603201866
-3.064406633377075 0.4667302370071411 0.16245082020759583 28.0 9 -0.02605736441910267
-2.5482969284057617 0.388578861951828 -0.5010644793510437 12.0 2 -0.02605506032705307
-2.981929063796997 0.4552333652973175 0.2639075815677643 2.0 10 -0.02605275809764862
-2.546388626098633 0.38874199986457825 -0.40798112750053406 79.0 3 -0.026050454005599022
-2.548964738845825 0.3900464177131653 -0.31661656498908997 58.0 4 -0.026045845821499825
-9.848893165588379 1.508849024772644 1.5781110525131226 0.0 12 -0.026043541729450226
-2.753164768218994 0.42227691411972046 -0.2436874657869339 9.0 5 -0.026041237637400627
-2.3946077823638916 0.3677096366882324 -0.12696704268455505 20.0 6 -0.02603662945330143
-3.0061380863189697 0.46268871426582336 -0.05309021845459938 74.0 7 -0.026032021269202232
-9.726058959960938 1.498720645904541 2.6368486881256104 0.0 15 -0.026029717177152634
-3.0251669883728027 0.47048288583755493 0.053439266979694366 33.0 8 -0.026006678119301796
-2.4608397483825684 0.383156955242157 -0.5749749541282654 1.0 1 -0.026004374027252197
-3.0548651218414307 0.4761945307254791 0.1620321422815323 27.0 9 -0.0260020699352026
-2.5508739948272705 0.39763206243515015 -0.5018276572227478 1.0 2 -0.025999765843153
-2.9823715686798096 0.46542662382125854 0.2640818953514099 2.0 10 -0.0259974617511034
-2.5411131381988525 0.3970184326171875 -0.407355397939682 64.0 3 -0.025995157659053802
-2.543665647506714 0.3983268439769745 -0.31612908840179443 58.0 4 -0.025990549474954605
-2.751673936843872 0.431884765625 -0.2436874657869339 9.0 5 -0.025985941290855408
-2.39133620262146 0.3757561445236206 -0.12686236202716827 18.0 6 -0.02598133310675621
-3.0143814086914062 0.4747348129749298 -0.05326474457979202 72.0 7 -0.025976724922657013
-9.77038288116455 1.54048490524292 2.6503071784973145 0.0 15 -0.025974420830607414
-2.46685791015625 0.3924771547317505 -0.6693060994148254 1.0 0 -0.025953685864806175
-3.027456283569336 0.4816683530807495 0.05350907891988754 26.0 8 -0.025951381772756577
-2.459487199783325 0.3917451798915863 -0.5749749541282654 1.0 1 -0.025949077680706978
-3.057129144668579 0.4874834716320038 0.16224147379398346 27.0 9 -0.02594677358865738
-2.990482807159424 0.4779272973537445 0.26495346426963806 2.0 10 -0.025942165404558182
-2.547443151473999 0.4075778126716614 -0.4086068868637085 11.0 3 -0.025939861312508583
-2.538339376449585 0.40657562017440796 -0.3156416416168213 58.0 4 -0.025935253128409386
-2.7521166801452637 0.4418031573295593 -0.24386176466941833 9.0 5 -0.02593064494431019
-2.3899428844451904 0.3845183253288269 -0.12686236202716827 18.0 6 -0.02592603676021099
-3.0008604526519775 0.48334622383117676 -0.05305531620979309 67.0 7 -0.025921428576111794
-2.4692864418029785 0.40170618891716003 -0.6703413724899292 1.0 0 -0.025898389518260956
-3.033564805984497 0.494047075510025 0.0536486990749836 28.0 8 -0.025896085426211357
-2.419567823410034 0.39448484778404236 -0.5659768581390381 2.0 1 -0.02589378133416176
-3.0612354278564453 0.49965038895606995 0.1625555008649826 24.0 9 -0.02589147724211216
-2.9789648056030273 0.4867568016052246 0.2640818953514099 2.0 10 -0.025886869058012962
-2.466076612472534 0.4033932089805603 -0.39577925205230713 1.0 3 -0.025884564965963364
-2.540750026702881 0.41651931405067444 -0.31612908840179443 57.0 4 -0.025879956781864166
-2.728930950164795 0.44785720109939575 -0.2419443279504776 9.0 5 -0.02587534859776497
-2.4004108905792236 0.39480337500572205 -0.12749040126800537 18.0 6 -0.02587074041366577
-3.0010416507720947 0.4946669638156891 -0.05309021845459938 69.0 7 -0.025866134092211723
-2.4450008869171143 0.4065210223197937 -0.6641297340393066 1.0 0 -0.025843093171715736
-3.019986391067505 0.5026633143424988 0.053439266979694366 27.0 8 -0.025840789079666138
-2.456620931625366 0.409334272146225 -0.5749749541282654 1.0 1 -0.02583848498761654
-3.067352533340454 0.5116482973098755 0.16297417879104614 24.0 9 -0.02583618089556694
-2.4303061962127686 0.4053860604763031 -0.47893062233924866 1.0 2 -0.02583387680351734
-2.9870731830596924 0.49879246950149536 0.26495346426963806 2.0 10 -0.025831572711467743
-2.4880335330963135 0.4159073233604431 -0.3995336890220642 1.0 3 -0.025829268619418144
-2.547111988067627 0.4266970455646515 -0.3171040713787079 57.0 4 -0.025824660435318947
-2.737175464630127 0.4590279161930084 -0.24281588196754456 8.0 5 -0.0258200541138649
-2.4088666439056396 0.4048345685005188 -0.1280137598514557 16.0 6 -0.0258154459297657
-3.0032405853271484 0.5058038234710693 -0.05316003039479256 63.0 7 -0.025810837745666504
-2.4130938053131104 0.4098771810531616 -0.6558474898338318 1.0 0 -0.025787796825170517
-3.016242027282715 0.5128668546676636 0.05340436473488808 22.0 8 -0.02578549273312092
-2.416754961013794 0.41136643290519714 -0.5659768581390381 1.0 1 -0.02578318864107132
-3.0734236240386963 0.5236935615539551 0.16339287161827087 24.0 9 -0.02578088454902172
-2.979422092437744 0.5082113146781921 0.26443052291870117 2.0 10 -0.025776276364922523
-2.4865665435791016 0.4245903193950653 -0.3995336890220642 1.0 3 -0.025773974135518074
-2.553433656692505 0.4369247853755951 -0.31807902455329895 58.0 4 -0.025769365951418877
-2.7355563640594482 0.4685803949832916 -0.24281588196754456 8.0 5 -0.02576475776731968
-2.387753963470459 0.4098617732524872 -0.12696704268455505 17.0 6 -0.025760149583220482
-3.007369041442871 0.5173003673553467 -0.05326474457979202 65.0 7 -0.025755541399121284
-3.0223145484924316 0.5247600674629211 0.05354398116469383 23.0 8 -0.0257301963865757
-2.3500258922576904 0.40845468640327454 -0.5506802201271057 2.0 1 -0.02572789415717125
-3.0617382526397705 0.5327069163322449 0.16286951303482056 22.0 9 -0.02572559006512165
-2.4003381729125977 0.41763097047805786 -0.4735879600048065 1.0 2 -0.025723285973072052
-2.9717414379119873 0.5175821185112 0.2639075815677643 2.0 10 -0.025720981881022453
-2.53566575050354 0.4420883357524872 -0.40766826272010803 1.0 3 -0.025718677788972855
-2.5479822158813477 0.4451521039009094 -0.3175915479660034 55.0 4 -0.025714069604873657
-2.7378294467926025 0.4788123369216919 -0.243164524435997 8.0 5 -0.02570946142077446
-2.3902432918548584 0.4188842475414276 -0.12717638909816742 17.0 6 -0.025704853236675262
-3.013423204421997 0.5291784405708313 -0.05340436473488808 60.0 7 -0.025700245052576065
-3.022433280944824 0.5356565117835999 0.05357888713479042 20.0 8 -0.02567490190267563
-2.3562607765197754 0.4180169701576233 -0.5524798035621643 2.0 1 -0.02567259781062603
-3.065854549407959 0.5439037680625916 0.1631835252046585 22.0 9 -0.02567029371857643
-2.985609531402588 0.5307427644729614 0.26530206203460693 2.0 10 -0.025665685534477234
-2.542504072189331 0.4533466696739197 -0.3171040713787079 57.0 4 -0.025658773258328438
-2.7322187423706055 0.48766613006591797 -0.24281588196754456 8.0 5 -0.02565416507422924
-2.4005630016326904 0.429334431886673 -0.12780441343784332 18.0 6 -0.025649556890130043
-2.9998412132263184 0.5370541214942932 -0.053194932639598846 55.0 7 -0.025644948706030846
-2.427680253982544 0.43855804204940796 -0.6610238552093506 1.0 0 -0.025621909648180008
-3.0363833904266357 0.5485196709632874 0.05385812744498253 18.0 8 -0.02561960555613041
-2.4507436752319336 0.44316673278808594 -0.5749749541282654 1.0 1 -0.02561730146408081
-3.0678679943084717 0.5553139448165894 0.16339287161827087 20.0 9 -0.025614997372031212
-2.3973641395568848 0.4343777596950531 -0.4735879600048065 1.0 2 -0.025612693279981613
-2.9955012798309326 0.5432947278022766 0.2663479447364807 3.0 10 -0.025610389187932014
-2.5487990379333496 0.46319523453712463 -0.31807902455329895 55.0 4 -0.02560347691178322
-2.7226593494415283 0.49577274918556213 -0.24211864173412323 8.0 5 -0.02559886872768402
-2.401090621948242 0.4376508295536041 -0.1279090791940689 18.0 6 -0.025594260543584824
-2.990079879760742 0.5460852980613708 -0.05305531620979309 50.0 7 -0.025589652359485626
-3.5308640003204346 0.6454867720603943 0.9617716073989868 1.0 15 -0.025587350130081177
-3.014784097671509 0.5554925203323364 0.05350907891988754 13.0 8 -0.02556430920958519
-2.4491817951202393 0.4517187774181366 -0.5749749541282654 1.0 1 -0.02556200511753559
-3.0737671852111816 0.5674691200256348 0.1638115644454956 21.0 9 -0.025559701025485992
-2.3959105014801025 0.4423253834247589 -0.4735879600048065 1.0 2 -0.025557396933436394
-2.9956421852111816 0.5535873174667358 0.26652225852012634 2.0 10 -0.025555092841386795
-3.4861202239990234 0.6454840898513794 0.43531733751296997 1.0 11 -0.025550484657287598
-2.55497407913208 0.4735364615917206 -0.3190539479255676 54.0 4 -0.025548180565238
-3.5173895359039307 0.6525446176528931 0.5666056871414185 1.0 12 -0.0255458764731884
-2.7210001945495605 0.5047987699508667 -0.24211864173412323 8.0 5 -0.0255435723811388
-3.4956912994384766 0.6491493582725525 0.6911102533340454 1.0 13 -0.025541270151734352
-2.4132940769195557 0.448584645986557 -0.12864179909229279 22.0 6 -0.025538966059684753
-3.4677066802978516 0.6452056765556335 0.8143228888511658 1.0 14 -0.025536661967635155
-3.5133960247039795 0.6549755930900574 0.9576305150985718 4.0 15 -0.025532053783535957
-2.4246387481689453 0.4550726115703583 -0.6610238552093506 1.0 0 -0.02551131695508957
-3.0010344982147217 0.5637974143028259 0.05329965054988861 12.0 8 -0.02550901286303997
-2.4475903511047363 0.46026474237442017 -0.5749749541282654 1.0 1 -0.02550670877099037
-3.0835444927215576 0.580411970615387 0.1644395887851715 21.0 9 -0.025504404678940773
-2.421363115310669 0.4557703733444214 -0.47893062233924866 1.0 2 -0.025502100586891174
-3.001523494720459 0.5655164122581482 0.26721951365470886 4.0 10 -0.025499796494841576
-3.5443153381347656 0.6690648794174194 0.4428732097148895 2.0 11 -0.025495190173387527
-2.561107873916626 0.4839264154434204 -0.3200289309024811 51.0 4 -0.02549288608133793
-3.4588022232055664 0.6541719436645508 0.5575324892997742 2.0 12 -0.02549058198928833
-2.719221591949463 0.5142931938171387 -0.24211864173412323 8.0 5 -0.02548827789723873
-3.3062915802001953 0.6259257197380066 0.6540932655334473 3.0 13 -0.025485973805189133
-2.4077887535095215 0.4562622606754303 -0.12843245267868042 22.0 6 -0.025483669713139534
-3.3199234008789062 0.6297060251235962 0.7801303267478943 1.0 14 -0.025481365621089935
-3.0574936866760254 0.5810360908508301 0.8339149951934814 9.0 15 -0.025476757436990738
-2.434420108795166 0.4657119810581207 -0.6641297340393066 1.0 0 -0.02545602060854435
-3.008868455886841 0.5761492848396301 0.053474172949790955 11.0 8 -0.02545371651649475
-2.4459686279296875 0.4688057005405426 -0.5749749541282654 1.0 1 -0.025451412424445152
-3.07365345954895 0.589667558670044 0.16402089595794678 20.0 9 -0.025449108332395554
-2.431325912475586 0.46643972396850586 -0.4812203049659729 1.0 2 -0.025446806102991104
-3.0171408653259277 0.5793711543083191 0.26878830790519714 3.0 10 -0.025444502010941505
-3.0819132328033447 0.5929253101348877 0.38535091280937195 2.0 11 -0.025439893826842308
-2.5594029426574707 0.49286288022994995 -0.3200289309024811 50.0 4 -0.02543758973479271
-3.0743820667266846 0.5925885438919067 0.4958972930908203 15.0 12 -0.02543528564274311
-2.7389302253723145 0.5279300212860107 -0.24403607845306396 8.0 5 -0.025432981550693512
-3.0515570640563965 0.5887421369552612 0.604101300239563 17.0 13 -0.025430677458643913
-2.4002983570098877 0.4635276198387146 -0.12811844050884247 24.0 6 -0.025428373366594315
-3.046013116836548 0.5887753963470459 0.7162442207336426 30.0 14 -0.025426069274544716
-3.019411563873291 0.584726095199585 0.8240798711776733 29.0 15 -0.02542146109044552
-3.0068390369415283 0.5866488218307495 0.053474172949790955 11.0 8 -0.02539842203259468
-3.0754969120025635 0.6011587381362915 0.16423025727272034 20.0 9 -0.025393813848495483
-3.0639829635620117 0.5994632840156555 0.2731460928916931 29.0 10 -0.025389205664396286
-3.0545005798339844 0.5987151265144348 0.3821823000907898 36.0 11 -0.02538459748029709
-2.5576670169830322 0.5017939209938049 -0.3200289309024811 50.0 4 -0.02538229338824749
-3.0567877292633057 0.6002722382545471 0.4933943450450897 51.0 12 -0.02537998929619789
-2.717519998550415 0.5336490273475647 -0.24229297041893005 7.0 5 -0.025377685204148293
-3.04948353767395 0.5993898510932922 0.604101300239563 47.0 13 -0.025375381112098694
-2.418262481689453 0.4757588505744934 -0.1291651576757431 26.0 6 -0.025373077020049095
-3.0477633476257324 0.6001574993133545 0.7171440124511719 43.0 14 -0.025370772927999496
-2.7114148139953613 0.5344154834747314 -0.04823845252394676 1.0 7 -0.025368468835949898
-3.02872371673584 0.5975057482719421 0.8271856904029846 33.0 15 -0.0253661647439003
-2.381842851638794 0.4729136526584625 -0.650671124458313 1.0 0 -0.02534542977809906
-3.020463705062866 0.6002593636512756 0.05375341325998306 10.0 8 -0.02534312568604946
-3.0812149047851562 0.6134505867958069 0.16464893519878387 20.0 9 -0.025338517501950264
-2.3895010948181152 0.475734680891037 -0.4735879600048065 1.0 2 -0.025336213409900665
-3.0521018505096436 0.6082081198692322 0.27227452397346497 25.0 10 -0.025333909317851067
-3.067965507507324 0.6124828457832336 0.3841322064399719 57.0 11 -0.02532930113375187
-2.5636861324310303 0.5122753381729126 -0.32100388407707214 46.0 4 -0.02532699704170227
-3.052737236022949 0.6105507612228394 0.4930815100669861 36.0 12 -0.025324692949652672
-2.7078256607055664 0.5415681004524231 -0.24159571528434753 7.0 5 -0.025322388857603073
-3.0569980144500732 0.6119577884674072 0.6060094237327576 36.0 13 -0.025320084765553474
-2.4087536334991455 0.48262837529182434 -0.12874646484851837 23.0 6 -0.025317780673503876
-3.022721290588379 0.6061936616897583 0.7117451429367065 25.0 14 -0.025315476581454277
-2.6977691650390625 0.5415156483650208 -0.04802902415394783 18.0 7 -0.02531317248940468
-3.009573459625244 0.6046503782272339 0.8225269913673401 33.0 15 -0.02531086839735508
-2.429409980773926 0.4911787807941437 -0.6641297340393066 1.0 0 -0.02529013343155384
-3.008549928665161 0.6088160872459412 0.05357888713479042 9.0 8 -0.025287829339504242
-3.0868844985961914 0.6257896423339844 0.1650676131248474 20.0 9 -0.025283221155405045
-2.3878259658813477 0.4840727746486664 -0.4735879600048065 1.0 2 -0.025280917063355446
-3.036292314529419 0.6160849928855896 0.27105435729026794 27.0 10 -0.025278612971305847
-3.0366291999816895 0.6172569990158081 0.38047611713409424 42.0 11 -0.02527400478720665
-2.573554039001465 0.5235952138900757 -0.32246631383895874 45.0 4 -0.02527170069515705
-3.0331664085388184 0.6176556348800659 0.4902656674385071 40.0 12 -0.025269396603107452
-2.696157217025757 0.5490291714668274 -0.24072414636611938 7.0 5 -0.025267092511057854
-3.0317587852478027 0.6179201006889343 0.6014299988746643 45.0 13 -0.025264788419008255
-2.420753240585327 0.49382761120796204 -0.12947916984558105 24.0 6 -0.025262486189603806
-3.0244059562683105 0.6175210475921631 0.7126449942588806 36.0 14 -0.025260182097554207
-2.697821617126465 0.5513304471969604 -0.04806393012404442 8.0 7 -0.025257878005504608
-3.0112297534942627 0.615925669670105 0.8235622644424438 35.0 15 -0.02525557391345501
-3.0024895668029785 0.6185073256492615 0.05350907891988754 9.0 8 -0.025232532992959023
-2.3895609378814697 0.4926799535751343 -0.5632774829864502 1.0 1 -0.025230228900909424
-3.092505693435669 0.6381750702857971 0.16548630595207214 19.0 9 -0.025227924808859825
-3.0438790321350098 0.628695011138916 0.2719258964061737 37.0 10 -0.025223316624760628
-3.040287733078003 0.6290597915649414 0.38120734691619873 41.0 11 -0.02521870844066143
-2.5755982398986816 0.5333805680274963 -0.3229537904262543 44.0 4 -0.02521640434861183
-3.0638744831085205 0.6350553035736084 0.4955844581127167 32.0 12 -0.025214102119207382
-2.6942243576049805 0.5584372282028198 -0.24072414636611938 7.0 5 -0.025211798027157784
-3.046884298324585 0.6320883631706238 0.6048645377159119 38.0 13 -0.025209493935108185
-2.4111924171447754 0.5006504654884338 -0.12906047701835632 24.0 6 -0.025207189843058586
-3.066115379333496 0.6371942758560181 0.7229927778244019 38.0 14 -0.025204885751008987
-3.0468876361846924 0.6343079209327698 0.8339149951934814 35.0 15 -0.02520027756690979
-3.012054920196533 0.6314460635185242 0.053718507289886475 9.0 8 -0.025177236646413803
-3.0863499641418457 0.648145854473114 0.16527697443962097 21.0 9 -0.025172628462314606
-3.0865111351013184 0.6487421989440918 0.2759350836277008 27.0 10 -0.02516802027821541
-3.0866360664367676 0.6498935222625732 0.3873008191585541 53.0 11 -0.02516341395676136
-2.573720693588257 0.5423679351806641 -0.3229537904262543 44.0 4 -0.02516110986471176
-3.102229118347168 0.6543067097663879 0.5021546483039856 48.0 12 -0.025158805772662163
-2.700056791305542 0.5694825649261475 -0.2414214164018631 7.0 5 -0.025156501680612564
-3.092682361602783 0.652857780456543 0.6144050359725952 53.0 13 -0.025154197588562965
-2.397705554962158 0.5065869688987732 -0.12843245267868042 23.0 6 -0.025151893496513367
-3.0962839126586914 0.6547478437423706 0.7306410670280457 48.0 14 -0.025149589404463768
-3.065443992614746 0.6493434906005859 0.8396090269088745 40.0 15 -0.02514498122036457
-3.003965377807617 0.6407042145729065 0.05361378937959671 9.0 8 -0.0251289214938879
-3.08418345451355 0.6583771705627441 0.16527697443962097 20.0 9 -0.025124313309788704
-3.1017630100250244 0.6632611751556396 0.2775038778781891 37.0 10 -0.025119705125689507
-3.101818084716797 0.6644059419631958 0.3894944489002228 56.0 11 -0.02511509694159031
-2.579576015472412 0.553012490272522 -0.32392874360084534 43.0 4 -0.02511279284954071
-3.1077680587768555 0.6662468910217285 0.5034061670303345 48.0 12 -0.025110488757491112
-2.7058446407318115 0.5805767178535461 -0.24211864173412323 7.0 5 -0.025108184665441513
-3.103821039199829 0.6665348410606384 0.6170763373374939 50.0 13 -0.025105882436037064
-2.4076385498046875 0.5174710154533386 -0.12906047701835632 24.0 6 -0.025103578343987465
-3.071117877960205 0.660633385181427 0.7252422571182251 40.0 14 -0.025101274251937866
-3.065162420272827 0.6599119901657104 0.840126633644104 36.0 15 -0.02509666606783867
-3.0272302627563477 0.6561692357063293 0.05406755208969116 9.0 8 -0.025073625147342682
-3.0896735191345215 0.6708341240882874 0.1656956523656845 21.0 9 -0.025069016963243484
-3.1013755798339844 0.674507737159729 0.2776781916618347 34.0 10 -0.025064408779144287
-3.1015374660491943 0.6751106381416321 0.38973820209503174 55.0 11 -0.02505980245769024
-2.577728033065796 0.5615637302398682 -0.32392874360084534 42.0 4 -0.02505749836564064
-3.0919132232666016 0.6741461157798767 0.5012161135673523 45.0 12 -0.02505519427359104
-2.6882288455963135 0.5866201519966125 -0.24072414636611938 7.0 5 -0.025052890181541443
-3.1015937328338623 0.6768238544464111 0.6170763373374939 38.0 13 -0.025050586089491844
-2.405909299850464 0.5254522562026978 -0.12906047701835632 23.0 6 -0.025048281997442245
-3.0784292221069336 0.6728947162628174 0.7274917960166931 40.0 14 -0.025045977905392647
-3.0345327854156494 0.6644088625907898 0.8323620557785034 37.0 15 -0.02504136972129345
-2.2771759033203125 0.5015026926994324 -0.6247891783714294 1.0 0 -0.02502063289284706
-3.01125168800354 0.6637192964553833 0.05382322147488594 8.0 8 -0.025018328800797462
-3.0912137031555176 0.6824755072593689 0.16590499877929688 22.0 9 -0.025013722479343414
-3.079667329788208 0.6804899573326111 0.2759350836277008 36.0 10 -0.025009114295244217
-3.0817182064056396 0.6820714473724365 0.38754454255104065 47.0 11 -0.02500450611114502
-2.591256856918335 0.5739927887916565 -0.32587864995002747 42.0 4 -0.02500220201909542
-3.0663983821868896 0.6798043251037598 0.4974616467952728 36.0 12 -0.024999897927045822
-2.6608786582946777 0.5903892517089844 -0.23845809698104858 7.0 5 -0.024997593834996223
-3.066629409790039 0.6804162263870239 0.610588788986206 36.0 13 -0.024995289742946625
-2.4177086353302 0.5368780493736267 -0.129793182015419 23.0 6 -0.024992985650897026
-3.0532333850860596 0.6785630583763123 0.7220929265022278 38.0 14 -0.024990681558847427
-3.0189952850341797 0.6720597147941589 0.8287386298179626 41.0 15 -0.02498607337474823
-2.2319648265838623 0.5001302361488342 -0.6128835082054138 2.0 0 -0.02496533840894699
-3.0128190517425537 0.675101101398468 0.05389302968978882 8.0 8 -0.024963034316897392
-3.102454423904419 0.696323573589325 0.16663770377635956 23.0 9 -0.024958426132798195
-3.0693771839141846 0.6900250315666199 0.2752378284931183 34.0 10 -0.024953817948698997
-3.0657620429992676 0.6897743940353394 0.3858383595943451 46.0 11 -0.0249492097645998
-2.5911738872528076 0.5834712386131287 -0.3261224031448364 40.0 4 -0.0249469056725502
-3.062079906463623 0.6900689601898193 0.4971488118171692 37.0 12 -0.024944601580500603
-2.678237199783325 0.6040574908256531 -0.2402012199163437 5.0 5 -0.024942297488451004
-3.0507092475891113 0.6886262893676758 0.6079174876213074 41.0 13 -0.024939993396401405
-2.4118282794952393 0.5448561906814575 -0.12958383560180664 22.0 6 -0.024937689304351807
-3.0621306896209717 0.6923269629478455 0.7247923612594604 42.0 14 -0.024935385212302208
-3.0260519981384277 0.6847257018089294 0.8313267827033997 43.0 15 -0.02493077702820301
-2.235856533050537 0.5092052817344666 -0.6144364476203918 1.0 0 -0.02491004206240177
-3.006425142288208 0.6852503418922424 0.05382322147488594 8.0 8 -0.024907737970352173
-3.094162940979004 0.705816388130188 0.1663236916065216 25.0 9 -0.024903129786252975
-3.074718952178955 0.7025101184844971 0.2759350836277008 34.0 10 -0.024898521602153778
-2.5861809253692627 0.5913641452789307 -0.4201830327510834 1.0 3 -0.02489621751010418
-3.057408094406128 0.6996779441833496 0.385107159614563 50.0 11 -0.02489391341805458
-2.5754733085632324 0.5898617506027222 -0.32441622018814087 39.0 4 -0.024891609326004982
-3.0712053775787354 0.7033994793891907 0.49902600049972534 37.0 12 -0.024889305233955383
-2.67417049407959 0.6129575967788696 -0.24002692103385925 4.0 5 -0.024887001141905785
-3.0635952949523926 0.7027828097343445 0.6109704375267029 41.0 13 -0.024884697049856186
-2.4060184955596924 0.5523774027824402 -0.12937450408935547 7.0 6 -0.024882392957806587
-3.055896759033203 0.702139675617218 0.7238925695419312 51.0 14 -0.02488008886575699
-2.61933970451355 0.6018338799476624 -0.046912070363759995 1.0 7 -0.02487778477370739
-3.0292916297912598 0.6965833306312561 0.8328797221183777 52.0 15 -0.02487548068165779
-2.3658132553100586 0.5474958419799805 -0.650671124458313 1.0 0 -0.024854745715856552
-3.027514696121216 0.7006266117095947 0.054242078214883804 8.0 8 -0.024852441623806953
-3.0819520950317383 0.7143579721450806 0.1658003330230713 28.0 9 -0.024847833439707756
-3.074188709259033 0.7136892676353455 0.27610939741134644 37.0 10 -0.02484322525560856
-2.57843279838562 0.5985969305038452 -0.4192444086074829 13.0 3 -0.02484092116355896
-3.06860613822937 0.7129584550857544 0.38681334257125854 60.0 11 -0.02483861707150936
-2.5773699283599854 0.5992982983589172 -0.3249036967754364 39.0 4 -0.024836312979459763
-3.0648837089538574 0.7132204174995422 0.4984002709388733 48.0 12 -0.024834008887410164
-2.693359375 0.6272602081298828 -0.2419443279504776 5.0 5 -0.024831704795360565
-3.051687479019165 0.7107117772102356 0.6090623736381531 46.0 13 -0.024829400703310966
-2.435295581817627 0.5676068663597107 -0.131049245595932 22.0 6 -0.024827098473906517
-3.0402672290802 0.7091701626777649 0.7207432389259338 52.0 14 -0.02482479438185692
-3.0324854850769043 0.7084711790084839 0.8344326615333557 53.0 15 -0.02482018619775772
-2.221054792404175 0.5217617154121399 -0.6113306283950806 1.0 0 -0.024799449369311333
-3.025050401687622 0.7111904621124268 0.054242078214883804 8.0 8 -0.024797145277261734
-3.091104030609131 0.727858304977417 0.1664283573627472 28.0 9 -0.024792537093162537
-3.0679266452789307 0.7229658365249634 0.2757607400417328 38.0 10 -0.02478792890906334
-2.5993998050689697 0.6130343675613403 -0.4229988753795624 32.0 3 -0.02478562481701374
-3.068030595779419 0.7241207957267761 0.3870570659637451 56.0 11 -0.024783320724964142
-2.5771942138671875 0.6087477803230286 -0.32514744997024536 32.0 4 -0.024781018495559692
-3.062375068664551 0.7239153385162354 0.4984002709388733 48.0 12 -0.024778714403510094
-2.6833980083465576 0.63482266664505 -0.24124708771705627 1.0 5 -0.024776410311460495
-3.0721144676208496 0.7267829179763794 0.6136417388916016 45.0 13 -0.024774106219410896
-2.4332993030548096 0.5761042833328247 -0.131049245595932 31.0 6 -0.024771802127361298
-3.0453579425811768 0.7215763330459595 0.7225428223609924 52.0 14 -0.0247694980353117
-3.029993772506714 0.7190523147583008 0.8344326615333557 54.0 15 -0.0247648898512125
-2.219127655029297 0.5298983454704285 -0.6113306283950806 3.0 0 -0.024744153022766113
-3.0108797550201416 0.7189581990242004 0.05403264984488487 8.0 8 -0.024741848930716515
-2.6118223667144775 0.6241510510444641 -0.619965136051178 1.0 1 -0.024739544838666916
-3.0924296379089355 0.739573061466217 0.16663770377635956 27.0 9 -0.024737240746617317
-3.065256118774414 0.7342055439949036 0.2757607400417328 40.0 10 -0.02473263442516327
-2.583688259124756 0.6193348169326782 -0.4208087623119354 8.0 3 -0.02473033033311367
-3.0732059478759766 0.7366769313812256 0.38803204894065857 56.0 11 -0.02472802624106407
-2.590496301651001 0.6214441657066345 -0.3270973265171051 12.0 4 -0.024725722149014473
-3.065592050552368 0.7359833717346191 0.49933886528015137 47.0 12 -0.024723418056964874
-2.6617932319641113 0.6395311951637268 -0.23950397968292236 2.0 5 -0.024721113964915276
-3.0617945194244385 0.7362020015716553 0.6121153235435486 45.0 13 -0.024718809872865677
-2.436997175216675 0.5864207744598389 -0.13136327266693115 34.0 6 -0.024716505780816078
-3.054060459136963 0.7354701161384583 0.7252422571182251 52.0 14 -0.02471420168876648
-3.0199527740478516 0.727814793586731 0.8323620557785034 56.0 15 -0.024709593504667282
-2.2322838306427 0.5412831902503967 -0.6154717206954956 1.0 0 -0.024688856676220894
-3.0082240104675293 0.7299895882606506 0.05403264984488487 8.0 8 -0.024686554446816444
-3.097461223602295 0.7527884244918823 0.1670563817024231 31.0 9 -0.024681946262717247
-3.0742902755737305 0.7477260828018188 0.27680662274360657 41.0 10 -0.02467733807861805
-2.5911073684692383 0.6306850910186768 -0.42237308621406555 40.0 3 -0.02467503398656845
-3.0666277408599854 0.7469961643218994 0.38754454255104065 55.0 11 -0.024672729894518852
-2.597844123840332 0.6332860589027405 -0.3283160626888275 21.0 4 -0.024670425802469254
-3.076307535171509 0.7504916787147522 0.5015289187431335 48.0 12 -0.024668121710419655
-2.6595447063446045 0.6488187909126282 -0.23950397968292236 4.0 5 -0.024665817618370056
-3.055391788482666 0.7459540963172913 0.6113520860671997 42.0 13 -0.024663513526320457
-2.4271745681762695 0.5930277705192566 -0.13094457983970642 34.0 6 -0.02466120943427086
-3.0628323554992676 0.7489034533500671 0.727941632270813 52.0 14 -0.02465890534222126
-3.024770975112915 0.7407159805297852 0.8344326615333557 55.0 15 -0.024654297158122063
-3.0250742435455322 0.745268702507019 0.05438169836997986 8.0 8 -0.024631258100271225
-3.0948145389556885 0.763596773147583 0.1670563817024231 30.0 9 -0.024626649916172028
-3.0871357917785645 0.7622738480567932 0.2782011330127716 38.0 10 -0.02462204173207283
-2.5908079147338867 0.6401998996734619 -0.42268598079681396 41.0 3 -0.02461973764002323
-3.0717098712921143 0.7596024870872498 0.3885194957256317 55.0 11 -0.024617433547973633
-2.589836835861206 0.6409198045730591 -0.327584832906723 33.0 4 -0.024615129455924034
-3.0851738452911377 0.7640739679336548 0.5034061670303345 42.0 12 -0.024612825363874435
-2.6630656719207764 0.6595346927642822 -0.24002692103385925 5.0 5 -0.024610521271824837
-3.0546746253967285 0.7570871710777283 0.6117336750030518 41.0 13 -0.024608217179775238
-2.4250895977020264 0.6014966368675232 -0.13094457983970642 33.0 6 -0.02460591308772564
-3.0526342391967773 0.7577124834060669 0.7261420488357544 56.0 14 -0.02460360899567604
-2.6083242893218994 0.647911012172699 -0.046912070363759995 1.0 7 -0.024601304903626442
-3.0296661853790283 0.7531341910362244 0.8365032076835632 55.0 15 -0.024599000811576843
-3.0224545001983643 0.7558236718177795 0.05438169836997986 7.0 8 -0.024575961753726006
-3.0882554054260254 0.7734247446060181 0.16684705018997192 30.0 9 -0.024571353569626808
-3.084456443786621 0.7730445861816406 0.2782011330127716 38.0 10 -0.02456674538552761
-2.598137617111206 0.6516430974006653 -0.4242503345012665 42.0 3 -0.024564441293478012
-3.082517147064209 0.7737029790878296 0.39022567868232727 51.0 11 -0.024562137201428413
-2.5895092487335205 0.6504392027854919 -0.3278285562992096 34.0 4 -0.024559833109378815
-3.072909116744995 0.7724316716194153 0.5018418431282043 51.0 12 -0.024557529017329216
-2.664611577987671 0.6697986721992493 -0.24037553369998932 4.0 5 -0.024555224925279617
-3.0691490173339844 0.772055983543396 0.6151682734489441 46.0 13 -0.02455292083323002
-2.4191017150878906 0.6089824438095093 -0.13073523342609406 31.0 6 -0.02455061674118042
-3.0556397438049316 0.769791841506958 0.7274917960166931 57.0 14 -0.02454831451177597
-3.0345113277435303 0.7655948400497437 0.8385737538337708 54.0 15 -0.024543706327676773
-3.02755069732666 0.768337070941925 0.05452131852507591 7.0 8 -0.024520665407180786
-3.0932798385620117 0.7861672639846802 0.16726572811603546 30.0 9 -0.02451605722308159
-3.0778772830963135 0.7828245759010315 0.27785250544548035 40.0 10 -0.02451144903898239
-2.599675416946411 0.6616829037666321 -0.42487606406211853 38.0 3 -0.024509144946932793
-3.0759506225585938 0.7834777235984802 0.38973820209503174 52.0 11 -0.024506840854883194
-2.5910699367523193 0.6604556441307068 -0.3283160626888275 36.0 4 -0.024504536762833595
-3.0701940059661865 0.7831534743309021 0.5018418431282043 48.0 12 -0.024502232670783997
-2.6854240894317627 0.6850053071975708 -0.2424672693014145 4.0 5 -0.024499930441379547
-3.062631130218506 0.7817928194999695 0.6144050359725952 46.0 13 -0.02449762634932995
-2.4382472038269043 0.6228613257408142 -0.13188663125038147 36.0 6 -0.02449532225728035
-3.058598041534424 0.7819013595581055 0.7288414835929871 60.0 14 -0.02449301816523075
-3.02433443069458 0.7742668390274048 0.8365032076835632 56.0 15 -0.024488409981131554
-3.0287230014801025 0.7798986434936523 0.05459113046526909 7.0 8 -0.024465369060635567
-3.1021206378936768 0.799952507019043 0.16789376735687256 29.0 9 -0.02446076087653637
-3.077054977416992 0.7940622568130493 0.278026819229126 36.0 10 -0.024456152692437172
-2.5973501205444336 0.6707528233528137 -0.42487606406211853 38.0 3 -0.024453850463032722
-3.0866506099700928 0.7976868748664856 0.3914443552494049 47.0 11 -0.024451546370983124
-2.5945143699645996 0.6709873080253601 -0.32904723286628723 33.0 4 -0.024449242278933525
-3.0750911235809326 0.7958447337150574 0.5030933022499084 47.0 12 -0.024446938186883926
-2.912548780441284 0.7537781596183777 -0.26321035623550415 9.0 5 -0.024444634094834328
-3.065584659576416 0.7939552664756775 0.6155498623847961 50.0 13 -0.02444233000278473
-2.4418582916259766 0.6328719258308411 -0.13220062851905823 34.0 6 -0.02444002591073513
-3.057736396789551 0.7930616736412048 0.7292913794517517 57.0 14 -0.02443772181868553
-3.0194778442382812 0.7837020754814148 -0.054451506584882736 1.0 7 -0.024435417726635933
-3.021613121032715 0.7848191857337952 0.8365032076835632 56.0 15 -0.024433113634586334
-3.0221128463745117 0.7894546389579773 0.05452131852507591 7.0 8 -0.024410072714090347
-3.1089706420898438 0.8133034110069275 0.16841712594032288 25.0 9 -0.0244054663926363
-2.594498634338379 0.678718090057373 -0.5212901830673218 4.0 2 -0.0244031623005867
-3.087756872177124 0.8083298206329346 0.2792470157146454 40.0 10 -0.024400858208537102
-2.5969040393829346 0.6803158521652222 -0.42518892884254456 36.0 3 -0.024398554116487503
-3.0704057216644287 0.8049335479736328 0.38973820209503174 53.0 11 -0.024396250024437904
-2.6113576889038086 0.6850765347480774 -0.3314846158027649 32.0 4 -0.024393945932388306
-3.0818474292755127 0.80908203125 0.5046576261520386 52.0 12 -0.024391641840338707
-3.013962507247925 0.7912601232528687 -0.2726231813430786 24.0 5 -0.02438933774828911
-3.0608959197998047 0.804153323173523 0.6151682734489441 45.0 13 -0.02438703365623951
-2.429976224899292 0.6388520002365112 -0.1316772699356079 32.0 6 -0.02438472956418991
-3.0756802558898926 0.8091844916343689 0.7342402935028076 63.0 14 -0.024382425472140312
-3.057333469390869 0.8049290180206299 -0.055184509605169296 27.0 7 -0.024380121380090714
-3.0225915908813477 0.7963454723358154 0.8375384211540222 56.0 15 -0.024377817288041115
-3.0270705223083496 0.8020476698875427 0.05466093868017197 7.0 8 -0.024354778230190277
-3.094672918319702 0.8205375075340271 0.16778908669948578 10.0 9 -0.02435017004609108
-2.609192132949829 0.6923019886016846 -0.5247247815132141 6.0 2 -0.02434786595404148
-3.0887677669525146 0.8201257586479187 0.27959561347961426 37.0 10 -0.024345561861991882
-2.9438846111297607 0.782206654548645 -0.4824439287185669 25.0 3 -0.024343257769942284
-3.069495677947998 0.816155731678009 0.3899819254875183 50.0 11 -0.024340953677892685
-3.0424964427948 0.8095453977584839 -0.3865695893764496 34.0 4 -0.024338649585843086
-3.081056594848633 0.8198054432868958 0.5049704909324646 47.0 12 -0.024336345493793488
-3.020808696746826 0.8043392896652222 -0.2734947204589844 28.0 5 -0.02433404140174389
-3.0637614727020264 0.8163487315177917 0.616313099861145 50.0 13 -0.02433173730969429
-2.425801992416382 0.6468158960342407 -0.13157260417938232 33.0 6 -0.02432943321764469
-3.067188024520874 0.8184093236923218 0.7328906059265137 61.0 14 -0.024327129125595093
-3.0681722164154053 0.8186719417572021 -0.055428843945264816 38.0 7 -0.024324825033545494
-3.031132936477661 0.8093547224998474 0.8406442999839783 63.0 15 -0.024322520941495895
-3.0321192741394043 0.8141557574272156 0.05480055510997772 6.0 8 -0.024299481883645058
-3.0488173961639404 0.8192098736763 -0.7288414835929871 1.0 1 -0.02429717779159546
-2.9432759284973145 0.7914018630981445 0.15972934663295746 2.0 9 -0.02429487369954586
-3.0636532306671143 0.8243428468704224 -0.6166946887969971 23.0 2 -0.02429256960749626
-3.1012768745422363 0.8350468277931213 0.2809901237487793 37.0 10 -0.024290265515446663
-3.076702833175659 0.8284300565719604 -0.5046576261520386 36.0 3 -0.024287961423397064
-3.0801897048950195 0.8299453854560852 0.39168810844421387 52.0 11 -0.024285657331347466
-3.0704615116119385 0.8278990983963013 -0.39046943187713623 34.0 4 -0.024283353239297867
-3.083897590637207 0.8320992588996887 0.5059091448783875 57.0 12 -0.024281049147248268
-3.031447172164917 0.8185145854949951 -0.2747148871421814 27.0 5 -0.02427874505519867
-3.0648281574249268 0.8275277018547058 0.6170763373374939 52.0 13 -0.02427644096314907
-2.4313559532165527 0.6569405198097229 -0.13199129700660706 33.0 6 -0.024274136871099472
-3.0682199001312256 0.8295926451683044 0.733790397644043 66.0 14 -0.024271832779049873
-3.0459930896759033 0.8241534233093262 -0.05507979542016983 29.0 7 -0.024269528687000275
-3.0506656169891357 0.8259890675544739 0.8468559384346008 67.0 15 -0.024267226457595825
-2.9868109226226807 0.8131781816482544 0.05403264984488487 1.0 8 -0.024244185537099838
-3.087303876876831 0.8411160707473755 -0.7387393116950989 22.0 1 -0.02424188144505024
-2.9250800609588623 0.797468364238739 0.15889199078083038 2.0 9 -0.02423957735300064
-3.0741612911224365 0.8381125926971436 -0.6193659901618958 33.0 2 -0.024237273260951042
-3.0908021926879883 0.8432289361953735 0.2802928686141968 38.0 10 -0.024234969168901443
-3.0833208560943604 0.8417653441429138 -0.5062219500541687 37.0 3 -0.024232665076851845
-3.081103563308716 0.8417386412620544 0.3921755850315094 51.0 11 -0.024230360984802246
-3.071382522583008 0.8396589159965515 -0.3909568786621094 31.0 4 -0.024228056892752647
-3.073352575302124 0.8407739996910095 0.5046576261520386 55.0 12 -0.02422575280070305
-3.036402940750122 0.8306657671928406 -0.2754121422767639 11.0 5 -0.02422344870865345
-3.0751757621765137 0.8418496251106262 0.6197476387023926 53.0 13 -0.024221146479249
-2.4290478229522705 0.665423572063446 -0.13199129700660706 34.0 6 -0.024218842387199402
-3.0728230476379395 0.8423585891723633 0.7355900406837463 73.0 14 -0.024216538295149803
-3.039241075515747 0.8337230086326599 -0.05500998720526695 28.0 7 -0.024214234203100204
-3.0440380573272705 0.8356102108955383 0.8458206653594971 67.0 15 -0.024211930111050606
-2.9049220085144043 0.8017849326133728 0.05260155349969864 2.0 8 -0.02418888919055462
-3.0974974632263184 0.8555200695991516 -0.7418886423110962 30.0 1 -0.02418658509850502
-2.9396045207977295 0.8124626874923706 0.15983402729034424 2.0 9 -0.02418428100645542
-3.063648223876953 0.8467465043067932 -0.6178395748138428 29.0 2 -0.024181976914405823
-3.0878400802612305 0.854012131690979 0.2802928686141968 38.0 10 -0.024179672822356224
-3.0708444118499756 0.8498892784118652 -0.5046576261520386 31.0 3 -0.024177368730306625
-3.091538190841675 0.8561974167823792 0.39388173818588257 46.0 11 -0.024175066500902176
-3.074172019958496 0.8519647717475891 -0.39168810844421387 13.0 4 -0.024172762408852577
-3.0742063522338867 0.8525527715682983 0.5052834153175354 51.0 12 -0.02417045831680298
-3.0373246669769287 0.8423246145248413 -0.2757607400417328 11.0 5 -0.02416815422475338
-3.068434953689575 0.8515289425849915 0.6189844012260437 53.0 13 -0.02416585013270378
-2.440181255340576 0.677638828754425 -0.13272398710250854 36.0 6 -0.024163546040654182
-3.0510880947113037 0.8478620648384094 0.7310910224914551 65.0 14 -0.024161241948604584
-3.030532121658325 0.8427196145057678 -0.05490526929497719 6.0 7 -0.024158937856554985
-3.029935598373413 0.843124270439148 0.8427148461341858 72.0 15 -0.024156633764505386
-2.854015827178955 0.7979291677474976 -0.7940568327903748 6.0 0 -0.024135896936058998
-2.9021055698394775 0.8119202256202698 0.05260155349969864 3.0 8 -0.0241335928440094
-3.088862419128418 0.8647512197494507 -0.7405388951301575 30.0 1 -0.0241312887519598
-2.9407405853271484 0.823283314704895 0.1600433737039566 2.0 9 -0.024128984659910202
-2.8186933994293213 0.7896449565887451 -0.5689924359321594 11.0 2 -0.024126682430505753
-3.081003427505493 0.8637099862098694 0.2799442410469055 31.0 10 -0.024124378338456154
-3.0526435375213623 0.8563351631164551 -0.5021546483039856 6.0 3 -0.024122074246406555
-3.0732409954071045 0.8626909852027893 0.39193183183670044 42.0 11 -0.024119770154356956
-3.0713298320770264 0.862154483795166 -0.39168810844421387 23.0 4 -0.024117466062307358
-3.0770673751831055 0.8643452525138855 0.5062219500541687 56.0 12 -0.02411516197025776
-3.0362839698791504 0.8534610271453857 -0.2759350836277008 51.0 5 -0.02411285787820816
-3.0465450286865234 0.8569181561470032 0.6151682734489441 33.0 13 -0.02411055378615856
-2.4320335388183594 0.6845299005508423 -0.1324099898338318 34.0 6 -0.024108249694108963
-3.031376838684082 0.8532233834266663 0.7270418405532837 48.0 14 -0.024105945602059364
-3.0277209281921387 0.8527647256851196 -0.05490526929497719 4.0 7 -0.024103641510009766
-3.0289828777313232 0.853689968585968 0.8432324528694153 64.0 15 -0.024101337417960167
-2.8420603275299072 0.8047574758529663 -0.7914686799049377 16.0 0 -0.024080602452158928
-2.907092809677124 0.8237200975418091 0.052741169929504395 3.0 8 -0.02407829836010933
-3.082228422164917 0.8739264607429504 -0.7396391034126282 29.0 1 -0.02407599426805973
-2.928386688232422 0.8303065896034241 0.1595200151205063 2.0 9 -0.024073690176010132
-2.7631757259368896 0.7839834690093994 -0.5583071708679199 11.0 2 -0.024071386083960533
-3.0972886085510254 0.8793638944625854 0.28168734908103943 38.0 10 -0.024069081991910934
-2.7172555923461914 0.771980345249176 -0.44740262627601624 3.0 3 -0.024066777899861336
-3.0760915279388428 0.8745061755180359 0.39266306161880493 46.0 11 -0.024064473807811737
-3.028355836868286 0.8609352707862854 -0.3865695893764496 11.0 4 -0.02406216971576214
-3.0950844287872314 0.8804894089698792 0.5096635222434998 63.0 12 -0.02405986562371254
-3.0372695922851562 0.8646160960197449 -0.2762836813926697 23.0 5 -0.02405756153166294
-3.0776731967926025 0.8766975998878479 0.6220373511314392 65.0 13 -0.024055257439613342
-2.4297502040863037 0.6925905346870422 -0.1324099898338318 34.0 6 -0.024052953347563744
-3.0735089778900146 0.8760913610458374 0.7378395199775696 70.0 14 -0.024050649255514145
-2.9844934940338135 0.8512818217277527 -0.054172269999980927 1.0 7 -0.024048345163464546
-3.0447118282318115 0.8690320253372192 0.8484088778495789 64.0 15 -0.024046041071414948
-2.8282339572906494 0.810982882976532 -0.7883628606796265 24.0 0 -0.02402530610561371
-2.9254887104034424 0.8394228219985962 0.05312512442469597 3.0 8 -0.02402300201356411
-3.0718212127685547 0.881990909576416 -0.7378395199775696 14.0 1 -0.02402069792151451
-2.9273903369903564 0.8410744667053223 0.15962468087673187 2.0 9 -0.024018393829464912
-2.7170252799987793 0.7811473608016968 -0.5495299100875854 12.0 2 -0.024016089737415314
-3.105844497680664 0.8929332494735718 0.2827332317829132 41.0 10 -0.024013785645365715
-2.688103437423706 0.7733409404754639 -0.4430224299430847 14.0 3 -0.024011481553316116
-3.075082302093506 0.8852513432502747 0.3929068148136139 45.0 11 -0.024009177461266518
-2.7010531425476074 0.7780866622924805 -0.3451339900493622 18.0 4 -0.02400687336921692
-3.074908971786499 0.8863645195960999 0.5068477392196655 57.0 12 -0.02400456927716732
-3.015089750289917 0.8696904182434082 -0.27454057335853577 13.0 5 -0.02400226518511772
-3.063276529312134 0.8841687440872192 0.6197476387023926 35.0 13 -0.023999961093068123
-2.4369118213653564 0.7038393616676331 -0.1329333484172821 37.0 6 -0.023997657001018524
-3.049837589263916 0.8808672428131104 0.7328906059265137 66.0 14 -0.023995352908968925
-2.9661355018615723 0.8572521209716797 -0.05389302968978882 1.0 7 -0.023993048816919327
-3.0490829944610596 0.8818017244338989 0.8504794239997864 80.0 15 -0.023990744724869728
-2.808547258377075 0.8164898157119751 -0.7837041020393372 31.0 0 -0.02397000975906849
-2.9185521602630615 0.8490224480628967 0.05305531620979309 2.0 8 -0.02396770566701889
-2.8290700912475586 0.8235272169113159 -0.6802520155906677 7.0 1 -0.02396540157496929
-2.9434635639190674 0.8573838472366333 0.1606713980436325 2.0 9 -0.023963097482919693
-2.6839866638183594 0.7823105454444885 -0.5434240102767944 14.0 2 -0.023960793390870094
-3.102550745010376 0.9043108224868774 0.2827332317829132 41.0 10 -0.023958489298820496
-2.6890437602996826 0.7842937707901001 -0.44364821910858154 27.0 3 -0.023956185206770897
-3.0813450813293457 0.8992968797683716 0.39412549138069153 40.0 11 -0.023953881114721298
-2.6791281700134277 0.7824164628982544 -0.3426966071128845 22.0 4 -0.0239515770226717
-3.0830161571502686 0.9009525775909424 0.5087249279022217 62.0 12 -0.0239492729306221
-2.9774603843688965 0.8706706166267395 -0.2714029848575592 31.0 5 -0.023946968838572502
-3.0995843410491943 0.9069686532020569 0.6277616620063782 68.0 13 -0.023944664746522903
-2.44006609916687 0.7144495248794556 -0.13324734568595886 34.0 6 -0.023942362517118454
-3.059680223464966 0.8958720564842224 0.7360398769378662 68.0 14 -0.023940058425068855
-3.0421226024627686 0.891884982585907 0.8494440913200378 80.0 15 -0.023935450240969658
-2.7925641536712646 0.8229556679725647 -0.7800806164741516 32.0 0 -0.02391471341252327
-2.9154207706451416 0.8597139120101929 0.05305531620979309 3.0 8 -0.02391240932047367
-2.7942585945129395 0.8245151042938232 -0.6726037263870239 10.0 1 -0.023910105228424072
-2.951794385910034 0.8715599775314331 0.1612994372844696 2.0 9 -0.023907801136374474
-2.6754531860351562 0.7904738187789917 -0.5422792434692383 19.0 2 -0.023905497044324875
-3.0915725231170654 0.9134179949760437 0.2820359766483307 37.0 10 -0.023903192952275276
-2.669102191925049 0.7891039252281189 -0.44083237648010254 38.0 3 -0.023900888860225677
-3.0837388038635254 0.9122740030288696 0.394856721162796 50.0 11 -0.02389858476817608
-2.64959454536438 0.784342348575592 -0.3392842710018158 18.0 4 -0.02389628067612648
-3.089163303375244 0.9150515198707581 0.5102892518043518 65.0 12 -0.02389397844672203
-2.9742493629455566 0.8815771341323853 -0.2714029848575592 23.0 5 -0.023891674354672432
-3.0698883533477783 0.9105076193809509 0.6224189400672913 56.0 13 -0.023889370262622833
-2.441260576248169 0.7245252132415771 -0.13345670700073242 34.0 6 -0.023887066170573235
-3.069453477859497 0.9109623432159424 0.7391892075538635 71.0 14 -0.023884762078523636
-2.9597718715667725 0.8789719343185425 -0.05389302968978882 1.0 7 -0.023882457986474037
-3.0351295471191406 0.9019283652305603 0.8484088778495789 84.0 15 -0.02388015389442444
-2.7950825691223145 0.8348433375358582 -0.7816335558891296 41.0 0 -0.02385941706597805
-2.92566180229187 0.8744020462036133 0.05329965054988861 3.0 8 -0.02385711297392845
-2.7725472450256348 0.829167366027832 -0.6681046485900879 11.0 1 -0.023854808881878853
-2.9562339782714844 0.8846626877784729 0.16171811521053314 2.0 9 -0.023852504789829254
-2.6744184494018555 0.8008377552032471 -0.5426608324050903 21.0 2 -0.023850202560424805
-3.0958385467529297 0.9270293116569519 0.2827332317829132 41.0 10 -0.023847896605730057
-2.658622980117798 0.7966135144233704 -0.43958091735839844 39.0 3 -0.023845594376325607
-3.0898818969726562 0.9264209270477295 0.39607539772987366 53.0 11 -0.02384329028427601
-2.599167585372925 0.7797874212265015 -0.33319082856178284 21.0 4 -0.02384098619222641
-3.0952486991882324 0.9292076230049133 0.5118536353111267 75.0 12 -0.02383868210017681
-2.978630542755127 0.8947658538818359 -0.2721002399921417 23.0 5 -0.023836378008127213
-3.062770128250122 0.9206230044364929 0.6216557621955872 57.0 13 -0.023834073916077614
-2.4347634315490723 0.7323168516159058 -0.13324734568595886 34.0 6 -0.023831769824028015
-3.073558807373047 0.9244507551193237 0.7409887909889221 76.0 14 -0.023829465731978416
-2.9565300941467285 0.8898148536682129 -0.05389302968978882 1.0 7 -0.023827161639928818
-3.0429024696350098 0.9163883924484253 0.8515146970748901 82.0 15 -0.02382485754787922
-2.7775051593780518 0.8396356105804443 -0.7774924635887146 37.0 0 -0.023771286010742188
-2.9131760597229004 0.88120436668396 0.05312512442469597 3.0 8 -0.02376898191869259
-2.762321710586548 0.8360987901687622 -0.6663050651550293 10.0 1 -0.02376667782664299
-2.945793628692627 0.8916320204734802 0.1612994372844696 2.0 9 -0.02376437373459339
-2.679405450820923 0.8115115165710449 -0.5441873073577881 21.0 2 -0.023762069642543793
-3.109907865524292 0.9424911737442017 0.2843020260334015 43.0 10 -0.023759765550494194
-2.6370632648468018 0.7996930480003357 -0.4364522099494934 25.0 3 -0.023757461458444595
-3.0791945457458496 0.9343560338020325 0.3951004445552826 51.0 11 -0.023755157366394997
-2.554914712905884 0.7752676606178284 -0.3278285562992096 24.0 4 -0.023752853274345398
-3.086643695831299 0.9372055530548096 0.5109150409698486 72.0 12 -0.0237505491822958
-3.0368082523345947 0.9226526618003845 -0.2776781916618347 23.0 5 -0.0237482450902462
-3.0692548751831055 0.9330950975418091 0.623563826084137 61.0 13 -0.02374594286084175
-2.436272382736206 0.7411249876022339 -0.13345670700073242 34.0 6 -0.023743638768792152
