# .PCD v0.7 - Point Cloud Data file format
VERSION 0.7
FIELDS x y z intensity ring time
SIZE 4 4 4 4 4 4
TYPE F F F F F F
COUNT 1 1 1 1 1 1
WIDTH 544
HEIGHT 1
VIEWPOINT 0 0 0 1 0 0 0
POINTS 544
DATA ascii
2.6401844024658203 -2.0251524448394775 -0.17438343167304993 80.0 6 -0.030984139069914818
2.6514577865600586 -2.0345351696014404 0.7715821266174316 81.0 14 -0.03098183497786522
2.636352062225342 -2.0236752033233643 -0.058011800050735474 72.0 7 -0.03097953088581562
2.6461617946624756 -2.0319395065307617 0.8939610123634338 78.0 15 -0.03097722679376602
2.6284167766571045 -2.024153470993042 0.05790708214044571 71.0 8 -0.030954185873270035
2.6243906021118164 -2.021782636642456 -0.7648336291313171 20.0 1 -0.030951883643865585
2.621344566345215 -2.020164966583252 0.17344138026237488 72.0 9 -0.030949579551815987
2.6316046714782715 -2.029536485671997 0.29075154662132263 72.0 10 -0.03094497136771679
1.8377214670181274 -1.4177924394607544 -0.3676210343837738 1.0 3 -0.03094266727566719
2.6341872215270996 -2.032261371612549 0.4085060954093933 89.0 11 -0.030940363183617592
1.830796241760254 -1.4129594564437866 -0.2839556038379669 1.0 4 -0.030938059091567993
2.6330974102020264 -2.0328874588012695 0.526871383190155 77.0 12 -0.030935754999518394
2.6144185066223145 -2.0191948413848877 -0.2890084385871887 70.0 5 -0.030933450907468796
2.6473047733306885 -2.0453317165374756 0.6502770781517029 63.0 13 -0.030931146815419197
2.628002882003784 -2.031151533126831 -0.17406940460205078 85.0 6 -0.0309288427233696
2.6316497325897217 -2.0347039699554443 0.7679829597473145 75.0 14 -0.03092653863132
2.622943878173828 -2.027972936630249 -0.05787217989563942 72.0 7 -0.0309242345392704
2.62682843208313 -2.031708240509033 0.8898199200630188 80.0 15 -0.030921930447220802
1.8225960731506348 -1.4137502908706665 -0.6180598735809326 2.0 0 -0.030901195481419563
2.6115012168884277 -2.0264179706573486 0.057697657495737076 65.0 8 -0.030898891389369965
1.8703587055206299 -1.4518449306488037 -0.5466310977935791 1.0 1 -0.030896587297320366
2.611121416091919 -2.0268537998199463 0.1732320338487625 72.0 9 -0.030894283205270767
1.8592233657836914 -1.4437211751937866 -0.4575599730014801 1.0 2 -0.03089197911322117
2.6166367530822754 -2.0325989723205566 0.28988000750541687 74.0 10 -0.03088967502117157
1.8202828168869019 -1.4145019054412842 -0.3651180863380432 1.0 3 -0.03088737092912197
2.6251533031463623 -2.040684223175049 0.40826234221458435 88.0 11 -0.030885066837072372
1.8101805448532104 -1.407158613204956 -0.28151822090148926 1.0 4 -0.030882762745022774
2.6197476387023926 -2.0372157096862793 0.5256198644638062 80.0 12 -0.030880458652973175
2.5994913578033447 -2.0221917629241943 -0.28813689947128296 75.0 5 -0.030878154560923576
2.620007276535034 -2.0388855934143066 0.6453160643577576 67.0 13 -0.030875850468873978
2.6145927906036377 -2.035404920578003 -0.17365071177482605 85.0 6 -0.03087354637682438
2.618736982345581 -2.038630962371826 0.7661833167076111 74.0 14 -0.03087124228477478
2.6079604625701904 -2.030972957611084 -0.057697657495737076 76.0 7 -0.03086893819272518
2.604480266571045 -2.0289931297302246 0.8846435546875 82.0 15 -0.030866634100675583
1.8194204568862915 -1.4209754467010498 -0.6185775399208069 1.0 0 -0.030845899134874344
2.5842819213867188 -2.0190622806549072 0.057243894785642624 61.0 8 -0.030843595042824745
1.8471089601516724 -1.4436389207839966 -0.5412322878837585 1.0 1 -0.030841290950775146
2.6043858528137207 -2.03550124168396 0.1732320338487625 72.0 9 -0.030838986858725548
1.8544255495071411 -1.4498788118362427 -0.4575599730014801 1.0 2 -0.03083668276667595
2.600466012954712 -2.033900022506714 0.2888341248035431 69.0 10 -0.03083437867462635
1.8124706745147705 -1.4180961847305298 -0.36449235677719116 1.0 3 -0.03083207458257675
2.5996134281158447 -2.034696340560913 0.40533748269081116 76.0 11 -0.030829770490527153
1.7929985523223877 -1.4033654928207397 -0.27956831455230713 1.0 4 -0.030827466398477554
2.6067562103271484 -2.041020631790161 0.524368405342102 77.0 12 -0.030825162306427956
2.5880656242370605 -2.0271153450012207 -0.28761395812034607 70.0 5 -0.030822858214378357
2.5946872234344482 -2.0330324172973633 0.6407366394996643 68.0 13 -0.030820554122328758
2.592109441757202 -2.031743049621582 -0.17260399460792542 85.0 6 -0.03081825003027916
2.611962080001831 -2.0473039150238037 0.7661833167076111 74.0 14 -0.03081594593822956
2.594916582107544 -2.0346744060516357 -0.05755803734064102 76.0 7 -0.030813641846179962
2.5916574001312256 -2.0328493118286133 0.8825729489326477 82.0 15 -0.030811339616775513
1.8177353143692017 -1.4293893575668335 -0.6196128129959106 3.0 0 -0.030790602788329124
2.5744287967681885 -2.0251481533050537 0.057174086570739746 61.0 8 -0.030788298696279526
1.8821287155151367 -1.4810893535614014 -0.5529297590255737 1.0 1 -0.030785994604229927
2.578432559967041 -2.029755115509033 0.1719759702682495 70.0 9 -0.03078369051218033
1.8496074676513672 -1.4560202360153198 -0.4575599730014801 1.0 2 -0.03078138642013073
2.5874459743499756 -2.0375816822052 0.28813689947128296 69.0 10 -0.03077908232808113
1.8077582120895386 -1.4240987300872803 -0.36449235677719116 1.0 3 -0.030776778236031532
2.5834970474243164 -2.035933494567871 0.4038750231266022 77.0 11 -0.030774474143981934
1.7974424362182617 -1.4169893264770508 -0.28103071451187134 1.0 4 -0.030772170051932335
2.5949625968933105 -2.046437978744507 0.523429811000824 82.0 12 -0.030769865959882736
2.573507070541382 -2.029517650604248 -0.2867423892021179 75.0 5 -0.030767561867833138
2.584848165512085 -2.039193630218506 0.6399734020233154 67.0 13 -0.030765259638428688
2.5712475776672363 -2.0291919708251953 -0.17166195809841156 82.0 6 -0.03076295554637909
2.58491587638855 -2.040710926055908 0.7603346109390259 72.0 14 -0.03076065145432949
2.5846598148345947 -2.04124116897583 -0.057488225400447845 76.0 7 -0.030758347362279892
2.5784823894500732 -2.0370934009552 0.880502462387085 84.0 15 -0.030756043270230293
1.8081916570663452 -1.4321274757385254 -0.6180598735809326 2.0 0 -0.030735306441783905
2.559507131576538 -2.0279133319854736 0.056999560445547104 67.0 8 -0.030733002349734306
1.831130862236023 -1.4513362646102905 -0.5394326448440552 1.0 1 -0.030730698257684708
2.5556817054748535 -2.026334524154663 0.17092925310134888 70.0 9 -0.03072839416563511
1.8322068452835083 -1.4527099132537842 -0.45450708270072937 1.0 2 -0.03072609007358551
2.574073314666748 -2.0416486263275146 0.28743961453437805 72.0 10 -0.03072378598153591
1.7780168056488037 -1.4107552766799927 -0.3594864308834076 1.0 3 -0.030721481889486313
2.570155143737793 -2.0400028228759766 0.4029000997543335 77.0 11 -0.030719179660081863
1.773829698562622 -1.4084422588348389 -0.27810585498809814 1.0 4 -0.030716875568032265
2.567694664001465 -2.0395114421844482 0.5193625092506409 80.0 12 -0.030714571475982666
2.563286781311035 -2.036010265350342 -0.28639376163482666 75.0 5 -0.030712267383933067
2.5746402740478516 -2.0457611083984375 0.6392101645469666 67.0 13 -0.03070996329188347
2.557894468307495 -2.0331835746765137 -0.17124326527118683 85.0 6 -0.03070765919983387
2.570150375366211 -2.0436573028564453 0.7580850720405579 74.0 14 -0.03070535510778427
2.563433885574341 -2.0390474796295166 -0.057174086570739746 81.0 7 -0.030703051015734673
2.5653090476989746 -2.0412700176239014 0.8784318566322327 86.0 15 -0.030700746923685074
1.8983242511749268 -1.5143276453018188 -0.650671124458313 1.0 0 -0.030680010095238686
2.5492868423461914 -2.0343403816223145 0.05692974850535393 65.0 8 -0.030677706003189087
1.859559178352356 -1.4844664335250854 -0.5493305325508118 1.0 1 -0.030675401911139488
2.5485928058624268 -2.035243272781372 0.17092925310134888 70.0 9 -0.03067309781908989
1.8179200887680054 -1.4517461061477661 -0.45221734046936035 1.0 2 -0.03067079558968544
2.5544776916503906 -2.04067325592041 0.2860451340675354 74.0 10 -0.03066849149763584
1.7823405265808105 -1.4243521690368652 -0.3613636791706085 1.0 3 -0.030666187405586243
2.5568161010742188 -2.04400372505188 0.40192511677742004 77.0 11 -0.030663883313536644
1.7689025402069092 -1.4146254062652588 -0.27810585498809814 1.0 4 -0.030661579221487045
2.552847385406494 -2.0422921180725098 0.517798125743866 82.0 12 -0.030659275129437447
2.541807174682617 -2.034187078475952 -0.2848249673843384 79.0 5 -0.030656971037387848
2.561352252960205 -2.0498287677764893 0.6376836895942688 67.0 13 -0.03065466694533825
2.549222469329834 -2.0408518314361572 -0.17113859951496124 86.0 6 -0.03065236285328865
2.5569167137145996 -2.047744035720825 0.7562854886054993 75.0 14 -0.030650058761239052
2.543815851211548 -2.0379810333251953 -0.05689484626054764 81.0 7 -0.030647754669189453
2.54309344291687 -2.038130760192871 0.8732554912567139 86.0 15 -0.030645450577139854
2.526583433151245 -2.0306992530822754 0.05658069998025894 65.0 8 -0.030622411519289017
1.8361413478851318 -1.4762954711914062 -0.5439317226409912 1.0 1 -0.030620107427239418
2.535247564315796 -2.0391199588775635 0.17051056027412415 74.0 9 -0.03061780333518982
1.8064684867858887 -1.4534764289855957 -0.450690895318985 1.0 2 -0.03061549924314022
2.5314605236053467 -2.037529468536377 0.2843020260334015 72.0 10 -0.030613195151090622
1.7617218494415283 -1.4184868335723877 -0.3582349717617035 1.0 3 -0.030610891059041023
2.5481197834014893 -2.0516715049743652 0.40168139338493347 73.0 11 -0.030608586966991425
1.7794134616851807 -1.4332436323165894 -0.2805432379245758 1.0 4 -0.030606282874941826
2.5395500659942627 -2.0462329387664795 0.5165466666221619 85.0 12 -0.030603978782892227
2.519178628921509 -2.0305440425872803 -0.28308185935020447 63.0 5 -0.03060167469084263
2.541595697402954 -2.049344539642334 0.6346307396888733 68.0 13 -0.03059937059879303
2.532397985458374 -2.0426578521728516 -0.17051056027412415 80.0 6 -0.03059706650674343
2.544844388961792 -2.0534303188323975 0.7549358010292053 78.0 14 -0.030594762414693832
2.533573865890503 -2.0443360805511475 -0.05682503432035446 85.0 7 -0.030592458322644234
2.523937702178955 -2.0372884273529053 0.8691143989562988 86.0 15 -0.030590154230594635
2.5004749298095703 -2.0248448848724365 0.05616184324026108 64.0 8 -0.030567115172743797
1.821632742881775 -1.475655436515808 -0.5412322878837585 1.0 1 -0.0305648110806942
2.525010347366333 -2.045442819595337 0.17030121386051178 72.0 9 -0.0305625069886446
1.7952826023101807 -1.454829216003418 -0.44916439056396484 1.0 2 -0.030560202896595
2.5243325233459473 -2.046353578567505 0.2843020260334015 74.0 10 -0.030557898804545403
1.756759524345398 -1.4246279001235962 -0.3582349717617035 1.0 3 -0.030555594712495804
2.523624897003174 -2.0472400188446045 0.39900025725364685 77.0 11 -0.030553290620446205
1.7587344646453857 -1.427247166633606 -0.27810585498809814 1.0 4 -0.030550986528396606
2.526256561279297 -2.0501062870025635 0.5152952075004578 85.0 12 -0.030548682436347008
2.508981704711914 -2.036813735961914 -0.2827332317829132 63.0 5 -0.03054637834429741
2.5237584114074707 -2.0495405197143555 0.6319594383239746 80.0 13 -0.03054407425224781
2.515951156616211 -2.043928861618042 -0.16988252103328705 86.0 6 -0.03054177016019821
2.5346364974975586 -2.059843063354492 0.754036009311676 78.0 14 -0.030539466068148613
2.5031445026397705 -2.034250259399414 -0.05630146339535713 76.0 7 -0.030537161976099014
2.507816791534424 -2.0387744903564453 0.8660085797309875 82.0 15 -0.030534857884049416
2.493746757507324 -2.033125638961792 0.05616184324026108 64.0 8 -0.030511818826198578
1.8106883764266968 -1.4767614603042603 -0.5394326448440552 1.0 1 -0.03050951473414898
2.50547456741333 -2.0441434383392334 0.1694638431072235 72.0 9 -0.03050721064209938
1.7841094732284546 -1.4561214447021484 -0.4476379454135895 1.0 2 -0.030504906550049782
2.514087438583374 -2.0526325702667236 0.28395339846611023 72.0 10 -0.030502602458000183
1.742844820022583 -1.4229496717453003 -0.35635775327682495 1.0 3 -0.030500298365950584
2.5106728076934814 -2.050574779510498 0.3980253338813782 75.0 11 -0.030497994273900986
1.7539918422698975 -1.433071494102478 -0.27810585498809814 1.0 4 -0.030495690181851387
2.519085168838501 -2.0589120388031006 0.5152952075004578 85.0 12 -0.03049338608980179
2.4987716674804688 -2.043037176132202 -0.28238460421562195 63.0 5 -0.03049108199775219
2.5032687187194824 -2.0467140674591064 0.6285248398780823 76.0 13 -0.03048877790570259
2.4952454566955566 -2.0408806800842285 -0.1689404845237732 85.0 6 -0.03048647567629814
2.509692907333374 -2.0534286499023438 0.7486371397972107 76.0 14 -0.030484171584248543
2.5068604946136475 -2.0518417358398438 -0.05654579773545265 81.0 7 -0.030481867492198944
2.500684976577759 -2.047515630722046 0.8660085797309875 86.0 15 -0.030479563400149345
2.4773616790771484 -2.0342037677764893 0.055952414870262146 64.0 8 -0.03045652247965336
1.799499273300171 -1.4781252145767212 -0.5376330614089966 1.0 1 -0.03045421838760376
2.4863357543945312 -2.0422987937927246 0.16862647235393524 70.0 9 -0.03045191429555416
1.7853384017944336 -1.4670155048370361 -0.44916439056396484 1.0 2 -0.030449610203504562
2.501110315322876 -2.0558977127075195 0.2832561731338501 72.0 10 -0.030447306111454964
1.7500735521316528 -1.4390617609024048 -0.35886070132255554 1.0 3 -0.030445002019405365
2.4973671436309814 -2.0542819499969482 0.3970503509044647 77.0 11 -0.030442697927355766
1.748978853225708 -1.439185380935669 -0.27810585498809814 1.0 4 -0.030440393835306168
2.490888833999634 -2.049682378768921 0.5109150409698486 85.0 12 -0.030438091605901718
2.4827535152435303 -2.0437145233154297 -0.28133872151374817 58.0 5 -0.03043578751385212
2.499140501022339 -2.0579352378845215 0.6292880773544312 77.0 13 -0.03043348342180252
2.481940269470215 -2.044498920440674 -0.16852180659770966 85.0 6 -0.030431179329752922
2.4964942932128906 -2.0572192668914795 0.7468375563621521 76.0 14 -0.030428875237703323
2.4738075733184814 -2.0385243892669678 -0.055952414870262146 76.0 7 -0.030426571145653725
2.4879183769226074 -2.050881862640381 0.8639379739761353 86.0 15 -0.030424267053604126
2.4659788608551025 -2.0385854244232178 0.05584770068526268 61.0 8 -0.03040122613310814
1.806601643562317 -1.494019865989685 -0.5412322878837585 1.0 1 -0.03039892204105854
2.4730358123779297 -2.0458731651306152 0.1682077795267105 68.0 9 -0.03039661794900894
1.7620567083358765 -1.4582182168960571 -0.44458499550819397 1.0 2 -0.030394315719604492
2.478571653366089 -2.051910161972046 0.2815130650997162 72.0 10 -0.030392009764909744
1.720945954322815 -1.4247022867202759 -0.35385480523109436 1.0 3 -0.030389707535505295
2.4844255447387695 -2.0574874877929688 0.39607539772987366 80.0 11 -0.030387403443455696
1.7441966533660889 -1.4449771642684937 -0.27810585498809814 1.0 4 -0.030385099351406097
2.47611403465271 -2.0520617961883545 0.5093506574630737 87.0 12 -0.0303827952593565
2.4541306495666504 -2.0345659255981445 -0.27889835834503174 63.0 5 -0.0303804911673069
2.481722354888916 -2.0574405193328857 0.6266167759895325 75.0 13 -0.0303781870752573
2.472071886062622 -2.0501677989959717 -0.1683124452829361 85.0 6 -0.030375882983207703
2.482159376144409 -2.059265375137329 0.7445880174636841 78.0 14 -0.030373578891158104
2.46359920501709 -2.044593095779419 -0.05588260665535927 76.0 7 -0.030371274799108505
2.465881109237671 -2.0472137928009033 0.8587616086006165 84.0 15 -0.030368970707058907
2.450451135635376 -2.0416390895843506 0.05567317456007004 64.0 8 -0.03039749525487423
1.7888760566711426 -1.4909640550613403 -0.5376330614089966 1.0 1 -0.03039519116282463
2.4620938301086426 -2.052795648574829 0.16799843311309814 70.0 9 -0.030392887070775032
1.744637131690979 -1.4546087980270386 -0.44153204560279846 1.0 2 -0.030390582978725433
2.4526734352111816 -2.0456671714782715 0.27942129969596863 69.0 10 -0.030388278886675835
1.7033284902572632 -1.4211755990982056 -0.3513518273830414 1.0 3 -0.030385974794626236
2.4765071868896484 -2.067011833190918 0.39607539772987366 77.0 11 -0.030383670702576637
2.42433762550354 -2.024186849594116 -0.3877882957458496 1.0 4 -0.03038136661052704
2.459120035171509 -2.0539565086364746 0.5074734687805176 80.0 12 -0.03037906251847744
2.4405407905578613 -2.038438320159912 -0.2782011330127716 61.0 5 -0.03037675842642784
2.46627140045166 -2.0606603622436523 0.6247087121009827 73.0 13 -0.03037445619702339
2.4657139778137207 -2.0609257221221924 -0.16841712594032288 86.0 6 -0.030372152104973793
2.466759443283081 -2.062530994415283 0.7423385381698608 81.0 14 -0.030369848012924194
2.448060989379883 -2.0476226806640625 -0.055708080530166626 81.0 7 -0.030367543920874596
2.4461491107940674 -2.0467491149902344 0.8546205163002014 84.0 15 -0.030365239828824997
2.4341185092926025 -2.0424678325653076 0.055463749915361404 64.0 8 -0.03034219890832901
1.7896310091018677 -1.5022109746932983 -0.5394326448440552 1.0 1 -0.03033989481627941
2.4518542289733887 -2.0588088035583496 0.16778908669948578 72.0 9 -0.030337590724229813
1.748570203781128 -1.4682649374008179 -0.4438217580318451 1.0 2 -0.030335286632180214
2.4439923763275146 -2.0529348850250244 0.2792470157146454 65.0 10 -0.030332982540130615
1.7225548028945923 -1.4474455118179321 -0.35635775327682495 1.0 3 -0.030330678448081017
2.4404051303863525 -2.051374912261963 0.3914443552494049 81.0 11 -0.030328376218676567
2.4474005699157715 -2.05871319770813 0.5065348744392395 85.0 12 -0.03032376803457737
2.421212673187256 -2.036684513092041 -0.27680662274360657 63.0 5 -0.03032146394252777
2.441037178039551 -2.0540881156921387 0.6201292872428894 76.0 13 -0.030319159850478172
2.4371132850646973 -2.0515129566192627 -0.1669517159461975 80.0 6 -0.030316855758428574
2.4655072689056396 -2.0761497020721436 0.7441381216049194 81.0 14 -0.030314551666378975
2.434781074523926 -2.0510025024414062 -0.05556846410036087 73.0 7 -0.030312247574329376
2.4330806732177734 -2.0502960681915283 0.8525499701499939 82.0 15 -0.030309943482279778
2.4208648204803467 -2.0457892417907715 0.05532412603497505 67.0 8 -0.03028690256178379
1.7367534637451172 -1.4681899547576904 -0.5250357985496521 1.0 1 -0.030284598469734192
2.4328112602233887 -2.056612730026245 0.1669517159461975 72.0 9 -0.030282296240329742
1.7284433841705322 -1.4616822004318237 -0.4400055408477783 1.0 2 -0.030279992148280144
2.4352900981903076 -2.060166358947754 0.27907267212867737 69.0 10 -0.030277688056230545
1.6813024282455444 -1.4228237867355347 -0.3488488793373108 1.0 3 -0.030275383964180946
2.4241390228271484 -2.052185297012329 0.3899819254875183 81.0 11 -0.030273079872131348
2.436037540435791 -2.062988042831421 0.5055962204933167 80.0 12 -0.03026847168803215
2.408007860183716 -2.0399725437164307 -0.27610939741134644 59.0 5 -0.03026616759598255
2.436847686767578 -2.0651352405548096 0.6208925247192383 73.0 13 -0.030263863503932953
2.4192731380462646 -2.050967216491699 -0.16621901094913483 82.0 6 -0.030261559411883354
2.4374377727508545 -2.0670974254608154 0.7378395199775696 81.0 14 -0.030259255319833755
2.431016683578491 -2.0616517066955566 -0.05563827231526375 85.0 7 -0.030256951227784157
2.4292144775390625 -2.060852527618408 0.8535852432250977 82.0 15 -0.030254647135734558
2.4049289226531982 -2.0460312366485596 0.05511470139026642 72.0 8 -0.03023160807788372
1.7378112077713013 -1.4789931774139404 -0.5268353819847107 1.0 1 -0.03022930398583412
2.411930799484253 -2.0534400939941406 0.16600966453552246 78.0 9 -0.030226999893784523
1.7113735675811768 -1.457523226737976 -0.4369526505470276 1.0 2 -0.030224695801734924
2.4174678325653076 -2.059609889984131 0.27785250544548035 65.0 10 -0.030222391709685326
1.7126624584197998 -1.4591370820999146 -0.35635775327682495 1.0 3 -0.030220087617635727
2.4112770557403564 -2.0550622940063477 0.38900697231292725 81.0 11 -0.030217783525586128
2.4183006286621094 -2.0625057220458984 0.5034061670303345 82.0 12 -0.03021317534148693
2.397840976715088 -2.04577898979187 -0.2757607400417328 61.0 5 -0.030210871249437332
2.421024799346924 -2.065558910369873 0.6186028122901917 76.0 13 -0.030208567157387733
2.4109394550323486 -2.0576817989349365 -0.16611434519290924 80.0 6 -0.030206263065338135
2.418713092803955 -2.0650460720062256 0.7342402935028076 81.0 14 -0.030203958973288536
2.400996446609497 -2.050644636154175 -0.05511470139026642 78.0 7 -0.030201654881238937
2.416130781173706 -2.064300060272217 0.8515146970748901 82.0 15 -0.03019935078918934
2.4008092880249023 -2.0570156574249268 0.055184509605169296 74.0 8 -0.0301763117313385
1.7296788692474365 -1.4825139045715332 -0.5259355902671814 1.0 1 -0.030174007639288902
2.4001994132995605 -2.0579464435577393 0.1656956523656845 74.0 9 -0.030171703547239304
1.7065306901931763 -1.4631905555725098 -0.4369526505470276 1.0 2 -0.030169399455189705
2.4030630588531494 -2.061129570007324 0.2769809365272522 72.0 10 -0.030167095363140106
1.6895687580108643 -1.4496707916259766 -0.35260334610939026 1.0 3 -0.030164791271090508
2.407101631164551 -2.0660524368286133 0.3894944489002228 81.0 11 -0.03016248717904091
2.4035937786102295 -2.0644991397857666 0.5018418431282043 77.0 12 -0.03015787899494171
2.3816182613372803 -2.0463461875915527 -0.2747148871421814 61.0 5 -0.030155574902892113
2.4108216762542725 -2.0714385509490967 0.6178395748138428 77.0 13 -0.030153270810842514
2.4022276401519775 -2.0647830963134766 -0.16600966453552246 82.0 6 -0.030150966718792915
2.4085347652435303 -2.0709352493286133 0.7333405017852783 81.0 14 -0.030148662626743317
2.383211374282837 -2.0498852729797363 -0.0548703633248806 72.0 7 -0.030146358534693718
2.3913378715515137 -2.0576014518737793 0.8453030586242676 80.0 15 -0.03014405444264412
2.3754465579986572 -2.0497071743011475 0.05476565286517143 74.0 8 -0.03012101538479328
1.7392451763153076 -1.5012760162353516 -0.5304346084594727 1.0 1 -0.030118711292743683
2.3899779319763184 -2.063701629638672 0.16548630595207214 76.0 9 -0.030116407200694084
1.6952133178710938 -1.4643018245697021 -0.43542614579200745 1.0 2 -0.030114103108644485
2.383432149887085 -2.059501886367798 0.27558645606040955 69.0 10 -0.030111799016594887
1.6603329181671143 -1.4351848363876343 -0.3475974202156067 1.0 3 -0.030109494924545288
2.3938679695129395 -2.069249391555786 0.3885194957256317 87.0 11 -0.03010719083249569
2.38740873336792 -2.0651228427886963 0.4999645948410034 80.0 12 -0.030102582648396492
2.368433952331543 -2.0494320392608643 -0.2740176320075989 61.0 5 -0.030100278556346893
2.3943068981170654 -2.0725510120391846 0.6155498623847961 76.0 13 -0.030097974464297295
2.387094020843506 -2.0670366287231445 -0.16548630595207214 80.0 6 -0.030095672234892845
2.3935635089874268 -2.0733697414398193 0.7310910224914551 78.0 14 -0.030093368142843246
2.374530076980591 -2.056882381439209 -0.05483546108007431 76.0 7 -0.030091064050793648
2.3724610805511475 -2.0558152198791504 0.8411619663238525 80.0 15 -0.03008875995874405
2.358863115310669 -2.0505282878875732 0.0545562244951725 71.0 8 -0.030065719038248062
1.7160850763320923 -1.4922958612442017 -0.5250357985496521 1.0 1 -0.030063414946198463
2.3782384395599365 -2.0680999755859375 0.1651722937822342 78.0 9 -0.030061110854148865
1.6812044382095337 -1.4624792337417603 -0.4331364631652832 1.0 2 -0.030058806762099266
2.3702166080474854 -2.062577724456787 0.274889200925827 69.0 10 -0.030056502670049667
1.6493531465530396 -1.4357837438583374 -0.3463459312915802 1.0 3 -0.03005419857800007
2.368303060531616 -2.062365770339966 0.38559460639953613 83.0 11 -0.03005189448595047
2.377206802368164 -2.0708487033843994 0.49933886528015137 77.0 12 -0.030047288164496422
2.3582615852355957 -2.0550689697265625 -0.27366903424263 63.0 5 -0.030044984072446823
2.3692991733551025 -2.065415382385254 0.6109704375267029 73.0 13 -0.030042679980397224
2.3648111820220947 -2.062229871749878 -0.1644395887851715 86.0 6 -0.030040375888347626
2.3833744525909424 -2.0791497230529785 0.730191171169281 83.0 14 -0.030038071796298027
2.3643221855163574 -2.0625295639038086 -0.05476565286517143 74.0 7 -0.03003576770424843
2.3652706146240234 -2.064084053039551 0.8411619663238525 78.0 15 -0.03003346361219883
1.6820189952850342 -1.4719778299331665 -0.5989072918891907 1.0 0 -0.03001272678375244
2.3460307121276855 -2.0530714988708496 0.05441660061478615 74.0 8 -0.030010422691702843
1.7052618265151978 -1.4928441047668457 -0.5232362151145935 1.0 1 -0.030008118599653244
2.3559794425964355 -2.063230276107788 0.16412557661533356 82.0 9 -0.030005814507603645
1.6849493980407715 -1.4761006832122803 -0.43542614579200745 1.0 2 -0.030003510415554047
2.363002300262451 -2.070838689804077 0.274889200925827 74.0 10 -0.030001208186149597
1.6564679145812988 -1.4516607522964478 -0.3488488793373108 1.0 3 -0.0299989040941
2.352494955062866 -2.062356472015381 0.3841322064399719 83.0 11 -0.0299966000020504
2.3669939041137695 -2.076528787612915 0.4987131357192993 87.0 12 -0.029991991817951202
2.3420889377593994 -2.055403470993042 -0.2726231813430786 63.0 5 -0.029989687725901604
2.3624370098114014 -2.073261022567749 0.6109704375267029 77.0 13 -0.029987383633852005
2.3429505825042725 -2.0568835735321045 -0.16339287161827087 88.0 6 -0.029985079541802406
2.3588955402374268 -2.071610927581787 0.7247923612594604 78.0 14 -0.029982775449752808
2.3541033267974854 -2.0681302547454834 -0.054695840924978256 76.0 7 -0.02998047135770321
2.3522465229034424 -2.0672266483306885 0.8390913605690002 80.0 15 -0.02997816726565361
2.3358495235443115 -2.0586040019989014 0.05434679239988327 76.0 8 -0.029955128207802773
1.6824991703033447 -1.4833223819732666 -0.5178373456001282 1.0 1 -0.029952824115753174
2.3367795944213867 -2.060873031616211 0.1632881909608841 82.0 9 -0.029950520023703575
1.671210765838623 -1.473888874053955 -0.4331364631652832 1.0 2 -0.029948215931653976
2.3501460552215576 -2.0733907222747803 0.2741919755935669 74.0 10 -0.029945911839604378
1.6484283208847046 -1.4548197984695435 -0.34822314977645874 1.0 3 -0.02994360774755478
2.3423056602478027 -2.0679280757904053 0.3836447298526764 85.0 11 -0.02994130365550518
2.346407413482666 -2.073007345199585 0.4958972930908203 82.0 12 -0.029936695471405983
2.3367528915405273 -2.0644779205322266 -0.27279746532440186 67.0 5 -0.029934391379356384
2.343416929244995 -2.071093797683716 0.6079174876213074 68.0 13 -0.029932087287306786
2.3387489318847656 -2.067695379257202 -0.16360221803188324 86.0 6 -0.029929783195257187
2.344351291656494 -2.0733773708343506 0.7225428223609924 81.0 14 -0.029927479103207588
2.33638596534729 -2.0670597553253174 -0.054451506584882736 81.0 7 -0.02992517501115799
2.3450162410736084 -2.075424909591675 0.8390913605690002 82.0 15 -0.02992287091910839
2.3286495208740234 -2.0667450428009033 0.05434679239988327 76.0 8 -0.029899831861257553
1.6889692544937134 -1.4995369911193848 -0.5214365720748901 1.0 1 -0.029897527769207954
2.329571485519409 -2.0690174102783203 0.1632881909608841 82.0 9 -0.029895223677158356
1.666055679321289 -1.4797135591506958 -0.4331364631652832 1.0 2 -0.029892919585108757
2.335447072982788 -2.074965238571167 0.27332040667533875 78.0 10 -0.02989061549305916
1.6433402299880981 -1.4605649709701538 -0.34822314977645874 1.0 3 -0.02988831140100956
2.3380401134490967 -2.0787296295166016 0.3841322064399719 85.0 11 -0.02988600730895996
2.3303020000457764 -2.0733070373535156 0.49402010440826416 85.0 12 -0.029881399124860764
2.319112539291382 -2.063351631164551 -0.27157729864120483 71.0 5 -0.029879095032811165
2.333240509033203 -2.076650619506836 0.6071542501449585 68.0 13 -0.029876790940761566
2.3255503177642822 -2.0705339908599854 -0.1631835252046585 86.0 6 -0.029874486848711967
2.3327338695526123 -2.077659845352173 0.7211931347846985 83.0 14 -0.02987218275666237
2.306760787963867 -2.055248975753784 -0.053927935659885406 86.0 7 -0.02986987866461277
2.3175671100616455 -2.0656025409698486 0.8318444490432739 84.0 15 -0.02986757457256317
2.309493064880371 -2.0642001628875732 0.05406755208969116 74.0 8 -0.029844535514712334
1.677913784980774 -1.5002280473709106 -0.5196369886398315 1.0 1 -0.029842231422662735
2.316380500793457 -2.071810722351074 0.16286951303482056 78.0 9 -0.029839927330613136
1.6403937339782715 -1.4671964645385742 -0.42779380083084106 1.0 2 -0.029837623238563538
2.3133416175842285 -2.069819688796997 0.27157729864120483 76.0 10 -0.02983531914651394
1.6176252365112305 -1.4478485584259033 -0.343843013048172 1.0 3 -0.02983301505446434
2.3248538970947266 -2.0815815925598145 0.38315722346305847 85.0 11 -0.02983071096241474
1.613243579864502 -1.444941520690918 -0.26591894030570984 1.0 4 -0.029828406870365143
2.3186371326446533 -2.0774741172790527 0.4930815100669861 87.0 12 -0.029826102778315544
2.301509141921997 -2.0621273517608643 -0.2703571021556854 72.0 5 -0.029823798686265945
2.3172054290771484 -2.076920509338379 0.6048645377159119 73.0 13 -0.029821494594216347
2.3093864917755127 -2.070639133453369 -0.1625555008649826 88.0 6 -0.029819190502166748
2.321115016937256 -2.0818865299224854 0.7198433876037598 81.0 14 -0.0298168882727623
2.295107364654541 -2.059281826019287 -0.05382322147488594 84.0 7 -0.0298145841807127
2.3017165660858154 -2.0659372806549072 0.8287386298179626 88.0 15 -0.0298122800886631
1.115847110748291 -1.004008173942566 -0.40220481157302856 0.0 0 -0.029791543260216713
2.2903835773468018 -2.061546802520752 0.05378831923007965 71.0 8 -0.029789239168167114
1.6581847667694092 -1.4930363893508911 -0.5151379704475403 1.0 1 -0.029786935076117516
2.3091344833374023 -2.079883575439453 0.16286951303482056 85.0 9 -0.029784630984067917
1.6381796598434448 -1.4755412340164185 -0.42855700850486755 1.0 2 -0.029782326892018318
2.3031423091888428 -2.0752148628234863 0.2712286710739136 78.0 10 -0.02978002279996872
1.6096267700195312 -1.4508411884307861 -0.34321725368499756 1.0 3 -0.02977771870791912
2.298407793045044 -2.0724031925201416 0.3799886405467987 80.0 11 -0.029775414615869522
2.3040382862091064 -2.0789382457733154 0.49151715636253357 85.0 12 -0.029770806431770325
2.2839419841766357 -2.060805320739746 -0.2691369354724884 68.0 5 -0.029768504202365875
2.3011975288391113 -2.077103853225708 0.60257488489151 78.0 13 -0.029766200110316277
2.29325008392334 -2.0706565380096436 -0.1619274616241455 88.0 6 -0.029763896018266678
2.310941696166992 -2.0873632431030273 0.7189435958862305 81.0 14 -0.02976159192621708
2.284937858581543 -2.0645997524261475 -0.05375341325998306 81.0 7 -0.02975928783416748
2.2887582778930664 -2.0687777996063232 0.8266680836677551 88.0 15 -0.029756983742117882
1.109472632408142 -1.0053027868270874 -0.4011695384979248 0.0 0 -0.029736246913671494
2.2772467136383057 -2.064157247543335 0.0536486990749836 74.0 8 -0.029733942821621895
1.6529630422592163 -1.4988152980804443 -0.5151379704475403 1.0 1 -0.029731638729572296
2.2841079235076904 -2.071829080581665 0.16161344945430756 82.0 9 -0.029729334637522697
1.6446523666381836 -1.49180269241333 -0.43160995841026306 1.0 2 -0.0297270305454731
2.292933225631714 -2.08056378364563 0.2708800435066223 81.0 10 -0.0297247264534235
1.6279551982879639 -1.477693796157837 -0.34822314977645874 1.0 3 -0.02972242422401905
2.2838118076324463 -2.0737409591674805 0.3787699341773987 85.0 11 -0.029720120131969452
2.292381525039673 -2.0829827785491943 0.4905785322189331 91.0 12 -0.029715511947870255
2.2737855911254883 -2.0660855770111084 -0.26878830790519714 70.0 5 -0.029713207855820656
2.289574384689331 -2.081162214279175 0.6014299988746643 82.0 13 -0.029710903763771057
2.274186611175537 -2.0678999423980713 -0.16109009087085724 86.0 6 -0.02970859967172146
2.2906670570373535 -2.083616018295288 0.7148945331573486 78.0 14 -0.02970629557967186
2.27475905418396 -2.069871187210083 -0.053683605045080185 83.0 7 -0.02970399148762226
2.2786660194396973 -2.074153184890747 0.8256327509880066 88.0 15 -0.029701687395572662
1.0973944664001465 -1.001356601715088 -0.3980637192726135 1.0 0 -0.029680950567126274
2.2700276374816895 -2.0720937252044678 0.0536486990749836 72.0 8 -0.029678646475076675
1.6362086534500122 -1.4940637350082397 -0.5115387439727783 1.0 1 -0.029676344245672226
2.2680141925811768 -2.0717074871063232 0.16098542511463165 78.0 9 -0.029674040153622627
1.6046457290649414 -1.4657566547393799 -0.42245110869407654 1.0 2 -0.02967173606157303
2.276831865310669 -2.080491065979004 0.2698341906070709 78.0 10 -0.02966943196952343
1.599458932876587 -1.462043046951294 -0.34321725368499756 1.0 3 -0.02966712787747383
2.2736289501190186 -2.0790212154388428 0.37828245759010315 81.0 11 -0.029664823785424232
1.5980240106582642 -1.4617558717727661 -0.26591894030570984 1.0 4 -0.029662519693374634
2.2792670726776123 -2.0856382846832275 0.489327073097229 91.0 12 -0.029660215601325035
2.265089750289917 -2.072665214538574 -0.2686139941215515 72.0 5 -0.029657911509275436
2.2808477878570557 -2.087815761566162 0.6010483503341675 78.0 13 -0.029655607417225838
2.2640082836151123 -2.0731279850006104 -0.16088074445724487 88.0 6 -0.02965330332517624
2.2733209133148193 -2.0823850631713867 0.7117451429367065 76.0 14 -0.02965099923312664
2.252776622772217 -2.0642893314361572 -0.0533345565199852 83.0 7 -0.02964869514107704
2.268563747406006 -2.079483985900879 0.8245974779129028 88.0 15 -0.029646391049027443
1.0910474061965942 -1.0025666952133179 -0.3970284163951874 4.0 0 -0.029625656083226204
2.256892442703247 -2.074592113494873 0.05350907891988754 72.0 8 -0.029623351991176605
1.6309834718704224 -1.4997661113739014 -0.5115387439727783 1.0 1 -0.029621047899127007
2.2578284740448 -2.0769073963165283 0.1607760637998581 82.0 9 -0.029618743807077408
1.5966298580169678 -1.4686908721923828 -0.42168790102005005 1.0 2 -0.02961643971502781
2.2636911869049072 -2.0830295085906982 0.2691369354724884 81.0 10 -0.02961413562297821
1.5681850910186768 -1.4435361623764038 -0.33758559823036194 1.0 3 -0.029611831530928612
2.2663581371307373 -2.086945056915283 0.37828245759010315 83.0 11 -0.029609527438879013
1.592911958694458 -1.46732497215271 -0.26591894030570984 1.0 4 -0.029607223346829414
2.2574462890625 -2.080195188522339 0.486198365688324 91.0 12 -0.029604919254779816
2.2417240142822266 -2.0657074451446533 -0.266696572303772 70.0 5 -0.029602615162730217
2.2692153453826904 -2.0917727947235107 0.5999035239219666 83.0 13 -0.02960031107068062
2.2552895545959473 -2.0796642303466797 -0.1607760637998581 93.0 6 -0.02959800697863102
2.2603087425231934 -2.085022449493408 0.709945559501648 76.0 14 -0.02959570288658142
2.233800172805786 -2.061291456222534 -0.05305531620979309 81.0 7 -0.029593398794531822
2.251354694366455 -2.0782177448272705 0.8209740519523621 91.0 15 -0.029591094702482224
1.0917948484420776 -1.010305404663086 -0.3985813558101654 5.0 0 -0.029570359736680984
2.2320268154144287 -2.0661561489105225 0.05309021845459938 69.0 8 -0.029568055644631386
1.625738263130188 -1.5054502487182617 -0.5115387439727783 1.0 1 -0.029565751552581787
2.2476348876953125 -2.082061290740967 0.16056673228740692 85.0 9 -0.02956344746053219
1.5828518867492676 -1.4662500619888306 -0.4193982183933258 1.0 2 -0.02956114336848259
2.243253707885742 -2.078730821609497 0.2675681412220001 85.0 10 -0.02955883927643299
1.5486494302749634 -1.4355720281600952 -0.3344569206237793 1.0 3 -0.029556535184383392
2.253237009048462 -2.089444398880005 0.3773075342178345 83.0 11 -0.029554231092333794
1.5877803564071655 -1.4728764295578003 -0.26591894030570984 1.0 4 -0.029551927000284195
2.248723268508911 -2.086719036102295 0.48588550090789795 93.0 12 -0.029549622908234596
2.2271971702575684 -2.066743850708008 -0.2658250033855438 72.0 5 -0.029547318816184998
2.2503890991210938 -2.0889956951141357 0.596850574016571 83.0 13 -0.0295450147241354
2.248016595840454 -2.0875236988067627 -0.1607760637998581 91.0 6 -0.0295427106320858
2.251589059829712 -2.091573476791382 0.7094956636428833 78.0 14 -0.0295404065400362
2.2265915870666504 -2.0690762996673584 -0.05305531620979309 81.0 7 -0.029538102447986603
2.23276686668396 -2.0755414962768555 0.816832959651947 96.0 15 -0.029535800218582153
1.0896748304367065 -1.0154273509979248 -0.3990989923477173 5.0 0 -0.029515063390135765
2.2189505100250244 -2.0684807300567627 0.052950602024793625 72.0 8 -0.029512759298086166
1.6233237981796265 -1.5137739181518555 -0.5124385356903076 1.0 1 -0.029510455206036568
2.2377967834472656 -2.0867791175842285 0.16035738587379456 82.0 9 -0.02950815111398697
1.6093072891235352 -1.5012285709381104 -0.42779380083084106 1.0 2 -0.02950584702193737
2.234527111053467 -2.0851891040802 0.2673937976360321 81.0 10 -0.02950354292988777
1.558069109916687 -1.4544486999511719 -0.33758559823036194 1.0 3 -0.029501238837838173
2.23142147064209 -2.0837485790252686 0.3748701512813568 83.0 11 -0.029498934745788574
1.5536168813705444 -1.451308012008667 -0.2610441744327545 1.0 4 -0.029496630653738976
2.2389042377471924 -2.0914676189422607 0.4852597713470459 93.0 12 -0.029494326561689377
2.2185137271881104 -2.0731451511383057 -0.2656506896018982 68.0 5 -0.029492022469639778
2.228741407394409 -2.0834314823150635 0.5930343866348267 82.0 13 -0.02948972024023533
2.2305045127868652 -2.0858089923858643 -0.1600433737039566 100.0 6 -0.02948741614818573
2.244274377822876 -2.0994203090667725 0.7094956636428833 78.0 14 -0.02948511205613613
2.216797351837158 -2.073716640472412 -0.05298550799489021 81.0 7 -0.029482807964086533
2.214587450027466 -2.0723743438720703 0.8126918077468872 92.0 15 -0.029480503872036934
1.0903499126434326 -1.0231907367706299 -0.4006519019603729 6.0 0 -0.029459767043590546
2.2149951457977295 -2.078564405441284 0.0530204102396965 72.0 8 -0.029457462951540947
1.6182950735092163 -1.519148588180542 -0.5124385356903076 1.0 1 -0.02945515885949135
2.215939521789551 -2.0809056758880615 0.15931066870689392 82.0 9 -0.02945285476744175
1.5897480249404907 -1.4933949708938599 -0.4239776134490967 1.0 2 -0.02945055067539215
2.2243311405181885 -2.090247392654419 0.26704519987106323 78.0 10 -0.029448246583342552
1.5503582954406738 -1.4569019079208374 -0.3369598686695099 1.0 3 -0.029445942491292953
2.214374542236328 -2.0816187858581543 0.37316393852233887 80.0 11 -0.029443640261888504
1.5285499095916748 -1.4374133348464966 -0.2576318085193634 1.0 4 -0.029441336169838905
2.2287120819091797 -2.0965631008148193 0.48463401198387146 93.0 12 -0.029439032077789307
2.208361864089966 -2.078145742416382 -0.26530206203460693 68.0 5 -0.029436727985739708
2.2161011695861816 -2.0854289531707764 0.5915079116821289 87.0 13 -0.02943442389369011
2.210487127304077 -2.080873489379883 -0.15910132229328156 93.0 6 -0.02943211980164051
2.2231130599975586 -2.0934910774230957 0.704996645450592 83.0 14 -0.029429815709590912
2.2037227153778076 -2.0759572982788086 -0.05284588783979416 81.0 7 -0.029427511617541313
2.2101519107818604 -2.0827414989471436 0.813727080821991 92.0 15 -0.029425207525491714
1.079929232597351 -1.0201678276062012 -0.3980637192726135 6.0 0 -0.029404470697045326
2.2019128799438477 -2.080789804458618 0.05288079380989075 72.0 8 -0.029402166604995728
1.5818274021148682 -1.495336890220642 -0.5025407075881958 1.0 1 -0.02939986251294613
2.201406478881836 -2.0817666053771973 0.1587873101234436 72.0 9 -0.02939755842089653
1.5876399278640747 -1.5013563632965088 -0.42474085092544556 1.0 2 -0.02939525619149208
2.205808162689209 -2.086658477783203 0.2656506896018982 81.0 10 -0.029392952099442482
1.5337849855422974 -1.4514427185058594 -0.3344569206237793 1.0 3 -0.029390648007392883
2.205653429031372 -2.0879714488983154 0.3729202151298523 83.0 11 -0.029388343915343285
1.486047625541687 -1.4072518348693848 -0.2512946128845215 1.0 4 -0.029386039823293686
2.2099077701568604 -2.0934619903564453 0.48213109374046326 93.0 12 -0.029383735731244087
2.1985654830932617 -2.0827174186706543 -0.26495346426963806 70.0 5 -0.02938143163919449
2.210233211517334 -2.0945024490356445 0.5918895602226257 81.0 13 -0.02937912754714489
2.2003111839294434 -2.0858285427093506 -0.15889199078083038 93.0 6 -0.02937682345509529
2.20872163772583 -2.094533920288086 0.702747106552124 86.0 14 -0.029374519363045692
2.190659999847412 -2.078132152557373 -0.052706267684698105 81.0 7 -0.029372215270996094
2.200065851211548 -2.0877842903137207 0.8126918077468872 90.0 15 -0.029369911178946495
1.0805606842041016 -1.027925729751587 -0.3996165990829468 6.0 0 -0.029349176213145256
2.1888415813446045 -2.082948923110962 0.052741169929504395 74.0 8 -0.029346872121095657
1.5935354232788086 -1.5169731378555298 -0.5079395174980164 1.0 1 -0.02934456802904606
2.1883411407470703 -2.0839288234710693 0.15836863219738007 76.0 9 -0.02934226393699646
1.5738589763641357 -1.498765468597412 -0.42245110869407654 1.0 2 -0.02933995984494686
2.1869702339172363 -2.0833516120910645 0.26425620913505554 81.0 10 -0.029337655752897263
1.5372896194458008 -1.464964509010315 -0.33633413910865784 1.0 3 -0.029335351660847664
2.1926040649414062 -2.090178966522217 0.37194526195526123 80.0 11 -0.029333047568798065
1.5328437089920044 -1.4617490768432617 -0.26006919145584106 1.0 4 -0.029330743476748466
2.189722776412964 -2.0888917446136475 0.47931525111198425 91.0 12 -0.029328439384698868
2.1739823818206787 -2.073875904083252 -0.2628616988658905 70.0 5 -0.02932613529264927
2.1986477375030518 -2.0981385707855225 0.59074467420578 85.0 13 -0.02932383120059967
2.1915719509124756 -2.0921175479888916 -0.1587873101234436 100.0 6 -0.02932152710855007
2.201396942138672 -2.102231025695801 0.702747106552124 86.0 14 -0.029319223016500473
2.1732707023620605 -2.076097011566162 -0.052461933344602585 86.0 7 -0.029316918924450874
2.178797721862793 -2.082104444503784 0.8075154423713684 84.0 15 -0.029314614832401276
1.072780966758728 -1.0276821851730347 -0.3980637192726135 5.0 0 -0.029293879866600037
2.1700069904327393 -2.0795083045959473 0.052461933344602585 79.0 8 -0.029291575774550438
1.5882303714752197 -1.5225262641906738 -0.5079395174980164 1.0 1 -0.02928927168250084
2.1781704425811768 -2.08879017829895 0.1581592708826065 74.0 9 -0.02928696759045124
1.5346099138259888 -1.4716378450393677 -0.4132923185825348 1.0 2 -0.029284663498401642
2.173933744430542 -2.0854556560516357 0.263558954000473 78.0 10 -0.029282359406352043
1.5150631666183472 -1.453908920288086 -0.33257973194122314 1.0 3 -0.029280055314302444
2.1838629245758057 -2.096445322036743 0.37170153856277466 83.0 11 -0.029277751222252846
1.4847779273986816 -1.4258418083190918 -0.2527570426464081 2.0 4 -0.029275447130203247
2.18099308013916 -2.09515380859375 0.4790023863315582 96.0 12 -0.02927314303815365
2.160982608795166 -2.0759308338165283 -0.26216447353363037 68.0 5 -0.02927083894610405
2.181401252746582 -2.096278190612793 0.5880733728408813 78.0 13 -0.02926853485405445
2.1770565509796143 -2.0928337574005127 -0.1582639515399933 91.0 6 -0.029266230762004852
2.1954500675201416 -2.111253023147583 0.7031970620155334 90.0 14 -0.029263926669955254
2.163128137588501 -2.080897808074951 -0.05239212512969971 86.0 7 -0.029261622577905655
2.1645569801330566 -2.0829994678497314 0.8049272894859314 84.0 15 -0.029259318485856056
1.073358178138733 -1.0354443788528442 -0.3996165990829468 6.0 0 -0.029238583520054817
2.1541013717651367 -2.0787389278411865 0.05225250497460365 79.0 8 -0.02923627942800522
1.5548654794692993 -1.5009915828704834 -0.49894148111343384 1.0 1 -0.02923397533595562
2.165118932723999 -2.0908312797546387 0.15774059295654297 76.0 9 -0.02923167124390602
1.5322879552841187 -1.4797134399414062 -0.4140555262565613 1.0 2 -0.029229367151856422
2.1637749671936035 -2.0902631282806396 0.26321035623550415 78.0 10 -0.029227063059806824
1.509979009628296 -1.4591885805130005 -0.33257973194122314 1.0 3 -0.029224758967757225
2.167968273162842 -2.0957772731781006 0.3702390789985657 83.0 11 -0.029222454875707626
1.4797916412353516 -1.4310160875320435 -0.2527570426464081 2.0 4 -0.029220150783658028
2.16798734664917 -2.0972604751586914 0.4777509272098541 93.0 12 -0.02921784669160843
2.1565871238708496 -2.0862319469451904 -0.26251310110092163 70.0 5 -0.02921554259955883
2.1656060218811035 -2.0956883430480957 0.5857836604118347 81.0 13 -0.02921323850750923
2.161127805709839 -2.092085361480713 -0.1576359122991562 93.0 6 -0.029210936278104782
2.1796674728393555 -2.1107699871063232 0.7004976272583008 90.0 14 -0.029208632186055183
2.148669958114624 -2.08147931098938 -0.052217599004507065 74.0 7 -0.029206328094005585
2.1544981002807617 -2.0878536701202393 0.8038920164108276 88.0 15 -0.029204024001955986
1.0725085735321045 -1.0418767929077148 -0.4006519019603729 6.0 0 -0.029183287173509598
2.1382272243499756 -2.07788348197937 0.05204307660460472 76.0 8 -0.02918098308146
1.535643458366394 -1.4928265810012817 -0.4944424629211426 1.0 1 -0.0291786789894104
2.1492161750793457 -2.0900216102600098 0.15711255371570587 76.0 9 -0.0291763748973608
1.5440032482147217 -1.501477599143982 -0.41863495111465454 1.0 2 -0.029174070805311203
2.149324893951416 -2.0908570289611816 0.262338787317276 74.0 10 -0.029171766713261604
1.4992133378982544 -1.458939790725708 -0.33132821321487427 1.0 3 -0.029169462621212006
2.1435701847076416 -2.0867159366607666 0.36731424927711487 85.0 11 -0.029167158529162407
1.4690988063812256 -1.4306328296661377 -0.25178205966949463 3.0 4 -0.029164854437112808
2.160653591156006 -2.1048152446746826 0.4777509272098541 93.0 12 -0.02916255220770836
2.140728712081909 -2.0854055881500244 -0.26146721839904785 68.0 5 -0.02916024811565876
2.151247262954712 -2.096384048461914 0.5838755369186401 85.0 13 -0.02915794402360916
2.145231008529663 -2.0912516117095947 -0.15700788795948029 100.0 6 -0.029155639931559563
2.1611249446868896 -2.107481002807617 0.6968984007835388 90.0 14 -0.029153335839509964
2.144253969192505 -2.091759204864502 -0.05228740721940994 74.0 7 -0.029151031747460365
2.1444318294525146 -2.092663288116455 0.8028567433357239 86.0 15 -0.029148727655410767
1.0674842596054077 -1.044263482093811 -0.40013426542282104 6.0 0 -0.02912799082696438
2.133819818496704 -2.088131904602051 0.0521128848195076 74.0 8 -0.02912568673491478
1.558274269104004 -1.5254422426223755 -0.5034404993057251 1.0 1 -0.02912338264286518
2.13334584236145 -2.0891263484954834 0.15648452937602997 68.0 9 -0.029121078550815582
1.5078935623168945 -1.4766381978988647 -0.4102393686771393 1.0 2 -0.029118776321411133
2.140589952468872 -2.0969526767730713 0.26216447353363037 78.0 10 -0.029116470366716385
1.4884681701660156 -1.4586337804794312 -0.33007675409317017 1.0 3 -0.029114168137311935
2.1334381103515625 -2.0914065837860107 0.36682677268981934 91.0 11 -0.029111864045262337
1.4626787900924683 -1.434362530708313 -0.25153833627700806 5.0 4 -0.029109559953212738
2.140601873397827 -2.0998947620391846 0.4749351143836975 87.0 12 -0.02910725586116314
2.1334362030029297 -2.092865467071533 -0.26146721839904785 66.0 5 -0.02910495176911354
2.1411139965057373 -2.101130485534668 0.583112359046936 83.0 13 -0.029102647677063942
2.1307919025421143 -2.091731309890747 -0.15648452937602997 85.0 6 -0.029100343585014343
2.146803140640259 -2.108185052871704 0.6946488618850708 95.0 14 -0.029098039492964745
2.1212475299835205 -2.0838165283203125 -0.051903460174798965 70.0 7 -0.029095735400915146
2.1316020488739014 -2.094719648361206 0.8007861375808716 86.0 15 -0.029093431308865547
1.0569512844085693 -1.041204571723938 -0.39754605293273926 6.0 0 -0.029067277908325195
2.123668909072876 -2.0927603244781494 0.05204307660460472 81.0 8 -0.029064973816275597
1.5668179988861084 -1.5445530414581299 -0.5079395174980164 1.0 1 -0.029062669724225998
2.1217739582061768 -2.092353343963623 0.15617051720619202 70.0 9 -0.0290603656321764
1.5083214044570923 -1.487406849861145 -0.41176581382751465 1.0 2 -0.0290580615401268
2.130420446395874 -2.1016135215759277 0.2618158459663391 76.0 10 -0.029055757448077202
1.491803765296936 -1.472145915031433 -0.3319540023803711 1.0 3 -0.029053453356027603
2.1232993602752686 -2.0960514545440674 0.3663392663002014 88.0 11 -0.029051149263978004
