# .PCD v0.7 - Point Cloud Data file format
VERSION 0.7
FIELDS x y z intensity ring time
SIZE 4 4 4 4 4 4
TYPE F F F F F F
COUNT 1 1 1 1 1 1
WIDTH 548
HEIGHT 1
VIEWPOINT 0 0 0 1 0 0 0
POINTS 548
DATA ascii
-2.948774576187134 0.9359725713729858 0.16213680803775787 2.0 9 -0.0713554322719574
-2.6514172554016113 0.8420976400375366 -0.5407527089118958 20.0 2 -0.07135313004255295
-3.108354330062866 0.9878193140029907 0.28534790873527527 51.0 10 -0.0713508203625679
-2.3626604080200195 0.7508415579795837 -0.3926505744457245 1.0 3 -0.07134851813316345
-3.087339401245117 0.9817341566085815 0.3977815806865692 56.0 11 -0.071346215903759
-2.3626670837402344 0.7517517805099487 -0.30442965030670166 2.0 4 -0.07134391367435455
-3.0812995433807373 0.9809978604316711 0.5121665000915527 80.0 12 -0.0713416039943695
-3.084667444229126 0.9826639294624329 0.6292880773544312 68.0 13 -0.07133699953556061
-2.44145131111145 0.7782271504402161 -0.1342940777540207 39.0 6 -0.07133469730615616
-3.0745182037353516 0.9806128740310669 0.7450379729270935 81.0 14 -0.07133238762617111
-2.8727896213531494 0.916824221611023 -0.05263645574450493 1.0 7 -0.07133008539676666
-3.0512146949768066 0.9743529558181763 0.858244001865387 95.0 15 -0.07132778316736221
-2.9249303340911865 0.9379661679267883 -0.8230445981025696 4.0 0 -0.07130704820156097
-2.920851945877075 0.9372205138206482 0.05354398116469383 3.0 8 -0.07130474597215652
-3.1115944385528564 0.9990235567092896 -0.7544858455657959 27.0 1 -0.07130243629217148
-2.9683079719543457 0.9535907506942749 0.16339287161827087 3.0 9 -0.07130013406276703
-2.652348518371582 0.8520864248275757 -0.5415159463882446 16.0 2 -0.07129783183336258
-3.0974745750427246 0.9956827759742737 0.28465065360069275 50.0 10 -0.07129552960395813
-2.337458848953247 0.7518259882926941 -0.388896107673645 1.0 3 -0.07129321992397308
-3.097121238708496 0.9967620968818665 0.3994877338409424 53.0 11 -0.07129091769456863
-2.3543601036071777 0.7581690549850464 -0.30369842052459717 3.0 4 -0.07128861546516418
-3.083496570587158 0.9935660362243652 0.5131050944328308 82.0 12 -0.07128631323575974
-3.073744297027588 0.9910150170326233 0.6277616620063782 67.0 13 -0.07128170132637024
-2.450124502182007 0.7904239296913147 -0.1349221020936966 43.0 6 -0.07127939909696579
-3.0859124660491943 0.9961282014846802 0.7486371397972107 81.0 14 -0.07127709686756134
-2.9380764961242676 0.9489722847938538 -0.05389302968978882 1.0 7 -0.0712747871875763
-3.0404417514801025 0.982621431350708 0.8561733961105347 94.0 15 -0.07127248495817184
-2.9951388835906982 0.9720239043235779 -0.8437501192092896 4.0 0 -0.0712517499923706
-2.9327783584594727 0.9523507356643677 0.05382322147488594 3.0 8 -0.07124944776296616
-3.104381561279297 1.0086746215820312 -0.7535860538482666 28.0 1 -0.0712471455335617
-2.9744582176208496 0.967033863067627 0.1639162302017212 3.0 9 -0.07124483585357666
-2.6605606079101562 0.8649817705154419 -0.5438056588172913 7.0 2 -0.07124253362417221
-3.1015586853027344 1.0089536905288696 0.28534790873527527 50.0 10 -0.07124023139476776
-2.3273067474365234 0.7575351595878601 -0.3876446485519409 1.0 3 -0.07123792916536331
-3.0841853618621826 1.0044933557510376 0.39826905727386475 57.0 11 -0.07123561948537827
-2.368685722351074 0.7719190716743469 -0.30589208006858826 3.0 4 -0.07123331725597382
-3.091278076171875 1.0079970359802246 0.514982283115387 82.0 12 -0.07123101502656937
-3.0739991664886475 1.0029562711715698 0.6285248398780823 68.0 13 -0.07122640311717987
-2.4416544437408447 0.7971128225326538 -0.13460808992385864 47.0 6 -0.07122410088777542
-3.0879740715026855 1.0087085962295532 0.7499868273735046 92.0 14 -0.07122179865837097
-2.9347457885742188 0.9592223763465881 -0.05389302968978882 1.0 7 -0.07121949642896652
-3.0480101108551025 0.9968324303627014 0.8592792749404907 98.0 15 -0.07121719419956207
-2.9843859672546387 0.9800612926483154 -0.841679573059082 5.0 0 -0.07119645178318024
-2.9294357299804688 0.9625830054283142 0.05382322147488594 3.0 8 -0.07119414955377579
-3.1026928424835205 1.0201135873794556 -0.754036009311676 30.0 1 -0.07119184732437134
-2.9672701358795166 0.9761618971824646 0.16370689868927002 3.0 9 -0.07118954509496689
-2.687364101409912 0.8840793371200562 -0.5499115586280823 1.0 2 -0.07118723541498184
-3.1055874824523926 1.0222665071487427 0.2860451340675354 52.0 10 -0.07118493318557739
-2.3321533203125 0.7681262493133545 -0.388896107673645 1.0 3 -0.07118263095617294
-3.078775405883789 1.0146311521530151 0.3980253338813782 60.0 11 -0.0711803287267685
-2.354665517807007 0.7764520645141602 -0.30442965030670166 2.0 4 -0.07117801904678345
-3.098996162414551 1.022495150566101 0.5168595314025879 82.0 12 -0.071175716817379
-3.0835297107696533 1.0179880857467651 0.6311962008476257 71.0 13 -0.0711711123585701
-2.4350643157958984 0.8043773770332336 -0.13439874351024628 47.0 6 -0.07116881012916565
-3.0825839042663574 1.0188699960708618 0.7495369911193848 81.0 14 -0.0711665004491806
-2.931379556655884 0.9694615006446838 -0.05389302968978882 1.0 7 -0.07116419821977615
-3.0518481731414795 1.0098928213119507 0.8613498210906982 98.0 15 -0.0711618959903717
-2.9864466190338135 0.9923003315925598 -0.8432324528694153 4.0 0 -0.07114116102457047
-2.926057815551758 0.9728028178215027 0.05382322147488594 3.0 8 -0.07113885134458542
-3.1065099239349365 1.0333975553512573 -0.7558355927467346 29.0 1 -0.07113654911518097
-2.9657394886016846 0.9871444702148438 0.1638115644454956 3.0 9 -0.07113424688577652
-3.120903253555298 1.0393965244293213 0.2877882421016693 59.0 10 -0.07112963497638702
-2.3294577598571777 0.7762618064880371 -0.388896107673645 2.0 3 -0.07112733274698257
-3.0902795791625977 1.0303958654403687 0.3999752104282379 62.0 11 -0.07112503051757812
-2.348174571990967 0.7834102511405945 -0.30394217371940613 9.0 4 -0.07112272828817368
-3.0972819328308105 1.033932089805603 0.5171723961830139 87.0 12 -0.07112042605876923
-3.083681583404541 1.029990315437317 0.6319594383239746 71.0 13 -0.07111581414937973
-2.437924385070801 0.814771831035614 -0.13471277058124542 48.0 6 -0.07111351191997528
-3.0790085792541504 1.0296242237091064 0.7495369911193848 86.0 14 -0.07111120969057083
-2.9279775619506836 0.9796873927116394 -0.05389302968978882 1.0 7 -0.07110890001058578
-3.062959671020508 1.0254461765289307 0.8654909133911133 102.0 15 -0.07110659778118134
-2.9683151245117188 0.9977953433990479 -0.8390913605690002 4.0 0 -0.0710858628153801
-2.934016704559326 0.9868351817131042 0.05403264984488487 3.0 8 -0.07108356058597565
-3.1028835773468018 1.044235110282898 -0.7558355927467346 30.0 1 -0.0710812509059906
-2.9774181842803955 1.0025906562805176 0.16464893519878387 3.0 9 -0.07107894867658615
-2.3090059757232666 0.777515172958374 -0.4735879600048065 1.0 2 -0.0710766464471817
-3.10970401763916 1.0477389097213745 0.2870910167694092 58.0 10 -0.07107434421777725
-2.328605890274048 0.78501957654953 -0.38920900225639343 9.0 3 -0.0710720419883728
-3.097949743270874 1.0449836254119873 0.4014376401901245 62.0 11 -0.07106973230838776
-2.3322596549987793 0.7871585488319397 -0.30223599076271057 16.0 4 -0.0710674300789833
-3.0899109840393066 1.0434726476669312 0.5165466666221619 91.0 12 -0.07106512784957886
-3.0930871963500977 1.0451472997665405 0.6346307396888733 77.0 13 -0.07106051594018936
-2.107741355895996 0.7126110792160034 -0.1166045218706131 12.0 6 -0.07105821371078491
-3.0809335708618164 1.0422390699386597 0.7508866190910339 92.0 14 -0.07105591148138046
-2.9245400428771973 0.9899020195007324 -0.05389302968978882 1.0 7 -0.07105360925197601
-3.0575320720672607 1.035512089729309 0.8649733066558838 104.0 15 -0.07105129957199097
-2.9666433334350586 1.0087720155715942 -0.8396090269088745 4.0 0 -0.07103056460618973
-2.9419126510620117 1.000935435295105 0.054242078214883804 3.0 8 -0.07102826237678528
-3.110288143157959 1.0588287115097046 -0.7585350275039673 29.0 1 -0.07102596014738083
-2.989025354385376 1.0181288719177246 0.16548630595207214 3.0 9 -0.07102365791797638
-2.198490858078003 0.7488551139831543 -0.45145413279533386 1.0 2 -0.07102134823799133
-3.098484516143799 1.0560165643692017 0.28639376163482666 57.0 10 -0.07101904600858688
-2.2791101932525635 0.7772043347358704 -0.38138729333877563 9.0 3 -0.07101674377918243
-3.0961620807647705 1.0564323663711548 0.40168139338493347 67.0 11 -0.07101444154977798
-2.3201048374176025 0.7920875549316406 -0.30101728439331055 21.0 4 -0.07101213186979294
-3.0955960750579834 1.0574456453323364 0.5181110501289368 96.0 12 -0.07100982964038849
-3.0770065784454346 1.0510954856872559 -0.2844763398170471 25.0 5 -0.07100752741098404
-3.091277599334717 1.0565729141235352 0.6350123286247253 72.0 13 -0.07100522518157959
-2.0542163848876953 0.7025138735771179 -0.11377837508916855 60.0 6 -0.07100291550159454
-3.0846519470214844 1.0555109977722168 0.7526862621307373 92.0 14 -0.0710006132721901
-2.9475533962249756 1.0091729164123535 -0.05438169836997986 1.0 7 -0.07099831104278564
-3.0520713329315186 1.0455517768859863 0.8644556403160095 102.0 15 -0.0709960088133812
-2.9777185916900635 1.024147868156433 -0.8437501192092896 5.0 0 -0.07097527384757996
-2.934619188308716 1.009897232055664 0.054172269999980927 3.0 8 -0.07097296416759491
-3.1047306060791016 1.069044828414917 -0.7580850720405579 30.0 1 -0.07097066193819046
-2.993006467819214 1.0311585664749146 0.16590499877929688 3.0 9 -0.07096835970878601
-2.1902947425842285 0.7546062469482422 -0.45030924677848816 5.0 2 -0.07096605747938156
-3.102313756942749 1.0694231986999512 0.2870910167694092 59.0 10 -0.07096374779939651
-2.246504306793213 0.7748497128486633 -0.37638136744499207 11.0 3 -0.07096144556999207
-3.1018383502960205 1.0704708099365234 0.4029000997543335 71.0 11 -0.07095914334058762
-2.2929325103759766 0.7917590141296387 -0.2978487014770508 29.0 4 -0.07095684111118317
-3.1012215614318848 1.0714703798294067 0.5196753740310669 91.0 12 -0.07095453143119812
-3.075016736984253 1.0630165338516235 -0.28465065360069275 23.0 5 -0.07095222920179367
-3.0820045471191406 1.0654321908950806 0.6338675618171692 77.0 13 -0.07094992697238922
-2.04797625541687 0.7083749175071716 -0.11356903612613678 62.0 6 -0.07094762474298477
-3.0901565551757812 1.0694587230682373 0.7549358010292053 83.0 14 -0.07094531506299973
-2.917558193206787 1.0102944374084473 -0.05389302968978882 1.0 7 -0.07094301283359528
-3.0630059242248535 1.0612596273422241 0.8685967326164246 102.0 15 -0.07094071060419083
-2.9794180393218994 1.0369607210159302 -0.8453030586242676 5.0 0 -0.07091997563838959
-2.9386301040649414 1.022764801979065 0.05431189015507698 3.0 8 -0.07091767340898514
-3.1065011024475098 1.0817978382110596 -0.7594348192214966 29.0 1 -0.07091536372900009
-2.9893887042999268 1.041599988937378 0.16590499877929688 3.0 9 -0.07091306149959564
-2.1578528881073 0.752288818359375 -0.44420334696769714 8.0 2 -0.07091075927019119
-3.1096606254577637 1.084723949432373 0.28813689947128296 63.0 10 -0.07090845704078674
-2.2268640995025635 0.7772193551063538 -0.37356552481651306 12.0 3 -0.0709061473608017
-3.0868372917175293 1.0773669481277466 0.4014376401901245 73.0 11 -0.07090384513139725
-2.2639174461364746 0.7905955910682678 -0.29443636536598206 22.0 4 -0.0709015429019928
-3.1067869663238525 1.0855463743209839 0.521239697933197 91.0 12 -0.07089924067258835
-2.1177401542663574 0.7403770089149475 -0.19627472758293152 1.0 5 -0.0708969309926033
-3.091050624847412 1.0812596082687378 0.6365388631820679 85.0 13 -0.07089462876319885
-2.0397109985351562 0.7138965725898743 -0.11325501650571823 64.0 6 -0.0708923265337944
-3.0825376510620117 1.0794894695281982 0.754036009311676 89.0 14 -0.07089002430438995
-2.914013624191284 1.0204732418060303 -0.05389302968978882 1.0 7 -0.0708877220749855
-3.061105966567993 1.0725840330123901 0.8691143989562988 104.0 15 -0.07088541239500046
-2.9794251918792725 1.048636555671692 -0.8463383316993713 5.0 0 -0.07086467742919922
-2.961268186569214 1.0428268909454346 0.05480055510997772 3.0 8 -0.07086237519979477
-3.1172194480895996 1.0983567237854004 -0.7630340456962585 14.0 1 -0.07086007297039032
-2.9857349395751953 1.052027940750122 0.16590499877929688 3.0 9 -0.07085776329040527
-2.118182897567749 0.7467608451843262 -0.43657100200653076 20.0 2 -0.07085546106100082
-3.111492156982422 1.0975605249404907 0.28865981101989746 67.0 10 -0.07085315883159637
-2.2110979557037354 0.7803863286972046 -0.3713754713535309 14.0 3 -0.07085085660219193
-3.0940988063812256 1.092639684677124 0.4029000997543335 73.0 11 -0.07084854692220688
-2.233067274093628 0.7885777950286865 -0.29078027606010437 24.0 4 -0.07084624469280243
-3.1085660457611084 1.0983587503433228 0.5221782922744751 93.0 12 -0.07084394246339798
-2.098236560821533 0.7417885661125183 -0.19470593333244324 15.0 5 -0.07084164023399353
-3.098362684249878 1.0959702730178833 0.6388285160064697 85.0 13 -0.07083933800458908
-2.0447380542755127 0.7236777544021606 -0.11367370933294296 64.0 6 -0.07083702832460403
-3.080778121948242 1.0903551578521729 0.7544858455657959 92.0 14 -0.07083472609519958
-2.058415412902832 0.7289233207702637 -0.038116052746772766 3.0 7 -0.07083242386579514
-3.0755527019500732 1.0897139310836792 0.8742908239364624 104.0 15 -0.07083012163639069
-2.9613699913024902 1.053331732749939 -0.8421972393989563 5.0 0 -0.07080937922000885
-2.961561679840088 1.0539822578430176 0.0548703633248806 3.0 8 -0.0708070769906044
-3.1466047763824463 1.1204545497894287 -0.7711322903633118 1.0 1 -0.07080477476119995
-3.0123343467712402 1.0726430416107178 0.1675797551870346 3.0 9 -0.0708024725317955
-2.106447696685791 0.750486433506012 -0.43466290831565857 26.0 2 -0.07080017030239105
-3.115341901779175 1.1105486154556274 0.28935706615448 65.0 10 -0.070797860622406
-2.195474147796631 0.7830685973167419 -0.3691853880882263 18.0 3 -0.07079555839300156
-3.099806308746338 1.1062302589416504 0.40411877632141113 76.0 11 -0.0707932561635971
-2.196786880493164 0.7839689254760742 -0.2863929867744446 2.0 4 -0.07079095393419266
-3.1011860370635986 1.107332706451416 0.521552562713623 96.0 12 -0.07078864425420761
-2.07137393951416 0.7400279641151428 -0.19243988394737244 23.0 5 -0.07078634202480316
-3.1131982803344727 1.1128473281860352 0.6426447629928589 83.0 13 -0.07078403979539871
-2.049849271774292 0.7331448197364807 -0.1140923947095871 90.0 6 -0.07078173756599426
-3.0826501846313477 1.102534294128418 0.7558355927467346 89.0 14 -0.07077942788600922
-2.0390419960021973 0.7296814918518066 -0.03780191391706467 51.0 7 -0.07077712565660477
-3.068284273147583 1.0986043214797974 0.8732554912567139 104.0 15 -0.07077482342720032
-2.9669508934020996 1.0664128065109253 -0.8447853922843933 6.0 0 -0.07075408846139908
-2.9655773639678955 1.0665043592453003 0.05500998720526695 3.0 8 -0.07075178623199463
-3.010450839996338 1.0838289260864258 0.1676844209432602 2.0 9 -0.07074717432260513
-2.1371967792510986 0.7694382071495056 -0.44153204560279846 1.0 2 -0.07074487209320068
-3.1060187816619873 1.1188478469848633 0.2888341248035431 69.0 10 -0.07074256986379623
-2.185431718826294 0.787665605545044 -0.36793389916419983 4.0 3 -0.07074026018381119
-3.1129274368286133 1.1225641965866089 0.40631240606307983 89.0 11 -0.07073795795440674
-2.2239131927490234 0.802412211894989 -0.29029279947280884 1.0 4 -0.07073565572500229
-3.108449935913086 1.1221758127212524 0.523429811000824 93.0 12 -0.07073335349559784
-2.0595386028289795 0.7435102462768555 -0.19156832993030548 29.0 5 -0.07073104381561279
-3.102104663848877 1.1204971075057983 0.6411182284355164 82.0 13 -0.07072874158620834
-2.0474066734313965 0.7399384379386902 -0.1140923947095871 80.0 6 -0.0707264393568039
-3.095276355743408 1.1192522048950195 0.7598847150802612 99.0 14 -0.07072413712739944
-2.040243625640869 0.7381548881530762 -0.037871722131967545 78.0 7 -0.0707218274474144
-3.0626144409179688 1.1086505651474 0.8727378845214844 102.0 15 -0.07071952521800995
-2.9559473991394043 1.0741245746612549 -0.8427148461341858 6.0 0 -0.07069879025220871
-2.961836338043213 1.0768496990203857 0.05500998720526695 3.0 8 -0.07069648802280426
-3.0197865962982178 1.0991125106811523 0.16841712594032288 3.0 9 -0.07069187611341476
-3.1170711517333984 1.1351373195648193 0.29022860527038574 69.0 10 -0.07068727165460587
-3.0996646881103516 1.1300239562988281 0.4050937294960022 80.0 11 -0.07068265974521637
-3.108225107192993 1.1343740224838257 0.524055540561676 93.0 12 -0.07067805528640747
-2.0550589561462402 0.7500118017196655 -0.19139400124549866 33.0 5 -0.07067575305700302
-3.098174571990967 1.1313188076019287 0.6411182284355164 82.0 13 -0.07067344337701797
-2.044811248779297 0.7470808029174805 -0.1140923947095871 76.0 6 -0.07067114114761353
-3.107822895050049 1.1360715627670288 0.7639338374137878 100.0 14 -0.07066883891820908
-2.037654399871826 0.7452722191810608 -0.037871722131967545 68.0 7 -0.07066653668880463
-3.0677969455718994 1.1226539611816406 0.8753260374069214 106.0 15 -0.07066422700881958
-2.9340460300445557 1.0777751207351685 -0.8375384211540222 6.0 0 -0.07064349204301834
-2.9599361419677734 1.0878710746765137 0.05504488945007324 2.0 8 -0.07064118981361389
-3.0140573978424072 1.108957290649414 0.1683124452829361 2.0 9 -0.07063658535480499
-3.1243083477020264 1.1501401662826538 0.2912744879722595 80.0 10 -0.0706319734454155
-3.1050145626068115 1.1442691087722778 0.40631240606307983 93.0 11 -0.0706273689866066
-3.1135127544403076 1.1486355066299438 0.5256198644638062 91.0 12 -0.0706227570772171
-2.0636439323425293 0.7613183856010437 -0.19243988394737244 40.0 5 -0.07062045484781265
-3.105257272720337 1.1462056636810303 0.6434080004692078 85.0 13 -0.0706181526184082
-2.0403177738189697 0.7535215616226196 -0.11398772895336151 70.0 6 -0.07061584293842316
-3.0983545780181885 1.1448867321014404 0.7625840902328491 100.0 14 -0.07061354070901871
-2.0406672954559326 0.7544607520103455 -0.03797643631696701 72.0 7 -0.07061123847961426
-3.0783543586730957 1.1387176513671875 0.8794671893119812 104.0 15 -0.07060893625020981
-2.904911756515503 1.078595519065857 -0.8302915096282959 7.0 0 -0.07058820128440857
-2.0432288646698 0.7590579390525818 0.03804624453186989 5.0 8 -0.07058589160442352
-3.135591745376587 1.1661155223846436 0.17532546818256378 30.0 9 -0.07058128714561462
-3.1258761882781982 1.163123369216919 0.291797399520874 87.0 10 -0.07057667523622513
-3.1121628284454346 1.1592575311660767 0.4077748656272888 100.0 11 -0.07057207077741623
-2.215388536453247 0.8256566524505615 -0.29029279947280884 1.0 4 -0.07056976854801178
-3.111335277557373 1.160187005996704 0.5259327292442322 93.0 12 -0.07056745886802673
-2.0647072792053223 0.7699095010757446 -0.1927884966135025 8.0 5 -0.07056515663862228
-3.112274169921875 1.1611549854278564 0.6456976532936096 83.0 13 -0.07056285440921783
-2.037674903869629 0.7606396079063416 -0.11398772895336151 59.0 6 -0.07056055217981339
-3.083385944366455 1.151604175567627 0.7598847150802612 100.0 14 -0.07055824995040894
-2.023036003112793 0.7559791803359985 -0.0376971997320652 67.0 7 -0.07055594027042389
-3.088836908340454 1.154868721961975 0.8836082816123962 106.0 15 -0.07055363804101944
-2.8577206134796143 1.0724388360977173 -0.817868173122406 22.0 0 -0.0705329030752182
-2.036822557449341 0.7647801637649536 0.03797643631696701 47.0 8 -0.07053060084581375
-3.1427195072174072 1.1812700033187866 0.17595350742340088 66.0 9 -0.07052598893642426
-2.096842050552368 0.7881507277488708 -0.43542614579200745 1.0 2 -0.0705236867070198
-3.123661756515503 1.174729824066162 0.29197174310684204 100.0 10 -0.07052138447761536
-2.1058146953582764 0.7923623919487 -0.35635775327682495 1.0 3 -0.07051907479763031
-3.1155283451080322 1.1729116439819336 0.4087498188018799 100.0 11 -0.07051677256822586
-3.1091151237487793 1.1717363595962524 0.5262455940246582 98.0 12 -0.07051216810941696
-2.1701416969299316 0.8178642392158508 -0.2028985619544983 1.0 5 -0.07050986588001251
-3.1192238330841064 1.1761678457260132 0.6479873657226562 87.0 13 -0.07050755620002747
-2.0424818992614746 0.770567774772644 -0.11440641433000565 47.0 6 -0.07050525397062302
-3.104871988296509 1.1719940900802612 0.7661833167076111 100.0 14 -0.07050295174121857
-2.0241260528564453 0.7644498348236084 -0.03776700794696808 64.0 7 -0.07050064951181412
-3.0775580406188965 1.1629122495651245 0.881537675857544 108.0 15 -0.07049833983182907
-2.837702989578247 1.0762420892715454 -0.8132094740867615 41.0 0 -0.07047760486602783
-2.0210533142089844 0.7669188380241394 0.03773210570216179 55.0 8 -0.07047530263662338
-3.140443801879883 1.1929432153701782 0.17605817317962646 57.0 9 -0.07047069817781448
-2.0940778255462646 0.795465886592865 -0.43542614579200745 1.0 2 -0.07046838849782944
-3.12326717376709 1.1870412826538086 0.2923203408718109 91.0 10 -0.07046608626842499
-2.1030359268188477 0.7997083067893982 -0.35635775327682495 1.0 3 -0.07046378403902054
-3.115125894546509 1.1851924657821655 0.4092372953891754 100.0 11 -0.07046148180961609
-3.1142361164093018 1.1860976219177246 0.5278099179267883 93.0 12 -0.07045686990022659
-3.1150989532470703 1.1870496273040771 0.6479873657226562 87.0 13 -0.0704522654414177
-3.0898373126983643 1.1786577701568604 0.7634838819503784 100.0 14 -0.0704476535320282
-2.015840530395508 0.7693716883659363 -0.037662290036678314 52.0 7 -0.07044535130262375
-3.0734801292419434 1.173647165298462 0.881537675857544 106.0 15 -0.0704430490732193
-2.8357326984405518 1.0868324041366577 -0.813727080821991 45.0 0 -0.07042231410741806
-2.0127627849578857 0.7718210816383362 0.037627387791872025 64.0 8 -0.07042000442743301
-2.083244800567627 0.799265444278717 -0.5151379704475403 2.0 1 -0.07041770219802856
-3.149312973022461 1.2089076042175293 0.17679087817668915 56.0 9 -0.07041539996862411
-2.0912885665893555 0.8027702569961548 -0.43542614579200745 1.0 2 -0.07041309773921967
-3.1228246688842773 1.1993651390075684 0.29266899824142456 61.0 10 -0.07041078805923462
-2.026474714279175 0.7787022590637207 -0.343843013048172 1.0 3 -0.07040848582983017
-3.114675760269165 1.1974830627441406 0.40972477197647095 100.0 11 -0.07040618360042572
-2.058401346206665 0.7917951941490173 -0.27079370617866516 1.0 4 -0.07040388137102127
-3.110076427459717 1.1969619989395142 0.5278099179267883 85.0 12 -0.07040157169103622
-3.0907833576202393 1.1901551485061646 0.6437895894050598 78.0 13 -0.07039696723222733
-2.1339666843414307 0.8221454620361328 -0.11984935402870178 1.0 6 -0.07039466500282288
-3.078430652618408 1.1866334676742554 0.7616842985153198 85.0 14 -0.07039235532283783
-3.056748390197754 1.1795004606246948 0.8779142498970032 96.0 15 -0.07038775086402893
-2.839127540588379 1.0995150804519653 -0.8157976865768433 39.0 0 -0.07036701589822769
-2.087709903717041 0.8093500733375549 -0.5169375538825989 2.0 1 -0.0703624039888382
-3.143211603164673 1.2191712856292725 0.17668621242046356 39.0 9 -0.07036010175943375
-1.9859718084335327 0.7703076004981995 -0.4140555262565613 1.0 2 -0.0703577995300293
-3.090757369995117 1.199446201324463 0.2900542914867401 38.0 10 -0.07035549730062485
-2.025585412979126 0.7864862084388733 -0.34415584802627563 2.0 3 -0.0703531876206398
-3.0716187953948975 1.1932528018951416 0.40460625290870667 75.0 11 -0.07035088539123535
-2.0667264461517334 0.8032904863357544 -0.27225613594055176 1.0 4 -0.0703485831618309
-3.091151237487793 1.202082633972168 0.5253069996833801 85.0 12 -0.07034628093242645
-3.082951068878174 1.1995131969451904 0.6430263519287109 78.0 13 -0.07034166902303696
-1.944962978363037 0.7571361064910889 -0.10938216000795364 1.0 6 -0.07033936679363251
-3.0760860443115234 1.1980785131454468 0.7621342539787292 83.0 14 -0.07033706456422806
-3.0598113536834717 1.192970871925354 0.8799847960472107 92.0 15 -0.07033245265483856
-2.8422744274139404 1.1127300262451172 -0.817868173122406 34.0 0 -0.0702817440032959
-2.007188081741333 0.7862042784690857 0.037627387791872025 1.0 8 -0.07027944177389145
-2.1391611099243164 0.838327944278717 -0.5304346084594727 1.0 1 -0.070277139544487
-2.0678305625915527 0.810373842716217 0.11639518290758133 6.0 9 -0.07027482986450195
-1.9758245944976807 0.7747143507003784 -0.4125290811061859 1.0 2 -0.0702725276350975
-3.0974693298339844 1.215132236480713 0.2911001741886139 42.0 10 -0.07027022540569305
-2.064981698989868 0.8105049133300781 -0.3513518273830414 7.0 3 -0.0702679231762886
-3.070919990539551 1.2059540748596191 0.4050937294960022 67.0 11 -0.07026561349630356
-2.052682638168335 0.8065044283866882 -0.27079370617866516 1.0 4 -0.07026331126689911
-3.0795819759368896 1.2099759578704834 0.524055540561676 85.0 12 -0.07026100903749466
-2.091609239578247 0.8222202658653259 -0.19662334024906158 1.0 5 -0.07025870680809021
-3.0894956588745117 1.2151169776916504 0.6453160643577576 77.0 13 -0.07025639712810516
-2.0127992630004883 0.7920509576797485 -0.11335969716310501 1.0 6 -0.07025409489870071
-3.0662343502044678 1.2072032690048218 0.7607845067977905 81.0 14 -0.07025179266929626
-3.0628185272216797 1.2064766883850098 0.8820553421974182 94.0 15 -0.07024718075990677
-2.8599302768707275 1.1311718225479126 -0.8240798711776733 28.0 0 -0.07022644579410553
-2.0045697689056396 0.7928560972213745 0.037627387791872025 1.0 8 -0.07022414356470108
-2.8412444591522217 1.124354600906372 -0.7054465413093567 41.0 1 -0.07022184133529663
-2.0334200859069824 0.8050873875617981 0.11461575329303741 23.0 9 -0.07021953910589218
-1.9585058689117432 0.7758227586746216 -0.4094761312007904 1.0 2 -0.07021722942590714
-3.0932087898254395 1.2259371280670166 0.2911001741886139 42.0 10 -0.07021492719650269
-2.0641191005706787 0.8180761337280273 -0.3516647219657898 6.0 3 -0.07021262496709824
-3.085357666015625 1.2234476804733276 0.40753111243247986 82.0 11 -0.07021032273769379
-2.068448781967163 0.8206275105476379 -0.2732310891151428 1.0 4 -0.07020801305770874
-3.0753395557403564 1.220718502998352 0.524055540561676 85.0 12 -0.07020571082830429
-2.0776166915893555 0.8251037001609802 -0.1955774873495102 3.0 5 -0.07020340859889984
-3.089099168777466 1.2268033027648926 0.6460793018341064 77.0 13 -0.07020110636949539
-2.008305549621582 0.7979838848114014 -0.11325501650571823 1.0 6 -0.07019879668951035
-3.069457769393921 1.220244288444519 0.7625840902328491 86.0 14 -0.0701964944601059
-1.9881788492202759 0.790790855884552 -0.037348151206970215 1.0 7 -0.07019419223070145
-3.0514087677001953 1.214302659034729 0.8799847960472107 94.0 15 -0.070191890001297
-2.886662483215332 1.1528291702270508 -0.8328797221183777 14.0 0 -0.07017115503549576
-2.0017900466918945 0.7998486161231995 0.037627387791872025 1.0 8 -0.07016884535551071
-2.8354928493499756 1.1335415840148926 -0.704996645450592 51.0 1 -0.07016654312610626
-2.026888370513916 0.810697615146637 0.11440641433000565 23.0 9 -0.07016424089670181
-1.9741506576538086 0.7896040081977844 -0.4132923185825348 1.0 2 -0.07016193866729736
-3.0854268074035645 1.2347074747085571 0.29075154662132263 42.0 10 -0.07015962898731232
-2.050248146057129 0.8208704590797424 -0.34978750348091125 4.0 3 -0.07015732675790787
-3.0865960121154785 1.2364253997802734 0.40826234221458435 78.0 11 -0.07015502452850342
-3.0820610523223877 1.235856533050537 0.5259327292442322 85.0 12 -0.07015041261911392
-2.0933613777160645 0.8394040465354919 -0.1973206102848053 1.0 5 -0.07014811038970947
-3.0775091648101807 1.2346556186676025 0.6445528268814087 76.0 13 -0.07014580816030502
-2.0129220485687256 0.8079653382301331 -0.11367370933294296 9.0 6 -0.07014350593090057
-3.07422137260437 1.2345818281173706 0.7648336291313171 89.0 14 -0.07014120370149612
-1.9668514728546143 0.7902703285217285 -0.03699910268187523 2.0 7 -0.07013889402151108
-3.0435667037963867 1.2235057353973389 0.8789495229721069 94.0 15 -0.07013659179210663
-2.911285638809204 1.1744632720947266 -0.8411619663238525 14.0 0 -0.07011585682630539
-1.90626859664917 0.7694082260131836 0.035882145166397095 1.0 8 -0.07011355459690094
-2.817063093185425 1.1375949382781982 -0.7013974189758301 50.0 1 -0.0701112449169159
-2.0203425884246826 0.8162714838981628 0.11419706791639328 30.0 9 -0.07010894268751144
-1.9641011953353882 0.7935485243797302 -0.41176581382751465 1.0 2 -0.070106640458107
-3.0921812057495117 1.2499494552612305 0.291797399520874 41.0 10 -0.07010433822870255
-2.0546953678131104 0.8309847712516785 -0.35103899240493774 4.0 3 -0.0701020285487175
-3.082261085510254 1.247192144393921 0.40826234221458435 81.0 11 -0.07009972631931305
-2.0405890941619873 0.8261085748672485 -0.27030622959136963 3.0 4 -0.0700974240899086
-3.0850512981414795 1.2495744228363037 0.5271841883659363 82.0 12 -0.07009512186050415
-2.079338312149048 0.8422187566757202 -0.19627472758293152 2.0 5 -0.0700928196310997
-3.0640830993652344 1.241703987121582 0.6426447629928589 71.0 13 -0.07009050995111465
-1.9971328973770142 0.8097331523895264 -0.11294099688529968 10.0 6 -0.0700882077217102
-3.0789220333099365 1.2489687204360962 0.7670831084251404 86.0 14 -0.07008590549230576
-1.988168716430664 0.8069072961807251 -0.03745286539196968 8.0 7 -0.0700836032629013
-3.057176351547241 1.2413904666900635 0.8841258883476257 90.0 15 -0.07008129358291626
-2.9125356674194336 1.1868047714233398 -0.8427148461341858 12.0 0 -0.07006055861711502
-1.8813503980636597 0.7669986486434937 0.03546328842639923 1.0 8 -0.07005825638771057
-2.805856943130493 1.14447820186615 -0.6995978355407715 48.0 1 -0.07005595415830612
-2.0119335651397705 0.8210545182228088 0.11388305574655533 38.0 9 -0.07005364447832108
-1.9831321239471436 0.8093008399009705 -0.4163452684879303 1.0 2 -0.07005134224891663
-3.09517765045166 1.263748288154602 0.29249465465545654 41.0 10 -0.07004904001951218
-2.0444672107696533 0.8351643681526184 -0.34978750348091125 6.0 3 -0.07004673779010773
-3.0797269344329834 1.258694052696228 0.4085060954093933 82.0 11 -0.07004443556070328
-2.0193188190460205 0.8257132768630981 -0.26786884665489197 3.0 4 -0.07004212588071823
-3.087984085083008 1.263327717781067 0.5284357070922852 82.0 12 -0.07003982365131378
-2.05425763130188 0.8404189944267273 -0.19418299198150635 4.0 5 -0.07003752142190933
-3.059730052947998 1.252392053604126 0.6426447629928589 71.0 13 -0.07003521919250488
-2.0035359859466553 0.8204842209815979 -0.1134643703699112 9.0 6 -0.07003290951251984
-3.069133996963501 1.2574920654296875 0.7657334208488464 83.0 14 -0.07003060728311539
-1.9834896326065063 0.8130840063095093 -0.03741795942187309 7.0 7 -0.07002830505371094
-3.059973955154419 1.2549866437911987 0.886196494102478 92.0 15 -0.07002600282430649
-2.894083261489868 1.1910823583602905 -0.8385737538337708 10.0 0 -0.07000526040792465
-1.8712655305862427 0.7705156803131104 0.035323671996593475 1.0 8 -0.0700029581785202
-2.80364727973938 1.155007243156433 -0.7000477313995361 41.0 1 -0.07000065594911575
-1.9961292743682861 0.8227448463439941 0.11315035074949265 41.0 9 -0.0699983537197113
-2.005706787109375 0.8266923427581787 -0.42168790102005005 1.0 2 -0.06999605149030685
-3.1017990112304688 1.2791022062301636 0.2935405373573303 41.0 10 -0.06999374181032181
-2.045191526412964 0.8438021540641785 -0.3504132330417633 6.0 3 -0.06999143958091736
-3.078984260559082 1.2709516286849976 0.40899354219436646 83.0 11 -0.06998913735151291
-2.021928310394287 0.835030734539032 -0.2686000466346741 3.0 4 -0.06998683512210846
-3.085380792617798 1.2748534679412842 0.5287485718727112 53.0 12 -0.06998452544212341
-2.0494699478149414 0.8468237519264221 -0.19400867819786072 7.0 5 -0.06998222321271896
-3.071668863296509 1.2698146104812622 0.6460793018341064 67.0 13 -0.06997992098331451
-2.0080418586730957 0.8305267691612244 -0.11388305574655533 9.0 6 -0.06997761875391006
-3.061124324798584 1.2667076587677002 0.7648336291313171 83.0 14 -0.06997530907392502
-1.9732491970062256 0.8169426321983337 -0.03727834299206734 7.0 7 -0.06997300684452057
-3.062713623046875 1.2686175107955933 0.8882669806480408 88.0 15 -0.06997070461511612
-2.8934757709503174 1.2026604413986206 -0.8396090269088745 9.0 0 -0.06994996964931488
-1.8685643672943115 0.7770429849624634 0.035323671996593475 1.0 8 -0.06994766741991043
-2.0007660388946533 0.8324286341667175 0.11356903612613678 51.0 9 -0.06994305551052094
-1.991933822631836 0.8291617631912231 -0.4193982183933258 2.0 2 -0.06994075328111649
-3.0973153114318848 1.289921760559082 0.2935405373573303 41.0 10 -0.06993845105171204
-2.054997682571411 0.8562544584274292 -0.35260334610939026 6.0 3 -0.06993614137172699
-3.0910191535949707 1.2885658740997314 0.41118720173835754 81.0 11 -0.06993383914232254
-2.0063223838806152 0.8363838791847229 -0.2668938934803009 2.0 4 -0.06993153691291809
-2.0299532413482666 0.8470667600631714 -0.19243988394737244 3.0 5 -0.0699269250035286
-3.07808780670166 1.2850673198699951 0.6483690142631531 66.0 13 -0.06992462277412415
-2.0069735050201416 0.838300883769989 -0.11398772895336151 9.0 6 -0.0699223205447197
-3.0640997886657715 1.2798562049865723 0.7666332721710205 78.0 14 -0.06992001831531525
-1.959458589553833 0.8188552856445312 -0.03706891089677811 7.0 7 -0.0699177086353302
-3.046013593673706 1.2735507488250732 0.8846435546875 82.0 15 -0.06991540640592575
-2.8787829875946045 1.2077646255493164 -0.8365032076835632 7.0 0 -0.06989467144012451
-1.8733528852462769 0.7863304615020752 0.03546328842639923 2.0 8 -0.06989236921072006
-1.992470145225525 0.8367389440536499 0.11325501650571823 53.0 9 -0.06988775730133057
-2.000033140182495 0.840325653553009 -0.42168790102005005 3.0 2 -0.06988545507192612
-3.096693754196167 1.3017308712005615 0.2938891649246216 41.0 10 -0.06988315284252167
-2.03393816947937 0.8554064631462097 -0.34947463870048523 6.0 3 -0.06988085061311722
-3.0995371341705322 1.3041983842849731 0.4128933846950531 82.0 11 -0.06987854093313217
-2.032813310623169 0.855350911617279 -0.27079370617866516 2.0 4 -0.06987623870372772
-2.0918991565704346 0.8806428909301758 0.3594864308834076 1.0 12 -0.06987393647432327
-2.0308051109313965 0.8553404211997986 -0.1927884966135025 5.0 5 -0.06987163424491882
-3.077427864074707 1.2967923879623413 0.649132251739502 67.0 13 -0.06986932456493378
-1.994980812072754 0.8410723209381104 -0.1134643703699112 6.0 6 -0.06986702233552933
-3.068817138671875 1.2937954664230347 0.7688827514648438 81.0 14 -0.06986472010612488
-1.954890251159668 0.8245716691017151 -0.03703400865197182 10.0 7 -0.06986241787672043
-3.0453333854675293 1.2851462364196777 0.8856788277626038 82.0 15 -0.06986011564731598
-2.87831974029541 1.21881103515625 -0.8375384211540222 9.0 0 -0.06983937323093414
-1.8688937425613403 0.7917584180831909 0.03542838618159294 2.0 8 -0.0698370710015297
-1.9932149648666382 0.8452484607696533 0.1134643703699112 53.0 9 -0.0698324665427208
-2.004317045211792 0.8503686785697937 -0.4232143759727478 3.0 2 -0.06983015686273575
-3.0941944122314453 1.3127694129943848 0.2940634489059448 40.0 10 -0.0698278546333313
-2.025635242462158 0.8598310947418213 -0.34853604435920715 8.0 3 -0.06982555240392685
-3.0860595703125 1.3105900287628174 0.4116746783256531 57.0 11 -0.0698232501745224
-2.0480856895446777 0.8702039122581482 -0.2732310891151428 2.0 4 -0.06982094049453735
-2.0397284030914307 0.8670738339424133 0.35103899240493774 2.0 12 -0.0698186382651329
-2.013139486312866 0.856186032295227 -0.19139400124549866 6.0 5 -0.06981633603572845
-3.062042713165283 1.302915334701538 0.6468425393104553 65.0 13 -0.069814033806324
-2.003058671951294 0.8527244329452515 -0.1140923947095871 6.0 6 -0.06981173157691956
-3.0786266326904297 1.3106056451797485 0.7724819779396057 81.0 14 -0.06980942189693451
-1.9630383253097534 0.836091935634613 -0.03724343329668045 6.0 7 -0.06980711966753006
-3.055046558380127 1.3018280267715454 0.8898199200630188 80.0 15 -0.06980481743812561
-2.884490728378296 1.2339105606079102 -0.8406442999839783 7.0 0 -0.06978408247232437
-1.8788478374481201 0.8041110038757324 0.03567272052168846 2.0 8 -0.06978177279233932
-3.1385750770568848 1.3438974618911743 -0.7882285714149475 15.0 1 -0.06977947056293488
-1.9827598333358765 0.8494023680686951 0.11304567754268646 55.0 9 -0.06977716833353043
-1.9993820190429688 0.8569362759590149 -0.42283275723457336 3.0 2 -0.06977486610412598
-3.1040122509002686 1.3303812742233276 0.29545795917510986 38.0 10 -0.06977255642414093
-2.0242857933044434 0.8680276870727539 -0.3488488793373108 10.0 3 -0.06977025419473648
-2.019343852996826 0.8667435646057129 -0.2698187232017517 1.0 4 -0.06976564973592758
-2.038351535797119 0.8753233551979065 0.3513518273830414 2.0 12 -0.06976334750652313
-2.015479564666748 0.8659182786941528 -0.19191694259643555 7.0 5 -0.06976103782653809
-3.075284004211426 1.321881890296936 0.6506586670875549 13.0 13 -0.06975873559713364
-1.9889112710952759 0.8553260564804077 -0.1134643703699112 6.0 6 -0.06975643336772919
-3.0791728496551514 1.3241901397705078 0.7738316655158997 83.0 14 -0.06975413113832474
-1.9636342525482178 0.8448618650436401 -0.03731324523687363 6.0 7 -0.06975182145833969
-3.060901403427124 1.3175987005233765 0.8929257392883301 76.0 15 -0.06974951922893524
-2.8781754970550537 1.2437082529067993 -0.840126633644104 7.0 0 -0.069728784263134
-1.8777236938476562 0.8117850422859192 0.03570762276649475 3.0 8 -0.06972648203372955
-1.974283218383789 0.8539396524429321 0.11273165792226791 62.0 9 -0.06972187012434006
-2.0035862922668457 0.8670286536216736 -0.4243592619895935 3.0 2 -0.06971956789493561
-3.108257293701172 1.3457063436508179 0.296329528093338 41.0 10 -0.06971726566553116
-2.030153512954712 0.8793673515319824 -0.3504132330417633 11.0 3 -0.06971496343612671
-2.0982697010040283 0.909307062625885 0.28078699111938477 9.0 11 -0.06971265375614166
-2.0272345542907715 0.8785232305526733 -0.2712811827659607 1.0 4 -0.06971035152673721
-2.022597074508667 0.8769328594207764 0.3491617739200592 2.0 12 -0.06970804929733276
-2.017928123474121 0.875326931476593 -0.19243988394737244 7.0 5 -0.06970574706792831
-2.087322235107422 0.9058612585067749 0.44229528307914734 1.0 13 -0.06970343738794327
-1.9749212265014648 0.8574907779693604 -0.1128363311290741 9.0 6 -0.06970113515853882
-3.0638067722320557 1.3302738666534424 0.7711322903633118 78.0 14 -0.06969883292913437
-1.9643418788909912 0.8533047437667847 -0.0373830571770668 8.0 7 -0.06969653069972992
-3.0633704662323 1.3313554525375366 0.8949962854385376 76.0 15 -0.06969422101974487
-2.8510148525238037 1.2432076930999756 -0.833397388458252 6.0 0 -0.06967348605394363
-1.8786872625350952 0.8196067810058594 0.03577743470668793 4.0 8 -0.06967118382453918
-2.2843260765075684 0.9970482587814331 -0.57542484998703 1.0 1 -0.06966888159513474
-1.9769322872161865 0.8628789186477661 0.11304567754268646 70.0 9 -0.06966657936573029
-1.9935027360916138 0.8705257177352905 -0.42283275723457336 3.0 2 -0.06966426968574524
-3.1037776470184326 1.356006383895874 0.296329528093338 41.0 10 -0.06966196745634079
-2.0362765789031982 0.8900507092475891 -0.3519775867462158 11.0 3 -0.06965966522693634
-2.0643234252929688 0.9027389883995056 0.27664345502853394 34.0 11 -0.06965736299753189
-2.0097596645355225 0.8788779973983765 -0.26933127641677856 1.0 4 -0.06965505331754684
-2.0015807151794434 0.8757169246673584 0.34603309631347656 2.0 12 -0.0696527510881424
-1.998587727546692 0.8748235702514648 -0.19087107479572296 7.0 5 -0.06965044885873795
-2.0627264976501465 0.903327465057373 0.4377158582210541 1.0 13 -0.0696481466293335
-1.975725769996643 0.8656377196311951 -0.11304567754268646 9.0 6 -0.06964583694934845
-3.071873426437378 1.3459001779556274 0.7742815613746643 81.0 14 -0.069643534719944
-1.9633326530456543 0.86061692237854 -0.03741795942187309 9.0 7 -0.06964123249053955
-3.0554003715515137 1.3399549722671509 0.8939610123634338 76.0 15 -0.0696389302611351
-2.929983615875244 1.289223313331604 -0.8577263355255127 1.0 0 -0.06961819529533386
-1.8576568365097046 0.8177753686904907 0.03542838618159294 4.0 8 -0.06961588561534882
-2.2810075283050537 1.00461745262146 -0.57542484998703 1.0 1 -0.06961358338594437
-1.9739081859588623 0.8697745203971863 0.11304567754268646 70.0 9 -0.06961128115653992
-1.9959949254989624 0.8795067071914673 -0.4239776134490967 3.0 2 -0.06960897892713547
-3.099263906478882 1.3662916421890259 0.296329528093338 41.0 10 -0.06960666924715042
-2.0224692821502686 0.8920154571533203 -0.3501003682613373 11.0 3 -0.06960436701774597
-2.0776638984680176 0.9167922139167786 0.27883708477020264 48.0 11 -0.06960206478834152
-2.0103118419647217 0.8874910473823547 -0.2698187232017517 1.0 4 -0.06959976255893707
-1.9912835359573364 0.879506528377533 0.3447815775871277 2.0 12 -0.06959745287895203
-1.988385558128357 0.8782265186309814 -0.19017383456230164 8.0 5 -0.06959515064954758
-2.0238046646118164 0.8942925930023193 0.4300835132598877 1.0 13 -0.06959284842014313
-1.9801511764526367 0.8754152059555054 -0.1134643703699112 8.0 6 -0.06959054619073868
-3.0760672092437744 1.360556960105896 0.7765311002731323 83.0 14 -0.06958823651075363
-1.9530020952224731 0.8642282485961914 -0.03727834299206734 10.0 7 -0.06958593428134918
-3.0542376041412354 1.3521755933761597 0.8949962854385376 76.0 15 -0.06958363205194473
-1.8511360883712769 0.8226307034492493 0.035358574241399765 5.0 8 -0.06956059485673904
-1.9690351486206055 0.8758471608161926 0.11294099688529968 68.0 9 -0.06955598294734955
-1.9982943534851074 0.8888619542121887 -0.42512246966362 3.0 2 -0.0695536807179451
-3.1090381145477295 1.383582353591919 0.29772400856018066 41.0 10 -0.06955137848854065
-2.0229525566101074 0.9006767868995667 -0.35072609782218933 11.0 3 -0.0695490688085556
-2.0762643814086914 0.924846351146698 0.2790808379650116 42.0 11 -0.06954676657915115
-2.0144546031951904 0.8977351784706116 -0.27079370617866516 1.0 4 -0.0695444643497467
-1.9990265369415283 0.8912785649299622 0.3466588258743286 3.0 12 -0.06954216212034225
-1.9834879636764526 0.884350597858429 -0.1899995058774948 9.0 5 -0.06953985244035721
-2.0027413368225098 0.893353283405304 0.4262673258781433 1.0 13 -0.06953755021095276
-1.966139793395996 0.8774386644363403 -0.1128363311290741 9.0 6 -0.06953524798154831
-3.0819759368896484 1.3760532140731812 0.779230535030365 78.0 14 -0.06953294575214386
-1.9554511308670044 0.8734865784645081 -0.0373830571770668 9.0 7 -0.06953064352273941
-3.056553602218628 1.3659824132919312 0.8970668315887451 74.0 15 -0.06952833384275436
-1.8519026041030884 0.8307238221168518 0.03542838618159294 4.0 8 -0.06950529664754868
-2.2739384174346924 1.020517349243164 -0.57542484998703 1.0 1 -0.06950299441814423
-1.9568558931350708 0.8786247968673706 0.11241763830184937 70.0 9 -0.06950068473815918
-2.011298179626465 0.9030693173408508 -0.42855700850486755 3.0 2 -0.06949838250875473
-3.11509370803833 1.3993257284164429 0.29876989126205444 28.0 10 -0.06949608027935028
-2.0252017974853516 0.910161554813385 -0.3516647219657898 11.0 3 -0.06949377804994583
-2.0621602535247803 0.927203893661499 0.2776183784008026 25.0 11 -0.06949146836996078
-2.018549680709839 0.908019483089447 -0.2717686593532562 1.0 4 -0.06948916614055634
-1.9923006296157837 0.8966292142868042 0.34603309631347656 4.0 12 -0.06948686391115189
-1.99129056930542 0.8961746096611023 -0.1910453885793686 10.0 5 -0.06948456168174744
-2.038994073867798 0.9180713891983032 0.43466290831565857 1.0 13 -0.06948225945234299
-1.9539598226547241 0.880194902420044 -0.11231297254562378 10.0 6 -0.06947994977235794
-3.0664939880371094 1.381998062133789 0.7765311002731323 78.0 14 -0.06947764754295349
-1.9432752132415771 0.876197338104248 -0.03720853105187416 7.0 7 -0.06947534531354904
-3.0588107109069824 1.3798210620880127 0.8991374373435974 74.0 15 -0.06947304308414459
-2.217602491378784 1.0036158561706543 -0.652224063873291 2.0 0 -0.06945230066776276
-1.8599214553833008 0.8421325087547302 0.03563781455159187 5.0 8 -0.0694499984383583
-2.2029080390930176 0.9978928565979004 -0.5583285689353943 13.0 1 -0.06944769620895386
-1.9519577026367188 0.8846257328987122 0.11231297254562378 66.0 9 -0.06944539397954941
-1.9938280582427979 0.9036012887954712 -0.42550405859947205 3.0 2 -0.06944309175014496
-2.1974568367004395 0.9963480234146118 0.21109120547771454 1.0 10 -0.06944078207015991
-2.0238113403320312 0.9180413484573364 -0.3519775867462158 11.0 3 -0.06943847984075546
-2.040834665298462 0.9261929392814636 0.27518099546432495 13.0 11 -0.06943617761135101
-1.9719878435134888 0.8953632116317749 -0.26591894030570984 1.0 4 -0.06943387538194656
-1.974770426750183 0.8970423936843872 0.3435301184654236 3.0 12 -0.06943156570196152
-1.9754520654678345 0.8973519802093506 -0.18982520699501038 8.0 5 -0.06942926347255707
-2.071523427963257 0.9414293766021729 0.44229528307914734 1.0 13 -0.06942696124315262
-1.9490574598312378 0.8861830234527588 -0.1122082993388176 12.0 6 -0.06942465901374817
-3.0616512298583984 1.3926937580108643 0.7765311002731323 71.0 14 -0.06942234933376312
-1.9201836585998535 0.8738644123077393 -0.036824580281972885 8.0 7 -0.06942004710435867
-3.0680415630340576 1.3968932628631592 0.9032785296440125 76.0 15 -0.06941774487495422
-2.2193567752838135 1.0137590169906616 -0.6537768840789795 1.0 0 -0.06939700990915298
-1.8569704294204712 0.8486196994781494 0.03563781455159187 5.0 8 -0.06939470767974854
-2.1834609508514404 0.9982837438583374 -0.5542794466018677 3.0 1 -0.06939239799976349
-1.9506741762161255 0.8922647833824158 0.11241763830184937 70.0 9 -0.06939009577035904
-2.0156569480895996 0.9219887256622314 -0.4308467507362366 4.0 2 -0.06938779354095459
-2.1251211166381836 0.972507655620575 0.20446737110614777 1.0 10 -0.06938549131155014
-2.0277788639068604 0.9283895492553711 -0.3532290756702423 11.0 3 -0.0693831816315651
-2.0448081493377686 0.9366178512573242 0.276155948638916 2.0 11 -0.06938087940216064
-2.0121614933013916 0.9220889806747437 -0.2717686593532562 1.0 4 -0.0693785771727562
-1.9644445180892944 0.9006372094154358 0.3422786593437195 2.0 12 -0.06937627494335175
-1.9721498489379883 0.9045863747596741 -0.18982520699501038 9.0 5 -0.0693739652633667
-2.0682249069213867 0.9486541152000427 0.44229528307914734 1.0 13 -0.06937166303396225
-1.9532134532928467 0.8963132500648499 -0.11262699216604233 11.0 6 -0.0693693608045578
-3.0727102756500244 1.4106903076171875 0.7805802226066589 75.0 14 -0.06936705857515335
-1.9189389944076538 0.8813959956169128 -0.036859482526779175 9.0 7 -0.0693647488951683
-3.0613913536071777 1.406787633895874 0.9027608633041382 72.0 15 -0.06936244666576385
-1.8467334508895874 0.8517466187477112 0.03549819439649582 6.0 8 -0.06933940947055817
-3.1478521823883057 1.4525113105773926 -0.8003758788108826 7.0 1 -0.06933710724115372
-1.9511744976043701 0.9007428884506226 0.11262699216604233 70.0 9 -0.06933479756116867
-2.010481595993042 0.9285470843315125 -0.43046510219573975 5.0 2 -0.06933249533176422
-2.0546226501464844 0.9493682384490967 0.19801783561706543 9.0 10 -0.06933019310235977
-2.004638910293579 0.9266976714134216 -0.34978750348091125 11.0 3 -0.06932789087295532
-2.019904136657715 0.9337543845176697 0.2732310891151428 2.0 11 -0.06932558119297028
-2.0089304447174072 0.9291072487831116 -0.2717686593532562 1.0 4 -0.06932327896356583
-1.9559104442596436 0.9050004482269287 0.3413400650024414 1.0 12 -0.06932097673416138
-1.9707881212234497 0.9123019576072693 -0.1899995058774948 9.0 5 -0.06931867450475693
-1.9390419721603394 0.898428201675415 -0.11199896037578583 10.0 6 -0.06931406259536743
-3.0816633701324463 1.4284993410110474 0.7841793894767761 75.0 14 -0.06931176036596298
-1.9231077432632446 0.8914530873298645 -0.03699910268187523 10.0 7 -0.06930945813655853
-3.0582146644592285 1.4182782173156738 0.9032785296440125 74.0 15 -0.06930714845657349
-2.8530664443969727 1.327981948852539 -0.8432324528694153 1.0 0 -0.06928641349077225
-1.8327223062515259 0.8534445762634277 0.03528876602649689 5.0 8 -0.0692841112613678
