# .PCD v0.7 - Point Cloud Data file format
VERSION 0.7
FIELDS x y z intensity ring time
SIZE 4 4 4 4 4 4
TYPE F F F F F F
COUNT 1 1 1 1 1 1
WIDTH 542
HEIGHT 1
VIEWPOINT 0 0 0 1 0 0 0
POINTS 542
DATA ascii
-2.6939892768859863 -1.9941754341125488 0.8981021642684937 63.0 15 -0.07166004925966263
-2.2927119731903076 -1.6921875476837158 0.04973935708403587 25.0 8 -0.07163701206445694
-1.847251534461975 -1.3629066944122314 -0.529984712600708 1.0 1 -0.07163470983505249
-2.6843156814575195 -1.9797712564468384 0.17480210959911346 7.0 9 -0.07163240760564804
-2.4000322818756104 -1.7701027393341064 -0.5796777606010437 29.0 2 -0.071630097925663
-2.7518835067749023 -2.028864622116089 0.2991184890270233 42.0 10 -0.07162779569625854
-2.7249302864074707 -2.007524251937866 0.41557449102401733 15.0 11 -0.07162319123744965
-2.7361526489257812 -2.0143189430236816 0.5381346344947815 41.0 12 -0.07161857932806015
-2.7086424827575684 -1.9933372735977173 0.6537116169929504 8.0 13 -0.07161397486925125
-2.2571768760681152 -1.6604887247085571 -0.1468547135591507 10.0 6 -0.0716116651892662
-2.7269866466522217 -2.0053703784942627 0.7814800143241882 77.0 14 -0.07160936295986176
-2.207340955734253 -1.6226400136947632 -0.0478195957839489 10.0 7 -0.0716070607304573
-2.6993775367736816 -1.9836148023605347 0.8975844979286194 67.0 15 -0.07160475850105286
-2.295379161834717 -1.6818097829818726 0.049669548869132996 35.0 8 -0.07158171385526657
-1.85199773311615 -1.3564503192901611 -0.529984712600708 1.0 1 -0.07157941162586212
-2.676706075668335 -1.959770917892456 0.1738600730895996 6.0 9 -0.07157710939645767
-2.4109482765197754 -1.765194296836853 -0.5808225870132446 28.0 2 -0.07157480716705322
-2.7557337284088135 -2.0168919563293457 0.29876989126205444 46.0 10 -0.07157249748706818
-2.7287163734436035 -1.995656967163086 0.4150870144367218 19.0 11 -0.07156789302825928
-2.7351930141448975 -1.9989278316497803 0.5365702509880066 48.0 12 -0.07156328111886978
-2.7266805171966553 -1.9919776916503906 0.6563829779624939 10.0 13 -0.07155867666006088
-2.2790887355804443 -1.6643785238265991 -0.14790143072605133 19.0 6 -0.07155637443065643
-2.7103607654571533 -1.978603720664978 0.7747315168380737 78.0 14 -0.07155407220125198
-2.2081453800201416 -1.6113892793655396 -0.04771488159894943 12.0 7 -0.07155176252126694
-2.706284761428833 -1.9741806983947754 0.8975844979286194 69.0 15 -0.07154946029186249
-2.299618721008301 -1.6726107597351074 0.04963464289903641 27.0 8 -0.0715264230966568
-1.8567211627960205 -1.349977731704712 -0.529984712600708 1.0 1 -0.07152411341667175
-2.683530569076538 -1.9504154920578003 0.1738600730895996 6.0 9 -0.0715218111872673
-2.4313879013061523 -1.7671557664871216 -0.5842571258544922 25.0 2 -0.07151950895786285
-2.7482504844665527 -1.9967204332351685 0.2972010672092438 48.0 10 -0.0715172067284584
-2.729240894317627 -1.9814542531967163 0.41411206126213074 22.0 11 -0.07151259481906891
-2.7293622493743896 -1.9800888299942017 0.5340673327445984 53.0 12 -0.07150799036026001
-2.719313859939575 -1.9720735549926758 0.6529484391212463 11.0 13 -0.07150337845087051
-2.278416395187378 -1.6517237424850464 -0.1474827378988266 16.0 6 -0.07150107622146606
-2.715672492980957 -1.9679877758026123 0.7742815613746643 75.0 14 -0.07149877399206161
-2.26881742477417 -1.6435571908950806 -0.048901643604040146 18.0 7 -0.07149647176265717
-2.697512626647949 -1.9533913135528564 0.8924081325531006 70.0 15 -0.07149416208267212
-2.290851593017578 -1.654038667678833 0.04932050406932831 12.0 8 -0.07147112488746643
-1.9404298067092896 -1.4005123376846313 -0.5524798035621643 1.0 1 -0.07146882265806198
-2.6835057735443115 -1.9368301630020142 0.17344138026237488 6.0 9 -0.07146651297807693
-2.458239793777466 -1.7735904455184937 -0.5892181992530823 2.0 2 -0.07146421074867249
-2.739043712615967 -1.9754610061645508 0.29545795917510986 56.0 10 -0.07146190851926804
-2.7377512454986572 -1.9730757474899292 0.4143557846546173 33.0 11 -0.07145730406045914
-2.7343108654022217 -1.969872236251831 0.5337544679641724 56.0 12 -0.07145269215106964
-2.7261810302734375 -1.9625693559646606 0.6529484391212463 15.0 13 -0.07144808769226074
-2.2906525135040283 -1.6484274864196777 -0.14790143072605133 21.0 6 -0.0714457780122757
-2.7209439277648926 -1.95735764503479 0.7738316655158997 78.0 14 -0.07144347578287125
-2.285618543624878 -1.6441987752914429 -0.049145977944135666 21.0 7 -0.0714411735534668
-2.6945650577545166 -1.9376678466796875 0.8893022537231445 72.0 15 -0.07143887132406235
-1.7160148620605469 -1.2303591966629028 -0.5657784342765808 1.0 0 -0.07141812890768051
-2.232943534851074 -1.600989818572998 0.047959212213754654 24.0 8 -0.07141582667827606
-2.696744441986084 -1.9321039915084839 0.1738600730895996 6.0 9 -0.07141122221946716
-2.745922565460205 -1.9658879041671753 0.29545795917510986 58.0 10 -0.07140661031007767
-2.7329792976379395 -1.9558991193771362 0.41264963150024414 37.0 11 -0.07140200585126877
-2.7411701679229736 -1.9603157043457031 0.5337544679641724 61.0 12 -0.07139739394187927
-2.7230916023254395 -1.9466677904129028 0.6506586670875549 15.0 13 -0.07139278948307037
-2.2831063270568848 -1.6315324306488037 -0.14706405997276306 19.0 6 -0.07139048725366592
-2.730591058731079 -1.9505900144577026 0.7747315168380737 89.0 14 -0.07138817757368088
-2.279952049255371 -1.6280757188796997 -0.048901643604040146 17.0 7 -0.07138587534427643
-2.699740171432495 -1.9271278381347656 0.888784646987915 78.0 15 -0.07138357311487198
-2.232001543045044 -1.5885475873947144 0.0478195957839489 29.0 8 -0.07136053591966629
-2.683940887451172 -1.9087882041931152 0.17260399460792542 6.0 9 -0.0713559240102768
-2.7540504932403564 -1.9579256772994995 0.2956322729587555 61.0 10 -0.0713513195514679
-2.7349345684051514 -1.9428991079330444 0.41191840171813965 45.0 11 -0.0713467076420784
-2.74155330657959 -1.9461612701416016 0.5325029492378235 61.0 12 -0.0713421031832695
-2.7238028049468994 -1.9321311712265015 0.649132251739502 18.0 13 -0.07133749127388
-2.2907004356384277 -1.6243081092834473 -0.14716872572898865 15.0 6 -0.07133518904447556
-2.7246665954589844 -1.9320282936096191 0.7711322903633118 89.0 14 -0.0713328868150711
-2.287252902984619 -1.6212637424468994 -0.048936549574136734 20.0 7 -0.07133057713508606
-2.7064502239227295 -1.91769278049469 0.888784646987915 76.0 15 -0.07132827490568161
-2.242709159851074 -1.5838167667388916 0.047924306243658066 31.0 8 -0.07130523771047592
-2.6909191608428955 -1.8989382982254028 0.17260399460792542 5.0 9 -0.07130062580108643
-2.7514398097991943 -1.940927505493164 0.2945863902568817 61.0 10 -0.07129602134227753
-2.7436599731445312 -1.9340054988861084 0.4121621549129486 53.0 11 -0.07129140943288803
-2.743823289871216 -1.9326872825622559 0.5315644145011902 63.0 12 -0.07128680497407913
-2.7308664321899414 -1.922134280204773 0.649132251739502 25.0 13 -0.07128219306468964
-2.308072328567505 -1.6239469051361084 -0.14790143072605133 11.0 6 -0.07127989083528519
-2.7141973972320557 -1.9096944332122803 0.7661833167076111 81.0 14 -0.07127758860588074
-2.29154372215271 -1.6117196083068848 -0.048901643604040146 24.0 7 -0.07127528637647629
-2.703979015350342 -1.9010931253433228 0.8856788277626038 80.0 15 -0.07127298414707184
-2.246861696243286 -1.5744385719299316 0.047889403998851776 35.0 8 -0.07124993950128555
-1.5626006126403809 -1.0945518016815186 -0.4404541850090027 0.0 1 -0.0712476372718811
-2.6945888996124268 -1.886771559715271 0.17239466309547424 4.0 9 -0.07124533504247665
-1.593730092048645 -1.1159417629241943 -0.3781834542751312 0.0 2 -0.07124302536249161
-2.75363826751709 -1.927402377128601 0.2940634489059448 66.0 10 -0.07124072313308716
-2.7425966262817383 -1.9182476997375488 0.41094347834587097 63.0 11 -0.07123611867427826
-2.737936019897461 -1.9135640859603882 0.5290614366531372 63.0 12 -0.07123150676488876
-2.3483502864837646 -1.641279697418213 -0.25065991282463074 2.0 5 -0.07122920453548431
-2.739168405532837 -1.9137150049209595 0.649513840675354 30.0 13 -0.07122690230607986
-2.3235514163970947 -1.62274169921875 -0.14852945506572723 7.0 6 -0.07122460007667542
-2.7211790084838867 -1.8997328281402588 0.7661833167076111 81.0 14 -0.07122229039669037
-2.3203935623168945 -1.6193315982818604 -0.049390312284231186 28.0 7 -0.07121998816728592
-2.7014217376708984 -1.8845385313034058 0.8825729489326477 78.0 15 -0.07121768593788147
-1.6761493682861328 -1.166256070137024 -0.5471434593200684 1.0 0 -0.07119695097208023
-2.2441351413726807 -1.5608773231506348 0.04771488159894943 39.0 8 -0.07119464129209518
-2.69787859916687 -1.8750745058059692 0.17218531668186188 4.0 9 -0.07119003683328629
-2.7472591400146484 -1.9086849689483643 0.29266899824142456 66.0 10 -0.07118542492389679
-2.750906467437744 -1.909794569015503 0.41118720173835754 66.0 11 -0.07118082046508789
-2.601201295852661 -1.805191159248352 -0.3887632191181183 7.0 4 -0.07117851823568344
-2.7381060123443604 -1.8994920253753662 0.5278099179267883 63.0 12 -0.07117621600627899
-2.3344202041625977 -1.6194452047348022 -0.24856817722320557 6.0 5 -0.07117390632629395
-2.721632242202759 -1.8873602151870728 0.6437895894050598 31.0 13 -0.0711716040968895
-2.366955518722534 -1.6407912969589233 -0.15093690156936646 2.0 6 -0.07116930186748505
-2.7245900630950928 -1.8880032300949097 0.7652835249900818 75.0 14 -0.0711669996380806
-2.3326072692871094 -1.6157766580581665 -0.04952992871403694 25.0 7 -0.07116468995809555
-2.7016310691833496 -1.8706977367401123 0.880502462387085 80.0 15 -0.0711623877286911
-1.5625793933868408 -1.0791596174240112 -0.5088382363319397 0.0 0 -0.07114165276288986
-2.277545690536499 -1.5723477602005005 0.04830826073884964 35.0 8 -0.07113935053348541
-1.570204257965088 -1.083615779876709 -0.4404541850090027 0.0 1 -0.07113704085350037
-2.7109830379486084 -1.8701826333999634 0.17260399460792542 4.0 9 -0.07113473862409592
-2.7588260173797607 -1.9024758338928223 0.29319190979003906 75.0 10 -0.07113013416528702
-2.590848684310913 -1.7859723567962646 -0.4984002709388733 1.0 3 -0.07112783193588257
-2.7461137771606445 -1.8922964334487915 0.409481018781662 71.0 11 -0.07112552225589752
-2.6222004890441895 -1.8062344789505005 -0.3909568786621094 18.0 4 -0.07112322002649307
-2.7398390769958496 -1.886561632156372 0.526871383190155 62.0 12 -0.07112091779708862
-2.349904775619507 -1.6180658340454102 -0.24961404502391815 7.0 5 -0.07111861556768417
-2.7217352390289307 -1.8733960390090942 0.6422631144523621 32.0 13 -0.07111630588769913
-2.4681015014648438 -1.6981827020645142 -0.15700788795948029 1.0 6 -0.07111400365829468
-2.732769250869751 -1.8795852661132812 0.7657334208488464 72.0 14 -0.07111170142889023
-2.3530638217926025 -1.6178208589553833 -0.04984407499432564 23.0 7 -0.07110939919948578
-2.708144187927246 -1.8612563610076904 0.880502462387085 76.0 15 -0.07110708951950073
-1.5854579210281372 -1.086805820465088 -0.515049934387207 0.0 0 -0.0710863545536995
-2.3143630027770996 -1.5858639478683472 0.04897145554423332 25.0 8 -0.07108405232429504
-1.5739768743515015 -1.078128457069397 -0.4404541850090027 0.0 1 -0.0710817500948906
-2.701014995574951 -1.8494242429733276 0.17155727744102478 4.0 9 -0.07107944786548615
-2.6582682132720947 -1.8201549053192139 -0.6262351274490356 1.0 2 -0.0710771381855011
-2.7654502391815186 -1.8928343057632446 0.29319190979003906 72.0 10 -0.07107483595609665
-2.6280431747436523 -1.7981113195419312 -0.5043447613716125 20.0 3 -0.0710725337266922
-2.7412326335906982 -1.874854564666748 0.4077748656272888 77.0 11 -0.07107023149728775
-2.641599178314209 -1.8060332536697388 -0.3929068148136139 18.0 4 -0.0710679218173027
-2.7480385303497314 -1.8781007528305054 0.5271841883659363 63.0 12 -0.07106561958789825
-2.365408420562744 -1.6165986061096191 -0.25065991282463074 6.0 5 -0.0710633173584938
-2.729879379272461 -1.8649914264678955 0.6426447629928589 45.0 13 -0.07106101512908936
-2.531741142272949 -1.7289799451828003 -0.1606713980436325 2.0 6 -0.07105870544910431
-2.7232189178466797 -1.8590474128723145 0.7612344026565552 72.0 14 -0.07105640321969986
-2.3603482246398926 -1.6107243299484253 -0.04987897723913193 21.0 7 -0.07105410099029541
-2.711432933807373 -1.8496143817901611 0.8794671893119812 74.0 15 -0.07105179876089096
-1.646742343902588 -1.1203856468200684 -0.5336848497390747 1.0 0 -0.07103106379508972
-2.300041675567627 -1.5642811059951782 0.04855259507894516 18.0 8 -0.07102875411510468
-2.703829765319824 -1.8382112979888916 0.17134793102741241 5.0 9 -0.07102414965629578
-2.635378122329712 -1.7910007238388062 -0.6193659901618958 12.0 2 -0.07102184742689133
-2.770392656326294 -1.882049798965454 0.29301759600639343 77.0 10 -0.07101953774690628
-2.655547618865967 -1.8033541440963745 -0.5084120631217957 25.0 3 -0.07101723551750183
-2.7510457038879395 -1.8675036430358887 0.40826234221458435 79.0 11 -0.07101493328809738
-2.6639978885650635 -1.8084124326705933 -0.39534419775009155 18.0 4 -0.07101263105869293
-2.7444441318511963 -1.8623225688934326 0.5253069996833801 63.0 12 -0.07101032137870789
-2.3792808055877686 -1.6139246225357056 -0.2515314817428589 7.0 5 -0.07100801914930344
-2.737997531890869 -1.8565527200698853 0.6430263519287109 50.0 13 -0.07100571691989899
-2.5328011512756348 -1.716770052909851 -0.16035738587379456 2.0 6 -0.07100341469049454
-2.7293689250946045 -1.8500064611434937 0.7612344026565552 66.0 14 -0.07100110501050949
-2.355743646621704 -1.596158742904663 -0.049669548869132996 22.0 7 -0.07099880278110504
-2.7127532958984375 -1.8373626470565796 0.8779142498970032 70.0 15 -0.07099650055170059
-1.6120288372039795 -1.0889655351638794 -0.5212615728378296 1.0 0 -0.07097576558589935
-2.310188055038452 -1.5600024461746216 0.048657309263944626 19.0 8 -0.0709734633564949
-2.6999781131744385 -1.8225302696228027 0.1707199066877365 5.0 9 -0.07096885144710541
-2.662459135055542 -1.7965278625488281 -0.6243270635604858 20.0 2 -0.07096654921770096
-2.7650558948516846 -1.865053415298462 0.291797399520874 75.0 10 -0.07096424698829651
-2.6860809326171875 -1.8111029863357544 -0.5131050944328308 25.0 3 -0.07096193730831146
-2.7506392002105713 -1.8539326190948486 0.4072873890399933 81.0 11 -0.07095963507890701
-2.6963179111480713 -1.8173198699951172 -0.3992440104484558 24.0 4 -0.07095733284950256
-2.7424135208129883 -1.8476923704147339 0.5237426161766052 67.0 12 -0.07095503062009811
-2.3631365299224854 -1.5915570259094238 -0.2492654174566269 7.0 5 -0.07095272094011307
-2.7376248836517334 -1.8430771827697754 0.6414998769760132 55.0 13 -0.07095041871070862
-2.5517361164093018 -1.7172824144363403 -0.16119475662708282 3.0 6 -0.07094811648130417
-2.738722562789917 -1.8431215286254883 0.7621342539787292 72.0 14 -0.07094581425189972
-2.3991851806640625 -1.6140103340148926 -0.050472360104322433 24.0 7 -0.07094351202249527
-2.712418794631958 -1.8240443468093872 0.8758436441421509 72.0 15 -0.07094120234251022
-1.6958510875701904 -1.1374177932739258 -0.5471434593200684 1.0 0 -0.07092046737670898
-2.338602066040039 -1.567922592163086 0.049145977944135666 13.0 8 -0.07091816514730453
-1.9085711240768433 -1.2791248559951782 -0.5304346084594727 1.0 1 -0.07091586291790009
-2.703004837036133 -1.8108711242675781 0.17051056027412415 5.0 9 -0.07091355323791504
-2.687974452972412 -1.8008016347885132 -0.6289064884185791 24.0 2 -0.07091125100851059
-2.7662594318389893 -1.8525480031967163 0.2912744879722595 77.0 10 -0.07090894877910614
-2.7101285457611084 -1.8142733573913574 -0.5165466666221619 42.0 3 -0.07090664654970169
-2.7567718029022217 -1.8448015451431274 0.4072873890399933 81.0 11 -0.07090433686971664
-2.7405943870544434 -1.833282470703125 -0.4048500061035156 54.0 4 -0.0709020346403122
-2.75048828125 -1.8392069339752197 0.524055540561676 63.0 12 -0.07089973241090775
-2.3601202964782715 -1.5781742334365845 -0.24839386343955994 7.0 5 -0.0708974301815033
-2.7453534603118896 -1.8350801467895508 0.6418814659118652 60.0 13 -0.07089512795209885
-2.5441315174102783 -1.6999341249465942 -0.16035738587379456 7.0 6 -0.0708928182721138
-2.743518352508545 -1.8324685096740723 0.7616842985153198 70.0 14 -0.07089051604270935
-2.3831849098205566 -1.5911898612976074 -0.05001859739422798 11.0 7 -0.0708882138133049
-2.704308032989502 -1.8049132823944092 0.8711849451065063 66.0 15 -0.07088591158390045
-2.3557143211364746 -1.567504644393921 0.049390312284231186 15.0 8 -0.07086286693811417
-1.9130244255065918 -1.272454857826233 -0.5304346084594727 1.0 1 -0.07086056470870972
-2.6926774978637695 -1.7903670072555542 0.1694638431072235 6.0 9 -0.07085826247930527
-2.7318453788757324 -1.8164098262786865 -0.6376836895942688 65.0 2 -0.07085596024990082
-2.767730712890625 -1.839572548866272 0.29075154662132263 75.0 10 -0.07085365056991577
-2.732898712158203 -1.815733790397644 -0.5196753740310669 50.0 3 -0.07085134834051132
-2.7499659061431885 -1.8263806104660034 0.40533748269081116 73.0 11 -0.07084904611110687
-2.7486302852630615 -1.8248032331466675 -0.4050937294960022 45.0 4 -0.07084674388170242
-2.7535996437072754 -1.8274102210998535 0.523429811000824 65.0 12 -0.07084443420171738
-2.3722550868988037 -1.5743330717086792 -0.24909110367298126 7.0 5 -0.07084213197231293
-2.7468347549438477 -1.8222293853759766 0.6407366394996643 65.0 13 -0.07083982974290848
-2.5334043502807617 -1.680005431175232 -0.15931066870689392 3.0 6 -0.07083752751350403
-2.7482738494873047 -1.8218039274215698 0.7612344026565552 63.0 14 -0.07083521783351898
-2.397059440612793 -1.5883842706680298 -0.050193123519420624 15.0 7 -0.07083291560411453
-2.7073702812194824 -1.7933292388916016 0.8701496720314026 63.0 15 -0.07083061337471008
-2.4362621307373047 -1.6088601350784302 0.050961025059223175 13.0 8 -0.0708075761795044
-1.9174542427062988 -1.2657697200775146 -0.5304346084594727 1.0 1 -0.07080526649951935
-2.6555685997009277 -1.7523552179336548 0.16674236953258514 6.0 9 -0.0708029642701149
-2.7496402263641357 -1.814431071281433 -0.6403550505638123 45.0 2 -0.07080066204071045
-2.7741355895996094 -1.8299001455307007 0.29075154662132263 75.0 10 -0.070798359811306
-2.745816707611084 -1.810532569885254 -0.520926833152771 46.0 3 -0.07079605013132095
-2.756324052810669 -1.8167709112167358 0.40533748269081116 68.0 11 -0.0707937479019165
-2.7400646209716797 -1.8053679466247559 -0.4029000997543335 41.0 4 -0.07079144567251205
-2.7599618434906006 -1.8177870512008667 0.523429811000824 65.0 12 -0.0707891434431076
-2.3863296508789062 -1.571105718612671 -0.24996265769004822 7.0 5 -0.07078683376312256
-2.7416999340057373 -1.8050733804702759 0.6380652785301208 63.0 13 -0.07078453153371811
-2.547595262527466 -1.6766419410705566 -0.15983402729034424 2.0 6 -0.07078222930431366
-2.7383368015289307 -1.8014883995056152 0.7567353844642639 60.0 14 -0.07077992707490921
-2.3223912715911865 -1.527267575263977 -0.04851769283413887 10.0 7 -0.07077761739492416
-2.723299264907837 -1.7902348041534424 0.8732554912567139 60.0 15 -0.07077531516551971
-2.378307342529297 -1.5586938858032227 0.04963464289903641 13.0 8 -0.07075227797031403
-2.6950862407684326 -1.7649588584899902 0.1688358038663864 6.0 9 -0.07074766606092453
-2.7365610599517822 -1.7914376258850098 -0.635775625705719 36.0 2 -0.07074536383152008
-2.777489423751831 -1.8175382614135742 0.29040294885635376 65.0 10 -0.07074306160211563
-2.744168519973755 -1.7950495481491089 -0.5193625092506409 45.0 3 -0.07074075937271118
-2.7659716606140137 -1.8093116283416748 0.4058249592781067 70.0 11 -0.07073844969272614
-2.739704132080078 -1.7914468050003052 -0.40192511677742004 41.0 4 -0.07073614746332169
-2.756369113922119 -1.8016570806503296 0.521552562713623 63.0 12 -0.07073384523391724
-2.4018070697784424 -1.5693050622940063 -0.251008540391922 7.0 5 -0.07073154300451279
-2.749941349029541 -1.796086072921753 0.6384469270706177 66.0 13 -0.07072923332452774
-2.5487060546875 -1.6640174388885498 -0.1595200151205063 2.0 6 -0.07072693109512329
-2.7449207305908203 -1.7914402484893799 0.7567353844642639 63.0 14 -0.07072462886571884
-2.3243589401245117 -1.516965627670288 -0.048447877168655396 18.0 7 -0.07072232663631439
-2.7246782779693604 -1.777551293373108 0.8717026114463806 58.0 15 -0.07072001695632935
-2.385681390762329 -1.551055908203125 0.049669548869132996 12.0 8 -0.07069697976112366
-2.721635103225708 -1.7681266069412231 0.1700918823480606 6.0 9 -0.07069237530231476
-2.732919216156006 -1.775457501411438 -0.6334859132766724 34.0 2 -0.07069006562232971
-2.7721199989318848 -1.8002358675003052 0.28918275237083435 63.0 10 -0.07068776339292526
-2.752074718475342 -1.786535382270813 -0.5196753740310669 41.0 3 -0.07068546116352081
-2.7625930309295654 -1.7926782369613647 0.4043624997138977 70.0 11 -0.07068315893411636
-2.7395904064178467 -1.7770719528198242 -0.40095019340515137 40.0 4 -0.07068084925413132
-2.757981777191162 -1.7883182764053345 0.520613968372345 67.0 12 -0.07067854702472687
-2.3824644088745117 -1.5442363023757935 -0.24839386343955994 7.0 5 -0.07067624479532242
-2.759489059448242 -1.7886115312576294 0.6392101645469666 66.0 13 -0.07067394256591797
-2.55952787399292 -1.6583688259124756 -0.15983402729034424 2.0 6 -0.07067163288593292
-2.7478861808776855 -1.7797290086746216 0.7558355927467346 60.0 14 -0.07066933065652847
-2.3332605361938477 -1.5106098651885986 -0.04851769283413887 26.0 7 -0.07066702842712402
-2.727931261062622 -1.7654536962509155 0.8706672787666321 63.0 15 -0.07066472619771957
-2.3826797008514404 -1.5372982025146484 0.04949502646923065 9.0 8 -0.07064168155193329
-2.7395412921905518 -1.766190528869629 0.1708245724439621 7.0 9 -0.07063707709312439
-2.746009588241577 -1.7696821689605713 -0.6350123286247253 34.0 2 -0.07063477486371994
-2.773674726486206 -1.7868270874023438 0.28865981101989746 67.0 10 -0.0706324651837349
-2.7486393451690674 -1.7700194120407104 -0.517798125743866 40.0 3 -0.07063016295433044
-2.767164945602417 -1.7819491624832153 0.40411877632141113 67.0 11 -0.070627860724926
-2.745776653289795 -1.7674981355667114 -0.40095019340515137 40.0 4 -0.07062555849552155
-2.7625460624694824 -1.7776119709014893 0.520301103591919 68.0 12 -0.0706232488155365
-2.3911914825439453 -1.5380661487579346 -0.24874247610569 7.0 5 -0.07062094658613205
-2.756118059158325 -1.7721147537231445 0.6369204521179199 66.0 13 -0.0706186443567276
-2.594151258468628 -1.6673343181610107 -0.16161344945430756 3.0 6 -0.07061634212732315
-2.752751350402832 -1.768592357635498 0.75538569688797 61.0 14 -0.0706140398979187
-2.3519785404205322 -1.5111032724380493 -0.04879692941904068 21.0 7 -0.07061173021793365
-2.7161970138549805 -1.7444370985031128 0.8649733066558838 61.0 15 -0.0706094279885292
-2.386613368988037 -1.527477502822876 0.049460120499134064 7.0 8 -0.07058639079332352
-2.7510435581207275 -1.759366512298584 0.17113859951496124 9.0 9 -0.07058177888393402
-2.748861789703369 -1.7579710483551025 -0.6342491507530212 34.0 2 -0.07057947665452957
-2.783252716064453 -1.7792797088623047 0.2890084385871887 65.0 10 -0.07057717442512512
-2.744813919067383 -1.754031777381897 -0.5159209370613098 40.0 3 -0.07057486474514008
-2.768658399581909 -1.7685898542404175 0.40338757634162903 70.0 11 -0.07057256251573563
-2.7522366046905518 -1.7574225664138794 -0.40095019340515137 38.0 4 -0.07057026028633118
-2.7657129764556885 -1.7653484344482422 0.5196753740310669 65.0 12 -0.07056795805692673
-2.399904727935791 -1.5318537950515747 -0.24909110367298126 7.0 5 -0.07056565582752228
-2.7523562908172607 -1.756147861480713 0.6346307396888733 66.0 13 -0.07056334614753723
-2.6319501399993896 -1.6786750555038452 -0.16360221803188324 5.0 6 -0.07056104391813278
-2.7572648525238037 -1.7579247951507568 0.7549358010292053 60.0 14 -0.07055874168872833
-2.47385835647583 -1.576629638671875 -0.051205363124608994 19.0 7 -0.07055643945932388
-2.7290894985198975 -1.7386218309402466 0.8670438528060913 60.0 15 -0.07055412977933884
-2.5168447494506836 -1.5984704494476318 0.05204307660460472 16.0 8 -0.07053109258413315
-2.7470502853393555 -1.7433316707611084 0.17051056027412415 9.0 9 -0.07052648812532425
-2.75166654586792 -1.7462612390518188 -0.6334859132766724 34.0 2 -0.0705241784453392
-2.7843995094299316 -1.766351580619812 0.28848549723625183 59.0 10 -0.07052187621593475
-2.7459146976470947 -1.7412668466567993 -0.514982283115387 39.0 3 -0.0705195739865303
-2.7647552490234375 -1.752537727355957 0.40192511677742004 68.0 11 -0.07051727175712585
-2.7499704360961914 -1.7424923181533813 -0.39973148703575134 30.0 4 -0.07051496207714081
-2.773526668548584 -1.7567410469055176 0.5199882388114929 67.0 12 -0.07051265984773636
-2.3968210220336914 -1.518136978149414 -0.2482195496559143 7.0 5 -0.07051035761833191
-2.755152702331543 -1.7444285154342651 0.6338675618171692 67.0 13 -0.07050805538892746
-2.6428565979003906 -1.6726818084716797 -0.1639162302017212 7.0 6 -0.07050574570894241
-2.75350284576416 -1.7420388460159302 0.7522363662719727 63.0 14 -0.07050344347953796
-2.5080783367156982 -1.5861541032791138 -0.0517987422645092 21.0 7 -0.07050114125013351
-2.730242967605591 -1.7259880304336548 0.8654909133911133 58.0 15 -0.07049883902072906
-2.5477852821350098 -1.6056686639785767 0.05256664752960205 24.0 8 -0.07047579437494278
-1.9439697265625 -1.2246572971343994 -0.5304346084594727 1.0 1 -0.07047349214553833
-2.744669198989868 -1.728410005569458 0.16998720169067383 7.0 9 -0.07047118991613388
-2.751100778579712 -1.7324601411819458 -0.6319594383239746 34.0 2 -0.07046888768672943
-2.7871756553649902 -1.7544993162155151 0.28813689947128296 63.0 10 -0.07046657800674438
-2.7486324310302734 -1.729567050933838 -0.5143565535545349 38.0 3 -0.07046427577733994
-2.7708563804626465 -1.7428754568099976 0.40192511677742004 62.0 11 -0.07046197354793549
-2.729147434234619 -1.7159767150878906 -0.3958316743373871 36.0 4 -0.07045967131853104
-2.761244773864746 -1.7354859113693237 0.5165466666221619 66.0 12 -0.07045736163854599
-2.4071664810180664 -1.5129420757293701 -0.24874247610569 8.0 5 -0.07045505940914154
-2.7579002380371094 -1.7327115535736084 0.6331042647361755 65.0 13 -0.07045275717973709
-2.655444383621216 -1.6676958799362183 -0.16433492302894592 7.0 6 -0.07045045495033264
-2.751314878463745 -1.7272357940673828 0.7499868273735046 66.0 14 -0.0704481452703476
-2.5051310062408447 -1.5720750093460083 -0.05162421986460686 24.0 7 -0.07044584304094315
-2.7427971363067627 -1.720554232597351 0.8675615191459656 55.0 15 -0.0704435408115387
-1.7114664316177368 -1.0706894397735596 -0.5409318208694458 1.0 0 -0.07042280584573746
-2.561851978302002 -1.6020667552947998 0.052741169929504395 22.0 8 -0.07042050361633301
-2.7489912509918213 -1.717760682106018 0.16988252103328705 7.0 9 -0.07041589170694351
-2.7488059997558594 -1.7176450490951538 -0.63005131483078 33.0 2 -0.07041358947753906
-2.783143997192383 -1.7384263277053833 0.2870910167694092 59.0 10 -0.07041128724813461
-2.756329298019409 -1.7210075855255127 -0.5146694779396057 41.0 3 -0.07040897756814957
-2.7701869010925293 -1.7289892435073853 0.40095019340515137 63.0 11 -0.07040667533874512
-2.7149105072021484 -1.6938307285308838 -0.3929068148136139 37.0 4 -0.07040437310934067
-2.767286539077759 -1.725836157798767 0.5165466666221619 63.0 12 -0.07040207087993622
-2.398908853530884 -1.4960949420928955 -0.24734798073768616 7.0 5 -0.07039976119995117
-2.7705955505371094 -1.7272292375564575 0.6346307396888733 66.0 13 -0.07039745897054672
-2.6612493991851807 -1.6584163904190063 -0.16433492302894592 7.0 6 -0.07039515674114227
-2.7606356143951416 -1.7196813821792603 0.7508866190910339 66.0 14 -0.07039285451173782
-2.563225269317627 -1.5960886478424072 -0.052706267684698105 29.0 7 -0.07039055228233337
-2.7258248329162598 -1.696677327156067 0.8603145480155945 48.0 15 -0.07038824260234833
-1.734889268875122 -1.0769349336624146 -0.5471434593200684 1.0 0 -0.07037925720214844
-2.5691277980804443 -1.5941685438156128 0.05277607962489128 14.0 8 -0.07037695497274399
-1.9524720907211304 -1.211055874824524 -0.5304346084594727 1.0 1 -0.07037465274333954
-2.7346014976501465 -1.6955249309539795 0.16862647235393524 5.0 9 -0.07037234306335449
-2.7564537525177 -1.7090740203857422 -0.6304329633712769 34.0 2 -0.07037004083395004
-2.77903413772583 -1.7224030494689941 0.2860451340675354 56.0 10 -0.0703677386045456
-2.747206449508667 -1.7020131349563599 -0.5118536353111267 38.0 3 -0.07036543637514114
-2.77789306640625 -1.7203539609909058 0.40119388699531555 65.0 11 -0.0703631266951561
-2.71743106842041 -1.6822537183761597 -0.39241933822631836 37.0 4 -0.07036082446575165
-2.7732934951782227 -1.7161664962768555 0.5165466666221619 65.0 12 -0.0703585222363472
-2.405810594558716 -1.488761067390442 -0.24752230942249298 7.0 5 -0.07035622000694275
-2.764920473098755 -1.710317850112915 0.6319594383239746 63.0 13 -0.0703539103269577
-2.6636252403259277 -1.6470154523849487 -0.16412557661533356 7.0 6 -0.07035160809755325
-2.7633063793182373 -1.707985281944275 0.7499868273735046 55.0 14 -0.0703493058681488
-2.6232190132141113 -1.6207661628723145 -0.05382322147488594 14.0 7 -0.07034700363874435
-2.7284440994262695 -1.6851210594177246 0.8592792749404907 48.0 15 -0.07034469395875931
-1.7419278621673584 -1.0728988647460938 -0.5481787323951721 2.0 0 -0.07032395899295807
-2.5865962505340576 -1.5925304889678955 0.0530204102396965 7.0 8 -0.07032165676355362
-1.956687569618225 -1.204233169555664 -0.5304346084594727 1.0 1 -0.07031935453414917
-2.3322343826293945 -1.434800386428833 0.14350520074367523 6.0 9 -0.07031705230474472
-2.7590584754943848 -1.697384238243103 -0.629669725894928 36.0 2 -0.07031474262475967
-2.785029649734497 -1.7126917839050293 0.2860451340675354 36.0 10 -0.07031244039535522
-2.751447916030884 -1.6913785934448242 -0.5115407705307007 40.0 3 -0.07031013816595078
-2.777116298675537 -1.7064896821975708 0.4002189636230469 62.0 11 -0.07030783593654633
-2.728360891342163 -1.6758745908737183 -0.39315053820610046 38.0 4 -0.07030552625656128
-2.774217128753662 -1.7033748626708984 0.5156080722808838 57.0 12 -0.07030322402715683
-2.4075968265533447 -1.4782692193984985 -0.24717368185520172 7.0 5 -0.07030092179775238
-2.755814552307129 -1.691413164138794 0.6285248398780823 52.0 13 -0.07029861956834793
-2.6591436862945557 -1.6314406394958496 -0.16349753737449646 7.0 6 -0.07029630988836288
-2.7659287452697754 -1.6962922811508179 0.7490870356559753 47.0 14 -0.07029400765895844
-2.6561379432678223 -1.6283217668533325 -0.05438169836997986 16.0 7 -0.07029170542955399
-2.7623114585876465 -1.6927464008331299 0.8680790662765503 52.0 15 -0.07028940320014954
-1.7885205745697021 -1.0930039882659912 -0.5616373419761658 1.0 0 -0.0702686682343483
-2.569955587387085 -1.569939136505127 0.05256664752960205 9.0 8 -0.07026635855436325
-1.9608792066574097 -1.1973955631256104 -0.5304346084594727 1.0 1 -0.0702640563249588
-2.3508665561676025 -1.4349758625030518 0.1443425863981247 8.0 9 -0.07026175409555435
-2.7616147994995117 -1.6856979131698608 -0.6289064884185791 36.0 2 -0.0702594518661499
-2.654928207397461 -1.6199392080307007 0.2721002399921417 12.0 10 -0.07025714218616486
-2.7489030361175537 -1.6766209602355957 -0.5099764466285706 39.0 3 -0.0702548399567604
-2.772886276245117 -1.690585732460022 0.3987565040588379 55.0 11 -0.07025253772735596
-2.7206335067749023 -1.6580759286880493 -0.39120060205459595 40.0 4 -0.07025023549795151
-2.775085210800171 -1.6905972957611084 0.5146694779396057 53.0 12 -0.07024792581796646
-2.417846918106079 -1.4729657173156738 -0.2476966232061386 7.0 5 -0.07024562358856201
-2.7751166820526123 -1.6899516582489014 0.6315777897834778 52.0 13 -0.07024332135915756
-2.6579978466033936 -1.6179951429367065 -0.16307885944843292 8.0 6 -0.07024101912975311
-2.7984695434570312 -1.7028347253799438 0.7562854886054993 55.0 14 -0.07023871690034866
-2.73868727684021 -1.665802240371704 -0.055952414870262146 41.0 7 -0.07023640722036362
-2.7995662689208984 -1.7021634578704834 0.8779142498970032 55.0 15 -0.07023410499095917
-1.8022369146347046 -1.0927634239196777 -0.5647432208061218 1.0 0 -0.07021337002515793
-2.6250133514404297 -1.5910170078277588 0.05357888713479042 12.0 8 -0.07021106779575348
-2.3626949787139893 -1.430898904800415 0.14476126432418823 5.0 9 -0.07020645588636398
-2.757406711578369 -1.6699448823928833 -0.6266167759895325 36.0 2 -0.07020415365695953
-2.658862352371216 -1.6096299886703491 0.2719258964061737 10.0 10 -0.07020185142755508
-2.7530484199523926 -1.6659932136535645 -0.5096635222434998 36.0 3 -0.07019954174757004
-2.785565137863159 -1.6850054264068604 0.39973148703575134 51.0 11 -0.07019723951816559
-2.716212749481201 -1.6424063444137573 -0.38973820209503174 41.0 4 -0.07019493728876114
-2.7911126613616943 -1.6870315074920654 0.5165466666221619 52.0 12 -0.07019263505935669
-2.414447784423828 -1.4593641757965088 -0.24682505428791046 7.0 5 -0.07019033282995224
-2.807884454727173 -1.6964991092681885 0.6376836895942688 58.0 13 -0.0701880231499672
-2.6619200706481934 -1.6076745986938477 -0.16297417879104614 8.0 6 -0.07018572092056274
-2.817742347717285 -1.7011139392852783 0.7598847150802612 66.0 14 -0.0701834186911583
-2.6914103031158447 -1.6242034435272217 -0.0548703633248806 28.0 7 -0.07018111646175385
-2.812107563018799 -1.6963719129562378 0.8799847960472107 55.0 15 -0.0701788067817688
-1.789486289024353 -1.0765072107315063 -0.5595667958259583 1.0 0 -0.07015807181596756
-2.5431511402130127 -1.5292885303497314 0.0517987422645092 9.0 8 -0.07015576958656311
-2.775907278060913 -1.668593406677246 -0.7477373480796814 9.0 1 -0.07015346735715866
-2.2852602005004883 -1.3736662864685059 0.13973701000213623 3.0 9 -0.07015115767717361
-2.753122091293335 -1.6542425155639648 -0.6243270635604858 40.0 2 -0.07014885544776917
-2.5995607376098633 -1.561357021331787 0.26530206203460693 22.0 10 -0.07014655321836472
-2.767315626144409 -1.6614563465118408 -0.5112279057502747 41.0 3 -0.07014425098896027
-2.8135571479797363 -1.6885511875152588 0.4029000997543335 55.0 11 -0.07014194875955582
-2.725048303604126 -1.6354327201843262 -0.39022567868232727 38.0 4 -0.07013963907957077
-2.8237946033477783 -1.6940257549285889 0.521552562713623 60.0 12 -0.07013733685016632
-2.4144017696380615 -1.4478527307510376 -0.24630212783813477 8.0 5 -0.07013503462076187
-2.844099521636963 -1.7048563957214355 0.6445528268814087 57.0 13 -0.07013273239135742
-2.6623759269714355 -1.5952930450439453 -0.1626601666212082 7.0 6 -0.07013042271137238
-2.825040102005005 -1.6927613019943237 0.7603346109390259 56.0 14 -0.07012812048196793
-2.741384983062744 -1.6419851779937744 -0.055777888745069504 42.0 7 -0.07012581825256348
-2.802800416946411 -1.6781060695648193 0.8753260374069214 52.0 15 -0.07012351602315903
-1.7930463552474976 -1.07056725025177 -0.5595667958259583 1.0 0 -0.07010277360677719
-2.3318512439727783 -1.3917181491851807 0.047400735318660736 21.0 8 -0.07010047137737274
-2.778078317642212 -1.6573822498321533 -0.7468375563621521 10.0 1 -0.07009816914796829
-2.262359619140625 -1.349708080291748 0.1380622535943985 9.0 9 -0.07009586691856384
-2.761965274810791 -1.6471147537231445 -0.6250903010368347 40.0 2 -0.0700935646891594
-2.8220696449279785 -1.6822917461395264 0.28743961453437805 49.0 10 -0.07009125500917435
-2.754142999649048 -1.6411479711532593 -0.5077863335609436 40.0 3 -0.0700889527797699
-2.8481340408325195 -1.6964812278747559 0.4070436358451843 70.0 11 -0.07008665055036545
-2.727045774459839 -1.624355435371399 -0.38973820209503174 40.0 4 -0.070084348320961
-2.839580774307251 -1.6907161474227905 0.523429811000824 55.0 12 -0.07008203864097595
-2.420901298522949 -1.4408577680587769 -0.2464764267206192 8.0 5 -0.0700797364115715
-2.846362590789795 -1.6934077739715576 0.6437895894050598 53.0 13 -0.07007743418216705
-2.6522018909454346 -1.5772676467895508 -0.16171811521053314 6.0 6 -0.0700751319527626
-2.8339877128601074 -1.6853759288787842 0.7612344026565552 50.0 14 -0.07007282227277756
-2.7983851432800293 -1.6628810167312622 0.8722202181816101 50.0 15 -0.07006821781396866
-1.8065581321716309 -1.0705246925354004 -0.5626726150512695 1.0 0 -0.07004748284816742
-2.7476558685302734 -1.6275497674942017 0.055742986500263214 39.0 8 -0.07004518061876297
-2.7667906284332275 -1.638231873512268 -0.7423385381698608 16.0 1 -0.07004287093877792
-2.2808072566986084 -1.3499408960342407 0.13889963924884796 9.0 9 -0.07004056870937347
-2.7606537342071533 -1.633947491645813 -0.623563826084137 45.0 2 -0.07003826647996902
-2.85163950920105 -1.6871273517608643 0.28988000750541687 32.0 10 -0.07003596425056458
-2.7527692317962646 -1.6279836893081665 -0.5065348744392395 40.0 3 -0.07003365457057953
-2.841782569885254 -1.6799557209014893 0.40533748269081116 57.0 11 -0.07003135234117508
-2.732698917388916 -1.614827036857605 -0.38973820209503174 41.0 4 -0.07002905011177063
-2.843764066696167 -1.6797889471054077 0.5231168866157532 56.0 12 -0.07002674788236618
-2.418804168701172 -1.428768515586853 -0.24577918648719788 7.0 5 -0.07002443820238113
-2.833366870880127 -1.672979474067688 0.6395918130874634 47.0 13 -0.07002213597297668
-2.528416872024536 -1.492324709892273 -0.1538677215576172 1.0 6 -0.07001983374357224
-2.8331398963928223 -1.6715127229690552 0.7594348192214966 49.0 14 -0.07001753151416779
-2.800844430923462 -1.651140570640564 0.8711849451065063 51.0 15 -0.07001291960477829
-1.810283899307251 -1.0642119646072388 -0.5626726150512695 1.0 0 -0.06999218463897705
-2.7343556880950928 -1.6068042516708374 0.05535903573036194 10.0 8 -0.0699898824095726
-2.7624106407165527 -1.622641682624817 -0.7396391034126282 27.0 1 -0.06998758018016815
-2.280339002609253 -1.338937520980835 0.13858562707901 22.0 9 -0.0699852705001831
-2.7714192867279053 -1.6272830963134766 -0.6247087121009827 47.0 2 -0.06998296827077866
-2.7990896701812744 -1.6428734064102173 0.28395339846611023 9.0 10 -0.0699806660413742
-2.7550272941589355 -1.6163653135299683 -0.5059091448783875 40.0 3 -0.06997836381196976
-2.845916986465454 -1.6690213680267334 0.4050937294960022 51.0 11 -0.06997605413198471
-2.728044033050537 -1.5992546081542969 -0.38827574253082275 43.0 4 -0.06997375190258026
-2.8462018966674805 -1.6678547859191895 0.5224911570549011 50.0 12 -0.06997144967317581
-2.423776865005493 -1.4203165769577026 -0.24577918648719788 7.0 5 -0.06996914744377136
-2.839189291000366 -1.6630789041519165 0.6395918130874634 45.0 13 -0.06996683776378632
-2.342296838760376 -1.3714717626571655 -0.14224915206432343 1.0 6 -0.06996453553438187
-2.8355939388275146 -1.6596436500549316 0.7585350275039673 49.0 14 -0.06996223330497742
-2.816596269607544 -1.6472057104110718 0.8742908239364624 39.0 15 -0.06995762884616852
-1.860714316368103 -1.0851365327835083 -0.5771664977073669 1.0 0 -0.06993688642978668
-2.530910015106201 -1.4753913879394531 0.05113555118441582 64.0 8 -0.06993458420038223
-2.766374349594116 -1.6120082139968872 -0.7391892075538635 29.0 1 -0.06993228197097778
-2.316063642501831 -1.3490638732910156 0.1404697149991989 12.0 9 -0.06992997974157333
-2.763792037963867 -1.6092114448547363 -0.6216557621955872 47.0 2 -0.06992767006158829
-2.7720932960510254 -1.6140449047088623 0.28064149618148804 10.0 10 -0.06992536783218384
-2.765774965286255 -1.609718918800354 -0.5068477392196655 49.0 3 -0.06992306560277939
-2.8534412384033203 -1.6600761413574219 0.40533748269081116 46.0 11 -0.06992076337337494
-2.723313808441162 -1.5837345123291016 -0.38681334257125854 43.0 4 -0.06991845369338989
-2.846883535385132 -1.6549302339553833 0.521552562713623 52.0 12 -0.06991615146398544
-2.4289662837982178 -1.4114233255386353 -0.24577918648719788 8.0 5 -0.069913849234581
-2.8435676097869873 -1.651676058769226 0.6392101645469666 38.0 13 -0.06991154700517654
-2.338672161102295 -1.3578628301620483 -0.1417257934808731 2.0 6 -0.0699092447757721
-2.841370105743408 -1.6497355699539185 0.7585350275039673 33.0 14 -0.06990693509578705
-2.842381000518799 -1.6489969491958618 0.880502462387085 11.0 15 -0.06990233063697815
-1.8646787405014038 -1.0783097743988037 -0.5771664977073669 1.0 0 -0.06988159567117691
-2.385680913925171 -1.3790396451950073 0.04809883236885071 10.0 8 -0.06987928599119186
-2.7823877334594727 -1.6077077388763428 -0.7418886423110962 36.0 1 -0.06987698376178741
-2.293320655822754 -1.3245837688446045 0.13879497349262238 21.0 9 -0.06987468153238297
-2.759470224380493 -1.5931811332702637 -0.6193659901618958 47.0 2 -0.06987237930297852
-2.8470089435577393 -1.643721580505371 0.28761395812034607 36.0 10 -0.06987006962299347
-2.775078058242798 -1.6015465259552002 -0.5074734687805176 49.0 3 -0.06986776739358902
-2.8577871322631836 -1.648613691329956 0.4050937294960022 46.0 11 -0.06986546516418457
-2.7273805141448975 -1.5727505683898926 -0.3865695893764496 45.0 4 -0.06986316293478012
-2.8495068550109863 -1.6425124406814575 0.520926833152771 32.0 12 -0.06986086070537567
-2.430670976638794 -1.4005212783813477 -0.2454305738210678 8.0 5 -0.06985855102539062
-2.871718645095825 -1.6539806127548218 0.6441711783409119 31.0 13 -0.06985624879598618
-2.31766939163208 -1.3343347311019897 -0.14015570282936096 5.0 6 -0.06985394656658173
-2.8625965118408203 -1.6480616331100464 0.7625840902328491 8.0 14 -0.06985164433717728
-2.8902695178985596 -1.662650465965271 0.8934433460235596 8.0 15 -0.06984703242778778
-1.8418045043945312 -1.056092381477356 -0.5688843131065369 1.0 0 -0.06982629746198654
-2.3317317962646484 -1.336477279663086 0.046912070363759995 19.0 8 -0.06982399523258209
-2.7848799228668213 -1.5955613851547241 -0.7409887909889221 45.0 1 -0.06982168555259705
-2.3033595085144043 -1.3191465139389038 0.13910898566246033 23.0 9 -0.0698193833231926
-2.77182936668396 -1.5874416828155518 -0.6208925247192383 55.0 2 -0.06981708109378815
-2.809786319732666 -1.6085296869277954 0.2832561731338501 11.0 10 -0.0698147788643837
-2.763784408569336 -1.581553339958191 -0.5043447613716125 47.0 3 -0.06981247663497925
-2.8672564029693604 -1.6401002407073975 0.40558120608329773 23.0 11 -0.0698101669549942
-2.729679822921753 -1.5607730150222778 -0.38608211278915405 48.0 4 -0.06980786472558975
-2.8692281246185303 -1.6398992538452148 0.523429811000824 12.0 12 -0.0698055624961853
-2.437274217605591 -1.3930171728134155 -0.24560487270355225 8.0 5 -0.06980326026678085
-2.8911118507385254 -1.6517375707626343 0.6472241282463074 6.0 13 -0.0698009505867958
-2.332719087600708 -1.332179069519043 -0.14078372716903687 1.0 6 -0.06979864835739136
-2.8703103065490723 -1.6385246515274048 0.7630340456962585 4.0 14 -0.06979634612798691
-2.3342936038970947 -1.3319978713989258 -0.046912070363759995 1.0 7 -0.06979404389858246
-2.8929879665374756 -1.6501308679580688 0.8924081325531006 8.0 15 -0.06979173421859741
-1.8723472356796265 -1.0649387836456299 -0.5771664977073669 1.0 0 -0.06977099925279617
-2.338121175765991 -1.3293180465698242 0.046946972608566284 22.0 8 -0.06976869702339172
-2.7785730361938477 -1.5790905952453613 -0.7378395199775696 48.0 1 -0.06976639479398727
-2.3114235401153564 -1.3130712509155273 0.1393183320760727 16.0 9 -0.06976409256458282
-2.7773537635803223 -1.5777565240859985 -0.6208925247192383 55.0 2 -0.06976178288459778
-2.40130615234375 -1.3635774850845337 0.24159571528434753 6.0 10 -0.06975948065519333
-2.7675700187683105 -1.5709210634231567 -0.5040318965911865 50.0 3 -0.06975717842578888
-2.8902294635772705 -1.6398777961730957 0.4080185890197754 9.0 11 -0.06975487619638443
-2.742018222808838 -1.555152177810669 -0.3870570659637451 47.0 4 -0.06975256651639938
-2.8766531944274902 -1.630847692489624 0.5237426161766052 3.0 12 -0.06975026428699493
-2.4351892471313477 -1.380570650100708 -0.24490763247013092 8.0 5 -0.06974796205759048
-2.9036922454833984 -1.6455073356628418 0.6487506031990051 5.0 13 -0.06974565982818604
-2.337355136871338 -1.3240281343460083 -0.14078372716903687 1.0 6 -0.06974335014820099
-2.8624463081359863 -1.6208137273788452 0.7594348192214966 2.0 14 -0.06974104791879654
-2.304123640060425 -1.3041415214538574 -0.04621397331357002 1.0 7 -0.06973874568939209
-2.927314043045044 -1.6561949253082275 0.9012079238891602 9.0 15 -0.06973644345998764
-1.889513611793518 -1.0659904479980469 -0.581307590007782 1.0 0 -0.0697157084941864
-2.3584237098693848 -1.3299881219863892 0.04726111888885498 14.0 8 -0.06971339881420135
-2.7772774696350098 -1.5655540227890015 -0.7360398769378662 54.0 1 -0.0697110965847969
-2.3072926998138428 -1.3000930547714233 0.13879497349262238 13.0 9 -0.06970879435539246
-2.7811334133148193 -1.5670888423919678 -0.6205108761787415 58.0 2 -0.069706492125988
-2.3366129398345947 -1.3160762786865234 0.2346232533454895 10.0 10 -0.06970418244600296
-2.7678728103637695 -1.558343529701233 -0.5030933022499084 51.0 3 -0.06970188021659851
-2.8647966384887695 -1.6122552156448364 0.4036312997341156 2.0 11 -0.06969957798719406
-2.7335894107818604 -1.5377850532531738 -0.385107159614563 48.0 4 -0.06969727575778961
-2.875441312789917 -1.6169235706329346 0.5224911570549011 3.0 12 -0.06969496607780457
-2.4452035427093506 -1.3749914169311523 -0.2454305738210678 8.0 5 -0.06969266384840012
-2.919687032699585 -1.6411333084106445 0.6510403156280518 5.0 13 -0.06969036161899567
-2.3175854682922363 -1.3021644353866577 -0.1393183320760727 1.0 6 -0.06968805938959122
-2.842600107192993 -1.596497893333435 0.7526862621307373 2.0 14 -0.06968574970960617
-2.308661937713623 -1.2960906028747559 -0.04621397331357002 1.0 7 -0.06968344748020172
-2.8960139751434326 -1.6251674890518188 0.8898199200630188 9.0 15 -0.06968114525079727
-1.8965948820114136 -1.0612750053405762 -0.5823428630828857 1.0 0 -0.06966041028499603
-2.382249355316162 -1.3324854373931885 0.047645069658756256 23.0 8 -0.06965810805559158
-2.7776224613189697 -1.5529975891113281 -0.7346901893615723 51.0 1 -0.06965579837560654
-2.285665273666382 -1.2774149179458618 0.13722489774227142 13.0 9 -0.06965349614620209
-2.7728769779205322 -1.5497082471847534 -0.617457926273346 57.0 2 -0.06965119391679764
-2.3446712493896484 -1.309855341911316 0.23497188091278076 9.0 10 -0.06964889168739319
-2.769845962524414 -1.5467466115951538 -0.5024675726890564 54.0 3 -0.06964658200740814
-2.863474130630493 -1.5983744859695435 0.40265634655952454 2.0 11 -0.06964427977800369
-2.7337398529052734 -1.5253318548202515 -0.3843759298324585 51.0 4 -0.06964197754859924
-2.8724417686462402 -1.602066159248352 0.520926833152771 3.0 12 -0.0696396753191948
-2.451727867126465 -1.3674185276031494 -0.24560487270355225 8.0 5 -0.06963736563920975
-2.8996763229370117 -1.6165916919708252 0.6453160643577576 3.0 13 -0.0696350634098053
-2.290713310241699 -1.2765661478042603 -0.1374342441558838 1.0 6 -0.06963276118040085
-2.9792418479919434 -1.659588098526001 0.7873287796974182 8.0 14 -0.0696304589509964
-2.2869651317596436 -1.273431420326233 -0.045690398663282394 3.0 7 -0.06962815672159195
-2.9016692638397217 -1.6150485277175903 0.8898199200630188 10.0 15 -0.0696258470416069
-1.8867751359939575 -1.0471479892730713 -0.5782017707824707 3.0 0 -0.06960511207580566
-2.3816401958465576 -1.3212521076202393 0.04754035547375679 33.0 8 -0.06960280984640121
-2.7813222408294678 -1.5423471927642822 -0.7342402935028076 57.0 1 -0.06960050761699677
-2.300591230392456 -1.275238275527954 0.13785292208194733 18.0 9 -0.06959819793701172
-2.761098623275757 -1.5305016040802002 -0.6136417388916016 57.0 2 -0.06959589570760727
-2.321345090866089 -1.2862133979797363 0.23218289017677307 6.0 10 -0.06959359347820282
-2.7873244285583496 -1.543768048286438 -0.5046576261520386 66.0 3 -0.06959129124879837
-3.001025438308716 -1.6614418029785156 0.42118048667907715 4.0 11 -0.06958898156881332
-2.7390472888946533 -1.5157806873321533 -0.3843759298324585 55.0 4 -0.06958667933940887
-3.0854415893554688 -1.7067698240280151 0.5584710836410522 10.0 12 -0.06958437711000443
-2.4425392150878906 -1.351136326789856 -0.2442103773355484 8.0 5 -0.06958207488059998
