# .PCD v0.7 - Point Cloud Data file format
VERSION 0.7
FIELDS x y z intensity ring time
SIZE 4 4 4 4 4 4
TYPE F F F F F F
COUNT 1 1 1 1 1 1
WIDTH 542
HEIGHT 1
VIEWPOINT 0 0 0 1 0 0 0
POINTS 542
DATA ascii
-2.6887927055358887 -2.335684299468994 0.5641027688980103 30.0 12 -0.06359872221946716
-1.4800655841827393 -1.2856944799423218 -0.17152249813079834 0.0 5 -0.06359641999006271
-2.681591510772705 -2.3286075592041016 0.6903470158576965 63.0 13 -0.06359411776065826
-2.30161190032959 -1.9979420900344849 -0.15972934663295746 1.0 6 -0.06359181553125381
-2.6772916316986084 -2.323235273361206 0.8183720111846924 11.0 14 -0.06358950585126877
-2.2446956634521484 -1.9471609592437744 -0.05186855047941208 7.0 7 -0.06358720362186432
-2.6563518047332764 -2.303440809249878 0.9421013593673706 48.0 15 -0.06358490139245987
-1.617414951324463 -1.399073600769043 -0.5730253458023071 1.0 0 -0.06356416642665863
-2.273465871810913 -1.9658681154251099 0.052461933344602585 10.0 8 -0.06356186419725418
-2.693014621734619 -2.327010154724121 0.186525359749794 2.0 9 -0.06355725228786469
-2.2624194622039795 -1.9549365043640137 -0.5812042355537415 6.0 2 -0.06355495005846024
-2.715501546859741 -2.345613479614258 0.31393498182296753 15.0 10 -0.06355264782905579
-1.553435206413269 -1.3413622379302979 -0.325070858001709 1.0 3 -0.06355033814907074
-2.694350004196167 -2.3257009983062744 0.4370235204696655 41.0 11 -0.06354803591966629
-2.698425054550171 -2.3275744915008545 0.5644156336784363 27.0 12 -0.06354343146085739
-1.5086833238601685 -1.3013416528701782 -0.17431147396564484 1.0 5 -0.06354112178087234
-2.6897029876708984 -2.3192334175109863 0.6903470158576965 60.0 13 -0.0635388195514679
-2.323700189590454 -2.0029356479644775 -0.1607760637998581 1.0 6 -0.06353651732206345
-2.676527261734009 -2.3062431812286377 0.8156725764274597 9.0 14 -0.063534215092659
-2.2787508964538574 -1.962805151939392 -0.05249683931469917 3.0 7 -0.06353190541267395
-2.6585211753845215 -2.289111852645874 0.9400308132171631 45.0 15 -0.0635296031832695
-1.6047030687332153 -1.37831449508667 -0.5668137073516846 1.0 0 -0.06350886821746826
-2.2954862117767334 -1.970947027206421 0.05281098559498787 8.0 8 -0.06350656598806381
-2.260988473892212 -1.9406414031982422 -0.6879003643989563 2.0 1 -0.06350426375865936
-2.6859633922576904 -2.3045899868011475 0.18547864258289337 2.0 9 -0.06350195407867432
-2.251349925994873 -1.931686282157898 -0.5766248106956482 10.0 2 -0.06349965184926987
-2.722160577774048 -2.334822654724121 0.3137606680393219 12.0 10 -0.06349734961986542
-1.5581077337265015 -1.3359318971633911 -0.325070858001709 1.0 3 -0.06349504739046097
-2.700944662094116 -2.3149900436401367 0.43677976727485657 38.0 11 -0.06349273771047592
-2.6870291233062744 -2.30143666267395 0.5603483319282532 23.0 12 -0.06348813325166702
-1.4859787225723267 -1.2727385759353638 -0.17117387056350708 0.0 5 -0.06348583102226257
-2.7007648944854736 -2.3123841285705566 0.6911102533340454 57.0 13 -0.06348352134227753
-2.3458518981933594 -2.007798910140991 -0.16182279586791992 1.0 6 -0.06348121911287308
-2.665311336517334 -2.2804172039031982 0.8098238706588745 9.0 14 -0.06347891688346863
-2.281029462814331 -1.950939416885376 -0.05239212512969971 2.0 7 -0.06347661465406418
-2.662090539932251 -2.2760515213012695 0.9384778738021851 43.0 15 -0.06347431242465973
-1.6271429061889648 -1.387747883796692 -0.5730253458023071 1.0 0 -0.0634535700082779
-2.3023521900177 -1.962922215461731 0.05281098559498787 7.0 8 -0.06345126777887344
-2.2855467796325684 -1.9479058980941772 -0.6932992339134216 13.0 1 -0.063448965549469
-2.662065029144287 -2.2679996490478516 0.18328052759170532 3.0 9 -0.06344666332006454
-2.2643935680389404 -1.9285132884979248 -0.578151285648346 12.0 2 -0.0634443536400795
-2.7181594371795654 -2.314971685409546 0.31236615777015686 10.0 10 -0.06344205141067505
-1.5627615451812744 -1.3304848670959473 -0.325070858001709 1.0 3 -0.0634397491812706
-2.7044737339019775 -2.301687717437744 0.4360485374927521 33.0 11 -0.06343744695186615
-2.6890273094177246 -2.286923885345459 0.5590968132019043 22.0 12 -0.06343283504247665
-1.5240285396575928 -1.2956749200820923 -0.17500872910022736 2.0 5 -0.0634305328130722
-2.6987502574920654 -2.2935702800750732 0.688438892364502 49.0 13 -0.06342823058366776
-2.3531949520111084 -1.9991878271102905 -0.16182279586791992 1.0 6 -0.0634259283542633
-2.677710771560669 -2.2748847007751465 0.8111735582351685 8.0 14 -0.06342361867427826
-2.231430768966675 -1.8950703144073486 -0.05110064893960953 1.0 7 -0.06342131644487381
-2.6582369804382324 -2.2567436695098877 0.93433678150177 43.0 15 -0.06341901421546936
-2.3293750286102295 -1.9712637662887573 0.05326474457979202 5.0 8 -0.06339596956968307
-2.2911832332611084 -1.938257098197937 -0.6928492784500122 15.0 1 -0.06339366734027863
-2.652059316635132 -2.242751359939575 0.18202447891235352 50.0 9 -0.06339136511087418
-2.266948699951172 -1.9163987636566162 -0.577006459236145 14.0 2 -0.06338906288146973
-2.717496633529663 -2.297276020050049 0.31132030487060547 10.0 10 -0.06338675320148468
-1.5676276683807373 -1.324748158454895 -0.325070858001709 1.0 3 -0.06338445097208023
-2.7083425521850586 -2.287917137145996 0.43531733751296997 26.0 11 -0.06338214874267578
-2.6989006996154785 -2.278326988220215 0.5594097375869751 20.0 12 -0.06337754428386688
-1.4922230243682861 -1.2592417001724243 -0.17082524299621582 0.0 5 -0.06337523460388184
-2.6936328411102295 -2.2722702026367188 0.6850043535232544 42.0 13 -0.06337293237447739
-2.4918153285980225 -2.101278781890869 -0.1708245724439621 1.0 6 -0.06337063014507294
-2.683051109313965 -2.262542486190796 0.8102737665176392 8.0 14 -0.06336832791566849
-2.2016663551330566 -1.8559468984603882 -0.0502629317343235 1.0 7 -0.06336601823568344
-2.6576271057128906 -2.239516258239746 0.9312310218811035 42.0 15 -0.06336371600627899
-2.333522081375122 -1.960140347480774 0.053194932639598846 4.0 8 -0.0633406788110733
-2.2893173694610596 -1.9223276376724243 -0.6901498436927795 19.0 1 -0.06333836913108826
-2.665990114212036 -2.238617420196533 0.18244315683841705 10.0 9 -0.06333606690168381
-2.264601707458496 -1.9009010791778564 -0.5747166872024536 19.0 2 -0.06333376467227936
-2.7213196754455566 -2.2834584712982178 0.3107973635196686 8.0 10 -0.06333146244287491
-1.5724725723266602 -1.3189935684204102 -0.325070858001709 1.0 3 -0.06332916021347046
-2.6984565258026123 -2.262669324874878 0.4323924481868744 19.0 11 -0.06332685053348541
-2.7007813453674316 -2.2638161182403564 0.5581582188606262 15.0 12 -0.06332224607467651
-1.4935551881790161 -1.251465916633606 -0.17047663033008575 0.0 5 -0.06331994384527206
-2.6940228939056396 -2.2565507888793945 0.6830962300300598 38.0 13 -0.06331763416528702
-2.5083229541778564 -2.1002612113952637 -0.1714526116847992 1.0 6 -0.06331533193588257
-2.6894383430480957 -2.2519118785858154 0.8098238706588745 8.0 14 -0.06331302970647812
-2.1851303577423096 -1.8289978504180908 -0.04973935708403587 2.0 7 -0.06331072747707367
-2.65653920173645 -2.2227866649627686 0.9281251430511475 42.0 15 -0.06330841779708862
-2.2755210399627686 -1.898585319519043 0.05172893404960632 5.0 8 -0.06328538060188293
-2.2822108268737793 -1.903491735458374 -0.6861007809638977 24.0 1 -0.06328307837247849
-2.6580610275268555 -2.2169716358184814 0.18139643967151642 6.0 9 -0.06328077614307404
-2.270892858505249 -1.8933807611465454 -0.5747166872024536 20.0 2 -0.06327846646308899
-2.727346420288086 -2.273145914077759 0.31062304973602295 8.0 10 -0.06327616423368454
-1.5768378973007202 -1.3137718439102173 -0.325070858001709 1.0 3 -0.06327386200428009
-2.7028939723968506 -2.2511682510375977 0.43190500140190125 16.0 11 -0.06327155977487564
-2.6991653442382812 -2.2472641468048096 0.5562810301780701 15.0 12 -0.06326694786548615
-1.5007598400115967 -1.24905526638031 -0.17082524299621582 0.0 5 -0.0632646456360817
-2.69696307182312 -2.24383807182312 0.6819514036178589 35.0 13 -0.06326234340667725
-2.472277879714966 -2.0561721324920654 -0.16852180659770966 1.0 6 -0.0632600337266922
-2.6714208126068115 -2.221797466278076 0.8021755218505859 6.0 14 -0.06325773149728775
-2.174269199371338 -1.8076788187026978 -0.0493554063141346 2.0 7 -0.0632554292678833
-2.662409782409668 -2.2127304077148438 0.9276074767112732 40.0 15 -0.06325312703847885
-2.281804084777832 -1.8910294771194458 0.05172893404960632 5.0 8 -0.06323008239269257
-2.28250789642334 -1.8909400701522827 -0.6843011379241943 29.0 1 -0.06322778016328812
-2.659630060195923 -2.202584743499756 0.18097776174545288 3.0 9 -0.06322547793388367
-2.27262282371521 -1.8820829391479492 -0.5735718607902527 25.0 2 -0.06322317570447922
-2.736403703689575 -2.2653603553771973 0.3107973635196686 7.0 10 -0.06322086602449417
-1.5811858177185059 -1.3085354566574097 -0.325070858001709 1.0 3 -0.06321856379508972
-2.7026968002319336 -2.235865831375122 0.4306862950325012 12.0 11 -0.06321626156568527
-2.699381113052368 -2.2315354347229004 0.5547167062759399 13.0 12 -0.06321164965629578
-1.5051103830337524 -1.2438093423843384 -0.17082524299621582 0.0 5 -0.06320934742689133
-2.7089293003082275 -2.2386341094970703 0.6830962300300598 30.0 13 -0.06320704519748688
-2.47446346282959 -2.0441462993621826 -0.1682077795267105 1.0 6 -0.06320474296808243
-2.67765736579895 -2.2112178802490234 0.8017256259918213 8.0 14 -0.06320243328809738
-2.15743350982666 -1.7809830904006958 -0.04883183166384697 2.0 7 -0.06320013105869293
-2.6730971336364746 -2.205883026123047 0.928642749786377 40.0 15 -0.06319782882928848
-2.3254501819610596 -1.9135470390319824 0.05256664752960205 3.0 8 -0.0631747916340828
-2.2905993461608887 -1.884199619293213 -0.684751033782959 31.0 1 -0.06317248195409775
-2.6611316204071045 -2.1882131099700928 0.18055905401706696 2.0 9 -0.0631701797246933
-2.274956464767456 -1.8700002431869507 -0.5724270343780518 30.0 2 -0.06316787749528885
-2.7215981483459473 -2.236342191696167 0.3081827163696289 7.0 10 -0.0631655752658844
-1.5859708786010742 -1.3027316331863403 -0.325070858001709 1.0 3 -0.06316326558589935
-2.7058827877044678 -2.2226381301879883 0.42995506525039673 11.0 11 -0.0631609633564949
-2.691884756088257 -2.209566831588745 0.5515879988670349 13.0 12 -0.063156358897686
-1.5094430446624756 -1.238547921180725 -0.17082524299621582 0.0 5 -0.06315404921770096
-2.7004191875457764 -2.214993715286255 0.6788984537124634 27.0 13 -0.06315174698829651
-2.4726717472076416 -2.027465343475342 -0.1675797551870346 2.0 6 -0.06314944475889206
-2.691772699356079 -2.2063302993774414 0.8035252690315247 8.0 14 -0.06314714252948761
-2.1620912551879883 -1.772173285484314 -0.04879692941904068 2.0 7 -0.06314484030008316
-2.6658377647399902 -2.1842947006225586 0.9234663844108582 37.0 15 -0.06314253062009811
-2.298374891281128 -1.8771827220916748 0.0517987422645092 2.0 8 -0.06311949342489243
-2.292961835861206 -1.8720935583114624 -0.683401346206665 33.0 1 -0.06311719119548798
-2.662944793701172 -2.173393487930298 0.18014037609100342 2.0 9 -0.06311488151550293
-2.2829906940460205 -1.863289475440979 -0.5728086233139038 33.0 2 -0.06311257928609848
-2.7124063968658447 -2.2129735946655273 0.306265264749527 5.0 10 -0.06311027705669403
-1.590509057044983 -1.297187328338623 -0.325070858001709 1.0 3 -0.06310797482728958
-2.715549945831299 -2.2139601707458496 0.4301988184452057 9.0 11 -0.06310566514730453
-2.6938397884368896 -2.1946940422058105 0.550336480140686 12.0 12 -0.06310106068849564
-1.4890429973602295 -1.2131359577178955 -0.16803626716136932 0.0 5 -0.06309875845909119
-2.702045202255249 -2.2005956172943115 0.6773719787597656 23.0 13 -0.06309645622968674
-2.485929489135742 -2.0238654613494873 -0.16799843311309814 2.0 6 -0.06309414654970169
-2.684343099594116 -2.184619903564453 0.7990262508392334 8.0 14 -0.06309184432029724
-2.168572187423706 -1.7642368078231812 -0.04879692941904068 1.0 7 -0.06308954209089279
-2.6633336544036865 -2.1659774780273438 0.9198428988456726 41.0 15 -0.06308723986148834
-2.256765127182007 -1.830102801322937 0.050716694444417953 2.0 8 -0.06306419521570206
-2.294940710067749 -1.860397219657898 -0.6820515990257263 41.0 1 -0.06306189298629761
-2.6767218112945557 -2.169114589691162 0.18055905401706696 3.0 9 -0.06305959075689316
-2.2864301204681396 -1.8528369665145874 -0.5720453858375549 35.0 2 -0.06305728852748871
-2.7278552055358887 -2.2097625732421875 0.3071368336677551 6.0 10 -0.06305497884750366
-2.712461233139038 -2.1957244873046875 0.4284926652908325 8.0 11 -0.06305037438869476
-2.7030203342437744 -2.1865198612213135 0.5506494045257568 12.0 12 -0.06304576247930527
-1.5242493152618408 -1.2329916954040527 -0.17152249813079834 0.0 5 -0.06304346024990082
-2.6959707736968994 -2.180040121078491 0.6739373803138733 17.0 13 -0.06304115802049637
-2.494532823562622 -2.016430616378784 -0.16810311377048492 3.0 6 -0.06303885579109192
-2.690437078475952 -2.174011707305908 0.798576295375824 8.0 14 -0.06303654611110687
-2.180939197540283 -1.7616828680038452 -0.048936549574136734 1.0 7 -0.06303424388170242
-2.672381639480591 -2.1578805446624756 0.9203605651855469 40.0 15 -0.06303194165229797
-2.233546018600464 -1.7983859777450562 0.05005349963903427 4.0 8 -0.06300890445709229
-2.289276123046875 -1.8425997495651245 -0.6784523725509644 41.0 1 -0.06300659477710724
-2.674940824508667 -2.1522457599639893 0.17993104457855225 3.0 9 -0.06300429254770279
-2.295943260192871 -1.8473058938980103 -0.5728086233139038 48.0 2 -0.06300199031829834
-2.7277896404266357 -2.193983316421509 0.306265264749527 5.0 10 -0.06299968808889389
-2.709278106689453 -2.177537679672241 0.42678648233413696 4.0 11 -0.0629950761795044
-2.704475164413452 -2.172123670578003 0.549397885799408 12.0 12 -0.0629904717206955
-1.5536158084869385 -1.2473546266555786 -0.17431147396564484 1.0 5 -0.06298816204071045
-2.6989715099334717 -2.166928768157959 0.6727925539016724 16.0 13 -0.062985859811306
-2.4937682151794434 -2.001460075378418 -0.1675797551870346 2.0 6 -0.06298355758190155
-2.68432879447937 -2.1536319255828857 0.7945271730422974 9.0 14 -0.0629812553524971
-2.1699159145355225 -1.7402963638305664 -0.04855259507894516 3.0 7 -0.06297894567251205
-2.6738688945770264 -2.1437056064605713 0.9182900190353394 40.0 15 -0.0629766434431076
-2.217942953109741 -1.7730971574783325 0.04956483468413353 5.0 8 -0.06295360624790192
-2.289604663848877 -1.8297312259674072 -0.6766527891159058 48.0 1 -0.06295130401849747
-2.6637110710144043 -2.127936840057373 0.17867498099803925 5.0 9 -0.06294899433851242
-2.2873573303222656 -1.8266273736953735 -0.5689924359321594 46.0 2 -0.06294669210910797
-2.728027105331421 -2.17775559425354 0.3053937256336212 6.0 10 -0.06294438987970352
-2.7137598991394043 -2.1655900478363037 0.42629900574684143 4.0 11 -0.06293977797031403
-2.7027742862701416 -2.155280590057373 0.5475206971168518 12.0 12 -0.06293517351150513
-1.5797722339630127 -1.2593106031417847 -0.17675185203552246 1.0 5 -0.06293287128210068
-2.705360174179077 -2.1557984352111816 0.6724109649658203 13.0 13 -0.06293056160211563
-2.494837760925293 -1.9873294830322266 -0.16716106235980988 2.0 6 -0.06292825937271118
-2.684582233428955 -2.137708902359009 0.7922776341438293 11.0 14 -0.06292595714330673
-2.1744134426116943 -1.7314658164978027 -0.04851769283413887 8.0 7 -0.06292365491390228
-2.681334972381592 -2.134359359741211 0.9182900190353394 43.0 15 -0.06292134523391724
-2.3152832984924316 -1.837046504020691 0.05158931389451027 4.0 8 -0.06289830803871155
-2.2932422161102295 -1.8189051151275635 -0.6757529973983765 48.0 1 -0.0628960058093071
-2.6679937839508057 -2.116142511367798 0.17846561968326569 6.0 9 -0.06289370357990265
-2.284489393234253 -1.811313271522522 -0.5667027235031128 46.0 2 -0.0628913938999176
-2.7278048992156982 -2.1620326042175293 0.30452215671539307 7.0 10 -0.06288909167051315
-2.7247908115386963 -2.158094644546509 0.42678648233413696 4.0 11 -0.06288448721170425
-2.6978907585144043 -2.136024236679077 0.5450177192687988 12.0 12 -0.06287987530231476
-2.708250045776367 -2.1426875591278076 0.6712660789489746 12.0 13 -0.06287527084350586
-2.4954941272735596 -1.9736521244049072 -0.16674236953258514 1.0 6 -0.06287296116352081
-2.6920275688171387 -2.1283252239227295 0.7922776341438293 12.0 14 -0.06287065893411636
-2.1757376194000244 -1.7201448678970337 -0.048412974923849106 15.0 7 -0.06286835670471191
-2.6690657138824463 -2.109414577484131 0.9115607142448425 43.0 15 -0.06286605447530746
-2.2365493774414062 -1.7625212669372559 0.049704451113939285 3.0 8 -0.06284300982952118
-2.3007919788360596 -1.8124961853027344 -0.6762028932571411 51.0 1 -0.06284070760011673
-2.6722259521484375 -2.1043453216552734 0.17825628817081451 6.0 9 -0.06283840537071228
-2.289255142211914 -1.8021141290664673 -0.5663211345672607 52.0 2 -0.06283610314130783
-2.7196784019470215 -2.1401758193969727 0.30277904868125916 7.0 10 -0.06283379346132278
-2.7319324016571045 -2.1490468978881836 0.42678648233413696 2.0 11 -0.06282918900251389
-2.703778028488159 -2.1253721714019775 0.5447048544883728 13.0 12 -0.06282457709312439
-2.7122530937194824 -2.1312687397003174 0.6705028414726257 11.0 13 -0.06281997263431549
-2.5020246505737305 -1.9653663635253906 -0.16674236953258514 1.0 6 -0.06281767040491104
-2.696005344390869 -2.1169795989990234 0.7913778424263 13.0 14 -0.06281536817550659
-2.186447858810425 -1.716243863105774 -0.04851769283413887 14.0 7 -0.06281305849552155
-2.673372983932495 -2.0976998805999756 0.9105254411697388 44.0 15 -0.0628107562661171
-2.171816825866699 -1.6992528438568115 0.048133738338947296 6.0 8 -0.06278771907091141
-2.29328989982605 -1.7936488389968872 -0.6721537709236145 43.0 1 -0.06278540939092636
-2.676407814025879 -2.0925447940826416 0.17804694175720215 6.0 9 -0.06278310716152191
-2.2936718463897705 -1.793303370475769 -0.5659394860267639 55.0 2 -0.06278080493211746
-2.7157716751098633 -2.1225574016571045 0.30155888199806213 8.0 10 -0.06277850270271301
-2.7237725257873535 -2.127279043197632 0.4243490695953369 2.0 11 -0.06277389079332352
-2.709623336791992 -2.114706039428711 0.5443919897079468 13.0 12 -0.06276928633451462
-2.6995532512664795 -2.106088638305664 0.6655418276786804 10.0 13 -0.06276467442512512
-2.543518543243408 -1.983642578125 -0.16904516518115997 2.0 6 -0.06276237219572067
-2.6956942081451416 -2.101564884185791 0.7891283631324768 16.0 14 -0.06276006996631622
-2.2018892765045166 -1.715976357460022 -0.048727117478847504 12.0 7 -0.06275776773691177
-2.679155111312866 -2.0871682167053223 0.9100078344345093 48.0 15 -0.06275545805692673
-2.169839382171631 -1.6855272054672241 0.047959212213754654 4.0 8 -0.06273242086172104
-2.29799747467041 -1.7844380140304565 -0.6717038750648499 34.0 1 -0.06273011863231659
-2.674229621887207 -2.0758414268493652 0.17741890251636505 9.0 9 -0.06272781640291214
-2.2937145233154297 -1.7804707288742065 -0.5644130706787109 49.0 2 -0.0627255067229271
-2.7357568740844727 -2.122835397720337 0.3029533624649048 10.0 10 -0.06272320449352264
-2.721768856048584 -2.1104605197906494 0.4228866696357727 4.0 11 -0.06271860003471375
-2.7169885635375977 -2.1052346229553223 0.5443919897079468 13.0 12 -0.06271398812532425
-2.7022318840026855 -2.0930469036102295 0.6643969416618347 8.0 13 -0.06270938366651535
-2.563060998916626 -1.984533667564392 -0.16988252103328705 5.0 6 -0.0627070739865303
-2.6999313831329346 -2.089756727218628 0.7882285714149475 24.0 14 -0.06270477175712585
-2.209447145462036 -1.7095036506652832 -0.04876202344894409 9.0 7 -0.0627024695277214
-2.686424493789673 -2.077803373336792 0.9100078344345093 48.0 15 -0.06270016729831696
-2.215296983718872 -1.7084729671478271 0.04883183166384697 6.0 8 -0.06267712265253067
-2.298038959503174 -1.77164626121521 -0.6699042916297913 13.0 1 -0.06267482042312622
-2.667221784591675 -2.0555214881896973 0.1764768660068512 7.0 9 -0.06267251819372177
-2.2828099727630615 -1.7592706680297852 -0.5602152347564697 46.0 2 -0.06267021596431732
-2.7305240631103516 -2.1035454273223877 0.30155888199806213 11.0 10 -0.06266790628433228
-2.7322657108306885 -2.103367805480957 0.42337414622306824 4.0 11 -0.06266330182552338
-2.70866322517395 -2.083693742752075 0.5412633419036865 16.0 12 -0.06265868991613388
-2.704852819442749 -2.080010414123535 0.6632521152496338 7.0 13 -0.06265408545732498
-2.554137945175171 -1.963402509689331 -0.1688358038663864 3.0 6 -0.06265178322792053
-2.7041189670562744 -2.0779452323913574 0.7873287796974182 31.0 14 -0.06264947354793549
-2.19637131690979 -1.6871628761291504 -0.04834316670894623 11.0 7 -0.06264717131853104
-2.685999870300293 -2.062530279159546 0.9074196219444275 51.0 15 -0.06264486908912659
-2.2879319190979004 -1.75178861618042 0.05029783770442009 7.0 8 -0.0626218318939209
-2.666450023651123 -2.0401296615600586 0.17595350742340088 9.0 9 -0.0626172199845314
-2.2873785495758057 -1.7500979900360107 -0.5598336458206177 36.0 2 -0.06261491775512695
-2.7299365997314453 -2.087949752807617 0.3006872832775116 12.0 10 -0.0626126155257225
-2.7364368438720703 -2.09140682220459 0.4228866696357727 4.0 11 -0.06260800361633301
-2.7174901962280273 -2.075425148010254 0.5415762066841125 22.0 12 -0.06260339915752411
-2.707415819168091 -2.066981792449951 0.6621072888374329 7.0 13 -0.06259878724813461
-2.553037166595459 -1.9484169483184814 -0.1683124452829361 3.0 6 -0.06259648501873016
-2.7098069190979004 -2.0673105716705322 0.7868788242340088 35.0 14 -0.06259418278932571
-2.1911165714263916 -1.670997142791748 -0.04809883236885071 7.0 7 -0.06259188055992126
-2.6824283599853516 -2.0449438095092773 0.9037961363792419 53.0 15 -0.06258957087993622
-2.243387460708618 -1.704675316810608 0.049180880188941956 11.0 8 -0.0625663623213768
-2.6290218830108643 -1.9969834089279175 0.17302268743515015 10.0 9 -0.0625617504119873
-2.3062856197357178 -1.7512009143829346 -0.5628865361213684 30.0 2 -0.06255944818258286
-2.7312235832214355 -2.073111057281494 0.29999005794525146 16.0 10 -0.0625571459531784
-2.7330117225646973 -2.0729660987854004 0.42118048667907715 5.0 11 -0.06255253404378891
-2.7278666496276855 -2.068312644958496 0.5422019362449646 27.0 12 -0.06254792958498001
-2.7087137699127197 -2.0523030757904053 0.6605807542800903 7.0 13 -0.06254331767559052
-2.5442402362823486 -1.9269871711730957 -0.16726572811603546 2.0 6 -0.06254101544618607
-2.717365264892578 -2.0573654174804688 0.7868788242340088 44.0 14 -0.06253871321678162
-2.1873698234558105 -1.6560965776443481 -0.047889403998851776 15.0 7 -0.06253641098737717
-2.6818482875823975 -2.029738426208496 0.9012079238891602 52.0 15 -0.06253410130739212
-2.2282772064208984 -1.6815683841705322 0.048727117478847504 13.0 8 -0.06251106411218643
-2.6551127433776855 -2.0022246837615967 0.17427875101566315 9.0 9 -0.06250645965337753
-2.328061580657959 -1.754957675933838 -0.5667027235031128 26.0 2 -0.06250414997339249
-2.7416255474090576 -2.0659632682800293 0.3003386855125427 21.0 10 -0.06250184774398804
-2.730358123779297 -2.05672550201416 0.41971805691719055 8.0 11 -0.06249723955988884
-2.7319130897521973 -2.0564026832580566 0.5415762066841125 30.0 12 -0.06249263137578964
-2.706092119216919 -2.036226511001587 0.6582910418510437 7.0 13 -0.062488023191690445
-2.292043447494507 -1.7240444421768188 -0.15030889213085175 1.0 6 -0.062485720962285995
-2.730403184890747 -2.053027629852295 0.7886784672737122 53.0 14 -0.06248341500759125
-2.1883420944213867 -1.6448465585708618 -0.04778468981385231 12.0 7 -0.0624811127781868
-2.687373161315918 -2.0192036628723145 0.9006903171539307 55.0 15 -0.06247880682349205
-2.2373344898223877 -1.6761775016784668 0.04879692941904068 13.0 8 -0.06245576962828636
-1.917001724243164 -1.435666561126709 -0.5529297590255737 1.0 1 -0.062453463673591614
-2.6732776165008545 -2.0013229846954346 0.17501145601272583 7.0 9 -0.062451161444187164
-2.36372971534729 -1.769582986831665 -0.5739535093307495 32.0 2 -0.062448855489492416
-2.743675947189331 -2.053278923034668 0.29981574416160583 26.0 10 -0.06244655326008797
-2.721623182296753 -2.0352938175201416 0.4172806739807129 9.0 11 -0.06244194507598877
-2.740657091140747 -2.048036575317383 0.5418890714645386 38.0 12 -0.06243733689188957
-2.7116105556488037 -2.0255932807922363 0.6579094529151917 7.0 13 -0.062432728707790375
-2.270841598510742 -1.6957181692123413 -0.14852945506572723 6.0 6 -0.06243042275309563
-2.717251777648926 -2.028329849243164 0.782829761505127 63.0 14 -0.06242812052369118
-2.206892251968384 -1.6467645168304443 -0.04806393012404442 11.0 7 -0.06242581829428673
-2.6882104873657227 -2.0051910877227783 0.8986197710037231 56.0 15 -0.06242351233959198
-2.2656354904174805 -1.6850647926330566 0.04928559437394142 14.0 8 -0.06240047141909599
-1.9001071453094482 -1.4126882553100586 -0.5466310977935791 1.0 1 -0.062398169189691544
-2.6674225330352783 -1.9824490547180176 0.17417407035827637 7.0 9 -0.062395863234996796
-2.373351573944092 -1.763249158859253 -0.5747166872024536 32.0 2 -0.062393561005592346
-2.746384859085083 -2.0396454334259033 0.29929283261299133 31.0 10 -0.0623912550508976
-2.7271173000335693 -2.024597644805908 0.41703692078590393 12.0 11 -0.0623866468667984
-2.722405433654785 -2.0196261405944824 0.5368831753730774 32.0 12 -0.0623820424079895
-2.714285135269165 -2.0121335983276367 0.656764566898346 8.0 13 -0.062377434223890305
-2.256180763244629 -1.6719250679016113 -0.14716872572898865 4.0 6 -0.06237512826919556
-2.7152721881866455 -2.011397123336792 0.7801303267478943 67.0 14 -0.06237282603979111
-2.2029857635498047 -1.631909728050232 -0.04785449802875519 9.0 7 -0.06237052008509636
-2.6905360221862793 -1.992346167564392 0.8970668315887451 58.0 15 -0.06236821785569191
-2.2975387573242188 -1.695750117301941 0.04984407499432564 24.0 8 -0.06234517693519592
-1.848819613456726 -1.3640636205673218 -0.5304346084594727 1.0 1 -0.062342870980501175
-2.6743268966674805 -1.9731249809265137 0.17417407035827637 7.0 9 -0.062340568751096725
-2.388972282409668 -1.7619457244873047 -0.577006459236145 30.0 2 -0.06233826279640198
-2.747072458267212 -2.025317430496216 0.2985955774784088 45.0 10 -0.06233596056699753
-2.737715721130371 -2.0169436931610107 0.41752439737319946 16.0 11 -0.06233135238289833
-2.723076343536377 -2.0054259300231934 0.5356317162513733 41.0 12 -0.06232674419879913
-2.724454641342163 -2.004973888397217 0.6575278043746948 8.0 13 -0.062322136014699936
-2.262003183364868 -1.6640392541885376 -0.14716872572898865 10.0 6 -0.062319833785295486
-2.7285566329956055 -2.0065248012542725 0.7819299101829529 72.0 14 -0.06231752783060074
-2.1957807540893555 -1.614732265472412 -0.04757525771856308 9.0 7 -0.06231522560119629
-2.700587511062622 -1.9852306842803955 0.8981021642684937 64.0 15 -0.06231291964650154
-2.2902467250823975 -1.6786643266677856 0.04956483468413353 33.0 8 -0.062289878726005554
-1.8942036628723145 -1.3878709077835083 -0.5421320796012878 1.0 1 -0.062287576496601105
-2.6811981201171875 -1.963777780532837 0.17417407035827637 7.0 9 -0.062285274267196655
-2.4109482765197754 -1.765194296836853 -0.5808225870132446 28.0 2 -0.06228296831250191
-2.7364401817321777 -2.0027713775634766 0.2966781258583069 41.0 10 -0.06228066608309746
-2.737981081008911 -2.0031652450561523 0.4165494441986084 17.0 11 -0.06227605789899826
-2.7332496643066406 -1.9982393980026245 0.5362574458122253 47.0 12 -0.06227144971489906
-2.7263331413269043 -1.99245285987854 0.6563829779624939 10.0 13 -0.062266841530799866
-2.2868616580963135 -1.6706678867340088 -0.14842478930950165 16.0 6 -0.06226453557610512
-2.7147364616394043 -1.9825245141983032 0.7760811448097229 74.0 14 -0.06226223334670067
-2.1981735229492188 -1.6046994924545288 -0.0475054495036602 12.0 7 -0.06225992739200592
-2.6903345584869385 -1.9632657766342163 0.8924081325531006 69.0 15 -0.06225762516260147
-2.2880077362060547 -1.6647769212722778 0.049390312284231186 29.0 8 -0.062234584242105484
-1.9147964715957642 -1.3927130699157715 -0.5466310977935791 1.0 1 -0.062232282012701035
-2.6896517276763916 -1.955581784248352 0.17427875101566315 6.0 9 -0.06222997605800629
-2.434255361557007 -1.769889235496521 -0.5850204229354858 27.0 2 -0.06222767382860184
-2.744678258895874 -1.9948580265045166 0.2968524396419525 48.0 10 -0.06222536787390709
-2.725682020187378 -1.9795979261398315 0.4136245846748352 23.0 11 -0.06222075968980789
-2.7370107173919678 -1.986365795135498 0.5356317162513733 56.0 12 -0.062216151505708694
-2.7157912254333496 -1.9702433347702026 0.6521852016448975 11.0 13 -0.0622115433216095
-2.2813618183135986 -1.6544662714004517 -0.14769208431243896 18.0 6 -0.06220924109220505
-2.7232182025909424 -1.9741801023483276 0.7765311002731323 78.0 14 -0.0622069351375103
-2.2750070095062256 -1.648647427558899 -0.0490412637591362 19.0 7 -0.06220463290810585
-2.697171926498413 -1.953861951828003 0.8924081325531006 72.0 15 -0.0622023269534111
-2.287320852279663 -1.652096152305603 0.04925068840384483 13.0 8 -0.062179289758205414
-1.941765308380127 -1.401991844177246 -0.5529297590255737 1.0 1 -0.062176983803510666
-2.6835057735443115 -1.9368301630020142 0.17344138026237488 6.0 9 -0.062174681574106216
-2.4563379287719727 -1.7728710174560547 -0.5888366103172302 3.0 2 -0.06217237561941147
-2.750009298324585 -1.9840986728668213 0.2966781258583069 55.0 10 -0.06217007339000702
-2.7245242595672607 -1.9642667770385742 0.4124058783054352 33.0 11 -0.06216546520590782
-2.737516164779663 -1.9721814393997192 0.5343801975250244 57.0 12 -0.062160857021808624
-2.724245071411133 -1.961898684501648 0.6525667905807495 13.0 13 -0.06215624883770943
-2.2757766246795654 -1.6383246183395386 -0.14695937931537628 19.0 6 -0.06215394288301468
-2.7158567905426025 -1.954418420791626 0.7724819779396057 86.0 14 -0.06215164065361023
-2.29211163520813 -1.6488697528839111 -0.04928559437394142 20.0 7 -0.06214933842420578
-2.702407121658325 -1.9433072805404663 0.8918904662132263 74.0 15 -0.06214703246951103
-2.2459444999694824 -1.6103113889694214 0.04823845252394676 21.0 8 -0.062123991549015045
-1.8674510717391968 -1.3384432792663574 -0.5304346084594727 1.0 1 -0.062121689319610596
-2.6740145683288574 -1.9158189296722412 0.17239466309547424 6.0 9 -0.06211938336491585
-2.748818874359131 -1.9686872959136963 0.2958065867424011 58.0 10 -0.06211477518081665
-2.7313649654388428 -1.9547436237335205 0.4124058783054352 34.0 11 -0.06211016699671745
-2.734743118286133 -1.9557193517684937 0.5325029492378235 61.0 12 -0.062105558812618256
-2.7278831005096436 -1.950093150138855 0.6518035531044006 15.0 13 -0.06210095435380936
-2.284731149673462 -1.6326936483383179 -0.14716872572898865 19.0 6 -0.06209864839911461
-2.7099766731262207 -1.9358642101287842 0.7688827514648438 81.0 14 -0.06209634616971016
-2.270188093185425 -1.621103286743164 -0.048692215234041214 13.0 7 -0.06209404021501541
-2.7060296535491943 -1.9316173791885376 0.8908551931381226 76.0 15 -0.06209173798561096
-2.243406057357788 -1.5966641902923584 0.04806393012404442 25.0 8 -0.062068697065114975
-2.6806857585906982 -1.9064730405807495 0.17239466309547424 6.0 9 -0.06206408888101578
-2.744307518005371 -1.9509990215301514 0.2945863902568817 60.0 10 -0.06205948069691658
-2.741407871246338 -1.9474976062774658 0.4128933846950531 45.0 11 -0.06205487251281738
-2.735110282897949 -1.9415874481201172 0.5312514901161194 61.0 12 -0.062050264328718185
-2.73307204246521 -1.9394234418869019 0.6514219641685486 18.0 13 -0.06204565614461899
-2.3018198013305664 -1.6327972412109375 -0.14790143072605133 15.0 6 -0.06204335391521454
-2.7262561321258545 -1.9331554174423218 0.7715821266174316 86.0 14 -0.06204104796051979
-2.2807273864746094 -1.61663818359375 -0.04879692941904068 23.0 7 -0.06203874573111534
-2.7001452445983887 -1.9132252931594849 0.8867141008377075 78.0 15 -0.06203643977642059
-2.2358999252319336 -1.5795927047729492 0.04778468981385231 31.0 8 -0.062013398855924606
-2.6905875205993652 -1.8994078636169434 0.17260399460792542 5.0 9 -0.06200879067182541
-2.7445895671844482 -1.9368126392364502 0.2938891649246216 60.0 10 -0.06200418621301651
-2.7449443340301514 -1.935628056526184 0.4124058783054352 55.0 11 -0.06199957802891731
-2.7418713569641113 -1.9320276975631714 0.5312514901161194 67.0 12 -0.061994969844818115
-2.726984977722168 -1.92082679271698 0.6483690142631531 21.0 13 -0.06199036166071892
-2.3156707286834717 -1.6305018663406372 -0.14842478930950165 11.0 6 -0.06198805570602417
-2.723426103591919 -1.9168972969055176 0.7688827514648438 81.0 14 -0.06198575347661972
-2.2847206592559814 -1.607516884803772 -0.04876202344894409 24.0 7 -0.06198344752192497
-2.6941657066345215 -1.894897222518921 0.8825729489326477 80.0 15 -0.06198114529252052
-1.6718631982803345 -1.1723921298980713 -0.5471434593200684 1.0 0 -0.061960410326719284
-2.243036985397339 -1.5729271173477173 0.0478195957839489 35.0 8 -0.061958104372024536
-2.700472831726074 -1.8922966718673706 0.17281334102153778 5.0 9 -0.06195349618792534
-1.6739351749420166 -1.172538161277771 -0.3972643315792084 1.0 2 -0.06195119395852089
-2.748405933380127 -1.9244545698165894 0.2935405373573303 63.0 10 -0.06194888800382614
-2.741926908493042 -1.9192050695419312 0.41094347834587097 61.0 11 -0.061944279819726944
-2.745360851287842 -1.9201810359954834 0.5306257605552673 62.0 12 -0.06193967163562775
-2.3774547576904297 -1.662239670753479 -0.2537975311279297 1.0 5 -0.0619373694062233
-2.7211339473724365 -1.9018210172653198 0.6453160643577576 28.0 13 -0.06193506345152855
-2.3134448528289795 -1.6162840127944946 -0.14790143072605133 9.0 6 -0.0619327612221241
-2.7352261543273926 -1.9102506637573242 0.7702324986457825 89.0 14 -0.06193045526742935
-2.311630964279175 -1.6144167184829712 -0.049215786159038544 29.0 7 -0.0619281530380249
-2.7071006298065186 -1.889904260635376 0.8846435546875 78.0 15 -0.061925847083330154
-1.67594575881958 -1.1665486097335815 -0.5471434593200684 1.0 0 -0.061905112117528915
-2.2487876415252686 -1.5646947622299194 0.0478195957839489 38.0 8 -0.061902809888124466
-1.5662217140197754 -1.089363932609558 -0.4404541850090027 0.0 1 -0.06190050393342972
-2.6975512504577637 -1.8755452632904053 0.17218531668186188 4.0 9 -0.06189820170402527
-1.6780180931091309 -1.1666873693466187 -0.3972643315792084 1.0 2 -0.06189589574933052
-2.7567427158355713 -1.9159860610961914 0.29371485114097595 72.0 10 -0.06189359351992607
-2.740790367126465 -1.9034806489944458 0.40972477197647095 66.0 11 -0.061888985335826874
-2.587841749191284 -1.7965881824493408 -0.38681334257125854 7.0 4 -0.061886679381132126
-2.747511148452759 -1.9067277908325195 0.5296871662139893 65.0 12 -0.061884377151727676
-2.3619632720947266 -1.639163851737976 -0.2515314817428589 4.0 5 -0.06188207119703293
-2.7213029861450195 -1.8878352642059326 0.6437895894050598 31.0 13 -0.06187976896762848
-2.3469736576080322 -1.627547264099121 -0.14968085289001465 3.0 6 -0.06187746301293373
-2.727463960647583 -1.8906984329223633 0.7661833167076111 81.0 14 -0.06187516078352928
-2.3323254585266113 -1.6161837577819824 -0.04952992871403694 22.0 7 -0.061872854828834534
-2.7108328342437744 -1.8777700662612915 0.8836082816123962 74.0 15 -0.061870552599430084
-1.622788906097412 -1.1211597919464111 -0.5285084843635559 1.0 0 -0.061849817633628845
-2.2904345989227295 -1.581836223602295 0.04858750104904175 35.0 8 -0.0618475116789341
-1.6020888090133667 -1.1060329675674438 -0.4494522511959076 0.0 1 -0.06184520944952965
-2.6975064277648926 -1.8615797758102417 0.17176662385463715 5.0 9 -0.0618429034948349
-2.7650537490844727 -1.9074835777282715 0.2938891649246216 72.0 10 -0.0618382953107357
-2.6019203662872314 -1.7942743301391602 -0.5005903244018555 1.0 3 -0.06183599308133125
-2.745783805847168 -1.892775058746338 0.409481018781662 71.0 11 -0.061833687126636505
-2.6153461933135986 -1.8021870851516724 -0.3899819254875183 18.0 4 -0.061831384897232056
-2.7378828525543213 -1.885919213294983 0.5265584588050842 63.0 12 -0.06182907894253731
-2.366030216217041 -1.629778265953064 -0.25135713815689087 7.0 5 -0.06182677671313286
-2.724642276763916 -1.8760976791381836 0.6430263519287109 33.0 13 -0.06182447075843811
-2.4579336643218994 -1.6918189525604248 -0.1563798487186432 1.0 6 -0.06182216852903366
-2.722808599472046 -1.8734346628189087 0.7630340456962585 72.0 14 -0.06181986629962921
-2.344543218612671 -1.612565279006958 -0.049669548869132996 25.0 7 -0.061817560344934464
-2.714186906814575 -1.8661068677902222 0.8825729489326477 76.0 15 -0.061815258115530014
-1.5884546041488647 -1.089267611503601 -0.5160852074623108 0.0 0 -0.06179451942443848
-2.3173842430114746 -1.5885294675827026 0.0490412637591362 25.0 8 -0.06179221719503403
-1.6316609382629395 -1.1180580854415894 -0.4566507041454315 1.0 1 -0.06178991124033928
-2.7039875984191895 -1.852152943611145 0.17176662385463715 5.0 9 -0.06178760901093483
-2.6579504013061523 -1.8206188678741455 -0.6262351274490356 1.0 2 -0.06178530305624008
-2.7634756565093994 -1.8921918869018555 0.29301759600639343 77.0 10 -0.06178300082683563
-2.634249448776245 -1.8030329942703247 -0.5055962204933167 19.0 3 -0.061780694872140884
-2.7474591732025146 -1.879815936088562 0.4087498188018799 78.0 11 -0.061778392642736435
-2.6461989879608154 -1.8098567724227905 -0.393638014793396 16.0 4 -0.06177608668804169
-2.746080160140991 -1.8774657249450684 0.526871383190155 62.0 12 -0.06177378445863724
-2.355257511138916 -1.6102644205093384 -0.24961404502391815 6.0 5 -0.06177148222923279
-2.7376580238342285 -1.8710064888000488 0.6445528268814087 48.0 13 -0.06176917627453804
-2.5495800971984863 -1.7418150901794434 -0.16182279586791992 2.0 6 -0.06176687404513359
-2.7261130809783936 -1.8617208003997803 0.7621342539787292 72.0 14 -0.06176456809043884
-2.34190034866333 -1.5987342596054077 -0.04949502646923065 21.0 7 -0.06176226586103439
-2.7111101150512695 -1.8500876426696777 0.8794671893119812 76.0 15 -0.061759959906339645
-1.6305761337280273 -1.1098036766052246 -0.5285084843635559 1.0 0 -0.061739224940538406
-2.301422595977783 -1.5658069849014282 0.04858750104904175 16.0 8 -0.06173691898584366
-2.7071330547332764 -1.8404570817947388 0.17155727744102478 5.0 9 -0.06173231080174446
-2.6350650787353516 -1.7914613485336304 -0.6193659901618958 11.0 2 -0.06173000857234001
-2.760176658630371 -1.8758138418197632 0.29197174310684204 82.0 10 -0.06172770634293556
-2.658501148223877 -1.8060369491577148 -0.5090377926826477 25.0 3 -0.061725400388240814
-2.7507193088531494 -1.8679841756820679 0.40826234221458435 77.0 11 -0.061723098158836365
-2.6672825813293457 -1.8106423616409302 -0.3958316743373871 16.0 4 -0.06172079220414162
-2.747713327407837 -1.864540934562683 0.5259327292442322 63.0 12 -0.06171848997473717
-2.3625128269195557 -1.6031519174575806 -0.24978835880756378 7.0 5 -0.06171618402004242
-2.737673044204712 -1.857030987739563 0.6430263519287109 52.0 13 -0.06171388179063797
-2.5523383617401123 -1.7306628227233887 -0.16161344945430756 2.0 6 -0.06171157583594322
-2.7277557849884033 -1.8489131927490234 0.7607845067977905 66.0 14 -0.06170927360653877
-2.3573989868164062 -1.5972803831100464 -0.049704451113939285 23.0 7 -0.061706967651844025
-2.7047557830810547 -1.8319458961486816 0.8753260374069214 76.0 15 -0.061704665422439575
-1.6504484415054321 -1.1149189472198486 -0.5336848497390747 1.0 0 -0.06168392673134804
-2.3002445697784424 -1.5532879829406738 0.048447877168655396 20.0 8 -0.06168162450194359
-2.7065999507904053 -1.8270000219345093 0.17113859951496124 5.0 9 -0.06167701631784439
-2.6657140254974365 -1.7987241744995117 -0.6250903010368347 19.0 2 -0.06167471408843994
-2.760100841522217 -1.8617111444473267 0.2912744879722595 77.0 10 -0.061672408133745193
-2.6811673641204834 -1.807789921760559 -0.5121665000915527 25.0 3 -0.061670105904340744
-2.747346878051758 -1.8517135381698608 0.40679988265037537 79.0 11 -0.061667799949645996
-2.6982810497283936 -1.8179583549499512 -0.3994877338409424 24.0 4 -0.06166549772024155
-2.7506048679351807 -1.8532112836837769 0.5253069996833801 63.0 12 -0.0616631917655468
-2.374704360961914 -1.5993479490280151 -0.2504855990409851 7.0 5 -0.06166088953614235
-2.7359962463378906 -1.8419806957244873 0.6411182284355164 53.0 13 -0.0616585835814476
-2.5368235111236572 -1.7072464227676392 -0.16025270521640778 2.0 6 -0.06165628135204315
-2.7487449645996094 -1.8491705656051636 0.7648336291313171 72.0 14 -0.061653975397348404
-2.3892297744750977 -1.6073130369186401 -0.0502629317343235 25.0 7 -0.061651673167943954
-2.7092127799987793 -1.8218883275985718 0.8748083710670471 70.0 15 -0.06164936721324921
-1.696049690246582 -1.1371214389801025 -0.5471434593200684 1.0 0 -0.06162863224744797
-2.3419241905212402 -1.5701497793197632 0.049215786159038544 13.0 8 -0.06162633001804352
-2.703004837036133 -1.8108711242675781 0.17051056027412415 6.0 9 -0.06162172183394432
-2.6980764865875244 -1.8068863153457642 -0.6311962008476257 23.0 2 -0.06161941587924957
-2.7765159606933594 -1.8587157726287842 0.2923203408718109 77.0 10 -0.06161711364984512
-2.7117702960968018 -1.815372347831726 -0.5168595314025879 40.0 3 -0.061614807695150375
-2.745223045349121 -1.8370733261108398 0.40558120608329773 75.0 11 -0.061612505465745926
-2.7372941970825195 -1.8310749530792236 -0.4043624997138977 54.0 4 -0.06161019951105118
-2.757056713104248 -1.8435990810394287 0.5253069996833801 63.0 12 -0.06160789728164673
-2.3835854530334473 -1.5932631492614746 -0.25083422660827637 7.0 5 -0.06160559132695198
-2.7388246059417725 -1.8307161331176758 0.6403550505638123 60.0 13 -0.06160328909754753
-2.5325071811676025 -1.6921669244766235 -0.15962468087673187 7.0 6 -0.06160098314285278
-2.7467594146728516 -1.834633231163025 0.7625840902328491 70.0 14 -0.061598680913448334
-2.3765323162078857 -1.5867482423782349 -0.04987897723913193 12.0 7 -0.061596374958753586
-2.7187693119049072 -1.8145651817321777 0.8758436441421509 69.0 15 -0.061594072729349136
-2.3557143211364746 -1.567504644393921 0.049390312284231186 16.0 8 -0.06157103180885315
-1.9130244255065918 -1.272454857826233 -0.5304346084594727 1.0 1 -0.0615687295794487
-2.6960039138793945 -1.7925785779953003 0.16967318952083588 6.0 9 -0.06156642362475395
-2.726940870285034 -1.813148856163025 -0.6365388631820679 60.0 2 -0.0615641213953495
-2.7743678092956543 -1.8439838886260986 0.29144880175590515 72.0 10 -0.061561815440654755
-2.7427704334259033 -1.822292685508728 -0.521552562713623 55.0 3 -0.061559513211250305
-2.756580352783203 -1.8307735919952393 0.40631240606307983 81.0 11 -0.06155720725655556
-2.730438470840454 -1.8127256631851196 -0.4024125933647156 41.0 4 -0.06155490502715111
-2.751953601837158 -1.8263177871704102 0.5231168866157532 67.0 12 -0.06155259907245636
-2.3822154998779297 -1.58094322681427 -0.25013697147369385 7.0 5 -0.06155029684305191
-2.741926908493042 -1.8189735412597656 0.6395918130874634 63.0 13 -0.06154799088835716
-2.540062427520752 -1.6844205856323242 -0.15972934663295746 3.0 6 -0.06154568865895271
-2.741776943206787 -1.8174971342086792 0.7594348192214966 67.0 14 -0.061543382704257965
-2.3853907585144043 -1.5806522369384766 -0.049948789179325104 11.0 7 -0.061541080474853516
-2.720255136489868 -1.8018640279769897 0.8742908239364624 66.0 15 -0.061538778245449066
-2.454617500305176 -1.6209818124771118 0.05134497955441475 15.0 8 -0.06151573732495308
-1.9174542427062988 -1.2657697200775146 -0.5304346084594727 1.0 1 -0.06151343137025833
-2.672238826751709 -1.7633554935455322 0.16778908669948578 6.0 9 -0.06151112914085388
-2.7381696701049805 -1.8068619966506958 -0.6376836895942688 42.0 2 -0.061508823186159134
-2.769145965576172 -1.8266088962554932 0.29022860527038574 69.0 10 -0.061506520956754684
-2.752413034439087 -1.8148821592330933 -0.5221782922744751 47.0 3 -0.061504215002059937
-2.759639024734497 -1.8189557790756226 0.4058249592781067 70.0 11 -0.06150191277265549
-2.7367491722106934 -1.8031835556030273 -0.4024125933647156 43.0 4 -0.06149960681796074
-2.750063419342041 -1.8112677335739136 0.521552562713623 65.0 12 -0.06149730458855629
-2.3943753242492676 -1.5770015716552734 -0.25083422660827637 7.0 5 -0.06149499863386154
-2.7548182010650635 -1.81371009349823 0.6411182284355164 63.0 13 -0.06149269640445709
-2.5542685985565186 -1.6810338497161865 -0.16025270521640778 2.0 6 -0.06149039417505264
-2.7399649620056152 -1.802559494972229 0.7571852803230286 66.0 14 -0.061488088220357895
-2.312366485595703 -1.5206750631332397 -0.04830826073884964 10.0 7 -0.061485785990953445
-2.7152280807495117 -1.7849290370941162 0.8706672787666321 67.0 15 -0.0614834800362587
-2.3833250999450684 -1.5619823932647705 0.04973935708403587 15.0 8 -0.06146043911576271
-1.9218612909317017 -1.259068489074707 -0.5304346084594727 1.0 1 -0.06145813688635826
-2.68506121635437 -1.7583937644958496 0.1682077795267105 6.0 9 -0.06145583093166351
-2.741175413131714 -1.7951418161392212 -0.6369204521179199 38.0 2 -0.061453528702259064
-2.765503168106079 -1.8103841543197632 0.28918275237083435 69.0 10 -0.061451222747564316
-2.7422022819519043 -1.7944470643997192 -0.5190495848655701 42.0 3 -0.061448920518159866
-2.7609877586364746 -1.80605149269104 0.4050937294960022 67.0 11 -0.06144661828875542
-2.7430269718170166 -1.7936195135116577 -0.4024125933647156 40.0 4 -0.06144431233406067
-2.756369113922119 -1.8016570806503296 0.521552562713623 65.0 12 -0.06144201010465622
-2.3881912231445312 -1.5610034465789795 -0.24961404502391815 7.0 5 -0.06143970414996147
-2.746340751647949 -1.7944180965423584 0.6376836895942688 65.0 13 -0.06143740192055702
-2.5801873207092285 -1.685213565826416 -0.16150878369808197 2.0 6 -0.061435095965862274
-2.7527666091918945 -1.7972460985183716 0.7589848637580872 66.0 14 -0.061432793736457825
-2.3243589401245117 -1.516965627670288 -0.048447877168655396 20.0 7 -0.06143048778176308
-2.716588258743286 -1.7722735404968262 0.8691143989562988 64.0 15 -0.06142818555235863
-2.388762950897217 -1.5536534786224365 0.04973935708403587 14.0 8 -0.06140514463186264
-1.9262444972991943 -1.2523521184921265 -0.5304346084594727 1.0 1 -0.06140284240245819
-2.7246761322021484 -1.770777702331543 0.17030121386051178 6.0 9 -0.06140053644776344
-2.7424867153167725 -1.7823528051376343 -0.635775625705719 36.0 2 -0.061398234218358994
-2.7667932510375977 -1.7974640130996704 0.28865981101989746 65.0 10 -0.061395928263664246
-2.74513578414917 -1.7827122211456299 -0.518423855304718 42.0 3 -0.061393626034259796
-2.767275094985962 -1.796402931213379 0.4050937294960022 75.0 11 -0.06139132007956505
-2.7526018619537354 -1.786194920539856 -0.4029000997543335 40.0 4 -0.0613890178501606
-2.765956163406372 -1.7941745519638062 0.5221782922744751 65.0 12 -0.06138671189546585
-2.388611316680908 -1.5494047403335571 -0.24909110367298126 7.0 5 -0.0613844096660614
-2.749293327331543 -1.7826844453811646 0.6369204521179199 68.0 13 -0.06138210371136665
-2.5659422874450684 -1.663160800933838 -0.16025270521640778 2.0 6 -0.061379801481962204
-2.747575521469116 -1.780208706855774 0.7558355927467346 60.0 14 -0.061377495527267456
-2.3447458744049072 -1.51862633228302 -0.04876202344894409 25.0 7 -0.06137519329786301
-2.719514846801758 -1.7606803178787231 0.8680790662765503 63.0 15 -0.06137288734316826
-2.4294545650482178 -1.5680780410766602 0.050472360104322433 9.0 8 -0.06134985014796257
-2.7241265773773193 -1.756926417350769 0.16988252103328705 6.0 9 -0.06134524196386337
-2.745391368865967 -1.7706412076950073 -0.6350123286247253 36.0 2 -0.061342936009168625
-2.7780745029449463 -1.7910330295562744 0.28918275237083435 61.0 10 -0.061340633779764175
-2.7496817111968994 -1.772048830986023 -0.5181110501289368 40.0 3 -0.06133832782506943
-2.7618472576141357 -1.779207706451416 0.40338757634162903 70.0 11 -0.06133602559566498
-2.7387921810150146 -1.7636781930923462 -0.3999752104282379 40.0 4 -0.06133371964097023
-2.7722020149230957 -1.784508466720581 0.5221782922744751 65.0 12 -0.06133141741156578
