# .PCD v0.7 - Point Cloud Data file format
VERSION 0.7
FIELDS x y z intensity ring time
SIZE 4 4 4 4 4 4
TYPE F F F F F F
COUNT 1 1 1 1 1 1
WIDTH 547
HEIGHT 1
VIEWPOINT 0 0 0 1 0 0 0
POINTS 547
DATA ascii
-3.151841402053833 1.7564533948898315 0.31567808985710144 32.0 10 -0.04052793234586716
-2.0447487831115723 1.13949453830719 -0.37074974179267883 6.0 3 -0.04052563011646271
-3.1469273567199707 1.754435658454895 0.442385733127594 38.0 11 -0.04052332416176796
-1.919950008392334 1.0712652206420898 0.34822314977645874 5.0 12 -0.04051871597766876
-1.9328174591064453 1.0788871049880981 -0.19366006553173065 8.0 5 -0.04051641374826431
-3.123399257659912 1.7434628009796143 0.6953080296516418 66.0 13 -0.040514107793569565
-1.9024766683578491 1.0623866319656372 -0.11419706791639328 11.0 6 -0.040511805564165115
-3.111612319946289 1.7383091449737549 0.8228710293769836 66.0 14 -0.04050949960947037
-1.871260166168213 1.045811653137207 -0.03741795942187309 9.0 7 -0.04050719738006592
-3.0958478450775146 1.7309194803237915 0.9503835439682007 70.0 15 -0.04050489142537117
-2.723021984100342 1.526839256286621 -0.8365032076835632 11.0 0 -0.04048415645956993
-1.8521746397018433 1.0389662981033325 0.03706891089677811 1.0 8 -0.04048185423016548
-2.6953065395355225 1.512534737586975 -0.7135447859764099 11.0 1 -0.040479548275470734
-1.9315990209579468 1.0839622020721436 0.11608116328716278 45.0 9 -0.040477246046066284
-1.9533076286315918 1.0965934991836548 -0.43542614579200745 1.0 2 -0.040474940091371536
-3.1425251960754395 1.7649445533752441 0.31532949209213257 31.0 10 -0.04047263786196709
-2.0355920791625977 1.1437227725982666 -0.36981111764907837 6.0 3 -0.04047033190727234
-3.154627561569214 1.7731913328170776 0.4443356692790985 59.0 11 -0.04046802967786789
-1.924996018409729 1.0824673175811768 0.34978750348091125 2.0 12 -0.04046342149376869
-1.930965542793274 1.0862675905227661 -0.19383437931537628 9.0 5 -0.040461115539073944
-3.1155831813812256 1.753391981124878 0.694926381111145 64.0 13 -0.040458813309669495
-1.9109394550323486 1.0758801698684692 -0.11492977291345596 12.0 6 -0.04045650735497475
-3.120806932449341 1.757766604423523 0.8269200921058655 69.0 14 -0.0404542051255703
-1.8764933347702026 1.0569180250167847 -0.037592481821775436 9.0 7 -0.04045189917087555
-3.093456745147705 1.7430729866027832 0.9514188170433044 69.0 15 -0.0404495969414711
-2.6958134174346924 1.5239752531051636 -0.8297739028930664 13.0 0 -0.04042886197566986
-1.8347928524017334 1.037230134010315 0.036789670586586 1.0 8 -0.04042655602097511
-2.169522762298584 1.2269564867019653 -0.57542484998703 1.0 1 -0.04042425379157066
-1.9312798976898193 1.092665672302246 0.11629050970077515 45.0 9 -0.040421947836875916
-1.9494678974151611 1.1034051179885864 -0.43542614579200745 1.0 2 -0.040419645607471466
-3.1536827087402344 1.7857203483581543 0.3170726001262665 30.0 10 -0.04041733965277672
-2.0352261066436768 1.1524128913879395 -0.3704368472099304 4.0 3 -0.04041503742337227
-3.1590933799743652 1.789513349533081 0.4457980990409851 60.0 11 -0.04041273146867752
-3.120671272277832 1.7691864967346191 0.5681700706481934 57.0 12 -0.04040812328457832
-1.9427595138549805 1.1018476486206055 -0.19540317356586456 7.0 5 -0.040405821055173874
-3.1063361167907715 1.7617770433425903 0.6941632032394409 60.0 13 -0.040403515100479126
-1.9038869142532349 1.08024001121521 -0.1147204264998436 11.0 6 -0.040401212871074677
-3.126824140548706 1.7748397588729858 0.8300694227218628 72.0 14 -0.04039891064167023
-1.883225917816162 1.06938636302948 -0.03780191391706467 8.0 7 -0.04039660468697548
-3.0940725803375244 1.7576775550842285 0.9534894227981567 70.0 15 -0.04039430245757103
-2.6588523387908936 1.5147374868392944 -0.8199387788772583 28.0 0 -0.04037356376647949
-1.8728574514389038 1.067392349243164 0.037627387791872025 1.0 8 -0.04037126153707504
-2.165226459503174 1.2345227003097534 -0.57542484998703 1.0 1 -0.040368955582380295
-1.9291890859603882 1.1003901958465576 0.11639518290758133 47.0 9 -0.040366653352975845
-1.9457981586456299 1.1098637580871582 -0.43542614579200745 1.0 2 -0.0403643473982811
-3.15639591217041 1.8011058568954468 0.31794413924217224 28.0 10 -0.04036204516887665
-2.0243287086486816 1.1555935144424438 -0.3691853880882263 2.0 3 -0.0403597392141819
-3.147656202316284 1.7975765466690063 0.4450668692588806 61.0 11 -0.04035743698477745
-3.135056257247925 1.7918323278427124 0.5719244480133057 76.0 12 -0.04035282880067825
-1.9425544738769531 1.11026132106781 -0.19575178623199463 8.0 5 -0.040350526571273804
-3.113801956176758 1.7804055213928223 0.6972161531448364 61.0 13 -0.040348220616579056
-1.8966374397277832 1.0848954916000366 -0.11451108753681183 10.0 6 -0.040345918387174606
-3.1155357360839844 1.7828400135040283 0.8287197351455688 69.0 14 -0.04034361243247986
-1.8951005935668945 1.0848950147628784 -0.038116052746772766 7.0 7 -0.04034131020307541
-3.1063590049743652 1.7790273427963257 0.959183394908905 74.0 15 -0.04033900424838066
-2.646847724914551 1.5201610326766968 -0.817868173122406 38.0 0 -0.04031826928257942
-1.8691201210021973 1.0739233493804932 0.037627387791872025 1.0 8 -0.040315963327884674
-2.0426371097564697 1.174094319343567 -0.5439317226409912 1.0 1 -0.040313661098480225
-1.9270676374435425 1.1081126928329468 0.11649984866380692 45.0 9 -0.04031135514378548
-1.941912293434143 1.11664879322052 -0.43542614579200745 1.0 2 -0.04030905291438103
-3.165632724761963 1.821054220199585 0.3195129334926605 27.0 10 -0.04030675068497658
-1.986040472984314 1.1429468393325806 -0.36292800307273865 2.0 3 -0.04030444473028183
-3.15340518951416 1.8154853582382202 0.44677305221557617 60.0 11 -0.04030214250087738
-3.123647689819336 1.7998062372207642 0.5709858536720276 65.0 12 -0.04029753431677818
-1.94902503490448 1.123003602027893 -0.1967976689338684 5.0 5 -0.040295228362083435
-3.121175765991211 1.7991067171096802 0.7002690434455872 63.0 13 -0.040292926132678986
-1.9049497842788696 1.0984939336776733 -0.11524379253387451 10.0 6 -0.04029062017798424
-3.1160454750061035 1.7975996732711792 0.8305193185806274 69.0 14 -0.04028831794857979
-1.8809106349945068 1.0855060815811157 -0.03790662810206413 7.0 7 -0.04028601199388504
-3.1101677417755127 1.7956560850143433 0.9622892737388611 76.0 15 -0.04028370976448059
-2.618119239807129 1.5158394575119019 -0.8106213212013245 36.0 0 -0.04026297107338905
-1.8653596639633179 1.0804418325424194 0.037627387791872025 1.0 8 -0.040260668843984604
-2.1025991439819336 1.2183436155319214 -0.561028003692627 1.0 1 -0.040258366614580154
-1.930099606513977 1.1188392639160156 0.11691854149103165 43.0 9 -0.040256060659885406
-3.1575329303741455 1.831094741821289 0.3193386495113373 25.0 10 -0.04025145247578621
-1.9837476015090942 1.1508631706237793 -0.3632408678531647 2.0 3 -0.04024915024638176
-3.159066677093506 1.8334566354751587 0.44847920536994934 67.0 11 -0.04024684429168701
-1.958765983581543 1.1372848749160767 -0.27810585498809814 2.0 4 -0.04024454206228256
-3.120762825012207 1.8126826286315918 0.5716116428375244 65.0 12 -0.040242236107587814
-1.9483413696289062 1.13214111328125 -0.19714628159999847 7.0 5 -0.040239933878183365
-3.125061511993408 1.8159090280532837 0.7025587558746338 66.0 13 -0.04023762792348862
-1.9114638566970825 1.111159086227417 -0.11587180942296982 9.0 6 -0.04023532569408417
-3.1282825469970703 1.8192414045333862 0.8354682922363281 72.0 14 -0.04023301973938942
-1.8822952508926392 1.0950822830200195 -0.0380113422870636 7.0 7 -0.04023071750998497
-3.100541353225708 1.8045581579208374 0.9612540006637573 80.0 15 -0.04022841155529022
-2.6025359630584717 1.519580602645874 -0.8075154423713684 36.0 0 -0.04020767658948898
-1.861577033996582 1.0869461297988892 0.037627387791872025 1.0 8 -0.040205374360084534
-2.5728561878204346 1.5028531551361084 -0.6879003643989563 7.0 1 -0.040203068405389786
-1.9365288019180298 1.1316158771514893 0.11754656583070755 42.0 9 -0.040200766175985336
-3.1473610401153564 1.8406428098678589 0.31898999214172363 25.0 10 -0.04019615799188614
-1.9795159101486206 1.1581268310546875 -0.3632408678531647 1.0 3 -0.04019385203719139
-3.1646411418914795 1.85149085521698 0.4501853883266449 66.0 11 -0.04019154980778694
-1.946218490600586 1.1391013860702515 -0.2768871784210205 3.0 4 -0.040189243853092194
-3.1246442794799805 1.8295536041259766 0.5734888315200806 63.0 12 -0.040186941623687744
-1.9512542486190796 1.1429637670516968 -0.197843536734581 5.0 5 -0.040184635668992996
-3.1285483837127686 1.8333063125610352 0.7048484683036804 63.0 13 -0.04018233343958855
-1.9194400310516357 1.1252278089523315 -0.1166045218706131 10.0 6 -0.0401800274848938
-3.131678819656372 1.8366106748580933 0.838167667388916 76.0 14 -0.04017772525548935
-1.8922605514526367 1.1097389459609985 -0.03829057887196541 6.0 7 -0.0401754193007946
-3.0975563526153564 1.8173247575759888 0.9622892737388611 80.0 15 -0.04017311707139015
-2.593886137008667 1.5266963243484497 -0.8064801692962646 36.0 0 -0.04015238210558891
-1.8575806617736816 1.093761920928955 0.037627387791872025 1.0 8 -0.040150076150894165
-2.580763578414917 1.5201857089996338 -0.6914995908737183 22.0 1 -0.040147773921489716
-1.9463341236114502 1.146478295326233 0.11838394403457642 40.0 9 -0.04014546796679497
-3.1597964763641357 1.8627479076385498 0.32090744376182556 24.0 10 -0.04014085978269577
-1.975461483001709 1.1650290489196777 -0.3632408678531647 1.0 3 -0.04013855755329132
-3.157834053039551 1.8630766868591309 0.4501853883266449 63.0 11 -0.04013625159859657
-2.008702039718628 1.1855779886245728 -0.2863929867744446 1.0 4 -0.04013394936919212
-3.1352503299713135 1.8504904508590698 0.5766174793243408 71.0 12 -0.040131643414497375
-2.01416277885437 1.1892750263214111 -0.2046416699886322 1.0 5 -0.040129341185092926
-3.118748903274536 1.8422187566757202 0.7040852308273315 60.0 13 -0.04012703523039818
-1.912061333656311 1.1298894882202148 -0.11639518290758133 8.0 6 -0.04012473300099373
-3.133636951446533 1.8524888753890991 0.8404171466827393 69.0 14 -0.04012242704629898
-1.8883756399154663 1.1163369417190552 -0.03829057887196541 7.0 7 -0.04012012481689453
-3.101170778274536 1.834026575088501 0.9653950929641724 82.0 15 -0.04011782258749008
-2.5652806758880615 1.5219411849975586 -0.7992331981658936 23.0 0 -0.040097083896398544
-2.557274341583252 1.5177946090698242 -0.6865506172180176 10.0 1 -0.04009247571229935
-1.9406030178070068 1.1522455215454102 0.11827926337718964 38.0 9 -0.0400901734828949
-3.1721158027648926 1.8849623203277588 0.3228248655796051 22.0 10 -0.0400855652987957
-1.9953616857528687 1.1857012510299683 -0.3676210343837738 1.0 3 -0.04008325934410095
-3.1550512313842773 1.875567078590393 0.45067286491394043 63.0 11 -0.0400809571146965
-1.987697720527649 1.1820859909057617 -0.2839556038379669 1.0 4 -0.040078651160001755
-3.1338648796081543 1.8644531965255737 0.5775561332702637 65.0 12 -0.040076348930597305
-1.9928780794143677 1.1861085891723633 -0.2028985619544983 1.0 5 -0.04007404297590256
-3.1227447986602783 1.858575463294983 0.7063749432563782 64.0 13 -0.04007174074649811
-1.9117364883422852 1.1382670402526855 -0.1166045218706131 9.0 6 -0.04006943851709366
-3.127476692199707 1.8628703355789185 0.8404171466827393 69.0 14 -0.04006713256239891
-1.901645541191101 1.1331580877304077 -0.038639627397060394 3.0 7 -0.04006483033299446
-3.108025074005127 1.8527542352676392 0.9695361852645874 82.0 15 -0.04006252437829971
-2.5552451610565186 1.5274661779403687 -0.7976803779602051 14.0 0 -0.040041789412498474
-2.5553054809570312 1.5287131071090698 -0.6874504685401917 10.0 1 -0.04003718122839928
-1.9382827281951904 1.1600382328033447 0.11838394403457642 23.0 9 -0.04003487527370453
-3.1743953227996826 1.900587797164917 0.32369643449783325 19.0 10 -0.04003026708960533
-1.9369817972183228 1.1601781845092773 -0.35760921239852905 1.0 3 -0.04002796486020088
-3.1552960872650146 1.8906500339508057 0.4516478180885315 64.0 11 -0.04002566263079643
-3.132420063018799 1.8784289360046387 0.5784947276115417 65.0 12 -0.040021054446697235
-1.9889339208602905 1.1927107572555542 -0.2028985619544983 1.0 5 -0.04001874849200249
-3.129706621170044 1.8775445222854614 0.7094278931617737 61.0 13 -0.04001644626259804
-1.9128888845443726 1.1480166912078857 -0.11691854149103165 7.0 6 -0.04001414030790329
-3.125967025756836 1.8767852783203125 0.841766893863678 72.0 14 -0.04001183807849884
-1.8891072273254395 1.1346410512924194 -0.03846510127186775 2.0 7 -0.04000953212380409
-3.118098020553589 1.8735417127609253 0.974712610244751 84.0 15 -0.04000722989439964
-2.5581717491149902 1.5413607358932495 -0.8002685308456421 12.0 0 -0.039986491203308105
-2.6100311279296875 1.5738502740859985 -0.7036469578742981 20.0 1 -0.03998188674449921
-1.966715693473816 1.1863981485366821 0.1203727126121521 12.0 9 -0.03997958078980446
-3.167741060256958 1.911657691001892 0.32369643449783325 17.0 10 -0.03997497260570526
-1.926155924797058 1.162848711013794 -0.35635775327682495 1.0 3 -0.03997267037630081
-3.1588730812072754 1.9078093767166138 0.4531102478504181 61.0 11 -0.039970364421606064
-3.130915403366089 1.892417311668396 0.5794333219528198 67.0 12 -0.039965756237506866
-3.1365740299224854 1.896583914756775 0.7124808430671692 64.0 13 -0.03996114805340767
-1.912287712097168 1.1567543745040894 -0.11712788045406342 1.0 6 -0.03995884582400322
-3.1294002532958984 1.893739104270935 0.8444663286209106 67.0 14 -0.03995653986930847
-1.8851346969604492 1.1412290334701538 -0.03846510127186775 2.0 7 -0.03995423763990402
-3.1148438453674316 1.8864160776138306 0.97574782371521 82.0 15 -0.039951931685209274
-2.6749653816223145 1.6244860887527466 -0.8385737538337708 9.0 0 -0.039931196719408035
-2.747737169265747 1.6699929237365723 -0.7423385381698608 55.0 1 -0.03992658853530884
-1.9898673295974731 1.2098578214645386 0.12204745411872864 10.0 9 -0.03992428630590439
-3.1678576469421387 1.9268451929092407 0.3243936598300934 23.0 10 -0.03991967812180519
-3.152193784713745 1.9188251495361328 0.4531102478504181 51.0 11 -0.039915069937705994
-3.1276650428771973 1.905389666557312 0.5800590515136719 63.0 12 -0.039910461753606796
-2.060530185699463 1.2552855014801025 -0.21109120547771454 3.0 5 -0.03990815579891205
-3.133286952972412 1.9095652103424072 0.7132440805435181 64.0 13 -0.0399058535695076
-1.9525763988494873 1.1904547214508057 -0.11984935402870178 1.0 6 -0.03990354761481285
-3.1294260025024414 1.9087095260620117 0.8462659120559692 67.0 14 -0.0399012453854084
-1.906745433807373 1.1634255647659302 -0.03898867964744568 2.0 7 -0.039898939430713654
-3.1016440391540527 1.8932512998580933 0.9736772775650024 80.0 15 -0.039896637201309204
-2.6857552528381348 1.6438994407653809 -0.8437501192092896 7.0 0 -0.039875902235507965
-2.7402291297912598 1.6785560846328735 -0.7418886423110962 56.0 1 -0.03987129405140877
-2.0213937759399414 1.2387118339538574 0.12424556910991669 3.0 9 -0.03986898809671402
-3.1577157974243164 1.9358079433441162 0.3240450322628021 1.0 10 -0.03986437991261482
-2.655550241470337 1.6285978555679321 -0.4933943450450897 2.0 3 -0.03986207768321037
-2.860910415649414 1.7559157609939575 -0.4121621549129486 1.0 4 -0.039857469499111176
-3.142879009246826 1.929732322692871 0.584126353263855 65.0 12 -0.03985516354441643
-2.076510429382324 1.2749804258346558 -0.2131829410791397 25.0 5 -0.03985286131501198
-3.1266021728515625 1.920491099357605 0.7132440805435181 64.0 13 -0.03985055536031723
-2.035194158554077 1.2505906820297241 -0.12518762052059174 3.0 6 -0.03984825313091278
-3.141005516052246 1.9308483600616455 0.8512148261070251 69.0 14 -0.03984594717621803
-1.9145961999893188 1.1774067878723145 -0.0392330102622509 1.0 7 -0.03984364494681358
-3.111470937728882 1.9141886234283447 0.9788536429405212 78.0 15 -0.039841338992118835
-2.6767125129699707 1.6512354612350464 -0.8427148461341858 7.0 0 -0.03979206085205078
-2.7293779850006104 1.6850405931472778 -0.7405388951301575 56.0 1 -0.039787452667951584
-2.978856325149536 1.8397784233093262 0.18348988890647888 4.0 9 -0.039785150438547134
-2.7243552207946777 1.6825953722000122 -0.6224189400672913 24.0 2 -0.039782844483852386
-2.98144268989563 1.8420946598052979 0.30661389231681824 2.0 10 -0.03978054225444794
-2.690176486968994 1.6627846956253052 -0.5009031891822815 54.0 3 -0.03977823629975319
-2.959751844406128 1.8301209211349487 0.4272739589214325 2.0 11 -0.03977593407034874
-2.7399649620056152 1.6948798894882202 -0.3955879211425781 7.0 4 -0.03977362811565399
-3.152920961380005 1.9510867595672607 0.58725506067276 63.0 12 -0.03977132588624954
-2.083906412124634 1.2895604372024536 -0.21440312266349792 28.0 5 -0.039769019931554794
-3.13657283782959 1.9417264461517334 0.7170602083206177 60.0 13 -0.039766717702150345
-2.044400453567505 1.2660999298095703 -0.1260250061750412 54.0 6 -0.0397644117474556
-3.1309330463409424 1.9397482872009277 0.8503150343894958 61.0 14 -0.03976210951805115
-1.9444692134857178 1.2051515579223633 -0.03993110731244087 1.0 7 -0.0397598035633564
-3.1179051399230957 1.9331821203231812 0.9829947352409363 78.0 15 -0.03975750133395195
-2.679135322570801 1.6656689643859863 -0.8453030586242676 7.0 0 -0.03973676636815071
-2.7350621223449707 1.7017638683319092 -0.7436882257461548 55.0 1 -0.039732158184051514
-2.969024419784546 1.8480545282363892 0.18328052759170532 6.0 9 -0.039729852229356766
-2.7251322269439697 1.6962449550628662 -0.6239454746246338 48.0 2 -0.039727549999952316
-2.981759548187256 1.8567034006118774 0.30731114745140076 7.0 10 -0.03972524404525757
-2.6960928440093994 1.6794755458831787 -0.5030933022499084 59.0 3 -0.03972294181585312
-2.9668233394622803 1.848840355873108 0.4292238652706146 4.0 11 -0.03972063586115837
-2.712132692337036 1.6907824277877808 -0.39241933822631836 11.0 4 -0.03971833363175392
-3.1427395343780518 1.9599894285202026 0.586629331111908 63.0 12 -0.039716027677059174
-2.0844640731811523 1.2999893426895142 -0.21492604911327362 25.0 5 -0.039713725447654724
-3.1431009769439697 1.9609768390655518 0.7201131582260132 63.0 13 -0.039711419492959976
-2.051828622817993 1.2806315422058105 -0.1267576962709427 68.0 6 -0.03970911726355553
-3.134061098098755 1.9568581581115723 0.8530144691467285 69.0 14 -0.03970681130886078
-1.9775627851486206 1.235237956047058 -0.04069900885224342 1.0 7 -0.03970450907945633
-3.1307973861694336 1.9563393592834473 0.9892064332962036 76.0 15 -0.03970220312476158
-2.673304796218872 1.6750108003616333 -0.8453030586242676 7.0 0 -0.03968146815896034
-2.739011287689209 1.7175121307373047 -0.7463876008987427 51.0 1 -0.039676859974861145
-2.9798009395599365 1.8685005903244019 0.18432724475860596 6.0 9 -0.039674557745456696
-2.7275102138519287 1.7109637260437012 -0.6258535385131836 58.0 2 -0.03967225179076195
-2.9718849658966064 1.8649823665618896 0.3069625198841095 7.0 10 -0.0396699495613575
-2.69523286819458 1.6920274496078491 -0.5040318965911865 56.0 3 -0.03966764360666275
-2.97379994392395 1.867631196975708 0.43117377161979675 4.0 11 -0.0396653413772583
-2.702852725982666 1.6981264352798462 -0.39193183183670044 20.0 4 -0.03966303542256355
-3.141240358352661 1.97355318069458 0.587567925453186 61.0 12 -0.0396607331931591
-2.076539993286133 1.3051371574401855 -0.21457743644714355 20.0 5 -0.039658427238464355
-3.1528570652008057 1.9823867082595825 0.7239293456077576 60.0 13 -0.039656125009059906
-2.0439646244049072 1.2856593132019043 -0.12654836475849152 51.0 6 -0.03965381905436516
-3.1387572288513184 1.975050449371338 0.8561637997627258 67.0 14 -0.03965151682496071
-2.025923252105713 1.2748041152954102 -0.04178106039762497 37.0 7 -0.03964921459555626
-3.1242926120758057 1.9667108058929443 0.9892064332962036 76.0 15 -0.03964690864086151
-2.6609082221984863 1.6802059412002563 -0.8432324528694153 6.0 0 -0.03962617367506027
-2.7497761249542236 1.7369930744171143 -0.7508866190910339 51.0 1 -0.039621565490961075
-2.9901442527770996 1.8895602226257324 0.18537397682666779 6.0 9 -0.03961925953626633
-2.733137607574463 1.7278169393539429 -0.6285248398780823 55.0 2 -0.03961695730686188
-2.978827953338623 1.883864402770996 0.30835700035095215 7.0 10 -0.03961465135216713
-2.6879377365112305 1.6999001502990723 -0.5037190318107605 55.0 3 -0.03961234912276268
-2.9743008613586426 1.881727933883667 0.4321487247943878 4.0 11 -0.03961004316806793
-2.693851947784424 1.7049570083618164 -0.3914443552494049 27.0 4 -0.03960774093866348
-3.144345760345459 1.9908463954925537 0.5894451141357422 61.0 12 -0.03960543870925903
-2.5685040950775146 1.626879334449768 -0.26599931716918945 22.0 5 -0.039603132754564285
-3.149582624435425 1.9949320554733276 0.7246925830841064 59.0 13 -0.039600830525159836
-2.046437978744507 1.296706199645996 -0.12696704268455505 47.0 6 -0.03959852457046509
-3.147003650665283 1.9948381185531616 0.8602128624916077 69.0 14 -0.03959622234106064
-2.0315935611724854 1.288293719291687 -0.0419904924929142 58.0 7 -0.03959391638636589
-3.120671033859253 1.9796745777130127 0.9902417063713074 78.0 15 -0.03959161415696144
-2.658581495285034 1.6910942792892456 -0.844267725944519 6.0 0 -0.039570875465869904
-3.205467939376831 2.0397496223449707 0.06631914526224136 1.0 8 -0.039568573236465454
-2.740408182144165 1.7444881200790405 -0.7499868273735046 55.0 1 -0.039566267281770706
-2.9906013011932373 1.9037559032440186 0.18579266965389252 6.0 9 -0.03956396505236626
-2.732361078262329 1.740034580230713 -0.629669725894928 49.0 2 -0.03956165909767151
-2.9860074520111084 1.9022963047027588 0.3097515106201172 7.0 10 -0.03955935686826706
-2.6919822692871094 1.7156423330307007 -0.5055962204933167 59.0 3 -0.03955705463886261
-2.971062421798706 1.8942325115203857 0.43263620138168335 4.0 11 -0.03955474868416786
-2.6945786476135254 1.7186198234558105 -0.39241933822631836 33.0 4 -0.03955244645476341
-3.1460540294647217 2.0065736770629883 0.5910094976425171 60.0 12 -0.039550140500068665
-2.709221363067627 1.7286243438720703 -0.28116440773010254 54.0 5 -0.039547838270664215
-3.1459100246429443 2.008026123046875 0.7254558801651001 57.0 13 -0.03954553231596947
-2.0435829162597656 1.304916262626648 -0.12707172334194183 20.0 6 -0.03954323008656502
-3.1482324600219727 2.011056423187256 0.8624624013900757 67.0 14 -0.03954092413187027
-2.0492184162139893 1.3090182542800903 -0.04244425520300865 26.0 7 -0.03953862190246582
-3.1336231231689453 2.002495288848877 0.9964533448219299 76.0 15 -0.03953631594777107
-2.6624207496643066 1.706619381904602 -0.8473736047744751 7.0 0 -0.03951558098196983
-3.1549150943756104 2.0223097801208496 0.06541161984205246 24.0 8 -0.039513275027275085
-2.737889289855957 1.7556698322296143 -0.7508866190910339 52.0 1 -0.039510972797870636
-2.9906623363494873 1.9184963703155518 0.18621134757995605 6.0 9 -0.039508670568466187
-2.732879161834717 1.7538036108016968 -0.6311962008476257 49.0 2 -0.03950636461377144
-2.9927618503570557 1.9213190078735352 0.31114599108695984 7.0 10 -0.03950406238436699
-2.6846160888671875 1.723492980003357 -0.5052834153175354 57.0 3 -0.03950175642967224
-2.971445322036743 1.9083654880523682 0.4336111545562744 4.0 11 -0.03949945420026779
-2.687194585800171 1.7264729738235474 -0.3921755850315094 39.0 4 -0.039497148245573044
-3.1523244380950928 2.026087760925293 0.5935124158859253 60.0 12 -0.039494846016168594
-2.713226795196533 1.7445355653762817 -0.2822102904319763 53.0 5 -0.039492540061473846
-3.1425366401672363 2.020570993423462 0.7262190580368042 59.0 13 -0.0394902378320694
-3.166372060775757 2.0366785526275635 -0.1973065733909607 60.0 6 -0.03948793187737465
-3.1448237895965576 2.023594379425049 0.8633622527122498 67.0 14 -0.0394856296479702
-3.134735584259033 2.0186502933502197 0.9990415573120117 72.0 15 -0.039481021463871
-2.6648614406585693 1.7206788063049316 -0.8499617576599121 7.0 0 -0.03946028649806976
-3.1411173343658447 2.0289711952209473 0.0652720034122467 25.0 8 -0.039457980543375015
-2.7448384761810303 1.7736769914627075 -0.7544858455657959 51.0 1 -0.039455678313970566
-2.990656852722168 1.9332612752914429 0.1866300404071808 6.0 9 -0.03945337235927582
-2.7286975383758545 1.7639219760894775 -0.6315777897834778 51.0 2 -0.03945107012987137
-2.9964122772216797 1.9377243518829346 0.3121918737888336 7.0 10 -0.03944876417517662
-2.698486566543579 1.7457283735275269 -0.5090377926826477 58.0 3 -0.03944646194577217
-2.9914302825927734 1.9359827041625977 0.43751096725463867 4.0 11 -0.03944415599107742
-2.677818775177002 1.73368501663208 -0.39168810844421387 43.0 4 -0.039441853761672974
-3.15020751953125 2.040299892425537 0.5944510698318481 61.0 12 -0.039439547806978226
-2.715480327606201 1.759413480758667 -0.28308185935020447 50.0 5 -0.039437245577573776
-3.1552352905273438 2.044339418411255 0.7307984828948975 56.0 13 -0.03943493962287903
-3.167623281478882 2.0531506538391113 -0.197829931974411 55.0 6 -0.03943263739347458
-3.1442811489105225 2.0388004779815674 0.8651618361473083 67.0 14 -0.03943033143877983
-2.9258317947387695 1.897879958152771 -0.06087399274110794 48.0 7 -0.03942802920937538
-3.1373934745788574 2.0358901023864746 1.0021474361419678 70.0 15 -0.039425723254680634
-2.6520607471466064 1.726218819618225 -0.8478912711143494 9.0 0 -0.039404988288879395
-2.7484288215637207 1.7896276712417603 -0.7571852803230286 50.0 1 -0.0394003801047802
-2.9939305782318115 1.9502302408218384 0.1872580647468567 6.0 9 -0.03939807787537575
-2.725503444671631 1.7760549783706665 -0.6323410272598267 47.0 2 -0.039395771920681
-2.980945348739624 1.9432529211044312 0.31132030487060547 6.0 10 -0.03939346969127655
-2.7003426551818848 1.7610031366348267 -0.5106021761894226 55.0 3 -0.0393911637365818
-2.9879791736602783 1.9485825300216675 0.4379984438419342 4.0 11 -0.03938886150717735
-2.68338942527771 1.7506136894226074 -0.39339426159858704 48.0 4 -0.039386555552482605
-3.1513373851776123 2.0566818714141846 0.5960153937339783 60.0 12 -0.039384253323078156
-2.7059857845306396 1.7667031288146973 -0.2827332317829132 47.0 5 -0.03938194736838341
-3.157583713531494 2.0623316764831543 0.7330881953239441 60.0 13 -0.03937964513897896
-3.1751251220703125 2.074578046798706 -0.19877198338508606 59.0 6 -0.03937733918428421
-3.1465747356414795 2.056708335876465 0.867861270904541 67.0 14 -0.03937503695487976
-2.925884485244751 1.9124577045440674 -0.061013612896203995 55.0 7 -0.03937273472547531
-3.13026762008667 2.0468292236328125 1.0021474361419678 70.0 15 -0.03937042877078056
-2.639557361602783 1.7312278747558594 -0.8458206653594971 7.0 0 -0.039349693804979324
-3.1081271171569824 2.0393285751342773 0.06488804519176483 1.0 8 -0.039347387850284576
-2.7614006996154785 1.8125211000442505 -0.7625840902328491 49.0 1 -0.03934508562088013
-3.0038022994995117 1.971628189086914 0.18830479681491852 6.0 9 -0.03934277966618538
-2.737339496612549 1.797411561012268 -0.6365388631820679 49.0 2 -0.03934047743678093
-2.9858005046844482 1.9613037109375 0.3125405013561249 5.0 10 -0.03933817148208618
-2.7024333477020264 1.775842547416687 -0.5121665000915527 57.0 3 -0.03933586925268173
-3.000723123550415 1.9726057052612305 0.4409233331680298 4.0 11 -0.039333563297986984
-2.686905860900879 1.766982078552246 -0.394856721162796 48.0 4 -0.039331261068582535
-3.155691385269165 2.075268268585205 0.5982054471969604 62.0 12 -0.03932895511388779
-2.709789276123047 1.7827082872390747 -0.2837790846824646 54.0 5 -0.03932665288448334
-3.1536457538604736 2.0754990577697754 0.733851432800293 60.0 13 -0.03932435065507889
-3.1828773021698 2.095534324645996 -0.1997140347957611 53.0 6 -0.03932204470038414
-3.1523959636688232 2.0762546062469482 0.8714604377746582 67.0 14 -0.03931974247097969
-2.912510871887207 1.9182597398757935 -0.06087399274110794 41.0 7 -0.03931743651628494
-3.129556894302368 2.0619943141937256 1.0042178630828857 72.0 15 -0.03931513428688049
-2.6383330821990967 1.7436267137527466 -0.8473736047744751 6.0 0 -0.039294395595788956
-3.1647424697875977 2.0915210247039795 0.0662144273519516 1.0 8 -0.039292093366384506
-2.7488725185394287 1.8173695802688599 -0.7607845067977905 49.0 1 -0.03928978741168976
-3.02022385597229 1.9975262880325317 0.1897701919078827 5.0 9 -0.03928748518228531
-2.734323263168335 1.8091222047805786 -0.6373021006584167 49.0 2 -0.03928517922759056
-2.992227077484131 1.9805123805999756 0.31393498182296753 5.0 10 -0.03928287699818611
-2.7031185626983643 1.7891556024551392 -0.5134179592132568 57.0 3 -0.039280571043491364
-2.984234094619751 1.9759701490402222 0.4394609034061432 2.0 11 -0.039278268814086914
-2.6975815296173096 1.786844253540039 -0.3972941040992737 50.0 4 -0.039275966584682465
-3.1616015434265137 2.0950002670288086 0.6007084250450134 62.0 12 -0.03927366062998772
-2.710192918777466 1.7965590953826904 -0.2844763398170471 51.0 5 -0.03927135840058327
-3.1500186920166016 2.0881149768829346 0.7346146702766418 57.0 13 -0.03926905244588852
-3.1725821495056152 2.1038694381713867 -0.19950468838214874 57.0 6 -0.03926675021648407
-3.163356304168701 2.0985472202301025 0.8764093518257141 69.0 14 -0.03926444426178932
-2.9307899475097656 1.9450002908706665 -0.06139756739139557 22.0 7 -0.03926214203238487
-3.136824607849121 2.0825235843658447 1.0088766813278198 76.0 15 -0.039259836077690125
-2.6389689445495605 1.7566479444503784 -0.8494440913200378 6.0 0 -0.039239101111888885
-2.7522428035736084 1.833436131477356 -0.7634838819503784 47.0 1 -0.03923449292778969
-3.009908676147461 2.0058417320251465 0.18956086039543152 5.0 9 -0.03923218697309494
-2.749547004699707 1.8323333263397217 -0.6422631144523621 51.0 2 -0.03922988474369049
-3.0088512897491455 2.00589656829834 0.31637534499168396 5.0 10 -0.03922758251428604
-2.7067177295684814 1.805155873298645 -0.5152952075004578 55.0 3 -0.03922527655959129
-2.9905290603637695 1.995188593864441 0.4414108097553253 2.0 11 -0.039222974330186844
-2.694629669189453 1.7984542846679688 -0.3977815806865692 47.0 4 -0.039220668375492096
-3.1657698154449463 2.113701105117798 0.6028984785079956 63.0 12 -0.039218366146087646
-2.7174763679504395 1.8143874406814575 -0.28587085008621216 55.0 5 -0.0392160601913929
-3.155771017074585 2.1078217029571533 0.7376676201820374 57.0 13 -0.03921375796198845
-3.171860933303833 2.119370222091675 -0.19992336630821228 57.0 6 -0.0392114520072937
-3.1543922424316406 2.1084930896759033 0.8759595155715942 67.0 14 -0.03920914977788925
-2.92730712890625 1.957441806793213 -0.06146737560629845 63.0 7 -0.039206843823194504
-3.1391704082489014 2.099905014038086 1.0119824409484863 76.0 15 -0.039204541593790054
-2.6247992515563965 1.7604681253433228 -0.8468559384346008 7.0 0 -0.039183806627988815
-3.146742343902588 2.1113357543945312 0.06614462286233902 6.0 8 -0.03918150067329407
-2.7474441528320312 1.844118356704712 -0.7639338374137878 43.0 1 -0.03917919844388962
-3.009521722793579 2.0207889080047607 0.18997953832149506 5.0 9 -0.03917689248919487
-2.744764804840088 1.843013882637024 -0.6426447629928589 49.0 2 -0.03917459025979042
-3.0051395893096924 2.018608570098877 0.31672394275665283 5.0 10 -0.03917228430509567
-2.7118771076202393 1.82230544090271 -0.5174852609634399 51.0 3 -0.03916998207569122
-3.0033161640167236 2.018904209136963 0.4443356692790985 2.0 11 -0.039167676120996475
-2.6965720653533936 1.8133875131607056 -0.39900025725364685 51.0 4 -0.039165373891592026
-3.164928436279297 2.1291494369506836 0.6041499972343445 63.0 12 -0.03916306793689728
-2.7210450172424316 1.830534815788269 -0.28691670298576355 54.0 5 -0.03916076570749283
-3.1581661701202393 2.1254019737243652 0.739957332611084 60.0 13 -0.03915845975279808
-3.1710710525512695 2.134890079498291 -0.200342059135437 55.0 6 -0.03915615752339363
-3.158327102661133 2.1271114349365234 0.8791087865829468 69.0 14 -0.03915385156869888
-2.9022138118743896 1.9553580284118652 -0.06108342483639717 63.0 7 -0.039151549339294434
-3.1414334774017334 2.1173276901245117 1.0150883197784424 76.0 15 -0.039149243384599686
-2.6154370307922363 1.767456293106079 -0.8458206653594971 7.0 0 -0.03912850841879845
-3.1443231105804443 2.125666856765747 0.06624933332204819 24.0 8 -0.039126206189394
-2.7539045810699463 1.8624305725097656 -0.7675330638885498 43.0 1 -0.03912390023469925
-3.0226571559906006 2.044184446334839 0.19123560190200806 4.0 9 -0.0391215980052948
-2.738314390182495 1.8525843620300293 -0.6426447629928589 49.0 2 -0.03911929205060005
-2.9931249618530273 2.025735855102539 0.31620103120803833 3.0 10 -0.0391169898211956
-2.715313673019409 1.8384054899215698 -0.5193625092506409 51.0 3 -0.039114683866500854
-3.0093986988067627 2.0382819175720215 0.44628557562828064 2.0 11 -0.039112381637096405
-2.7017295360565186 1.8305836915969849 -0.4007064402103424 45.0 4 -0.03911007568240166
-3.1627564430236816 2.1429572105407715 0.6050885915756226 61.0 12 -0.03910777345299721
-2.7146387100219727 1.8400218486785889 -0.28691670298576355 52.0 5 -0.03910546749830246
-3.160477876663208 2.1430234909057617 0.7422470450401306 63.0 13 -0.03910316526889801
-3.1883926391601562 2.162764072418213 -0.20191214978694916 60.0 6 -0.03910085931420326
-3.1541080474853516 2.1403114795684814 0.8800085783004761 66.0 14 -0.03909855708479881
-2.8758578300476074 1.9514967203140259 -0.06066456437110901 72.0 7 -0.039096251130104065
-3.131197929382324 2.125563621520996 1.0140531063079834 78.0 15 -0.039093948900699615
-2.6188321113586426 1.7830994129180908 -0.8489265441894531 7.0 0 -0.039073213934898376
-3.1372568607330322 2.136082172393799 0.06624933332204819 25.0 8 -0.03907090798020363
-2.762208938598633 1.8814258575439453 -0.7715821266174316 40.0 1 -0.03906860575079918
-3.0188043117523193 2.0569722652435303 0.19144494831562042 4.0 9 -0.03906629979610443
-2.7464308738708496 1.8720836639404297 -0.6460793018341064 51.0 2 -0.03906399756669998
-2.984389305114746 2.0350492000579834 0.3160267174243927 3.0 10 -0.039061691612005234
-2.7124664783477783 1.849625587463379 -0.5199882388114929 51.0 3 -0.039059389382600784
-3.012462854385376 2.054961681365967 0.44774800539016724 3.0 11 -0.039057083427906036
-2.70876145362854 1.848484754562378 -0.40265634655952454 47.0 4 -0.03905478119850159
-3.1666769981384277 2.161780595779419 0.6072786450386047 65.0 12 -0.03905247524380684
-2.714780569076538 1.8539811372756958 -0.28761395812034607 52.0 5 -0.03905017301440239
-3.1565966606140137 2.1557066440582275 0.7430102825164795 59.0 13 -0.03904786705970764
-3.182852268218994 2.174452066421509 -0.20201681554317474 57.0 6 -0.03904556483030319
-3.1630818843841553 2.161755084991455 0.8845075964927673 61.0 14 -0.03904326260089874
-2.8706789016723633 1.9626522064208984 -0.0606994703412056 77.0 7 -0.039040956646203995
-3.133326768875122 2.143024444580078 1.01715886592865 78.0 15 -0.039038654416799545
-2.614497661590576 1.7928667068481445 -0.8494440913200378 6.0 0 -0.03901791572570801
-3.1380269527435303 2.1526758670806885 0.06642386317253113 22.0 8 -0.03901561349630356
-2.762052059173584 1.8954671621322632 -0.773381769657135 29.0 1 -0.03901330754160881
-3.0280709266662598 2.0788023471832275 0.19249166548252106 4.0 9 -0.03901100531220436
-2.7560625076293945 1.8927732706069946 -0.6498954892158508 51.0 2 -0.03900869935750961
-3.0071871280670166 2.065237522125244 0.31916433572769165 3.0 10 -0.039006397128105164
-2.7092502117156982 1.8613190650939941 -0.520613968372345 47.0 3 -0.039004091173410416
-3.0019986629486084 2.0632164478302 0.4472605288028717 3.0 11 -0.039001788944005966
-2.715378761291504 1.8669259548187256 -0.40460625290870667 47.0 4 -0.03899948298931122
-3.178642749786377 2.186253547668457 0.6110330820083618 63.0 12 -0.03899718075990677
-2.721423625946045 1.872481346130371 -0.2890084385871887 52.0 5 -0.03899487853050232
-3.161611795425415 2.1761667728424072 0.7460631728172302 59.0 13 -0.03899257257580757
-3.1847317218780518 2.1928985118865967 -0.20264483988285065 57.0 6 -0.03899027034640312
-3.1699626445770264 2.1827290058135986 0.888556718826294 63.0 14 -0.038987964391708374
-2.848989248275757 1.962451696395874 -0.0603853277862072 72.0 7 -0.038985662162303925
-3.1385531425476074 2.162717819213867 1.021299958229065 76.0 15 -0.03898335620760918
-2.6142663955688477 1.8068300485610962 -0.8515146970748901 6.0 0 -0.03896262124180794
-3.14656400680542 2.175535202026367 0.06677290797233582 20.0 8 -0.03896031528711319
-2.793550729751587 1.9321833848953247 -0.7841793894767761 14.0 1 -0.03895801305770874
-3.0204319953918457 2.089885950088501 0.19249166548252106 4.0 9 -0.03895570710301399
-2.7620208263397217 1.9118010997772217 -0.6529484391212463 47.0 2 -0.03895340487360954
-3.01761794090271 2.088719129562378 0.3210817575454712 4.0 10 -0.03895110264420509
-2.7089059352874756 1.8757354021072388 -0.5218654274940491 49.0 3 -0.038948796689510345
-3.0042078495025635 2.0809872150421143 0.4487229585647583 3.0 11 -0.038946494460105896
-2.705254554748535 1.87460458278656 -0.40411877632141113 48.0 4 -0.03894418850541115
-3.178725242614746 2.203516960144043 0.6125974059104919 62.0 12 -0.0389418862760067
-2.7243659496307373 1.8892545700073242 -0.2900542914867401 50.0 5 -0.03893958032131195
-3.16329288482666 2.1944544315338135 0.7483529448509216 61.0 13 -0.0389372780919075
-3.214411735534668 2.230747699737549 -0.20505230128765106 59.0 6 -0.03893497213721275
-3.166743516921997 2.197666645050049 0.8899064064025879 61.0 14 -0.038932669907808304
-2.8368499279022217 1.9694586992263794 -0.06028061360120773 70.0 7 -0.038930363953113556
-3.146472215652466 2.1852264404296875 1.0264763832092285 80.0 15 -0.038928061723709106
-2.5870184898376465 1.8020458221435547 -0.8447853922843933 6.0 0 -0.03890732303261757
-3.1385693550109863 2.1870534420013428 0.06677290797233582 31.0 8 -0.03890502080321312
-2.9175400733947754 2.033789873123169 -0.8210713863372803 4.0 1 -0.03890271857380867
-3.016395092010498 2.102700710296631 0.19270101189613342 4.0 9 -0.03890041261911392
-3.281919240951538 2.288647413253784 -0.7777374982833862 28.0 2 -0.03889811038970947
-3.001772403717041 2.094064712524414 0.32021018862724304 4.0 10 -0.038895804435014725
-2.714972496032715 1.8946949243545532 -0.524368405342102 33.0 3 -0.038893502205610275
-3.0128369331359863 2.1033482551574707 0.45116034150123596 3.0 11 -0.03889119625091553
-2.7019498348236084 1.8863089084625244 -0.40460625290870667 47.0 4 -0.03888889402151108
-3.1742537021636963 2.216860771179199 0.613223135471344 62.0 12 -0.03888658806681633
-2.7455198764801025 1.9181522130966187 -0.29301759600639343 27.0 5 -0.03888428583741188
-3.171705484390259 2.2167298793792725 0.7521690726280212 60.0 13 -0.03888197988271713
-3.2213375568389893 2.252253770828247 -0.20599433779716492 59.0 6 -0.03887967765331268
-3.163844585418701 2.2120566368103027 0.8912561535835266 60.0 14 -0.038877371698617935
-2.81520938873291 1.9690347909927368 -0.05996646732091904 67.0 7 -0.038875069469213486
-3.1514880657196045 2.205056667327881 1.0306174755096436 78.0 15 -0.03887276351451874
-2.5747032165527344 1.806175947189331 -0.8427148461341858 6.0 0 -0.0388520285487175
-3.139483690261841 2.203192949295044 0.06694743037223816 28.0 8 -0.03884972631931305
-2.9219446182250977 2.0512917041778564 -0.8242207169532776 4.0 1 -0.0388474203646183
-3.0224831104278564 2.121872663497925 0.1935383826494217 3.0 9 -0.03884511813521385
-3.2903780937194824 2.3108017444610596 -0.7815536856651306 28.0 2 -0.038842812180519104
-3.0176351070404053 2.120042324066162 0.3226505517959595 4.0 10 -0.038840509951114655
-2.7991790771484375 1.9672952890396118 -0.5418890714645386 37.0 3 -0.03883820399641991
-3.0155887603759766 2.120177984237671 0.45262277126312256 3.0 11 -0.03883590176701546
-2.713542938232422 1.9078177213668823 -0.4072873890399933 42.0 4 -0.03883359581232071
-3.1733479499816895 2.2319207191467285 0.6144746541976929 62.0 12 -0.03883129358291626
-3.2165796756744385 2.2631664276123047 -0.34409087896347046 42.0 5 -0.03882898762822151
-3.1836023330688477 2.240795373916626 0.7567484974861145 59.0 13 -0.03882668539881706
-3.2318146228790283 2.2755722999572754 -0.20714573562145233 55.0 6 -0.038824379444122314
-3.1612720489501953 2.2259020805358887 0.8926058411598206 55.0 14 -0.038822077214717865
-2.787411689758301 1.9633888006210327 -0.059512704610824585 63.0 7 -0.03881977126002312
-3.150475263595581 2.2199463844299316 1.032688021659851 74.0 15 -0.03881746903061867
-2.568699598312378 1.8147040605545044 -0.8427148461341858 6.0 0 -0.03879673406481743
-3.1435914039611816 2.221670627593994 0.06719176471233368 29.0 8 -0.03879442811012268
-2.9278557300567627 2.069969892501831 -0.8278198838233948 4.0 1 -0.03879212588071823
-3.024841785430908 2.1393299102783203 0.1941664218902588 3.0 9 -0.03878981992602348
-3.2951135635375977 2.331343650817871 -0.7846065759658813 23.0 2 -0.038787517696619034
-3.0236001014709473 2.1392436027526855 0.3240450322628021 4.0 10 -0.038785211741924286
-3.2473304271698 2.298387050628662 -0.6301181316375732 50.0 3 -0.038782909512519836
-3.024742841720581 2.141636848449707 0.4550601840019226 3.0 11 -0.03878060355782509
-3.233337163925171 2.2901771068573 -0.48650243878364563 45.0 4 -0.03877830132842064
-3.1800434589385986 2.253262519836426 0.6172904372215271 63.0 12 -0.03877599537372589
-3.216787099838257 2.280142307281494 -0.3449624180793762 44.0 5 -0.03877369314432144
-3.1821677684783936 2.256436586380005 0.7582749724388123 57.0 13 -0.038771387189626694
-3.2401418685913086 2.2983951568603516 -0.20819245278835297 55.0 6 -0.038769084960222244
-3.1741456985473633 2.2515807151794434 0.8984545469284058 60.0 14 -0.038766779005527496
-2.7919564247131348 1.9812082052230835 -0.0597570426762104 75.0 7 -0.03876447677612305
-3.1458580493927 2.233165979385376 1.0337233543395996 76.0 15 -0.0387621745467186
-2.5604567527770996 1.8229867219924927 -0.8421972393989563 5.0 0 -0.03874143585562706
-3.184291124343872 2.2679800987243652 0.06823890656232834 42.0 8 -0.03873913362622261
-2.8916819095611572 2.060332775115967 -0.8197216987609863 4.0 1 -0.03873682767152786
-3.0332443714141846 2.1619949340820312 0.19521313905715942 4.0 9 -0.03873452544212341
-3.2881453037261963 2.3445451259613037 -0.784988284111023 15.0 2 -0.038732219487428665
-3.0222280025482178 2.154938220977783 0.32474228739738464 2.0 10 -0.038729917258024216
-3.234060287475586 2.3068323135375977 -0.6291795372962952 49.0 3 -0.03872761130332947
-3.023336410522461 2.157320737838745 0.4560351073741913 3.0 11 -0.03872530907392502
-3.244309902191162 2.315852403640747 -0.4894273281097412 42.0 4 -0.03872300311923027
-3.1814091205596924 2.2717909812927246 0.619167685508728 60.0 12 -0.03872070088982582
-3.224620819091797 2.303497314453125 -0.34670552611351013 48.0 5 -0.03871839493513107
-3.177070379257202 2.2703676223754883 0.7590382099151611 61.0 13 -0.038716092705726624
-3.2316958904266357 2.310255527496338 -0.20819245278835297 55.0 6 -0.038713790476322174
-3.176969051361084 2.271132707595825 0.9016039371490479 61.0 14 -0.038711484521627426
-2.7895560264587402 1.9949170351028442 -0.05986175313591957 63.0 7 -0.03870918229222298
-3.156505584716797 2.2581701278686523 1.0399349927902222 64.0 15 -0.03870687633752823
-2.5600368976593018 1.8368632793426514 -0.844267725944519 6.0 0 -0.03868614137172699
-3.1987006664276123 2.2959609031677246 0.06872757524251938 44.0 8 -0.03868383541703224
-2.8920254707336426 2.0766005516052246 -0.8219712376594543 4.0 1 -0.03868153318762779
-3.0317883491516113 2.1777584552764893 0.19563181698322296 3.0 9 -0.038679227232933044
-3.2815356254577637 2.35715389251709 -0.785369873046875 12.0 2 -0.038676925003528595
-3.024017333984375 2.172976493835449 0.3257881700992584 2.0 10 -0.03867461904883385
-3.243227005004883 2.331353187561035 -0.6326210498809814 48.0 3 -0.0386723168194294
-3.018632650375366 2.1707053184509277 0.4565226137638092 3.0 11 -0.03867001459002495
-3.235800266265869 2.327727794647217 -0.4894273281097412 41.0 4 -0.0386677086353302
-3.1890950202941895 2.2949743270874023 0.6222963929176331 58.0 12 -0.03866540640592575
-3.2294981479644775 2.324049711227417 -0.34810003638267517 45.0 5 -0.038663100451231
-3.1850593090057373 2.2929139137268066 0.7628543972969055 56.0 13 -0.03866079822182655
-3.2333362102508545 2.3285253047943115 -0.20882049202919006 48.0 6 -0.038658492267131805
-3.171785831451416 2.2850396633148193 0.9025036692619324 54.0 14 -0.038656190037727356
-2.79358172416687 2.0133121013641357 -0.06010609120130539 61.0 7 -0.03865388408303261
-3.167012929916382 2.283280849456787 1.0461466312408447 64.0 15 -0.03865158185362816
-2.5583059787750244 1.849184274673462 -0.8458206653594971 6.0 0 -0.03863084316253662
-3.2036304473876953 2.316486358642578 0.06900681555271149 44.0 8 -0.03862854093313217
-2.886338472366333 2.087824583053589 -0.8224210739135742 3.0 1 -0.03862623870372772
-3.0435848236083984 2.202378273010254 0.19688788056373596 3.0 9 -0.038623932749032974
-3.2716972827911377 2.367443561553955 -0.784988284111023 11.0 2 -0.038621630519628525
-3.0470781326293945 2.205716609954834 0.3291000723838806 2.0 10 -0.03861932456493378
-3.2478692531585693 2.3519279956817627 -0.6351240277290344 48.0 3 -0.03861702233552933
-3.039973497390747 2.202191114425659 0.4609098732471466 3.0 11 -0.03861471638083458
-3.240513801574707 2.348327159881592 -0.49137720465660095 41.0 4 -0.03861241415143013
-3.184262990951538 2.308411121368408 0.6229221224784851 58.0 12 -0.03861010819673538
-3.240722894668579 2.34934139251709 -0.35019177198410034 44.0 5 -0.03860780596733093
-3.1881611347198486 2.312086343765259 0.7655256986618042 46.0 13 -0.038605500012636185
-3.2445881366729736 2.3538718223571777 -0.21007655560970306 48.0 6 -0.038603197783231735
-3.1748297214508057 2.304110527038574 0.9056529402732849 60.0 14 -0.03860089182853699
-2.7930095195770264 2.0277504920959473 -0.060245707631111145 61.0 7 -0.03859858959913254
-3.1762173175811768 2.306809425354004 1.0518406629562378 58.0 15 -0.03859628364443779
-2.5424652099609375 1.8512803316116333 -0.8427148461341858 6.0 0 -0.03857554867863655
-3.211688995361328 2.339427947998047 0.06935586780309677 42.0 8 -0.0385732464492321
-2.8884823322296143 2.10477352142334 -0.8251205086708069 3.0 1 -0.038570940494537354
-3.039106607437134 2.2153422832489014 0.19709724187850952 4.0 9 -0.038568638265132904
-3.2665860652923584 2.381162405014038 -0.785751461982727 9.0 2 -0.038566332310438156
-3.053849220275879 2.2269039154052734 0.3306688666343689 2.0 10 -0.03856403008103371
-3.2571935653686523 2.3760573863983154 -0.6385655999183655 50.0 3 -0.03856172412633896
-3.054717540740967 2.2291719913482666 0.4643222391605377 3.0 11 -0.03855942189693451
-3.24833083152771 2.371328353881836 -0.493814617395401 39.0 4 -0.03855711594223976
-3.188947916030884 2.3288323879241943 0.6254250407218933 63.0 12 -0.03855481371283531
-3.2131943702697754 2.346539258956909 -0.34810003638267517 41.0 5 -0.038552507758140564
-3.199094533920288 2.3370985984802246 0.7701051831245422 61.0 13 -0.038550205528736115
-3.2363524436950684 2.365182638168335 -0.21007655560970306 35.0 6 -0.03854789957404137
-3.1982312202453613 2.3381803035736084 0.9146509766578674 67.0 14 -0.03854559734463692
-2.7955989837646484 2.0445704460144043 -0.06045513600111008 67.0 7 -0.03854329138994217
-3.185295343399048 2.3304309844970703 1.0575345754623413 71.0 15 -0.03854098916053772
-2.5359878540039062 1.8601434230804443 -0.8427148461341858 6.0 0 -0.03852025419473648
-3.203503131866455 2.3506245613098145 0.06935586780309677 44.0 8 -0.03851794824004173
-2.874833822250366 2.1102309226989746 -0.8233208656311035 3.0 1 -0.03851564601063728
-3.060332775115967 2.2472147941589355 0.19898132979869843 3.0 9 -0.038513340055942535
-3.2582547664642334 2.392549753189087 -0.785751461982727 8.0 2 -0.038511037826538086
-3.0444514751434326 2.2363710403442383 0.33049458265304565 2.0 10 -0.03850873187184334
-3.253655195236206 2.3909218311309814 -0.6395041942596436 52.0 3 -0.03850642964243889
