# .PCD v0.7 - Point Cloud Data file format
VERSION 0.7
FIELDS x y z intensity ring time
SIZE 4 4 4 4 4 4
TYPE F F F F F F
COUNT 1 1 1 1 1 1
WIDTH 550
HEIGHT 1
VIEWPOINT 0 0 0 1 0 0 0
POINTS 550
DATA ascii
2.9691452980041504 0.9407291412353516 -0.38242605328559875 67.0 4 -0.08855556696653366
3.0131571292877197 0.9540933966636658 0.5005903244018555 67.0 12 -0.08855326473712921
2.9613940715789795 0.9371343851089478 -0.2717515826225281 63.0 5 -0.08855096250772476
3.0324342250823975 0.9590345025062561 0.6182212233543396 61.0 13 -0.08854866027832031
2.988003969192505 0.9444078207015991 -0.16423025727272034 85.0 6 -0.08854635059833527
3.01947283744812 0.9543540477752686 0.7310910224914551 63.0 14 -0.08854404836893082
2.978466033935547 0.9408214688301086 -0.05452131852507591 72.0 7 -0.08854174613952637
3.026794672012329 0.9555079936981201 0.8504794239997864 67.0 15 -0.08853944391012192
1.127882957458496 0.3545383810997009 -0.3167945444583893 47.0 0 -0.08851870149374008
2.9799399375915527 0.9361420273780823 0.05452131852507591 67.0 8 -0.08851639926433563
1.149023413658142 0.3607430160045624 -0.27803951501846313 48.0 1 -0.08851409703493118
3.0012447834014893 0.9422593712806702 0.16485828161239624 68.0 9 -0.08851179480552673
1.1707570552825928 0.3673420250415802 -0.23851124942302704 57.0 2 -0.08850949257612228
2.9980573654174805 0.9401091933250427 0.274889200925827 59.0 10 -0.08850718289613724
1.1950799226760864 0.37451547384262085 -0.1983589231967926 49.0 3 -0.08850488066673279
3.0158190727233887 0.9445227980613708 0.38803204894065857 65.0 11 -0.08850257843732834
2.9703545570373535 0.9302837252616882 -0.3821823000907898 74.0 4 -0.08850027620792389
3.0219597816467285 0.9458669424057007 0.5015289187431335 65.0 12 -0.08849796652793884
2.9644851684570312 0.9273094534873962 -0.2717515826225281 63.0 5 -0.0884956642985344
3.0281026363372803 0.9466292262077332 0.6166946887969971 61.0 13 -0.08849336206912994
2.998744487762451 0.9368769526481628 -0.16464893519878387 82.0 6 -0.0884910598397255
3.028200626373291 0.9460797905921936 0.7324406504631042 61.0 14 -0.08848875015974045
2.985387086868286 0.9321320056915283 -0.05459113046526909 72.0 7 -0.088486447930336
3.0225701332092285 0.9431627988815308 0.8484088778495789 69.0 15 -0.08848414570093155
1.1235177516937256 0.34907686710357666 -0.31524160504341125 57.0 0 -0.08846341073513031
2.9830284118652344 0.9262542128562927 0.05452131852507591 68.0 8 -0.08846110850572586
1.1390461921691895 0.35346564650535583 -0.27534011006355286 42.0 1 -0.08845879882574081
3.000699996948242 0.930594801902771 0.16464893519878387 66.0 9 -0.08845649659633636
1.1757190227508545 0.3646209239959717 -0.2392745018005371 53.0 2 -0.08845419436693192
3.00496506690979 0.9313409924507141 0.2752378284931183 59.0 10 -0.08845189213752747
1.1906545162200928 0.36879727244377136 -0.19742032885551453 40.0 3 -0.08844958245754242
3.009453058242798 0.9315823912620544 0.38681334257125854 68.0 11 -0.08844728022813797
2.9716873168945312 0.9193220734596252 -0.38193854689598083 72.0 4 -0.08844497799873352
3.029017925262451 0.9364787340164185 0.5021546483039856 75.0 12 -0.08844267576932907
2.9694478511810303 0.9180614948272705 -0.2719258964061737 63.0 5 -0.08844036608934402
3.025597333908081 0.9348443150520325 0.6155498623847961 60.0 13 -0.08843806385993958
2.9884767532348633 0.9228019118309021 -0.1639162302017212 86.0 6 -0.08843576163053513
3.0594165325164795 0.9441223740577698 0.7391892075538635 70.0 14 -0.08843345940113068
2.9886224269866943 0.921705961227417 -0.05459113046526909 72.0 7 -0.08843114972114563
3.029536724090576 0.9337435364723206 0.8494440913200378 69.0 15 -0.08842884749174118
1.12657630443573 0.3457193672657013 -0.31575924158096313 50.0 0 -0.08840811252593994
2.982419013977051 0.9146652221679688 0.054451506584882736 71.0 8 -0.08840581029653549
1.1402732133865356 0.34948715567588806 -0.27534011006355286 30.0 1 -0.08840350806713104
3.0001111030578613 0.9189440011978149 0.1644395887851715 72.0 9 -0.088401198387146
1.1844934225082397 0.3628142774105072 -0.24080097675323486 53.0 2 -0.08839889615774155
3.0062918663024902 0.9202648997306824 0.27506351470947266 57.0 10 -0.0883965939283371
1.1938235759735107 0.3652164041996002 -0.19773319363594055 11.0 3 -0.08839429169893265
2.9993982315063477 0.9170082211494446 0.385107159614563 67.0 11 -0.0883919820189476
2.963487386703491 0.9054651856422424 -0.38047611713409424 72.0 4 -0.08838967978954315
3.030379056930542 0.925323486328125 0.5018418431282043 68.0 12 -0.0883873775601387
2.9745397567749023 0.9082730412483215 -0.2721002399921417 67.0 5 -0.08838507533073425
3.0269651412963867 0.9237035512924194 0.6151682734489441 61.0 13 -0.0883827656507492
2.9802165031433105 0.9088709354400635 -0.1632881909608841 86.0 6 -0.08838046342134476
3.027275562286377 0.9226434826850891 0.7306410670280457 66.0 14 -0.08837816119194031
2.99373459815979 0.9118499159812927 -0.05462603271007538 69.0 7 -0.08837585896253586
3.0364742279052734 0.9242871999740601 0.8504794239997864 70.0 15 -0.08837355673313141
1.1333225965499878 0.3434659242630005 -0.3173121511936188 47.0 0 -0.08835281431674957
2.985593795776367 0.9042482972145081 0.054451506584882736 68.0 8 -0.08835051208734512
1.1545424461364746 0.3494562804698944 -0.2784894108772278 7.0 1 -0.08834820985794067
2.999476909637451 0.9073101878166199 0.16423025727272034 72.0 9 -0.08834590762853622
1.1763569116592407 0.35583555698394775 -0.23889288306236267 47.0 2 -0.08834359794855118
3.009485960006714 0.9097645878791809 0.27506351470947266 57.0 10 -0.08834129571914673
2.9555816650390625 0.8929049372673035 -0.489014208316803 65.0 3 -0.08833899348974228
3.008281707763672 0.9082546234130859 0.3858383595943451 70.0 11 -0.08833669126033783
2.966630220413208 0.8951143622398376 -0.38047611713409424 75.0 4 -0.08833438158035278
3.0260255336761475 0.9124578833580017 0.5005903244018555 71.0 12 -0.08833207935094833
2.9872303009033203 0.9007596969604492 -0.2729717791080475 61.0 5 -0.08832977712154388
3.032050132751465 0.9136989116668701 0.6155498623847961 60.0 13 -0.08832747489213943
2.9871959686279297 0.8996135592460632 -0.16349753737449646 86.0 6 -0.08832517266273499
3.0267460346221924 0.9109466075897217 0.7297412753105164 65.0 14 -0.08832286298274994
2.991154432296753 0.8996670842170715 -0.05452131852507591 72.0 7 -0.08832056075334549
3.043381452560425 0.9147965312004089 0.8515146970748901 69.0 15 -0.08831825852394104
1.1197086572647095 0.3350767493247986 -0.31317105889320374 41.0 0 -0.0882975235581398
2.9963958263397217 0.8961122632026672 0.05459113046526909 69.0 8 -0.08829521387815475
1.1650906801223755 0.3482150137424469 -0.2807389199733734 5.0 1 -0.0882929116487503
2.998798370361328 0.8956904411315918 0.16402089595794678 72.0 9 -0.08829060941934586
1.1719483137130737 0.3500412106513977 -0.23774802684783936 15.0 2 -0.0882883071899414
3.006916046142578 0.8975434899330139 0.27454057335853577 59.0 10 -0.08828599750995636
2.9643588066101074 0.8842785954475403 -0.48995280265808105 79.0 3 -0.08828369528055191
3.017141103744507 0.899448812007904 0.3865695893764496 65.0 11 -0.08828139305114746
2.9659316539764404 0.8836190700531006 -0.3799886405467987 72.0 4 -0.08827909082174301
3.023512125015259 0.9002006649971008 0.4996517598628998 65.0 12 -0.08827678859233856
2.9731695652008057 0.8852120041847229 -0.2714029848575592 67.0 5 -0.08827447891235352
3.0408666133880615 0.9047884345054626 0.6166946887969971 61.0 13 -0.08827217668294907
2.997976064682007 0.8914570808410645 -0.1639162302017212 86.0 6 -0.08826987445354462
3.0392467975616455 0.9031533598899841 0.7319908142089844 67.0 14 -0.08826757222414017
2.9904427528381348 0.8880810737609863 -0.054451506584882736 72.0 7 -0.08826526254415512
3.0354442596435547 0.900868833065033 0.8484088778495789 67.0 15 -0.08826296031475067
1.1245766878128052 0.33226171135902405 -0.3142063319683075 37.0 0 -0.08824222534894943
2.9879984855651855 0.8822503685951233 0.05438169836997986 68.0 8 -0.08823992311954498
1.162561058998108 0.34304264187812805 -0.2798391282558441 11.0 1 -0.08823761343955994
3.0095698833465576 0.8874760866165161 0.1644395887851715 74.0 9 -0.08823531121015549
2.945148229598999 0.8684791326522827 -0.596850574016571 70.0 2 -0.08823300898075104
3.0100302696228027 0.8870425820350647 0.27454057335853577 61.0 10 -0.08823070675134659
2.9484786987304688 0.868344247341156 -0.4868241250514984 83.0 3 -0.08822840452194214
3.014549732208252 0.8872293829917908 0.3858383595943451 70.0 11 -0.08822609484195709
2.972806692123413 0.8743816018104553 -0.38047611713409424 77.0 4 -0.08822379261255264
3.024740695953369 0.889083206653595 0.49933886528015137 71.0 12 -0.0882214903831482
2.9706597328186035 0.8726220726966858 -0.2708800435066223 68.0 5 -0.08821918815374374
3.038355588912964 0.8925074338912964 0.6155498623847961 57.0 13 -0.0882168784737587
3.0049021244049072 0.8821125626564026 -0.16412557661533356 88.0 6 -0.08821457624435425
3.036771297454834 0.8908923864364624 0.7306410670280457 65.0 14 -0.0882122740149498
2.991605520248413 0.8770736455917358 -0.05441660061478615 76.0 7 -0.08820997178554535
3.0311548709869385 0.8880957365036011 0.8463383316993713 67.0 15 -0.0882076621055603
1.120223045349121 0.3265151083469391 -0.31265342235565186 32.0 0 -0.08818692713975906
2.9833805561065674 0.8695757985115051 0.054242078214883804 66.0 8 -0.08818462491035461
1.1581382751464844 0.33734771609306335 -0.2784894108772278 41.0 1 -0.08818232268095016
3.0049779415130615 0.8747345805168152 0.16402089595794678 74.0 9 -0.08818002045154572
2.9577369689941406 0.8604215383529663 -0.5987586975097656 83.0 2 -0.08817771077156067
3.013261318206787 0.8760049939155579 0.27454057335853577 60.0 10 -0.08817540854215622
2.957331895828247 0.8591856956481934 -0.4877626895904541 77.0 3 -0.08817310631275177
3.01381516456604 0.8755956292152405 0.38535091280937195 70.0 11 -0.08817080408334732
2.9758412837982178 0.8639984726905823 -0.38047611713409424 74.0 4 -0.08816849440336227
3.031620502471924 0.8796195983886719 0.4999645948410034 70.0 12 -0.08816619217395782
2.973687171936035 0.8622492551803589 -0.2708800435066223 66.0 5 -0.08816388994455338
3.0340635776519775 0.8791804313659668 0.6140233874320984 58.0 13 -0.08816158771514893
2.9946861267089844 0.8672035336494446 -0.16339287161827087 91.0 6 -0.08815927803516388
3.0456316471099854 0.8813819289207458 0.7319908142089844 67.0 14 -0.08815697580575943
3.0023319721221924 0.868851363658905 -0.0545562244951725 74.0 7 -0.08815467357635498
3.0398037433624268 0.8791188597679138 0.8478912711143494 69.0 15 -0.08815237134695053
1.1306387186050415 0.3252736032009125 -0.31524160504341125 25.0 0 -0.08813163638114929
2.9865477085113525 0.8586359620094299 0.054242078214883804 69.0 8 -0.08812932670116425
1.1425102949142456 0.3282572329044342 -0.27444028854370117 46.0 1 -0.0881270244717598
3.0080132484436035 0.8642390966415405 0.16402089595794678 70.0 9 -0.08812472224235535
2.9569480419158936 0.8490087985992432 -0.597995400428772 84.0 2 -0.0881224200129509
3.0201313495635986 0.8665796518325806 0.274889200925827 63.0 10 -0.08812011033296585
2.964111089706421 0.8499457240104675 -0.4883884787559509 77.0 3 -0.0881178081035614
3.009371042251587 0.8623554706573486 0.3843759298324585 68.0 11 -0.08811550587415695
2.9713540077209473 0.8509002327919006 -0.3795011639595032 75.0 4 -0.0881132036447525
3.03277325630188 0.8684887290000916 0.4996517598628998 63.0 12 -0.08811089396476746
2.9690170288085938 0.8496703505516052 -0.2701827883720398 70.0 5 -0.088108591735363
3.033338785171509 0.8675051927566528 0.6132601499557495 58.0 13 -0.08810628950595856
2.986172676086426 0.8534524440765381 -0.16276483237743378 93.0 6 -0.08810398727655411
3.037447214126587 0.8675333261489868 0.7292913794517517 63.0 14 -0.08810167759656906
3.0053467750549316 0.8583651185035706 -0.0545562244951725 74.0 7 -0.08809937536716461
3.0428543090820312 0.8685017228126526 0.8478912711143494 70.0 15 -0.08809707313776016
1.141059160232544 0.32396334409713745 -0.31782978773117065 14.0 0 -0.08807633817195892
2.9932258129119873 0.8498204946517944 0.05431189015507698 69.0 8 -0.08807403594255447
1.1604653596878052 0.329253613948822 -0.2784894108772278 15.0 1 -0.08807172626256943
3.0110116004943848 0.85373455286026 0.16402089595794678 76.0 9 -0.08806942403316498
2.9542269706726074 0.8370769619941711 -0.596850574016571 72.0 2 -0.08806712180376053
3.025055170059204 0.8565741777420044 0.27506351470947266 65.0 10 -0.08806481957435608
2.9631121158599854 0.839034378528595 -0.4877626895904541 77.0 3 -0.08806250989437103
3.023674488067627 0.8556149005889893 0.3858383595943451 72.0 11 -0.08806020766496658
2.970338821411133 0.8399624824523926 -0.37901368737220764 75.0 4 -0.08805790543556213
3.0110743045806885 0.8509126901626587 0.4955844581127167 60.0 12 -0.08805560320615768
2.9892210960388184 0.8441753387451172 -0.2717515826225281 75.0 5 -0.08805329352617264
3.0418667793273926 0.8590428233146667 0.6144050359725952 60.0 13 -0.08805099129676819
2.9966747760772705 0.8457157015800476 -0.1631835252046585 93.0 6 -0.08804868906736374
3.0365564823150635 0.856397271156311 0.7283915877342224 67.0 14 -0.08804638683795929
2.998701333999634 0.8451576232910156 -0.05438169836997986 81.0 7 -0.08804408460855484
3.049586296081543 0.858923077583313 0.8489265441894531 70.0 15 -0.0880417749285698
2.940884828567505 0.8244307041168213 -0.8183858394622803 24.0 0 -0.08802103996276855
2.9961743354797363 0.8393661975860596 0.05431189015507698 74.0 8 -0.0880187377333641
2.9631314277648926 0.8295516967773438 -0.7103955149650574 67.0 1 -0.08801643550395966
3.0061330795288086 0.8415903449058533 0.16360221803188324 74.0 9 -0.08801412582397461
2.9588773250579834 0.827803909778595 -0.5972321629524231 60.0 2 -0.08801182359457016
3.018284559249878 0.8438562750816345 0.2741919755935669 69.0 10 -0.08800952136516571
2.9736328125 0.830812931060791 -0.489014208316803 69.0 3 -0.08800721913576126
3.0189952850341797 0.8429189920425415 0.3848634362220764 70.0 11 -0.08800490945577621
2.973253011703491 0.8295881748199463 -0.37901368737220764 70.0 4 -0.08800260722637177
3.019587755203247 0.8425163626670837 0.49652308225631714 82.0 12 -0.08800030499696732
2.9785702228546143 0.8305115103721619 -0.27053141593933105 70.0 5 -0.08799800276756287
3.0524117946624756 0.8505265116691589 0.6159314513206482 61.0 13 -0.08799570053815842
2.997684955596924 0.8347136378288269 -0.16307885944843292 86.0 6 -0.08799339085817337
3.0432817935943604 0.8468379378318787 0.7292913794517517 67.0 14 -0.08799108862876892
2.9860756397247314 0.8309194445610046 -0.05410246178507805 81.0 7 -0.08798878639936447
3.0449726581573486 0.8467358350753784 0.8468559384346008 70.0 15 -0.08798648416996002
2.9493303298950195 0.8157054781913757 -0.8199387788772583 57.0 0 -0.08796574175357819
2.995086193084717 0.828360378742218 0.054242078214883804 69.0 8 -0.08796343952417374
2.960231065750122 0.8181642293930054 -0.7090457677841187 65.0 1 -0.08796113729476929
3.0167529582977295 0.8332193493843079 0.16402089595794678 74.0 9 -0.08795883506536484
2.952286720275879 0.8148579001426697 -0.5953240990638733 74.0 2 -0.08795653283596039
3.0154495239257812 0.8317267894744873 0.27366903424263 65.0 10 -0.08795422315597534
2.9668500423431396 0.818321943283081 -0.48744985461235046 83.0 3 -0.08795192092657089
3.029428720474243 0.8350135087966919 0.3858383595943451 70.0 11 -0.08794961869716644
2.9759879112243652 0.8197230696678162 -0.37901368737220764 75.0 4 -0.087947316467762
3.0320327281951904 0.8345927000045776 0.49808740615844727 70.0 12 -0.08794500678777695
2.977609157562256 0.8190515637397766 -0.2701827883720398 60.0 5 -0.0879427045583725
3.043858051300049 0.8372746706008911 0.6136417388916016 62.0 13 -0.08794040232896805
3.0119917392730713 0.8279438018798828 -0.16370689868927002 67.0 6 -0.0879381000995636
3.0460731983184814 0.8367419838905334 0.7292913794517517 67.0 14 -0.08793579041957855
2.9812445640563965 0.8183728456497192 -0.053962841629981995 50.0 7 -0.0879334881901741
3.0441839694976807 0.8350788950920105 0.8458206653594971 69.0 15 -0.08793118596076965
2.950155258178711 0.8054124712944031 -0.819421112537384 68.0 0 -0.08791045099496841
2.9941012859344482 0.816847026348114 0.054172269999980927 47.0 8 -0.08790814876556396
2.957428455352783 0.8062875866889954 -0.7076960802078247 63.0 1 -0.08790583908557892
3.025423765182495 0.8242595195770264 0.16433492302894592 50.0 9 -0.08790353685617447
2.9606547355651855 0.8066135048866272 -0.5964689254760742 84.0 2 -0.08790123462677002
3.02203631401062 0.8227684497833252 0.2740176320075989 65.0 10 -0.08789893239736557
2.965876579284668 0.8069226741790771 -0.4868241250514984 79.0 3 -0.08789662271738052
3.015084981918335 0.8197472095489502 0.3836447298526764 76.0 11 -0.08789432048797607
2.9922404289245605 0.8129737973213196 -0.3807198405265808 41.0 4 -0.08789201825857162
3.042552947998047 0.8260733485221863 0.49933886528015137 66.0 12 -0.08788971602916718
2.982231616973877 0.8096957206726074 -0.2703571021556854 77.0 5 -0.08788740634918213
3.035393476486206 0.8235606551170349 0.6113520860671997 61.0 13 -0.08788510411977768
2.997514247894287 0.8127217292785645 -0.16276483237743378 93.0 6 -0.08788280189037323
3.0527374744415283 0.8271226286888123 0.730191171169281 68.0 14 -0.08788049966096878
3.005314826965332 0.8137107491493225 -0.05434679239988327 83.0 7 -0.08787818998098373
3.0433504581451416 0.8234391212463379 0.8447853922843933 70.0 15 -0.08787588775157928
2.958545207977295 0.796615719795227 -0.8209740519523621 64.0 0 -0.08785515278577805
2.9988653659820557 0.8069109916687012 0.054207175970077515 70.0 8 -0.0878528505563736
2.9545791149139404 0.794441819190979 -0.706346333026886 67.0 1 -0.08785054832696915
3.0205676555633545 0.8116199374198914 0.1639162302017212 74.0 9 -0.0878482386469841
2.9691405296325684 0.7978015542030334 -0.5976138114929199 72.0 2 -0.08784593641757965
3.022966146469116 0.8116971850395203 0.27384334802627563 63.0 10 -0.0878436341881752
2.970582962036133 0.7970775365829468 -0.48713696002960205 77.0 3 -0.08784133195877075
3.017928123474121 0.8092167973518372 0.3836447298526764 61.0 11 -0.0878390222787857
2.9778032302856445 0.7978992462158203 -0.3785262107849121 27.0 4 -0.08783672004938126
3.049234390258789 0.8164703845977783 0.4999645948410034 60.0 12 -0.0878344178199768
2.9811902046203613 0.7982507348060608 -0.27000847458839417 72.0 5 -0.08783211559057236
3.047732353210449 0.8154981732368469 0.6132601499557495 56.0 13 -0.08782980591058731
2.992615222930908 0.8001890182495117 -0.16234615445137024 93.0 6 -0.08782750368118286
3.0443098545074463 0.8134437799453735 0.7274917960166931 62.0 14 -0.08782520145177841
3.0100691318511963 0.8037318587303162 -0.05438169836997986 81.0 7 -0.08782289922237396
3.0536725521087646 0.8148021697998047 0.8468559384346008 69.0 15 -0.08782058954238892
2.9631752967834473 0.7867785692214966 -0.8214917182922363 65.0 0 -0.08779985457658768
3.003596305847168 0.7969515323638916 0.054242078214883804 71.0 8 -0.08779755234718323
2.957334518432617 0.7841228246688843 -0.706346333026886 72.0 1 -0.08779525011777878
3.0058677196502686 0.7969911694526672 0.16297417879104614 76.0 9 -0.08779294788837433
2.958622932434082 0.7839118242263794 -0.5949424505233765 76.0 2 -0.08779063820838928
3.0238542556762695 0.8006321787834167 0.27366903424263 65.0 10 -0.08778833597898483
2.963798761367798 0.784176230430603 -0.4855726361274719 109.0 3 -0.08778603374958038
3.02649188041687 0.8001986742019653 0.3843759298324585 62.0 11 -0.08778373152017593
2.9824886322021484 0.7880089282989502 -0.3787699341773987 85.0 4 -0.08778142184019089
3.0328261852264404 0.8013087511062622 0.4968359172344208 78.0 12 -0.08777911961078644
2.987812042236328 0.7888560891151428 -0.2703571021556854 80.0 5 -0.08777681738138199
3.0524587631225586 0.8053545951843262 0.6136417388916016 60.0 13 -0.08777451515197754
3.006977081298828 0.7927951216697693 -0.16297417879104614 100.0 6 -0.08777220547199249
3.0433621406555176 0.8018184900283813 0.7265920042991638 67.0 14 -0.08776990324258804
2.9933807849884033 0.7886501550674438 -0.05403264984488487 84.0 7 -0.0877676010131836
3.0563576221466064 0.8046719431877136 0.8468559384346008 69.0 15 -0.08776529878377914
2.9490833282470703 0.7720277309417725 -0.816832959651947 64.0 0 -0.0877445638179779
3.0023536682128906 0.7859731316566467 0.054172269999980927 74.0 8 -0.08774225413799286
2.959918260574341 0.7743121981620789 -0.706346333026886 76.0 1 -0.08773995190858841
3.0163612365722656 0.7885136008262634 0.16339287161827087 72.0 9 -0.08773764967918396
2.961341142654419 0.7735801339149475 -0.5949424505233765 76.0 2 -0.08773534744977951
3.0266308784484863 0.7900713086128235 0.27366903424263 65.0 10 -0.08773303776979446
2.977851152420044 0.7773378491401672 -0.48744985461235046 91.0 3 -0.08773073554039001
3.017604351043701 0.7871509194374084 0.3829135298728943 27.0 11 -0.08772843331098557
2.9831650257110596 0.7776128649711609 -0.3785262107849121 81.0 4 -0.08772613108158112
3.0317821502685547 0.7897206544876099 0.4962101876735687 70.0 12 -0.08772382140159607
2.9866907596588135 0.7774171829223633 -0.27000847458839417 75.0 5 -0.08772151917219162
3.058912992477417 0.7962161898612976 0.6144050359725952 60.0 13 -0.08771921694278717
3.0018582344055176 0.7808073163032532 -0.1625555008649826 100.0 6 -0.08771691471338272
3.0441179275512695 0.7912322878837585 0.7261420488357544 66.0 14 -0.08771461248397827
2.9806318283081055 0.7741740345954895 -0.05375341325998306 81.0 7 -0.08771230280399323
3.04792857170105 0.7910870909690857 0.8437501192092896 72.0 15 -0.08771000057458878
2.9478864669799805 0.761278510093689 -0.8157976865768433 64.0 0 -0.08768926560878754
2.9973342418670654 0.7734887599945068 0.05403264984488487 72.0 8 -0.08768696337938309
2.966376781463623 0.7649492621421814 -0.7072461247444153 76.0 1 -0.08768465369939804
3.019094467163086 0.7779818177223206 0.16339287161827087 76.0 9 -0.08768235146999359
2.9638898372650146 0.7637563347816467 -0.5949424505233765 74.0 2 -0.08768004924058914
3.021516799926758 0.7780421376228333 0.2729717791080475 67.0 10 -0.08767774701118469
2.9690678119659424 0.7639840245246887 -0.4855726361274719 88.0 3 -0.08767543733119965
3.0261008739471436 0.778097927570343 0.3836447298526764 56.0 11 -0.0876731351017952
2.9916293621063232 0.7686761617660522 -0.3792574405670166 82.0 4 -0.08767083287239075
3.038346767425537 0.7801146507263184 0.4968359172344208 57.0 12 -0.0876685306429863
2.9815332889556885 0.7655273675918579 -0.26931124925613403 75.0 5 -0.08766622841358185
3.050262689590454 0.7826082706451416 0.6121153235435486 60.0 13 -0.0876639187335968
2.9987614154815674 0.7688352465629578 -0.16224147379398346 97.0 6 -0.08766161650419235
3.0600757598876953 0.7839862108230591 0.7292913794517517 67.0 14 -0.0876593142747879
2.9910645484924316 0.7657508254051208 -0.05389302968978882 84.0 7 -0.08765701204538345
3.0450568199157715 0.779005765914917 0.8421972393989563 74.0 15 -0.08765470236539841
2.9561426639556885 0.7524126172065735 -0.8173506259918213 65.0 0 -0.08763396739959717
2.9922635555267334 0.7610518336296082 0.05389302968978882 74.0 8 -0.08763166517019272
2.9633634090423584 0.7531492710113525 -0.7058964967727661 81.0 1 -0.08762936294078827
3.0295350551605225 0.7694041728973389 0.1638115644454956 76.0 9 -0.08762706071138382
2.966538190841675 0.753404974937439 -0.5949424505233765 74.0 2 -0.08762475103139877
3.0242135524749756 0.767492413520813 0.2729717791080475 67.0 10 -0.08762244880199432
2.964057445526123 0.7516737580299377 -0.4843211770057678 84.0 3 -0.08762014657258987
3.0287985801696777 0.767529308795929 0.3836447298526764 75.0 11 -0.08761784434318542
2.994293689727783 0.7582308053970337 -0.3792574405670166 82.0 4 -0.08761553466320038
3.0372214317321777 0.7685356140136719 0.4962101876735687 71.0 12 -0.08761323243379593
2.991912841796875 0.7570708394050598 -0.27000847458839417 83.0 5 -0.08761093020439148
3.0491697788238525 0.7709928154945374 0.6113520860671997 62.0 13 -0.08760862797498703
2.9956178665161133 0.7568943500518799 -0.1619274616241455 100.0 6 -0.08760631829500198
3.0571253299713135 0.7718691825866699 0.727941632270813 66.0 14 -0.08760401606559753
3.0014750957489014 0.757261335849762 -0.05403264984488487 84.0 7 -0.08760171383619308
3.049630880355835 0.7688432335853577 0.8427148461341858 70.0 15 -0.08759941160678864
2.962498426437378 0.7430297136306763 -0.8183858394622803 65.0 0 -0.0875786766409874
2.998781442642212 0.7515737414360046 0.053962841629981995 72.0 8 -0.08757636696100235
2.962193489074707 0.741852879524231 -0.704996645450592 78.0 1 -0.0875740647315979
3.022514581680298 0.7564007043838501 0.1632881909608841 78.0 9 -0.08757176250219345
2.9710545539855957 0.7435225248336792 -0.5953240990638733 79.0 2 -0.087569460272789
3.036538600921631 0.7593472003936768 0.27384334802627563 69.0 10 -0.08756715059280396
2.981995105743408 0.74515300989151 -0.4868241250514984 79.0 3 -0.0875648483633995
3.025681257247925 0.7555100321769714 0.3829135298728943 73.0 11 -0.08756254613399506
2.985366106033325 0.7448898553848267 -0.37779501080513 82.0 4 -0.0875602439045906
3.0475525856018066 0.7598397731781006 0.4974616467952728 72.0 12 -0.08755793422460556
2.9984045028686523 0.7475857734680176 -0.2703571021556854 77.0 5 -0.08755563199520111
3.04803204536438 0.7593958973884583 0.610588788986206 62.0 13 -0.08755332976579666
2.9982411861419678 0.7464351058006287 -0.1619274616241455 100.0 6 -0.08755102753639221
3.044672727584839 0.757428765296936 0.7243424654006958 66.0 14 -0.08754871785640717
3.006040573120117 0.7472626566886902 -0.05406755208969116 88.0 7 -0.08754641562700272
3.057919979095459 0.759592592716217 0.844267725944519 74.0 15 -0.08754411339759827
2.963198661804199 0.732219934463501 -0.817868173122406 64.0 0 -0.08752337843179703
3.009152412414551 0.7430180907249451 0.05410246178507805 76.0 8 -0.08752107620239258
2.9590888023376465 0.7301100492477417 -0.7036469578742981 76.0 1 -0.08751876652240753
3.0212583541870117 0.7448885440826416 0.16307885944843292 82.0 9 -0.08751646429300308
2.9660072326660156 0.7312663793563843 -0.5937976241111755 79.0 2 -0.08751416206359863
3.03530216217041 0.7477890849113464 0.2734947204589844 69.0 10 -0.08751185983419418
2.97690486907959 0.732852578163147 -0.4855726361274719 15.0 3 -0.08750955015420914
3.024444818496704 0.7439946532249451 0.38242605328559875 73.0 11 -0.08750724792480469
2.984092950820923 0.7335159778594971 -0.3773075342178345 48.0 4 -0.08750494569540024
3.044431209564209 0.7477843165397644 0.49652308225631714 73.0 12 -0.08750264346599579
2.9951906204223633 0.7356896996498108 -0.2698341906070709 70.0 5 -0.08750033378601074
3.0506644248962402 0.7487508058547974 0.610588788986206 63.0 13 -0.08749803155660629
3.000828742980957 0.7359639406204224 -0.1619274616241455 100.0 6 -0.08749572932720184
3.047297716140747 0.7467969059944153 0.7243424654006958 66.0 14 -0.0874934270977974
3.000861644744873 0.7348617315292358 -0.053927935659885406 91.0 7 -0.08749112486839294
3.0661826133728027 0.75029057264328 0.8458206653594971 69.0 15 -0.0874888151884079
2.958228588104248 0.7200436592102051 -0.8157976865768433 64.0 0 -0.08741116523742676
3.0078413486480713 0.7315651178359985 0.05403264984488487 74.0 8 -0.08740886300802231
2.9673001766204834 0.7211562395095825 -0.704996645450592 78.0 1 -0.08740656077861786
3.0180180072784424 0.7329230308532715 0.16276483237743378 74.0 9 -0.08740425109863281
2.964726209640503 0.7199812531471252 -0.5930343866348267 79.0 2 -0.08740194886922836
3.03014874458313 0.7353106141090393 0.27279746532440186 69.0 10 -0.08739964663982391
1.7565672397613525 0.42593249678611755 -0.28627508878707886 13.0 3 -0.08739734441041946
3.0405285358428955 0.7367041707038879 0.3841322064399719 76.0 11 -0.08739503473043442
1.8039430379867554 0.43675360083580017 -0.22789569199085236 6.0 4 -0.08739273250102997
3.043182611465454 0.7362242937088013 0.4958972930908203 73.0 12 -0.08739043027162552
3.0608928203582764 0.7399418950080872 0.6121153235435486 62.0 13 -0.08738581836223602
3.0555689334869385 0.73752760887146 0.7256921529769897 67.0 14 -0.08738121390342712
3.003408670425415 0.7243815064430237 -0.053927935659885406 18.0 7 -0.08737891167402267
3.053758144378662 0.7359626293182373 0.841679573059082 72.0 15 -0.08737660199403763
2.9569664001464844 0.7088145017623901 -0.8147624135017395 64.0 0 -0.08735586702823639
2.9773802757263184 0.7126091122627258 -0.7067962884902954 78.0 1 -0.08735126256942749
2.9672207832336426 0.7096300721168518 -0.5930343866348267 79.0 2 -0.087346650660038
3.023008108139038 0.722412645816803 0.2719258964061737 67.0 10 -0.08734434843063354
1.7522794008255005 0.41842153668403625 -0.2853364944458008 50.0 3 -0.0873420462012291
3.03535795211792 0.7242440581321716 0.38315722346305847 75.0 11 -0.08733974397182465
1.7880779504776 0.42631006240844727 -0.22570204734802246 87.0 4 -0.0873374342918396
3.0476558208465576 0.7260541319847107 0.4962101876735687 72.0 12 -0.08733513206243515
1.7927874326705933 0.4271022379398346 -0.16123811900615692 56.0 5 -0.0873328298330307
3.0558173656463623 0.7274349331855774 0.610588788986206 63.0 13 -0.08733052760362625
1.8070337772369385 0.42982974648475647 -0.09734489023685455 16.0 6 -0.0873282179236412
3.0581247806549072 0.7268564105033875 0.7256921529769897 71.0 14 -0.08732591569423676
1.7957689762115479 0.4264880418777466 -0.03221714124083519 16.0 7 -0.0873236134648323
3.054429292678833 0.7248517870903015 0.8411619663238525 74.0 15 -0.08732131123542786
2.9650630950927734 0.6998189091682434 -0.8163152933120728 65.0 0 -0.08730057626962662
1.7867052555084229 0.42137184739112854 0.032042618840932846 32.0 8 -0.08729826658964157
2.9684689044952393 0.6995290517807007 -0.7040968537330627 81.0 1 -0.08729596436023712
1.8195940256118774 0.4287930428981781 0.09797292202711105 54.0 9 -0.08729366213083267
2.9735019207000732 0.7001673579216003 -0.5937976241111755 79.0 2 -0.08729135990142822
1.7710357904434204 0.41637152433395386 -0.2881523370742798 76.0 3 -0.08728674799203873
3.0340023040771484 0.712736964225769 0.3826697766780853 76.0 11 -0.08728444576263428
1.7740217447280884 0.4167468249797821 -0.22375212609767914 82.0 4 -0.08728214353322983
3.059662103652954 0.7182013988494873 0.49777454137802124 73.0 12 -0.08727983385324478
1.786508321762085 0.41902217268943787 -0.1605408787727356 89.0 5 -0.08727753162384033
3.050691843032837 0.7149724364280701 0.6090623736381531 63.0 13 -0.08727522939443588
1.7968552112579346 0.4207864999771118 -0.09671685099601746 62.0 6 -0.08727292716503143
3.060518503189087 0.7167104482650757 0.7256921529769897 66.0 14 -0.08727062493562698
1.7777023315429688 0.4159749150276184 -0.031868092715740204 69.0 7 -0.08726831525564194
3.0624592304229736 0.7160390019416809 0.8427148461341858 72.0 15 -0.08726601302623749
2.967367649078369 0.6899817585945129 -0.8163152933120728 67.0 0 -0.08724527806043625
1.7841970920562744 0.4145398736000061 0.03197281062602997 88.0 8 -0.0872429758310318
2.9669759273529053 0.6887992024421692 -0.7031970620155334 81.0 1 -0.08724066615104675
1.8054417371749878 0.41914284229278564 0.09713554382324219 100.0 9 -0.0872383639216423
2.979632616043091 0.6911894679069519 -0.5945608615875244 79.0 2 -0.08723606169223785
1.81865394115448 0.42154207825660706 0.1633298546075821 23.0 10 -0.0872337594628334
1.7724069356918335 0.4104957580566406 -0.2881523370742798 76.0 3 -0.08723144978284836
3.028613567352295 0.7008808255195618 0.38169482350349426 76.0 11 -0.08722914755344391
1.7715262174606323 0.4099660813808441 -0.2232646644115448 77.0 4 -0.08722684532403946
3.0620267391204834 0.708051860332489 0.49777454137802124 73.0 12 -0.08722454309463501
1.7840054035186768 0.412198007106781 -0.16019225120544434 85.0 5 -0.08722224086523056
3.0568721294403076 0.7057344913482666 0.6098255515098572 62.0 13 -0.08721993118524551
1.8099174499511719 0.41752052307128906 -0.09734489023685455 100.0 6 -0.08721762895584106
3.0571815967559814 0.7052454352378845 0.7243424654006958 68.0 14 -0.08721532672643661
1.8083010911941528 0.416814386844635 -0.03239166736602783 93.0 7 -0.08721302449703217
3.06858229637146 0.7067459225654602 0.8437501192092896 70.0 15 -0.08721071481704712
2.971522331237793 0.6805697083473206 -0.816832959651947 64.0 0 -0.08718997985124588
1.783612608909607 0.4081743657588959 0.03193790465593338 89.0 8 -0.08718767762184143
2.967343807220459 0.6785227656364441 -0.702747106552124 76.0 1 -0.08718537539243698
1.7971583604812622 0.41061416268348694 0.09661218523979187 87.0 9 -0.08718306571245193
2.974252462387085 0.6795562505722046 -0.5930343866348267 79.0 2 -0.08718076348304749
1.8297539949417114 0.4177256226539612 0.16420140862464905 60.0 10 -0.08717846125364304
1.7641288042068481 0.4024197459220886 -0.28658798336982727 75.0 3 -0.08717615902423859
3.0251147747039795 0.6895109415054321 0.38096359372138977 73.0 11 -0.08717385679483414
1.7652041912078857 0.40201693773269653 -0.22228971123695374 73.0 4 -0.08717154711484909
3.0529229640960693 0.6947283744812012 0.4958972930908203 76.0 12 -0.08716924488544464
1.7814770936965942 0.4053959846496582 -0.15984363853931427 85.0 5 -0.08716694265604019
3.057281255722046 0.6951590180397034 0.6094439625740051 65.0 13 -0.08716464042663574
1.7976586818695068 0.40841835737228394 -0.09661218523979187 96.0 6 -0.0871623307466507
3.0501227378845215 0.6924117207527161 0.7220929265022278 66.0 14 -0.08716002851724625
1.7999942302703857 0.4082883298397064 -0.03221714124083519 100.0 7 -0.0871577262878418
3.074798583984375 0.6968848705291748 0.8447853922843933 72.0 15 -0.08715542405843735
2.966341733932495 0.6684948801994324 -0.8147624135017395 64.0 0 -0.08713468164205551
1.7869776487350464 0.40238475799560547 0.03197281062602997 85.0 8 -0.08713237941265106
2.975398302078247 0.6694431304931641 -0.7040968537330627 78.0 1 -0.08713007718324661
1.8005292415618896 0.40477684140205383 0.09671685099601746 88.0 9 -0.08712777495384216
2.965113639831543 0.6665869951248169 -0.59074467420578 84.0 2 -0.08712547272443771
1.8292571306228638 0.41089892387390137 0.1640271097421646 71.0 10 -0.08712316304445267
1.7655229568481445 0.3962588906288147 -0.28658798336982727 74.0 3 -0.08712086081504822
3.0410616397857666 0.6819884181022644 0.3826697766780853 75.0 11 -0.08711855858564377
1.7665969133377075 0.39585229754447937 -0.22228971123695374 77.0 4 -0.08711625635623932
3.0514745712280273 0.6832035183906555 0.49527156352996826 73.0 12 -0.08711394667625427
1.7712159156799316 0.39656269550323486 -0.15879777073860168 82.0 5 -0.08711164444684982
3.0692687034606934 0.6866265535354614 0.6113520860671997 62.0 13 -0.08710934221744537
1.8010225296020508 0.4025760889053345 -0.09671685099601746 93.0 6 -0.08710703998804092
3.062030792236328 0.6838836073875427 0.7243424654006958 68.0 14 -0.08710473030805588
1.7975050210952759 0.4011320173740387 -0.03214733302593231 100.0 7 -0.08710242807865143
3.0621283054351807 0.6827833652496338 0.8406442999839783 72.0 15 -0.08710012584924698
2.966771125793457 0.6577174067497253 -0.8142447471618652 67.0 0 -0.08707939088344574
1.7766567468643188 0.39355096220970154 0.03176337853074074 80.0 8 -0.08707708865404129
2.9815220832824707 0.6598958373069763 -0.704996645450592 83.0 1 -0.08707477897405624
1.8058316707611084 0.39935144782066345 0.09692620486021042 88.0 9 -0.0870724767446518
2.9770073890686035 0.6583516597747803 -0.5926527976989746 87.0 2 -0.08707017451524734
1.815116286277771 0.4010733366012573 0.16263261437416077 71.0 10 -0.0870678722858429
1.7553215026855469 0.3875387907028198 -0.28471076488494873 75.0 3 -0.08706556260585785
3.043423891067505 0.6713681817054749 0.3826697766780853 77.0 11 -0.0870632603764534
1.7718449831008911 0.3905382752418518 -0.22277717292308807 75.0 4 -0.08706095814704895
3.0519113540649414 0.6721234917640686 0.49495869874954224 72.0 12 -0.0870586559176445
1.7686978578567505 0.38952091336250305 -0.15844914317131042 77.0 5 -0.08705634623765945
3.065894603729248 0.674642026424408 0.610207200050354 65.0 13 -0.087054044008255
1.8043674230575562 0.3967161476612091 -0.09682153165340424 90.0 6 -0.08705174177885056
3.064399242401123 0.6731916666030884 0.7243424654006958 68.0 14 -0.0870494395494461
1.8145198822021484 0.398284375667572 -0.03242656961083412 100.0 7 -0.08704712986946106
3.0588319301605225 0.6708479523658752 0.8390913605690002 76.0 15 -0.08704482764005661
2.9690487384796143 0.6473580002784729 -0.8142447471618652 65.0 0 -0.08702409267425537
1.7741119861602783 0.38649508357048035 0.03169357031583786 75.0 8 -0.08702179044485092
2.9761910438537598 0.6478257179260254 -0.7031970620155334 81.0 1 -0.08701948821544647
1.8111177682876587 0.393894761800766 0.09713554382324219 90.0 9 -0.08701717853546143
2.9773685932159424 0.6475393176078796 -0.5922711491584778 84.0 2 -0.08701487630605698
1.8184523582458496 0.3951575756072998 0.1628069132566452 64.0 10 -0.08701257407665253
1.7585941553115845 0.38182786107063293 -0.28502362966537476 84.0 3 -0.08701027184724808
3.0379889011383057 0.6590577960014343 0.38169482350349426 76.0 11 -0.08700796216726303
1.7770774364471436 0.3851923942565918 -0.2232646644115448 75.0 4 -0.08700565993785858
3.060030937194824 0.6627197265625 0.4958972930908203 76.0 12 -0.08700335770845413
1.7739413976669312 0.38418760895729065 -0.15879777073860168 82.0 5 -0.08700105547904968
3.0605552196502686 0.6622756719589233 0.6086807250976562 65.0 13 -0.08699874579906464
1.7940281629562378 0.3878832459449768 -0.09619349241256714 90.0 6 -0.08699644356966019
3.0686354637145996 0.6629014015197754 0.7247923612594604 71.0 14 -0.08699414134025574
1.7885336875915527 0.38604098558425903 -0.03193790465593338 100.0 7 -0.08699183911085129
3.0687084197998047 0.6617977619171143 0.8411619663238525 74.0 15 -0.08698953688144684
2.973179578781128 0.6373943090438843 -0.8147624135017395 64.0 0 -0.086968794465065
1.7754504680633545 0.38029944896698 0.03169357031583786 78.0 8 -0.08696649223566055
2.9670002460479736 0.6349879503250122 -0.7004976272583008 81.0 1 -0.0869641900062561
1.8027162551879883 0.38548168540000916 0.09661218523979187 95.0 9 -0.08696188777685165
2.987290620803833 0.6387837529182434 -0.5937976241111755 84.0 2 -0.08695957809686661
1.8159239292144775 0.3879745304584503 0.16245830059051514 67.0 10 -0.08695727586746216
1.759916067123413 0.3756881058216095 -0.28502362966537476 84.0 3 -0.08695497363805771
3.036388397216797 0.6476202607154846 0.38120734691619873 77.0 11 -0.08695267140865326
1.7628792524337769 0.3756764829158783 -0.22131474316120148 77.0 4 -0.08695036172866821
3.0623250007629395 0.6520363092422485 0.4958972930908203 77.0 12 -0.08694805949926376
1.7831324338912964 0.3793419301509857 -0.15949499607086182 82.0 5 -0.08694575726985931
3.0647687911987305 0.6519960165023804 0.6090623736381531 63.0 13 -0.08694345504045486
1.79146409034729 0.38078761100769043 -0.09598415344953537 90.0 6 -0.08694115281105042
3.069024085998535 0.6517831683158875 0.7243424654006958 73.0 14 -0.08693884313106537
1.785957932472229 0.37896570563316345 -0.031868092715740204 88.0 7 -0.08693654090166092
3.074779510498047 0.6518824100494385 0.8421972393989563 74.0 15 -0.08693423867225647
2.9811666011810303 0.6276875138282776 -0.8163152933120728 65.0 0 -0.08691350370645523
1.7806806564331055 0.37492403388023376 0.03176337853074074 78.0 8 -0.08691119402647018
2.9768271446228027 0.6262312531471252 -0.7022972702980042 78.0 1 -0.08690889179706573
1.798187255859375 0.37795373797416687 0.09629816561937332 90.0 9 -0.08690658956766129
2.9800047874450684 0.6258137226104736 -0.5918895602226257 87.0 2 -0.08690428733825684
1.8270832300186157 0.3833623230457306 0.1633298546075821 71.0 10 -0.08690197765827179
1.7651480436325073 0.370044469833374 -0.2856493592262268 84.0 3 -0.08689967542886734
3.038630723953247 0.6370165348052979 0.38120734691619873 76.0 11 -0.08689737319946289
1.7564079761505127 0.3678930997848511 -0.2203397899866104 79.0 4 -0.08689507097005844
3.0568487644195557 0.6397234797477722 0.4946458339691162 77.0 12 -0.08689276874065399
1.7805453538894653 0.37229928374290466 -0.15914638340473175 85.0 5 -0.08689045906066895
3.065216302871704 0.6403579115867615 0.6086807250976562 65.0 13 -0.0868881568312645
1.804578423500061 0.37666791677474976 -0.09661218523979187 96.0 6 -0.08688585460186005
3.0599465370178223 0.6381409168243408 0.7216430306434631 68.0 14 -0.0868835523724556
1.8048882484436035 0.37640297412872314 -0.0321822389960289 100.0 7 -0.08688124269247055
3.0770363807678223 0.6411461234092712 0.8421972393989563 74.0 15 -0.0868789404630661
2.9719889163970947 0.614928126335144 -0.8132094740867615 67.0 0 -0.08685820549726486
1.7859594821929932 0.36920419335365295 0.031833190470933914 83.0 8 -0.08685590326786041
2.9791018962860107 0.6153171062469482 -0.7022972702980042 83.0 1 -0.08685359358787537
1.8034073114395142 0.37248384952545166 0.09650751203298569 88.0 9 -0.08685129135847092
2.978325605392456 0.6146132946014404 -0.5911262631416321 87.0 2 -0.08684898912906647
1.8147510290145874 0.37416553497314453 0.16210968792438507 67.0 10 -0.08684668689966202
1.7780373096466064 0.36627328395843506 -0.28752657771110535 97.0 3 -0.08684438467025757
3.048722267150879 0.6274764537811279 0.3821823000907898 77.0 11 -0.08684207499027252
1.7655223608016968 0.36305201053619385 -0.22131474316120148 75.0 4 -0.08683977276086807
3.0551936626434326 0.6282526850700378 0.49402010440826416 77.0 12 -0.08683747053146362
1.7818338871002197 0.36608296632766724 -0.15914638340473175 88.0 5 -0.08683516830205917
3.0770487785339355 0.6316274404525757 0.610588788986206 63.0 13 -0.08683285862207413
1.807838797569275 0.3707672655582428 -0.09671685099601746 93.0 6 -0.08683055639266968
3.0659730434417725 0.6282402873039246 0.7225428223609924 67.0 14 -0.08682825416326523
1.7983548641204834 0.3684960901737213 -0.032042618840932846 98.0 7 -0.08682595193386078
3.0679001808166504 0.6280757188796997 0.8390913605690002 74.0 15 -0.08682364225387573
2.9703311920166016 0.6037812232971191 -0.8121742010116577 67.0 0 -0.0868029072880745
1.7754161357879639 0.3608900308609009 0.031623758375644684 78.0 8 -0.08680060505867004
2.984945774078369 0.6062095165252686 -0.7031970620155334 83.0 1 -0.0867983028292656
1.8046966791152954 0.3661860227584839 0.09650751203298569 90.0 9 -0.08679600059986115
2.9804527759552 0.6042138934135437 -0.5911262631416321 92.0 2 -0.0867936909198761
1.8160459995269775 0.36782893538475037 0.16210968792438507 75.0 10 -0.08679138869047165
1.7734342813491821 0.3591981828212738 -0.28658798336982727 100.0 3 -0.0867890864610672
3.050786256790161 0.617363691329956 0.3821823000907898 77.0 11 -0.08678678423166275
1.7706081867218018 0.3579815924167633 -0.221802219748497 71.0 4 -0.0867844745516777
3.0631766319274902 0.6187582015991211 0.49495869874954224 82.0 12 -0.08678217232227325
1.76357102394104 0.3559190034866333 -0.15740327537059784 85.0 5 -0.0867798700928688
3.067579746246338 0.6190903782844543 0.6082991361618042 63.0 13 -0.08677756786346436
1.8110164403915405 0.36516448855400085 -0.09682153165340424 96.0 6 -0.08677525818347931
3.0718603134155273 0.6188385486602783 0.7234426140785217 68.0 14 -0.08677295595407486
1.7976700067520142 0.36182135343551636 -0.03200771287083626 95.0 7 -0.08677065372467041
3.0624983310699463 0.6158387064933777 0.8370208144187927 76.0 15 -0.08676835149526596
2.9742109775543213 0.5943070650100708 -0.8126918077468872 72.0 0 -0.08674761652946472
1.7727429866790771 0.35390791296958923 0.031553950160741806 78.0 8 -0.08674530684947968
2.9793992042541504 0.5942608714103699 -0.7013974189758301 83.0 1 -0.08674300462007523
1.8059638738632202 0.3598845899105072 0.09650751203298569 90.0 9 -0.08674070239067078
2.984365463256836 0.5947113633155823 -0.5915079116821289 84.0 2 -0.08673840016126633
1.8192096948623657 0.36219409108161926 0.1622839868068695 79.0 10 -0.08673609048128128
1.7727397680282593 0.3526196777820587 -0.28627508878707886 100.0 3 -0.08673378825187683
3.0490283966064453 0.6059374809265137 0.38169482350349426 75.0 11 -0.08673148602247238
1.783529281616211 0.3541196286678314 -0.2232646644115448 71.0 4 -0.08672918379306793
3.0595052242279053 0.6069080829620361 0.49402010440826416 77.0 12 -0.08672687411308289
1.7804375886917114 0.35285985469818115 -0.15879777073860168 88.0 5 -0.08672457188367844
3.0600926876068115 0.606471061706543 0.6063910126686096 66.0 13 -0.08672226965427399
1.8024836778640747 0.35690218210220337 -0.09629816561937332 93.0 6 -0.08671996742486954
3.0720903873443604 0.6077330112457275 0.7229927778244019 71.0 14 -0.08671765774488449
1.804807186126709 0.35670676827430725 -0.032112427055835724 98.0 7 -0.08671535551548004
3.0722098350524902 0.6066439151763916 0.8390913605690002 76.0 15 -0.08671305328607559
2.9820568561553955 0.5845161080360413 -0.8142447471618652 65.0 0 -0.08669231832027435
1.7739676237106323 0.3477172553539276 0.031553950160741806 83.0 8 -0.0866900160908699
2.9738059043884277 0.5823598504066467 -0.6995978355407715 81.0 1 -0.08668770641088486
1.8032889366149902 0.35281094908714294 0.09629816561937332 84.0 9 -0.08668540418148041
2.9923057556152344 0.5848982334136963 -0.5926527976989746 87.0 2 -0.08668310195207596
1.820525050163269 0.3555234372615814 0.1622839868068695 79.0 10 -0.08668079972267151
1.7856532335281372 0.34838995337486267 -0.2881523370742798 100.0 3 -0.08667849004268646
3.0394349098205566 0.5930090546607971 0.38023239374160767 75.0 11 -0.08667618781328201
1.769167184829712 0.3448529541492462 -0.22131474316120148 68.0 4 -0.08667388558387756
3.0712995529174805 0.5981132984161377 0.4955844581127167 77.0 12 -0.08667158335447311
1.7875255346298218 0.3477838635444641 -0.15932069718837738 95.0 5 -0.08666927367448807
3.0700039863586426 0.5967488288879395 0.6079174876213074 65.0 13 -0.08666697144508362
1.7939765453338623 0.3483891189098358 -0.095774807035923 90.0 6 -0.08666466921567917
3.0685579776763916 0.5953563451766968 0.7216430306434631 68.0 14 -0.08666236698627472
1.8138936758041382 0.3519285321235657 -0.03225204721093178 100.0 7 -0.08666006475687027
3.0743088722229004 0.5959153771400452 0.8390913605690002 76.0 15 -0.08665775507688522
2.987873077392578 0.5748337507247925 -0.815280020236969 65.0 0 -0.08663702011108398
1.7752301692962646 0.3412133753299713 0.031553950160741806 88.0 8 -0.08663471788167953
2.979748010635376 0.5721905827522278 -0.7004976272583008 78.0 1 -0.08663241565227509
1.8045095205307007 0.34651365876197815 0.09629816561937332 88.0 9 -0.08663010597229004
2.986616373062134 0.5729706287384033 -0.5911262631416321 87.0 2 -0.08662780374288559
1.825668454170227 0.349916934967041 0.16263261437416077 79.0 10 -0.08662550151348114
1.7887985706329346 0.34252575039863586 -0.2884652018547058 100.0 3 -0.08662319928407669
3.0513362884521484 0.5837306380271912 0.3814510703086853 83.0 11 -0.08662088960409164
1.766519546508789 0.3376213610172272 -0.22082726657390594 68.0 4 -0.0866185873746872
3.065607786178589 0.5859061479568481 0.4943329691886902 80.0 12 -0.08661628514528275
1.7887287139892578 0.3415416181087494 -0.15932069718837738 89.0 5 -0.0866139829158783
3.0739965438842773 0.5863974094390869 0.6082991361618042 63.0 13 -0.08661168068647385
1.8030296564102173 0.3436200022697449 -0.09619349241256714 99.0 6 -0.0866093710064888
3.062959909439087 0.5831826329231262 0.7198433876037598 68.0 14 -0.08660706877708435
1.803324818611145 0.3433501422405243 -0.032042618840932846 100.0 7 -0.0866047665476799
3.0839614868164062 0.5866250991821289 0.8411619663238525 76.0 15 -0.08660246431827545
2.978471517562866 0.5622497797012329 -0.8121742010116577 67.0 0 -0.08658172190189362
1.7842119932174683 0.33680787682533264 0.03169357031583786 85.0 8 -0.08657941967248917
2.9854588508605957 0.5630291700363159 -0.7013974189758301 86.0 1 -0.08657711744308472
