# .PCD v0.7 - Point Cloud Data file format
VERSION 0.7
FIELDS x y z intensity ring time
SIZE 4 4 4 4 4 4
TYPE F F F F F F
COUNT 1 1 1 1 1 1
WIDTH 535
HEIGHT 1
VIEWPOINT 0 0 0 1 0 0 0
POINTS 535
DATA ascii
1.7760448455810547 0.22058939933776855 -0.28345927596092224 100.0 3 -0.005801002029329538
3.571607828140259 0.44296836853027344 0.44189828634262085 100.0 11 -0.00579869793727994
1.763187050819397 0.21836666762828827 -0.21814614534378052 99.0 4 -0.005796394310891628
3.589491605758667 0.4445502758026123 0.5728631019592285 100.0 12 -0.00579409021884203
1.791457176208496 0.22155128419399261 -0.15792620182037354 93.0 5 -0.005791786126792431
3.602689743041992 0.44490814208984375 0.7056117057800293 100.0 13 -0.005789482034742832
1.8058243989944458 0.22268730401992798 -0.09535612165927887 100.0 6 -0.0057871779426932335
3.618759870529175 0.4456121027469635 0.841766893863678 100.0 14 -0.005784873850643635
1.8021118640899658 0.22191107273101807 -0.03169357031583786 100.0 7 -0.005782570224255323
3.60664963722229 0.44348016381263733 0.9736772775650024 122.0 15 -0.005780266132205725
3.0913941860198975 0.37574124336242676 -0.8344326615333557 67.0 0 -0.005759530235081911
1.8004734516143799 0.21883723139762878 0.03165866807103157 94.0 8 -0.005757226143032312
3.073990821838379 0.37308311462402344 -0.7148945331573486 74.0 1 -0.005754922050982714
1.8122349977493286 0.2196258008480072 0.09567013382911682 88.0 9 -0.005752617958933115
3.085322856903076 0.3733642101287842 -0.604101300239563 92.0 2 -0.005750314332544804
1.8355848789215088 0.22180551290512085 0.1617610603570938 99.0 10 -0.005748010240495205
1.7767666578292847 0.21469812095165253 -0.28345927596092224 100.0 3 -0.005745706148445606
3.588823080062866 0.4330250918865204 0.443848192691803 100.0 11 -0.0057434020563960075
1.773755669593811 0.21370528638362885 -0.21936483681201935 100.0 4 -0.005741097964346409
3.583176374435425 0.4310748875141144 0.5716116428375244 100.0 12 -0.00573879387229681
1.8001322746276855 0.21624664962291718 -0.15862344205379486 89.0 5 -0.005736490245908499
3.608043670654297 0.43342775106430054 0.7063749432563782 100.0 13 -0.0057341861538589
1.8065530061721802 0.21669724583625793 -0.09535612165927887 100.0 6 -0.005731882061809301
3.612478256225586 0.43268144130706787 0.8399673104286194 100.0 14 -0.005729577969759703
1.7909623384475708 0.2141939103603363 -0.03148414194583893 100.0 7 -0.005727273877710104
3.6158487796783447 0.43180325627326965 0.97574782371521 122.0 15 -0.005724970251321793
1.805198073387146 0.21302101016044617 0.03172847628593445 94.0 8 -0.00570193026214838
3.0888218879699707 0.36394602060317993 -0.7180438041687012 78.0 1 -0.005699626170098782
1.8129533529281616 0.21361449360847473 0.09567013382911682 86.0 9 -0.005697322078049183
3.0865437984466553 0.36313295364379883 -0.604101300239563 92.0 2 -0.005695017985999584
1.818501353263855 0.21362555027008057 0.16019225120544434 95.0 10 -0.0056927138939499855
1.7932008504867554 0.21033528447151184 -0.28596222400665283 100.0 3 -0.005690409801900387
3.5784835815429688 0.41910868883132935 0.442385733127594 97.0 11 -0.005688106175512075
1.7705475091934204 0.20705252885818481 -0.21887736022472382 100.0 4 -0.005685802083462477
3.576737880706787 0.4182732105255127 0.5703601241111755 100.0 12 -0.005683497991412878
1.7929238080978394 0.20935119688510895 -0.15792620182037354 87.0 5 -0.005681193899363279
3.6134347915649414 0.42128443717956543 0.707138180732727 100.0 13 -0.005678890272974968
1.817217469215393 0.21154583990573883 -0.09587948024272919 99.0 6 -0.005676586180925369
3.613966941833496 0.4200679361820221 0.8399673104286194 100.0 14 -0.005674282088875771
1.7857038974761963 0.20756055414676666 -0.03137942776083946 100.0 7 -0.005671977996826172
3.6019091606140137 0.4180293381214142 0.9716067314147949 123.0 15 -0.005669673904776573
2.0670647621154785 0.23697443306446075 -0.5574962496757507 1.0 0 -0.0056489380076527596
1.8019212484359741 0.20657756924629211 0.03165866807103157 94.0 8 -0.005646633915603161
3.095820188522339 0.35436660051345825 -0.7193935513496399 76.0 1 -0.005644329823553562
1.8216252326965332 0.2081923484802246 0.09608882665634155 86.0 9 -0.005642026197165251
3.095595359802246 0.3532462418079376 -0.6056278347969055 92.0 2 -0.005639722105115652
1.8212153911590576 0.20750154554843903 0.16036656498908997 98.0 10 -0.005637418013066053
1.7703362703323364 0.20170457661151886 -0.28220781683921814 100.0 3 -0.005635113921016455
3.583798408508301 0.4076891839504242 0.4428732097148895 97.0 11 -0.005632810294628143
1.779114007949829 0.20207566022872925 -0.21985231339931488 100.0 4 -0.005630506202578545
3.5860276222229004 0.40667495131492615 0.5716116428375244 100.0 12 -0.005628202110528946
1.7857247591018677 0.2021952122449875 -0.1572289615869522 91.0 5 -0.005625898018479347
3.610910177230835 0.4088585078716278 0.7063749432563782 100.0 13 -0.0056235939264297485
1.8278322219848633 0.20663988590240479 -0.0964028462767601 100.0 6 -0.00562128983438015
3.6230854988098145 0.40895628929138184 0.841766893863678 100.0 14 -0.0056189862079918385
1.7943661212921143 0.2022213190793991 -0.031519047915935516 100.0 7 -0.00561668211594224
3.601426601409912 0.4052385091781616 0.9710890650749207 120.0 15 -0.005614378023892641
2.044799327850342 0.22755491733551025 -0.5512846112251282 1.0 0 -0.0055936421267688274
1.7946815490722656 0.19940266013145447 0.031519047915935516 99.0 8 -0.005591338034719229
3.0854170322418213 0.34226951003074646 -0.7166941165924072 76.0 1 -0.00558903394266963
1.8243259191513062 0.20205265283584595 0.09619349241256714 92.0 9 -0.005586730316281319
3.1026031970977783 0.34362784028053284 -0.6067726016044617 96.0 2 -0.00558442622423172
1.8298149108886719 0.20233646035194397 0.1610638052225113 98.0 10 -0.005582122132182121
1.7769198417663574 0.19617439806461334 -0.2831464111804962 100.0 3 -0.005579818040132523
3.5773069858551025 0.3943077027797699 0.44189828634262085 100.0 11 -0.005577513948082924
1.7817816734313965 0.19608083367347717 -0.22009605169296265 99.0 4 -0.005575209856033325
3.5913522243499756 0.39458712935447693 0.5722373723983765 100.0 12 -0.005572906229645014
1.7943072319030762 0.19714315235614777 -0.15792620182037354 96.0 5 -0.005570602137595415
3.596703052520752 0.3945397436618805 0.7033219933509827 100.0 13 -0.005568298045545816
1.800747036933899 0.19721372425556183 -0.09493743628263474 100.0 6 -0.005565993953496218
3.6264281272888184 0.3965194523334503 0.8422167897224426 100.0 14 -0.005563690327107906
1.793073058128357 0.19574080407619476 -0.03148414194583893 100.0 7 -0.005561386235058308
3.6105010509490967 0.3935009837150574 0.973159670829773 120.0 15 -0.005559082143008709
2.0724713802337646 0.22331275045871735 -0.5585315227508545 1.0 0 -0.005538346245884895
1.7993429899215698 0.1935649812221527 0.031588856130838394 94.0 8 -0.005536042153835297
3.0827178955078125 0.33108028769493103 -0.7157943248748779 72.0 1 -0.005533738061785698
1.8170766830444336 0.19483114778995514 0.095774807035923 95.0 9 -0.005531433969736099
3.105736017227173 0.3330041468143463 -0.6071542501449585 87.0 2 -0.0055291298776865005
1.8344721794128418 0.19637249410152435 0.16141243278980255 98.0 10 -0.005526825785636902
1.7775938510894775 0.18997012078762054 -0.2831464111804962 100.0 3 -0.0055245221592485905
3.574713945388794 0.38139599561691284 0.4414108097553253 100.0 11 -0.005522218067198992
1.7725858688354492 0.18880915641784668 -0.21887736022472382 100.0 4 -0.005519913975149393
3.600564956665039 0.38288313150405884 0.5734888315200806 100.0 12 -0.005517610348761082
1.7949843406677246 0.19087816774845123 -0.15792620182037354 89.0 5 -0.005515306256711483
3.6019630432128906 0.38239607214927673 0.7040852308273315 99.0 13 -0.005513002164661884
1.8053966760635376 0.191348135471344 -0.0951467752456665 100.0 6 -0.005510698072612286
3.6200382709503174 0.383037269115448 0.8404171466827393 100.0 14 -0.005508393980562687
1.8016998767852783 0.19032040238380432 -0.031623758375644684 100.0 7 -0.005506089888513088
3.6118526458740234 0.38089635968208313 0.973159670829773 121.0 15 -0.0055037857964634895
2.0693955421447754 0.21567706763744354 -0.5574962496757507 1.0 0 -0.005483049899339676
1.8039857149124146 0.18769720196723938 0.03165866807103157 97.0 8 -0.005480745807290077
3.08773136138916 0.3207194209098816 -0.7166941165924072 74.0 1 -0.005478442180901766
1.8137725591659546 0.18807557225227356 0.09556546807289124 95.0 9 -0.005476138088852167
3.091257333755493 0.3205418288707733 -0.604101300239563 92.0 2 -0.0054738339968025684
1.839110016822815 0.19037847220897675 0.1617610603570938 98.0 10 -0.00547152990475297
1.784140944480896 0.1843726933002472 -0.2840850353240967 100.0 3 -0.005469226278364658
3.579972505569458 0.3693237602710724 0.44189828634262085 100.0 11 -0.00546692218631506
1.7712591886520386 0.18241752684116364 -0.21863360702991486 99.0 4 -0.005464618094265461
3.590089797973633 0.36909937858581543 0.5716116428375244 100.0 12 -0.005462314002215862
1.7996037006378174 0.185018390417099 -0.1582748293876648 91.0 5 -0.005460009910166264
3.6110875606536865 0.37062308192253113 0.7056117057800293 100.0 13 -0.005457705818116665
1.8000929355621338 0.18443462252616882 -0.09483276307582855 100.0 6 -0.0054554021917283535
3.6155378818511963 0.3698028326034546 0.8390675187110901 100.0 14 -0.005453098099678755
1.792406439781189 0.1830148994922638 -0.03144923597574234 97.0 7 -0.005450794007629156
3.6266133785247803 0.36965662240982056 0.9767830967903137 122.0 15 -0.005448489915579557
2.0509145259857178 0.20651616156101227 -0.5523198843002319 1.0 0 -0.005427754018455744
1.8125884532928467 0.18219934403896332 0.031798284500837326 92.0 8 -0.005425449926406145
3.088832139968872 0.3099399209022522 -0.7166941165924072 74.0 1 -0.005423146300017834
1.8183926343917847 0.1821407973766327 0.095774807035923 92.0 9 -0.005420842207968235
3.0923573970794678 0.3097485303878784 -0.604101300239563 92.0 2 -0.005418538115918636
1.8298507928848267 0.18296685814857483 0.16088949143886566 95.0 10 -0.005416234023869038
1.784773588180542 0.17814412713050842 -0.2840850353240967 100.0 3 -0.005413929931819439
3.585190534591675 0.3572177588939667 0.442385733127594 96.0 11 -0.00541162583976984
1.7758361101150513 0.1766260415315628 -0.21912109851837158 99.0 4 -0.005409322213381529
3.5874247550964355 0.35617581009864807 0.5709858536720276 100.0 12 -0.00540701812133193
1.7843774557113647 0.1771610826253891 -0.15688033401966095 98.0 5 -0.0054047140292823315
3.6201741695404053 0.3587892949581146 0.707138180732727 100.0 13 -0.005402409937232733
1.8007258176803589 0.1781495064496994 -0.09483276307582855 97.0 6 -0.005400106310844421
3.622624397277832 0.35775530338287354 0.8404171466827393 100.0 14 -0.005397802218794823
1.789054274559021 0.17636428773403168 -0.03137942776083946 97.0 7 -0.005395498126745224
3.6125011444091797 0.35548239946365356 0.9726420044898987 122.0 15 -0.005393194034695625
2.0324292182922363 0.19713322818279266 -0.5471434593200684 1.0 0 -0.00537371588870883
1.7973209619522095 0.17401254177093506 0.031519047915935516 99.0 8 -0.005371411796659231
3.0977060794830322 0.299367219209671 -0.7184937596321106 74.0 1 -0.0053691077046096325
1.8250120878219604 0.1760505735874176 0.09608882665634155 90.0 9 -0.005366804078221321
3.0973801612854004 0.2987901270389557 -0.6048645377159119 92.0 2 -0.005364499986171722
1.8205931186676025 0.1753036230802536 0.1600179374217987 100.0 10 -0.005362195894122124
1.7814818620681763 0.17122381925582886 -0.28345927596092224 100.0 3 -0.005359891802072525
3.5943796634674072 0.3448340594768524 0.44336071610450745 97.0 11 -0.005357587710022926
1.7823996543884277 0.17068332433700562 -0.21985231339931488 96.0 4 -0.005355284083634615
3.5926389694213867 0.34340158104896545 0.5716116428375244 100.0 12 -0.005352979991585016
1.7850147485733032 0.17062023282051086 -0.15688033401966095 98.0 5 -0.0053506758995354176
3.613647222518921 0.3447732627391815 0.7056117057800293 99.0 13 -0.005348371807485819
1.819261074066162 0.17325198650360107 -0.095774807035923 99.0 6 -0.00534606771543622
3.627791404724121 0.34484320878982544 0.8413169980049133 100.0 14 -0.005343764089047909
1.7876979112625122 0.1696174144744873 -0.031344521790742874 94.0 7 -0.00534145999699831
3.6118569374084473 0.3420564830303192 0.9721243977546692 121.0 15 -0.005339155904948711
2.079268217086792 0.194351926445961 -0.5595667958259583 1.0 0 -0.005318420007824898
1.7939352989196777 0.16736651957035065 0.03144923597574234 99.0 8 -0.005316115915775299
3.087090253829956 0.28746744990348816 -0.7157943248748779 74.0 1 -0.0053138118237257
1.8256155252456665 0.16967853903770447 0.09608882665634155 88.0 9 -0.005311507731676102
3.104268789291382 0.2885206341743469 -0.6060094237327576 96.0 2 -0.00530920410528779
1.833097219467163 0.17005209624767303 0.1610638052225113 100.0 10 -0.005306900013238192
1.7801018953323364 0.16482165455818176 -0.2831464111804962 100.0 3 -0.005304595921188593
3.5837016105651855 0.33118826150894165 0.44189828634262085 93.0 11 -0.005302291829138994
1.7869378328323364 0.1648264229297638 -0.2203397899866104 96.0 4 -0.0052999877370893955
3.597749710083008 0.33122003078460693 0.5722373723983765 100.0 12 -0.005297684110701084
1.7855994701385498 0.16438785195350647 -0.15688033401966095 96.0 5 -0.0052953800186514854
3.607008934020996 0.3314376175403595 0.7040852308273315 100.0 13 -0.005293075926601887
1.8099100589752197 0.1659897416830063 -0.09525144845247269 100.0 6 -0.005290771834552288
3.6328542232513428 0.3325338065624237 0.8422167897224426 97.0 14 -0.005288467742502689
1.8161588907241821 0.16592273116111755 -0.031833190470933914 100.0 7 -0.005286164116114378
3.614952325820923 0.32962456345558167 0.9726420044898987 122.0 15 -0.005283860024064779
3.0843052864074707 0.27743789553642273 -0.8297739028930664 21.0 0 -0.005263123661279678
1.7945085763931274 0.1611030250787735 0.03144923597574234 99.0 8 -0.005260820034891367
3.0900161266326904 0.27686285972595215 -0.7162442207336426 78.0 1 -0.005258515942841768
1.8222180604934692 0.16294951736927032 0.09587948024272919 90.0 9 -0.00525621185079217
3.1130788326263428 0.2783831059932709 -0.6075358986854553 96.0 2 -0.005253907758742571
1.8336795568466187 0.16365188360214233 0.1610638052225113 98.0 10 -0.005251603666692972
1.7649255990982056 0.15720440447330475 -0.2806434631347656 100.0 3 -0.005249300040304661
3.580881118774414 0.3183259665966034 0.4414108097553253 97.0 11 -0.005246995948255062
1.7776157855987549 0.1577102392911911 -0.21912109851837158 99.0 4 -0.005244691856205463
3.6028196811676025 0.3190070390701294 0.5728631019592285 100.0 12 -0.005242387764155865
1.7941011190414429 0.1588563770055771 -0.15757757425308228 98.0 5 -0.005240083672106266
3.6081438064575195 0.31884557008743286 0.7040852308273315 100.0 13 -0.005237780045717955
1.8045098781585693 0.1591441035270691 -0.09493743628263474 96.0 6 -0.005235475953668356
3.628169059753418 0.3193371891975403 0.8408671021461487 100.0 14 -0.005233171861618757
1.8007906675338745 0.15818266570568085 -0.031553950160741806 100.0 7 -0.0052308677695691586
3.6180055141448975 0.31717178225517273 0.973159670829773 122.0 15 -0.00522856367751956
3.110275983810425 0.2688317596912384 -0.8365032076835632 82.0 0 -0.005207827780395746
1.8070138692855835 0.1558695286512375 0.03165866807103157 99.0 8 -0.0052055236883461475
3.092904806137085 0.26624423265457153 -0.7166941165924072 74.0 1 -0.005203220061957836
1.8148161172866821 0.15590351819992065 0.09546079486608505 86.0 9 -0.0052009159699082375
3.1042516231536865 0.2666737139225006 -0.6056278347969055 92.0 2 -0.005198611877858639
1.8421801328659058 0.1579304039478302 0.1617610603570938 100.0 10 -0.00519630778580904
1.7654634714126587 0.15104393661022186 -0.2806434631347656 94.0 3 -0.005194003693759441
3.5898823738098145 0.3064989447593689 0.442385733127594 97.0 11 -0.00519170006737113
1.7761775255203247 0.1513352394104004 -0.21887736022472382 96.0 4 -0.005189395975321531
3.5921013355255127 0.305427223443985 0.5709858536720276 100.0 12 -0.005187091883271933
1.8006001710891724 0.15310044586658478 -0.15810051560401917 100.0 5 -0.005184787791222334
3.6209723949432373 0.30724379420280457 0.7063749432563782 99.0 13 -0.005182483699172735
1.813015103340149 0.15351781249046326 -0.09535612165927887 99.0 6 -0.005180180072784424
3.625377893447876 0.3063448965549469 0.8399673104286194 100.0 14 -0.005177875980734825
1.791368842124939 0.15105515718460083 -0.03137942776083946 97.0 7 -0.0051755718886852264
3.630640745162964 0.30551159381866455 0.9762654304504395 122.0 15 -0.005173267796635628
3.1015689373016357 0.2571772038936615 -0.8339149951934814 77.0 0 -0.005152531899511814
1.8075470924377441 0.14956045150756836 0.03165866807103157 99.0 8 -0.005150227807462215
3.0976996421813965 0.25576624274253845 -0.7175939083099365 70.0 1 -0.005147923715412617
1.8232851028442383 0.1505422741174698 0.09587948024272919 90.0 9 -0.005145620089024305
3.0992934703826904 0.25535473227500916 -0.6044829487800598 84.0 2 -0.005143315996974707
1.8308061361312866 0.15051989257335663 0.16071519255638123 97.0 10 -0.005141011904925108
1.793542742729187 0.14714115858078003 -0.28502362966537476 100.0 3 -0.005138707812875509
3.5948870182037354 0.29429247975349426 0.4428732097148895 97.0 11 -0.005136403720825911
1.7806518077850342 0.1454579085111618 -0.21936483681201935 96.0 4 -0.005134100094437599
3.597032070159912 0.293834388256073 0.5716116428375244 100.0 12 -0.0051317960023880005
1.7911946773529053 0.14600443840026855 -0.1572289615869522 98.0 5 -0.005129491910338402
3.625936269760132 0.2949197590351105 0.707138180732727 99.0 13 -0.005127187818288803
1.81553053855896 0.1473502218723297 -0.09546079486608505 100.0 6 -0.005124883726239204
3.636137008666992 0.29447364807128906 0.8422167897224426 100.0 14 -0.005122580099850893
1.7898666858673096 0.1449528932571411 -0.031344521790742874 100.0 7 -0.005120276007801294
3.6123783588409424 0.291913241147995 0.9710890650749207 122.0 15 -0.005117971915751696
3.0889675617218018 0.24527791142463684 -0.8302915096282959 67.0 0 -0.005097236018627882
1.7940788269042969 0.14245793223381042 0.03141433000564575 100.0 8 -0.005094931926578283
3.110186815261841 0.24641510844230652 -0.7202933430671692 74.0 1 -0.005092627834528685
1.82379949092865 0.14417728781700134 0.09587948024272919 86.0 9 -0.005090323742479086
3.1060376167297363 0.24499695003032684 -0.6056278347969055 87.0 2 -0.0050880201160907745
1.8233754634857178 0.14350248873233795 0.1600179374217987 100.0 10 -0.005085716024041176
1.770389437675476 0.13933241367340088 -0.2812691926956177 100.0 3 -0.005083411931991577
3.5998010635375977 0.28267955780029297 0.44336071610450745 96.0 11 -0.0050811078399419785
1.7929985523223877 0.14048294723033905 -0.22082726657390594 92.0 4 -0.00507880374789238
3.6019747257232666 0.2815835475921631 0.5722373723983765 100.0 12 -0.005076499655842781
1.7837480306625366 0.13913175463676453 -0.15653172135353088 96.0 5 -0.00507419602945447
3.6151506900787354 0.2819805443286896 0.7048484683036804 100.0 13 -0.005071891937404871
1.8199915885925293 0.14163917303085327 -0.09567013382911682 100.0 6 -0.005069587845355272
3.6332080364227295 0.28211143612861633 0.8413169980049133 100.0 14 -0.005067283753305674
1.800330400466919 0.13947688043117523 -0.031519047915935516 100.0 7 -0.005064980126917362
3.613375186920166 0.2793044149875641 0.9710890650749207 121.0 15 -0.0050626760348677635
3.097468852996826 0.23561841249465942 -0.8323620557785034 75.0 0 -0.005041939672082663
1.7885833978652954 0.13574010133743286 0.031309615820646286 100.0 8 -0.005039636045694351
3.095482587814331 0.23438210785388947 -0.7166941165924072 74.0 1 -0.0050373319536447525
1.828250527381897 0.13843050599098206 0.09608882665634155 88.0 9 -0.005035027861595154
3.112705707550049 0.23513837158679962 -0.6067726016044617 84.0 2 -0.005032723769545555
1.8278145790100098 0.13775499165058136 0.16036656498908997 100.0 10 -0.005030419677495956
1.759045958518982 0.13226428627967834 -0.2793920040130615 96.0 3 -0.005028116051107645
3.5888891220092773 0.2692202925682068 0.44189828634262085 97.0 11 -0.005025811959058046
1.7835801839828491 0.13348214328289032 -0.21960857510566711 99.0 4 -0.005023507867008448
3.602888345718384 0.26963815093040466 0.5722373723983765 100.0 12 -0.005021203774958849
1.7921470403671265 0.1338096261024475 -0.1572289615869522 91.0 5 -0.00501889968290925
3.606323480606079 0.2686294615268707 0.7029404044151306 96.0 13 -0.005016596056520939
1.8065327405929565 0.1342487782239914 -0.09493743628263474 90.0 6 -0.00501429196447134
3.641944169998169 0.270004540681839 0.8431165814399719 97.0 14 -0.0050119878724217415
1.7967944145202637 0.13320980966091156 -0.03144923597574234 97.0 7 -0.005009683780372143
3.62198805809021 0.26788946986198425 0.973159670829773 122.0 15 -0.005007379688322544
3.102126359939575 0.2250836044549942 -0.833397388458252 70.0 0 -0.0049866437911987305
1.797001600265503 0.1303865611553192 0.03144923597574234 100.0 8 -0.004984339699149132
3.096242904663086 0.22411498427391052 -0.7166941165924072 74.0 1 -0.00498203607276082
1.8247385025024414 0.13175971806049347 0.09587948024272919 84.0 9 -0.004979731980711222
3.12134051322937 0.22483494877815247 -0.6082991361618042 100.0 2 -0.004977427888661623
1.8322590589523315 0.13165989518165588 0.16071519255638123 98.0 10 -0.004975123796612024
1.7811481952667236 0.12798723578453064 -0.2828335464000702 100.0 3 -0.004972819704562426
3.589761972427368 0.2573183476924896 0.44189828634262085 97.0 11 -0.004970516078174114
1.7800532579421997 0.12728320062160492 -0.21912109851837158 99.0 4 -0.0049682119861245155
3.6038076877593994 0.25706082582473755 0.5722373723983765 100.0 12 -0.004965907894074917
1.788628339767456 0.12726972997188568 -0.15688033401966095 96.0 5 -0.004963603802025318
3.6130692958831787 0.25708770751953125 0.7040852308273315 100.0 13 -0.0049612997099757195
1.8049756288528442 0.1281154453754425 -0.09483276307582855 100.0 6 -0.004958996083587408
3.6408755779266357 0.2577890455722809 0.842666745185852 100.0 14 -0.004956691991537809
1.7972484827041626 0.1269373893737793 -0.03144923597574234 100.0 7 -0.004954387899488211
3.626755475997925 0.25551527738571167 0.9741949439048767 122.0 15 -0.004952083807438612
3.1144189834594727 0.21559792757034302 -0.8365032076835632 75.0 0 -0.004931347910314798
1.799440622329712 0.12425205111503601 0.03148414194583893 100.0 8 -0.0049290438182652
3.097006320953369 0.21330487728118896 -0.7166941165924072 74.0 1 -0.004926739726215601
1.8092467784881592 0.12429465353488922 0.09504210948944092 90.0 9 -0.00492443609982729
3.1122753620147705 0.21381229162216187 -0.6063910126686096 87.0 2 -0.004922132007777691
1.8366608619689941 0.125855952501297 0.1610638052225113 98.0 10 -0.004919827915728092
1.7855255603790283 0.12203801423311234 -0.28345927596092224 100.0 3 -0.0049175238236784935
3.5906383991241455 0.24478520452976227 0.44189828634262085 100.0 11 -0.004915219731628895
1.7725645303726196 0.12053055316209793 -0.21814614534378052 99.0 4 -0.004912916105240583
3.6046831607818604 0.24447865784168243 0.5722373723983765 100.0 12 -0.004910612013190985
1.7970131635665894 0.1215628907084465 -0.15757757425308228 98.0 5 -0.004908307921141386
3.6217799186706543 0.24500323832035065 0.7056117057800293 100.0 13 -0.004906003829091787
1.8173682689666748 0.12262123823165894 -0.09546079486608505 100.0 6 -0.004903699737042189
3.635920286178589 0.24468491971492767 0.8413169980049133 100.0 14 -0.004901396110653877
1.7936902046203613 0.12039472907781601 -0.03137942776083946 100.0 7 -0.0048990920186042786
3.6353349685668945 0.2433709055185318 0.9762654304504395 121.0 15 -0.00489678792655468
3.099766492843628 0.20316994190216064 -0.8323620557785034 73.0 0 -0.004876052029430866
1.8098406791687012 0.1186235249042511 0.03165866807103157 94.0 8 -0.0048737479373812675
3.1055104732513428 0.20300212502479553 -0.7184937596321106 70.0 1 -0.004871443845331669
1.8216277360916138 0.11875756084918976 0.09567013382911682 88.0 9 -0.00486913975328207
3.1052019596099854 0.20189349353313446 -0.6048645377159119 92.0 2 -0.0048668356612324715
1.8291568756103516 0.11860725283622742 0.16036656498908997 98.0 10 -0.00486453203484416
1.7859609127044678 0.11549331247806549 -0.28345927596092224 100.0 3 -0.004862227942794561
3.6033565998077393 0.23301942646503448 0.44336071610450745 93.0 11 -0.004859923850744963
1.7828792333602905 0.11498156934976578 -0.21936483681201935 100.0 4 -0.004857619758695364
3.6055145263671875 0.23189525306224823 0.5722373723983765 100.0 12 -0.004855316132307053
1.7934499979019165 0.11503472179174423 -0.1572289615869522 93.0 5 -0.004853012040257454
3.6265718936920166 0.23197856545448303 0.7063749432563782 100.0 13 -0.004850707948207855
1.8078395128250122 0.11532323062419891 -0.09493743628263474 93.0 6 -0.0048484038561582565
3.642627239227295 0.2317289412021637 0.842666745185852 100.0 14 -0.004846099764108658
1.7901082038879395 0.11387930810451508 -0.031309615820646286 100.0 7 -0.004843795672059059
3.622666597366333 0.22982433438301086 0.9726420044898987 120.0 15 -0.004841492045670748
3.106241226196289 0.19270803034305573 -0.8339149951934814 54.0 0 -0.004820755682885647
1.7982878684997559 0.11124803125858307 0.03144923597574234 99.0 8 -0.0048184520564973354
3.110123634338379 0.19185766577720642 -0.7193935513496399 72.0 1 -0.004816147964447737
1.8200572729110718 0.11195793747901917 0.09556546807289124 92.0 9 -0.004813843872398138
3.1117660999298096 0.19141535460948944 -0.6060094237327576 84.0 2 -0.004811539780348539
1.8295598030090332 0.11222108453512192 0.16036656498908997 100.0 10 -0.004809235688298941
1.7922682762145996 0.10961974412202835 -0.2843979001045227 100.0 3 -0.004806932061910629
3.6041862964630127 0.21981169283390045 0.44336071610450745 96.0 11 -0.004804627969861031
1.785270094871521 0.10856626182794571 -0.21960857510566711 99.0 4 -0.004802323877811432
3.5984532833099365 0.21819965541362762 0.5709858536720276 100.0 12 -0.004800019785761833
1.7858856916427612 0.10829087346792221 -0.15653172135353088 91.0 5 -0.0047977156937122345
3.6234402656555176 0.2190818339586258 0.7056117057800293 100.0 13 -0.004795412067323923
1.8221864700317383 0.10985368490219116 -0.09567013382911682 100.0 6 -0.004793107975274324
3.6356327533721924 0.21854367852210999 0.8408671021461487 100.0 14 -0.004790803883224726
1.7945058345794678 0.10755714774131775 -0.03137942776083946 100.0 7 -0.004788499791175127
3.6196279525756836 0.21631364524364471 0.9716067314147949 120.0 15 -0.004786195699125528
1.7846912145614624 0.10415501147508621 0.03120490349829197 100.0 8 -0.004763155709952116
3.1068835258483887 0.18077440559864044 -0.7184937596321106 68.0 1 -0.004760852083563805
1.8284127712249756 0.1060662493109703 0.09598415344953537 92.0 9 -0.004758547991514206
3.118295431137085 0.18089236319065094 -0.6071542501449585 87.0 2 -0.004756243899464607
1.8319295644760132 0.10594948381185532 0.1605408787727356 95.0 10 -0.0047539398074150085
1.7670027017593384 0.10188502818346024 -0.2803305983543396 98.0 3 -0.00475163571536541
3.5970044136047363 0.20677272975444794 0.442385733127594 97.0 11 -0.0047493320889770985
1.7876200675964355 0.10244780778884888 -0.21985231339931488 100.0 4 -0.0047470279969275
3.611025810241699 0.20631420612335205 0.5728631019592285 100.0 12 -0.004744723904877901
1.798187494277954 0.10273856669664383 -0.15757757425308228 93.0 5 -0.004742419812828302
3.62026309967041 0.20620808005332947 0.7048484683036804 100.0 13 -0.004740115720778704
1.8105945587158203 0.10281340777873993 -0.09504210948944092 100.0 6 -0.004737812094390392
3.646101713180542 0.20640309154987335 0.8431165814399719 97.0 14 -0.004735508002340794
1.7988632917404175 0.10151736438274384 -0.03144923597574234 100.0 7 -0.004733203910291195
3.624218225479126 0.20389524102210999 0.9726420044898987 120.0 15 -0.004730899818241596
1.7990206480026245 0.09869176149368286 0.03144923597574234 99.0 8 -0.004707859829068184
1.8147944211959839 0.09923854470252991 0.09525144845247269 90.0 9 -0.0047032516449689865
3.1169474124908447 0.16989868879318237 -0.6067726016044617 84.0 2 -0.004700948018580675
1.8382564783096313 0.09987886995077133 0.1610638052225113 98.0 10 -0.004698643926531076
1.785099983215332 0.09667738527059555 -0.2831464111804962 100.0 3 -0.004696339834481478
3.5977044105529785 0.1942146271467209 0.442385733127594 93.0 11 -0.004694035742431879
1.787950038909912 0.09651878476142883 -0.21985231339931488 96.0 4 -0.004691732116043568
3.6156351566314697 0.1945514678955078 0.5734888315200806 100.0 12 -0.004689428023993969
1.7985352277755737 0.09646061807870865 -0.15757757425308228 93.0 5 -0.00468712393194437
3.6209609508514404 0.19356879591941833 0.7048484683036804 100.0 13 -0.004684819839894772
1.8149311542510986 0.09670554101467133 -0.09525144845247269 100.0 6 -0.004682515747845173
3.644820213317871 0.1942080855369568 0.842666745185852 100.0 14 -0.004680211655795574
1.7951964139938354 0.09533896297216415 -0.03137942776083946 100.0 7 -0.004677908029407263
3.628732681274414 0.19207900762557983 0.9736772775650024 117.0 15 -0.004675603937357664
2.328634023666382 0.12040966004133224 -0.6247891783714294 1.0 0 -0.0046548680402338505
1.8073261976242065 0.09313660860061646 0.031588856130838394 94.0 8 -0.004652563948184252
2.3412489891052246 0.12024147063493729 -0.5412322878837585 3.0 1 -0.004650259856134653
1.8151135444641113 0.0932202935218811 0.09525144845247269 86.0 9 -0.004647955764085054
1.8385776281356812 0.09378193318843842 0.1610638052225113 98.0 10 -0.004643348045647144
1.791329264640808 0.09105845540761948 -0.2840850353240967 100.0 3 -0.004641043953597546
3.6022934913635254 0.1824847310781479 0.4428732097148895 96.0 11 -0.004638739861547947
1.7763649225234985 0.08998696506023407 -0.21838988363742828 100.0 4 -0.004636435769498348
3.6083691120147705 0.1821611374616623 0.5722373723983765 100.0 12 -0.0046341316774487495
1.7988452911376953 0.09049629420042038 -0.15757757425308228 93.0 5 -0.004631828051060438
3.627465009689331 0.18185581266880035 0.7059933543205261 93.0 13 -0.0046295239590108395
1.803273320198059 0.09008804708719254 -0.09462341666221619 100.0 6 -0.004627219866961241
3.6376588344573975 0.18173040449619293 0.8408671021461487 100.0 14 -0.004624915774911642
1.795502781867981 0.08938571065664291 -0.03137942776083946 100.0 7 -0.004622612148523331
3.6409268379211426 0.18061967194080353 0.9767830967903137 117.0 15 -0.004620308056473732
2.3290205001831055 0.11268632113933563 -0.6247891783714294 1.0 0 -0.004599571693688631
1.8116199970245361 0.0873357355594635 0.03165866807103157 97.0 8 -0.00459726806730032
2.355260133743286 0.11313077062368393 -0.5443815588951111 3.0 1 -0.004594963975250721
1.8154277801513672 0.08688417822122574 0.09525144845247269 88.0 9 -0.004592659883201122
2.351250648498535 0.11252801865339279 -0.4575599730014801 1.0 2 -0.004590355791151524
1.8309179544448853 0.08730525523424149 0.16036656498908997 100.0 10 -0.004588051699101925
1.7975407838821411 0.08539842069149017 -0.28502362966537476 100.0 3 -0.0045857480727136135
3.614776134490967 0.17110195755958557 0.4443356692790985 93.0 11 -0.004583443980664015
1.7845996618270874 0.08416016399860382 -0.21936483681201935 96.0 4 -0.004581139888614416
3.608983039855957 0.16956351697444916 0.5722373723983765 100.0 12 -0.004578835796564817
1.7911746501922607 0.0841560810804367 -0.15688033401966095 89.0 5 -0.004576531704515219
3.6378538608551025 0.1702854335308075 0.7079014182090759 100.0 13 -0.004574228078126907
1.8075522184371948 0.08429412543773651 -0.09483276307582855 100.0 6 -0.004571923986077309
3.6421642303466797 0.16921141743659973 0.841766893863678 100.0 14 -0.00456961989402771
1.789811134338379 0.08283984661102295 -0.031274713575839996 100.0 7 -0.004567315801978111
3.629956007003784 0.16737623512744904 0.9736772775650024 117.0 15 -0.004565011709928513
2.313960313796997 0.1038622260093689 -0.6206480860710144 6.0 0 -0.004544275812804699
1.7999274730682373 0.08047507703304291 0.03144923597574234 99.0 8 -0.0045419717207551
2.3128108978271484 0.10300285369157791 -0.5344837307929993 15.0 1 -0.0045396676287055016
1.8197107315063477 0.08072317391633987 0.09546079486608505 88.0 9 -0.00453736400231719
2.3359389305114746 0.10362327843904495 -0.45450708270072937 4.0 2 -0.0045350599102675915
1.8252402544021606 0.08064929395914078 0.15984363853931427 95.0 10 -0.004532755818217993
1.7938809394836426 0.07895083725452423 -0.2843979001045227 100.0 3 -0.004530451726168394
3.6113851070404053 0.15830814838409424 0.443848192691803 96.0 11 -0.004528148099780083
1.788849115371704 0.07810293883085251 -0.21985231339931488 94.0 4 -0.004525844007730484
3.6095528602600098 0.15696725249290466 0.5722373723983765 100.0 12 -0.004523539915680885
1.7914574146270752 0.07790443301200867 -0.15688033401966095 91.0 5 -0.004521235823631287
3.63450288772583 0.1574150174856186 0.707138180732727 100.0 13 -0.004518931731581688
1.8218034505844116 0.07858611643314362 -0.09556546807289124 96.0 6 -0.004516627639532089
3.644679546356201 0.1565830111503601 0.8422167897224426 97.0 14 -0.004514324013143778
1.7960829734802246 0.07684855908155441 -0.03137942776083946 100.0 7 -0.004512019921094179
3.6305184364318848 0.15470333397388458 0.9736772775650024 117.0 15 -0.0045097158290445805
2.308518409729004 0.09554409235715866 -0.6190952062606812 58.0 0 -0.004488979931920767
1.796201467514038 0.07402735948562622 0.03137942776083946 99.0 8 -0.004486675839871168
2.2761614322662354 0.09341017156839371 -0.5259355902671814 32.0 1 -0.0044843717478215694
1.8299593925476074 0.07477794587612152 0.09598415344953537 92.0 9 -0.004482068121433258
2.2715530395507812 0.09282286465167999 -0.4419136643409729 25.0 2 -0.004479764029383659
1.8275014162063599 0.07435890287160873 0.1600179374217987 98.0 10 -0.004477459937334061
1.764539361000061 0.07148859649896622 -0.27970486879348755 98.0 3 -0.004475155845284462
3.6079487800598145 0.14554010331630707 0.44336071610450745 97.0 11 -0.004472851753234863
1.7970447540283203 0.07217724621295929 -0.22082726657390594 96.0 4 -0.004470547661185265
3.6140263080596924 0.1445235162973404 0.5728631019592285 100.0 12 -0.004468244034796953
1.7917184829711914 0.07165012508630753 -0.15688033401966095 91.0 5 -0.0044659399427473545
3.6252219676971436 0.1443358063697815 0.7052300572395325 96.0 13 -0.004463635850697756
1.8061009645462036 0.07159386575222015 -0.09472808986902237 96.0 6 -0.004461331758648157
3.6568875312805176 0.14431987702846527 0.8449162244796753 97.0 14 -0.004459028132259846
1.7983382940292358 0.07065661996603012 -0.03141433000564575 100.0 7 -0.004456724040210247
3.6387579441070557 0.14233233034610748 0.97574782371521 120.0 15 -0.004454419948160648
2.3011157512664795 0.08719427138566971 -0.6170246005058289 58.0 0 -0.004433684051036835
1.8004454374313354 0.06790725141763687 0.03144923597574234 94.0 8 -0.004431379958987236
2.2725789546966553 0.08531749248504639 -0.5250357985496521 46.0 1 -0.004429075866937637
1.8162381649017334 0.0678689256310463 0.09525144845247269 84.0 9 -0.004426771774888039
2.2502822875976562 0.08408822864294052 -0.4377158582210541 26.0 2 -0.00442446768283844
1.8357139825820923 0.06827500462532043 0.16071519255638123 100.0 10 -0.0044221640564501286
1.7845183610916138 0.06605903804302216 -0.2828335464000702 100.0 3 -0.00441985996440053
3.6004996299743652 0.13265526294708252 0.442385733127594 96.0 11 -0.004417555872350931
1.7814158201217651 0.06532154977321625 -0.21887736022472382 94.0 4 -0.0044152517803013325
3.6224050521850586 0.13219453394412994 0.5741145610809326 100.0 12 -0.004412947688251734
1.7979309558868408 0.06561293452978134 -0.15740327537059784 100.0 5 -0.004410644061863422
3.625703811645508 0.13168303668498993 0.7052300572395325 96.0 13 -0.004408339969813824
1.806339979171753 0.0652884766459465 -0.09472808986902237 88.0 6 -0.004406035877764225
3.6476316452026367 0.1312028467655182 0.842666745185852 100.0 14 -0.004403731785714626
1.7985739707946777 0.06438005715608597 -0.03141433000564575 91.0 7 -0.004401427693665028
3.639232635498047 0.12962885200977325 0.97574782371521 117.0 15 -0.004399124067276716
2.270514726638794 0.07809817045927048 -0.6087424159049988 37.0 0 -0.004378387704491615
1.7986729145050049 0.06155409291386604 0.03141433000564575 100.0 8 -0.004376083612442017
2.235858201980591 0.07612476497888565 -0.5164876580238342 45.0 1 -0.004373779986053705
1.8164639472961426 0.061528172343969345 0.09525144845247269 82.0 9 -0.0043714758940041065
2.2270166873931885 0.0754346176981926 -0.4331364631652832 30.0 2 -0.004369171801954508
1.835941195487976 0.061867136508226395 0.16071519255638123 100.0 10 -0.0043668681755661964
1.7847380638122559 0.05982988327741623 -0.2828335464000702 100.0 3 -0.004364564083516598
3.6049089431762695 0.12021774053573608 0.4428732097148895 97.0 11 -0.004362259991466999
1.7816330194473267 0.0591023787856102 -0.21887736022472382 94.0 4 -0.0043599558994174
3.6228444576263428 0.11954992264509201 0.5741145610809326 100.0 12 -0.004357651807367802
1.8041331768035889 0.05921923369169235 -0.15792620182037354 93.0 5 -0.004355347715318203
3.6379144191741943 0.1194116398692131 0.7075197696685791 93.0 13 -0.004353043623268604
1.8065568208694458 0.058982301503419876 -0.09472808986902237 99.0 6 -0.004350739996880293
3.6461195945739746 0.11840695887804031 0.8422167897224426 97.0 14 -0.004348435904830694
1.8067824840545654 0.05835921689867973 -0.031553950160741806 100.0 7 -0.0043461318127810955
3.643524646759033 0.11704784631729126 0.9767830967903137 117.0 15 -0.004343827720731497
2.1587910652160645 0.06633494049310684 -0.5787193775177002 24.0 0 -0.004323091823607683
1.8088706731796265 0.05558265000581741 0.031588856130838394 99.0 8 -0.0043207877315580845
2.2322146892547607 0.06820008158683777 -0.5155878663063049 60.0 1 -0.004318484105169773
1.8206603527069092 0.055308833718299866 0.09546079486608505 78.0 9 -0.004316180013120174
2.201767683029175 0.0665016695857048 -0.4281754195690155 51.0 2 -0.004313875921070576
1.828189492225647 0.0548979826271534 0.1600179374217987 98.0 10 -0.004311571829020977
1.7967922687530518 0.053642164915800095 -0.28471076488494873 100.0 3 -0.004309267736971378
3.6251485347747803 0.10822664946317673 0.4453106224536896 61.0 11 -0.00430696364492178
1.7857966423034668 0.05300195887684822 -0.21936483681201935 100.0 4 -0.004304660018533468
3.6153416633605957 0.106669120490551 0.5728631019592285 100.0 12 -0.0043023559264838696
1.7883967161178589 0.052454352378845215 -0.15653172135353088 98.0 5 -0.004300051834434271
3.6402902603149414 0.10613523423671722 0.7079014182090759 99.0 13 -0.004297747742384672
1.8087573051452637 0.052418798208236694 -0.09483276307582855 93.0 6 -0.004295444115996361
3.64847731590271 0.10509763658046722 0.842666745185852 100.0 14 -0.004293140023946762
1.7849876880645752 0.05141816288232803 -0.03116999939084053 90.0 7 -0.004290835931897163
3.6439106464385986 0.104331374168396 0.9767830967903137 117.0 15 -0.004288531839847565
2.1319739818573 0.05806208401918411 -0.5714724659919739 34.0 0 -0.004267795942723751
1.7890725135803223 0.048411063849925995 0.031239807605743408 97.0 8 -0.004265491850674152
2.232449769973755 0.060018643736839294 -0.5155878663063049 71.0 1 -0.004263187758624554
1.8208423852920532 0.048952724784612656 0.09546079486608505 86.0 9 -0.004260883666574955
2.201986312866211 0.05881507322192192 -0.4281754195690155 79.0 2 -0.004258580040186644
1.8283699750900269 0.04851646348834038 0.1600179374217987 98.0 10 -0.004256275948137045
1.7910447120666504 0.047213222831487656 -0.28377217054367065 100.0 3 -0.004253971856087446
1.791932225227356 0.04661072790622711 -0.22009605169296265 99.0 4 -0.004249364137649536
3.6117424964904785 0.09394659847021103 0.5722373723983765 100.0 12 -0.0042470600455999374
1.7885689735412598 0.046210888773202896 -0.15653172135353088 96.0 5 -0.004244755953550339
3.644563674926758 0.09352736175060272 0.7086646556854248 99.0 13 -0.00424245186150074
1.810925841331482 0.046156011521816254 -0.09493743628263474 96.0 6 -0.004240147769451141
3.658562421798706 0.09260876476764679 0.8449162244796753 97.0 14 -0.004237843677401543
1.8071458339691162 0.04574407637119293 -0.031553950160741806 98.0 7 -0.004235540051013231
3.6365280151367188 0.09141595661640167 0.974712610244751 120.0 15 -0.004233235958963633
2.130232095718384 0.050574347376823425 -0.5709548592567444 48.0 0 -0.004212500061839819
1.7932214736938477 0.042573295533657074 0.031309615820646286 97.0 8 -0.00421019596979022
2.1956207752227783 0.05174335837364197 -0.5070397257804871 48.0 1 -0.004207891877740622
1.828989028930664 0.04278283938765526 0.09587948024272919 80.0 9 -0.004205587785691023
2.210028886795044 0.05131108686327934 -0.42970186471939087 89.0 2 -0.0042032841593027115
1.8245445489883423 0.042042553424835205 0.15966932475566864 98.0 10 -0.004200980067253113
1.7714427709579468 0.040818940848112106 -0.2806434631347656 96.0 3 -0.004198675975203514
3.598031997680664 0.08227862417697906 0.44189828634262085 9.0 11 -0.004196371883153915
1.8019999265670776 0.04089375585317612 -0.22131474316120148 92.0 4 -0.004194067791104317
3.619947910308838 0.08151734620332718 0.5734888315200806 100.0 12 -0.004191763699054718
1.7927031517028809 0.04005587473511696 -0.15688033401966095 100.0 5 -0.004189459607005119
3.6311144828796387 0.08113304525613785 0.7059933543205261 96.0 13 -0.004187155980616808
1.8110690116882324 0.040150873363018036 -0.09493743628263474 99.0 6 -0.004184851888567209
3.662745714187622 0.08056245744228363 0.8458160161972046 91.0 14 -0.0041825477965176105
1.8192898035049438 0.039696935564279556 -0.03176337853074074 100.0 7 -0.004180244170129299
3.6406877040863037 0.07880592346191406 0.97574782371521 120.0 15 -0.0041779400780797005
2.116868019104004 0.04323325306177139 -0.5673313736915588 44.0 0 -0.0041572037152945995
1.7973579168319702 0.036394018679857254 0.03137942776083946 97.0 8 -0.004154900088906288
2.160717725753784 0.043374307453632355 -0.49894148111343384 78.0 1 -0.0041525959968566895
1.8211334943771362 0.03655748441815376 0.09546079486608505 78.0 9 -0.004150291904807091
2.204298257827759 0.04386428743600845 -0.42855700850486755 82.0 2 -0.004147987812757492
1.84459388256073 0.036384329199790955 0.16141243278980255 100.0 10 -0.004145683720707893
1.787374496459961 0.03494362533092499 -0.2831464111804962 100.0 3 -0.004143379628658295
3.5903584957122803 0.06956558674573898 0.4409233331680298 9.0 11 -0.004141076002269983
1.7981622219085693 0.034526653587818146 -0.22082726657390594 94.0 4 -0.004138771910220385
3.635998487472534 0.06981509178876877 0.5759917497634888 100.0 12 -0.004136467818170786
1.7928260564804077 0.03411119058728218 -0.15688033401966095 96.0 5 -0.004134163726121187
3.631375551223755 0.06845835596323013 0.7059933543205261 96.0 13 -0.004131860099732876
1.7992165088653564 0.03360455110669136 -0.09430939704179764 88.0 6 -0.004129556007683277
3.6591079235076904 0.06770353019237518 0.8449162244796753 97.0 14 -0.0041272519156336784
1.8194115161895752 0.033664099872112274 -0.03176337853074074 91.0 7 -0.00412494782358408
3.6525180339813232 0.0669439285993576 0.9788536429405212 117.0 15 -0.004122643731534481
2.1170060634613037 0.035844188183546066 -0.5673313736915588 44.0 0 -0.004101907834410667
1.7954694032669067 0.030400071293115616 0.031344521790742874 100.0 8 -0.004099603742361069
2.1627979278564453 0.03624194860458374 -0.4993913471698761 74.0 1 -0.00409729965031147
1.8092679977416992 0.030002009123563766 0.09483276307582855 71.0 9 -0.004094996023923159
2.2024753093719482 0.03613784536719322 -0.4281754195690155 71.0 2 -0.00409269193187356
1.8407254219055176 0.029880980029702187 0.1610638052225113 98.0 10 -0.004090387839823961
1.969191312789917 0.031966399401426315 -0.3119303584098816 100.0 3 -0.0040880837477743626
3.602478265762329 0.05785110592842102 0.442385733127594 9.0 11 -0.004085780121386051
1.8300243616104126 0.029068345203995705 -0.2247270941734314 92.0 4 -0.0040834760293364525
3.6243691444396973 0.05693553015589714 0.5741145610809326 98.0 12 -0.004081171937286854
1.804887056350708 0.02803891710937023 -0.15792620182037354 98.0 5 -0.004078867845237255
3.6472864151000977 0.05666058883070946 0.7090462446212769 90.0 13 -0.004076563753187656
1.807306170463562 0.02776014804840088 -0.09472808986902237 88.0 6 -0.004074259661138058
3.6476211547851562 0.05539056658744812 0.8422167897224426 97.0 14 -0.004071956034749746
1.8055217266082764 0.0271032452583313 -0.031519047915935516 89.0 7 -0.004069651942700148
3.6527295112609863 0.054192885756492615 0.9788536429405212 117.0 15 -0.004067347850650549
2.1035966873168945 0.028272949159145355 -0.5637079477310181 42.0 0 -0.004012345802038908
1.8055661916732788 0.023951305076479912 0.031519047915935516 92.0 8 -0.004010041709989309
2.16876220703125 0.028390629217028618 -0.5007410645484924 66.0 1 -0.004007737617939711
1.8093657493591309 0.023370910435914993 0.09483276307582855 68.0 9 -0.004005433991551399
2.2202553749084473 0.028678221628069878 -0.43160995841026306 82.0 2 -0.0040031298995018005
1.8268729448318481 0.023277290165424347 0.15984363853931427 95.0 10 -0.004000825807452202
2.2616279125213623 0.028421998023986816 -0.3582349717617035 100.0 3 -0.003998521715402603
3.612590789794922 0.04477076604962349 0.443604439496994 11.0 11 -0.0039962176233530045
2.2707762718200684 0.027744242921471596 -0.27883708477020264 90.0 4 -0.003993913996964693
3.62060284614563 0.043604396283626556 0.5734888315200806 100.0 12 -0.003991609904915094
2.2472522258758545 0.027064574882388115 -0.19662334024906158 79.0 5 -0.003989305812865496
3.6474695205688477 0.04329304397106171 0.7090462446212769 96.0 13 -0.003987001720815897
1.9132435321807861 0.022374067455530167 -0.10027570277452469 47.0 6 -0.003984697628766298
3.659491539001465 0.042156487703323364 0.8449162244796753 100.0 14 -0.003982394002377987
1.8396013975143433 0.020870685577392578 -0.032112427055835724 45.0 7 -0.003980089910328388
3.6490402221679688 0.04076224938035011 0.9778183698654175 120.0 15 -0.0039777858182787895
2.086296558380127 0.020756321027874947 -0.559049129486084 35.0 0 -0.003957049921154976
3.5932810306549072 0.035121966153383255 0.06272394955158234 70.0 8 -0.003954745829105377
2.180540084838867 0.02093276008963585 -0.5034404993057251 68.0 1 -0.0039524417370557785
3.6128814220428467 0.034052371978759766 0.18935151398181915 76.0 9 -0.00395013764500618
2.232121229171753 0.021038338541984558 -0.4338997006416321 100.0 2 -0.003947834018617868
1.8329198360443115 0.016954973340034485 0.16036656498908997 63.0 10 -0.00394552992656827
2.253812074661255 0.02045603096485138 -0.356983482837677 100.0 3 -0.003943225834518671
3.6286051273345947 0.032300595194101334 0.44555434584617615 11.0 11 -0.003940921742469072
2.264904022216797 0.019765010103583336 -0.27810585498809814 67.0 4 -0.003938617650419474
3.628634452819824 0.031034203246235847 0.5747402906417847 100.0 12 -0.003936314024031162
2.2891719341278076 0.01957833580672741 -0.20028388500213623 88.0 5 -0.003934009931981564
3.643672227859497 0.030526868999004364 0.708283007144928 96.0 13 -0.003931705839931965
1.9352790117263794 0.01587516814470291 -0.1014270931482315 49.0 6 -0.003929401747882366
3.665462017059326 0.029429929330945015 0.8462659120559692 100.0 14 -0.0039270976558327675
1.9076508283615112 0.014983545057475567 -0.033299192786216736 14.0 7 -0.003924794029444456
3.641433000564575 0.027964161708950996 0.97574782371521 120.0 15 -0.003922489937394857
2.0863561630249023 0.013473105616867542 -0.559049129486084 35.0 0 -0.0039017538074404
3.585383176803589 0.0225293580442667 0.06258433312177658 84.0 8 -0.0038994497153908014
2.1786510944366455 0.01330864243209362 -0.5029906034469604 74.0 1 -0.0038971458561718464
