# .PCD v0.7 - Point Cloud Data file format
VERSION 0.7
FIELDS x y z intensity ring time
SIZE 4 4 4 4 4 4
TYPE F F F F F F
COUNT 1 1 1 1 1 1
WIDTH 556
HEIGHT 1
VIEWPOINT 0 0 0 1 0 0 0
POINTS 556
DATA ascii
1.8616281747817993 4.339321613311768 -1.0901129245758057 2.0 1 -0.038762614130973816
2.8363754749298096 6.611387729644775 0.37702828645706177 24.0 9 -0.03876030817627907
2.8522021770477295 6.641878604888916 0.6324020624160767 57.0 10 -0.03875569999217987
2.2465105056762695 5.2288970947265625 -0.9013754725456238 26.0 3 -0.03875339776277542
2.8581762313842773 6.649387359619141 0.888671338558197 31.0 11 -0.03875109180808067
1.973129391670227 4.5903754234313965 -0.6134903430938721 2.0 4 -0.038748789578676224
2.873436689376831 6.681676387786865 1.1519834995269775 36.0 12 -0.038746483623981476
2.888397455215454 6.7100019454956055 1.420000672340393 57.0 13 -0.03874187543988228
2.03110671043396 4.716179370880127 -0.2691115140914917 1.0 6 -0.03873957321047783
2.897493839263916 6.727909088134766 1.6911821365356445 63.0 14 -0.03873726725578308
2.440340518951416 5.663689136505127 -0.10764644294977188 25.0 7 -0.03873496502637863
2.9098927974700928 6.750203609466553 1.969612956047058 21.0 15 -0.038732659071683884
1.6128345727920532 3.7288291454315186 -1.0885930061340332 2.0 0 -0.038711924105882645
1.8837515115737915 4.351006984710693 -1.0946118831634521 2.0 1 -0.03870731592178345
2.8416218757629395 6.5634541511535645 0.3748301565647125 25.0 9 -0.038705013692379
2.851235866546631 6.57936954498291 0.6273470520973206 52.0 10 -0.0387004055082798
2.1027538776397705 4.849883556365967 -0.8372373580932617 16.0 3 -0.03869809955358505
2.867569923400879 6.6107354164123535 0.884771466255188 29.0 11 -0.0386957973241806
1.9867597818374634 4.580165386199951 -0.6130028367042542 4.0 4 -0.038693491369485855
2.8767030239105225 6.6286211013793945 1.144474744796753 40.0 12 -0.038691189140081406
2.896548271179199 6.667975902557373 1.4131314754486084 55.0 13 -0.03868658095598221
2.0244438648223877 4.658129692077637 -0.26618072390556335 1.0 6 -0.03868427500128746
2.903475522994995 6.680732250213623 1.6817342042922974 66.0 14 -0.03868197277188301
2.4622998237609863 5.662900447845459 -0.10778605937957764 25.0 7 -0.03867966681718826
2.9122204780578613 6.694460868835449 1.956154465675354 21.0 15 -0.038677364587783813
1.6166912317276 3.703983783721924 -1.0828988552093506 2.0 0 -0.038656629621982574
2.773688316345215 6.351743698120117 0.12098007649183273 0.0 8 -0.03865432366728783
1.9059703350067139 4.3625946044921875 -1.0991109609603882 2.0 1 -0.03865202143788338
2.8529751300811768 6.530202865600586 0.37346941232681274 26.0 9 -0.03864971548318863
2.272409439086914 5.198867321014404 -1.10287606716156 4.0 2 -0.03864741325378418
2.856275796890259 6.53154182434082 0.6236864924430847 54.0 10 -0.03864510729908943
2.2946009635925293 5.244648456573486 -0.9066942930221558 57.0 3 -0.03864280506968498
2.8711700439453125 6.559363842010498 0.879165530204773 33.0 11 -0.038640499114990234
2.001142740249634 4.571732997894287 -0.6127591133117676 4.0 4 -0.038638196885585785
2.8812367916107178 6.579236030578613 1.1375916004180908 38.0 12 -0.03863589093089104
2.8965768814086914 6.607986927032471 1.4024461507797241 60.0 13 -0.03863128274679184
2.011003255844116 4.585543155670166 -0.26241251826286316 1.0 6 -0.03862898051738739
2.9068315029144287 6.628234386444092 1.6709365844726562 65.0 14 -0.03862667456269264
2.482670783996582 5.658367156982422 -0.10785587131977081 16.0 7 -0.03862437233328819
2.9157698154449463 6.642311096191406 1.9437310695648193 21.0 15 -0.038622066378593445
1.6394761800765991 3.7171926498413086 -1.0885930061340332 1.0 0 -0.038605451583862305
2.8440709114074707 6.445329189300537 0.12296965718269348 45.0 8 -0.038603149354457855
1.9195605516433716 4.348112106323242 -1.0973113775253296 2.0 1 -0.03860084339976311
2.863510847091675 6.486311435699463 0.37158533930778503 26.0 9 -0.03859854117035866
2.8668372631073 6.487724781036377 0.6205489039421082 55.0 10 -0.03859393298625946
2.3131258487701416 5.232184886932373 -0.9060685038566589 100.0 3 -0.03859162703156471
2.8770618438720703 6.504721164703369 0.8733158111572266 41.0 11 -0.03858932480216026
2.0242972373962402 4.574554920196533 -0.6142215728759766 4.0 4 -0.038587018847465515
2.890489339828491 6.531996726989746 1.1313341856002808 38.0 12 -0.038584716618061066
2.047060012817383 4.62380838394165 -0.44240254163742065 1.0 5 -0.03858241066336632
2.8996644020080566 6.546555042266846 1.3917608261108398 58.0 13 -0.03858010843396187
2.017268180847168 4.552222728729248 -0.2609471082687378 1.0 6 -0.03857780247926712
2.9223594665527344 6.591570854187012 1.6646379232406616 65.0 14 -0.03857550024986267
2.463045835494995 5.5555596351623535 -0.1060757264494896 41.0 7 -0.03857319429516792
2.9255855083465576 6.595748424530029 1.9333783388137817 30.0 15 -0.038570892065763474
1.657157301902771 3.7220356464385986 -1.0916988849639893 1.0 0 -0.038550157099962234
2.8434698581695557 6.386537075042725 0.12202722579240799 43.0 8 -0.03854785114526749
1.9387235641479492 4.352405071258545 -1.1000107526779175 1.0 1 -0.03854554891586304
2.8609304428100586 6.4197235107421875 0.36834049224853516 25.0 9 -0.03854324296116829
2.074615478515625 4.653104305267334 -0.9902986884117126 1.0 2 -0.03854094073176384
2.8748581409454346 6.444924831390381 0.6174112558364868 57.0 10 -0.03853863477706909
2.328852891921997 5.220877647399902 -0.9054427742958069 26.0 3 -0.03853633254766464
2.8792026042938232 6.451637268066406 0.8674660921096802 39.0 11 -0.038534026592969894
2.0548338890075684 4.6022562980651855 -0.6188525557518005 4.0 4 -0.038531724363565445
2.900383710861206 6.493008613586426 1.1263282299041748 36.0 12 -0.0385294184088707
2.0583090782165527 4.6057209968566895 -0.4413566589355469 1.0 5 -0.03852711617946625
2.9069409370422363 6.504639625549316 1.3848917484283447 58.0 13 -0.0385248102247715
2.0453953742980957 4.574681758880615 -0.26262184977531433 1.0 6 -0.03852250799536705
2.923511505126953 6.535593509674072 1.6529405117034912 65.0 14 -0.0385202020406723
2.4791548252105713 5.5396270751953125 -0.10593610256910324 36.0 7 -0.03851789981126785
2.9328036308288574 6.55023193359375 1.9230256080627441 30.0 15 -0.038515593856573105
1.6726564168930054 3.72356915473938 -1.0937693119049072 1.0 0 -0.038494858890771866
2.856727361679077 6.356509685516357 0.12164327502250671 49.0 8 -0.038492556661367416
1.9491106271743774 4.334946632385254 -1.0973113775253296 1.0 1 -0.03849025070667267
2.864183187484741 6.370126247406006 0.3660377264022827 25.0 9 -0.03848794847726822
2.080368757247925 4.624714374542236 -0.9857193231582642 1.0 2 -0.03848564252257347
2.879859685897827 6.399019241333008 0.613925039768219 55.0 10 -0.03848334029316902
2.331653118133545 5.178494453430176 -0.8994983434677124 17.0 3 -0.038481034338474274
2.887031316757202 6.408967971801758 0.863078773021698 37.0 11 -0.038478732109069824
2.0717010498046875 4.596866130828857 -0.6190963387489319 16.0 4 -0.038476426154375076
2.9040422439575195 6.443735599517822 1.1194450855255127 38.0 12 -0.03847412392497063
2.0752079486846924 4.602503299713135 -0.4417053163051605 1.0 5 -0.03847181797027588
2.9167139530181885 6.465818405151367 1.3787858486175537 55.0 13 -0.03846951574087143
2.3554797172546387 5.219235420227051 -0.3000943958759308 7.0 6 -0.03846720978617668
2.9230496883392334 6.473842620849609 1.6398932933807373 67.0 14 -0.03846490755677223
2.4794063568115234 5.491281032562256 -0.10516820847988129 34.0 7 -0.03846260532736778
2.9386050701141357 6.505258560180664 1.9126728773117065 31.0 15 -0.038460299372673035
1.6824522018432617 3.7106704711914062 -1.0916988849639893 2.0 0 -0.038439564406871796
2.8629255294799805 6.314219951629639 0.12101498991250992 49.0 8 -0.03843725845217705
1.9892374277114868 4.38524866104126 -1.111708164215088 2.0 1 -0.0384349562227726
2.8748481273651123 6.3346266746521 0.36457231640815735 25.0 9 -0.03843265026807785
2.2864246368408203 5.035727500915527 -1.0750179290771484 1.0 2 -0.0384303480386734
2.881580352783203 6.343576908111572 0.6095672845840454 45.0 10 -0.03842804208397865
2.339827299118042 5.150949478149414 -0.8960567116737366 33.0 3 -0.038425739854574203
2.8959474563598633 6.372251510620117 0.8594226837158203 35.0 11 -0.038423433899879456
2.09104061126709 4.599006652832031 -0.6203150153160095 17.0 4 -0.038421131670475006
2.9036171436309814 6.383211612701416 1.110684871673584 38.0 12 -0.03841882944107056
2.073106050491333 4.555335521697998 -0.43787044286727905 1.0 5 -0.03841652348637581
2.9202470779418945 6.416799545288086 1.3703902959823608 58.0 13 -0.03841422125697136
2.382702350616455 5.23321008682251 -0.301350474357605 1.0 6 -0.03841191530227661
2.9307703971862793 6.433964729309082 1.6322449445724487 66.0 14 -0.03840961307287216
2.4877805709838867 5.45893669128418 -0.10471444576978683 50.0 7 -0.038407307118177414
2.940453052520752 6.44926118850708 1.899214267730713 33.0 15 -0.038405004888772964
1.6867132186889648 3.687502384185791 -1.0865224599838257 1.0 0 -0.03838426619768143
2.8633155822753906 6.25691032409668 0.12010746449232101 49.0 8 -0.03838196396827698
1.9980419874191284 4.3641037940979 -1.1081089973449707 1.0 1 -0.03837965801358223
2.881969690322876 6.291868209838867 0.36268821358680725 25.0 9 -0.03837735578417778
2.3611607551574707 5.154846668243408 -1.102112889289856 39.0 2 -0.03837504982948303
2.8851685523986816 6.295949935913086 0.6059067249298096 48.0 10 -0.03837274760007858
2.360264539718628 5.148136615753174 -0.8969953060150146 35.0 3 -0.03837044537067413
2.9032747745513916 6.329626083374023 0.8550353646278381 37.0 11 -0.038368139415979385
2.1128780841827393 4.604308128356934 -0.6220211386680603 26.0 4 -0.038365837186574936
2.9110472202301025 6.340722560882568 1.105053186416626 38.0 12 -0.03836353123188019
2.1106152534484863 4.595145225524902 -0.44240254163742065 1.0 5 -0.03836122900247574
2.9237797260284424 6.365533351898193 1.3616130352020264 61.0 13 -0.03835892304778099
2.450160026550293 5.331934452056885 -0.3075261116027832 6.0 6 -0.03835662081837654
2.935304880142212 6.38474178314209 1.622347116470337 65.0 14 -0.03835431486368179
2.4951210021972656 5.424785614013672 -0.1042257696390152 53.0 7 -0.038352012634277344
2.9435675144195557 6.396838188171387 1.8867909908294678 31.0 15 -0.038349706679582596
1.705078125 3.6918179988861084 -1.0896282196044922 1.0 0 -0.03832897171378136
2.8658559322357178 6.205122470855713 0.11930465698242188 45.0 8 -0.03832666575908661
2.009992837905884 4.350026607513428 -1.106309413909912 1.0 1 -0.03832436352968216
2.887993097305298 6.247323989868164 0.36069944500923157 26.0 9 -0.03832206130027771
2.3907530307769775 5.1693220138549805 -1.1070737838745117 55.0 2 -0.03831975534558296
2.8948373794555664 6.256402969360352 0.6031177639961243 49.0 10 -0.03831745311617851
2.3824355602264404 5.146622180938721 -0.8982467651367188 31.0 3 -0.038315147161483765
2.9036717414855957 6.272615432739258 0.8486981391906738 44.0 11 -0.038312844932079315
2.133943796157837 4.6077117919921875 -0.6234835982322693 31.0 4 -0.03831053897738457
2.91821026802063 6.298262596130371 1.099421501159668 38.0 12 -0.03830823674798012
2.129995346069336 4.594979763031006 -0.4430997669696808 1.0 5 -0.03830593079328537
2.925616979598999 6.308466911315918 1.3516910076141357 61.0 13 -0.03830362856388092
2.4116830825805664 5.1979079246521 -0.30030375719070435 14.0 6 -0.03830132260918617
2.9447364807128906 6.343891620635986 1.6146987676620483 63.0 14 -0.03829902037978172
2.5258305072784424 5.441435813903809 -0.10471444576978683 53.0 7 -0.038296714425086975
2.9496068954467773 6.351480484008789 1.8764381408691406 29.0 15 -0.038294412195682526
1.7179539203643799 3.6858439445495605 -1.0896282196044922 1.0 0 -0.03827367722988129
2.875056266784668 6.165579795837402 0.11874617636203766 48.0 8 -0.03827137127518654
2.03086519241333 4.353227615356445 -1.1090087890625 2.0 1 -0.03826906904578209
2.8886687755584717 6.191957473754883 0.35808265209198 25.0 9 -0.03826676309108734
2.4121029376983643 5.168062210083008 -1.108600378036499 46.0 2 -0.03826446086168289
2.903172731399536 6.217374801635742 0.6003287434577942 51.0 10 -0.038262154906988144
2.407912015914917 5.154381275177002 -0.9010626077651978 23.0 3 -0.038259852677583694
2.9115118980407715 6.229560375213623 0.8443108797073364 40.0 11 -0.03825754672288895
2.154179811477661 4.607052803039551 -0.6244585514068604 39.0 4 -0.0382552444934845
2.9267921447753906 6.259406089782715 1.0944156646728516 44.0 12 -0.03825293853878975
2.9326391220092773 6.266210079193115 1.3448219299316406 60.0 13 -0.03824833035469055
2.4162633419036865 5.160516262054443 -0.2986289858818054 12.0 6 -0.0382460281252861
2.9519848823547363 6.301807880401611 1.6066005229949951 67.0 14 -0.038243722170591354
2.550748586654663 5.445261001586914 -0.10495877265930176 49.0 7 -0.038241419941186905
2.958641529083252 6.31315803527832 1.8681559562683105 30.0 15 -0.03823911398649216
1.7406772375106812 3.7008020877838135 -1.0958398580551147 1.0 0 -0.03821837902069092
2.8818702697753906 6.127058506011963 0.11818769574165344 48.0 8 -0.03821607679128647
2.050269603729248 4.357048034667969 -1.111708164215088 1.0 1 -0.03821377083659172
2.8898496627807617 6.138466835021973 0.355570524930954 25.0 9 -0.03821146860718727
2.431802749633789 5.1631622314453125 -1.1093635559082031 46.0 2 -0.03820916265249252
2.9112682342529297 6.178366184234619 0.5975397825241089 48.0 10 -0.038206860423088074
2.4342501163482666 5.1660261154174805 -0.9045041799545288 34.0 3 -0.038204554468393326
2.9152235984802246 6.183960914611816 0.8394361138343811 40.0 11 -0.038202252238988876
2.174527406692505 4.610656261444092 -0.6259210109710693 42.0 4 -0.03819994628429413
2.9317634105682373 6.2134222984313965 1.0881582498550415 44.0 12 -0.03819764405488968
2.9441826343536377 6.236922264099121 1.3406240940093994 58.0 13 -0.03819303587079048
2.429952621459961 5.1452507972717285 -0.2982103228569031 16.0 6 -0.038190729916095734
2.952052593231201 6.247936248779297 1.5953530073165894 71.0 14 -0.038188427686691284
2.554354190826416 5.403783798217773 -0.10433048754930496 45.0 7 -0.038186125457286835
2.964144229888916 6.267862796783447 1.857803225517273 33.0 15 -0.03818381950259209
1.7512829303741455 3.6915183067321777 -1.0948045253753662 1.0 0 -0.03816308453679085
2.892089366912842 6.093478202819824 0.11773393303155899 50.0 8 -0.0381607785820961
2.075497627258301 4.370987892150879 -1.1171070337295532 1.0 1 -0.03815847635269165
2.8984057903289795 6.101280212402344 0.354000449180603 26.0 9 -0.0381561703979969
2.45143723487854 5.160390377044678 -1.1105084419250488 42.0 2 -0.03815386816859245
2.9086480140686035 6.120091915130615 0.5928333401679993 47.0 10 -0.038151562213897705
2.46075177192688 5.175336837768555 -0.9076328277587891 35.0 3 -0.038149259984493256
2.9240024089813232 6.146856784820557 0.8357800245285034 38.0 11 -0.03814695402979851
2.1991355419158936 4.6209635734558105 -0.6283583641052246 41.0 4 -0.03814465180039406
2.933055877685547 6.160345554351807 1.080649495124817 48.0 12 -0.03814234584569931
2.9541172981262207 6.201791763305664 1.3352813720703125 57.0 13 -0.03813774138689041
2.4350087642669678 5.109692573547363 -0.29664021730422974 9.0 6 -0.03813543543219566
2.9579081535339355 6.204171657562256 1.5868048667907715 68.0 14 -0.038133133202791214
2.5602896213531494 5.367760181427002 -0.10380692034959793 48.0 7 -0.038130827248096466
2.966036081314087 6.215633869171143 1.8453798294067383 33.0 15 -0.03812852501869202
1.7691621780395508 3.695838451385498 -1.0979104042053223 1.0 0 -0.03810778632760048
2.8926143646240234 6.040060520172119 0.11689621955156326 51.0 8 -0.03810548409819603
2.094111919403076 4.37074613571167 -1.1189066171646118 1.0 1 -0.03810317814350128
2.9075982570648193 6.065912246704102 0.35253503918647766 27.0 9 -0.03810087591409683
2.4643425941467285 5.14117956161499 -1.1082186698913574 15.0 2 -0.038098569959402084
2.908457040786743 6.064988613128662 0.5884755849838257 48.0 10 -0.038096267729997635
2.4822213649749756 5.173839092254639 -0.9088843464851379 39.0 3 -0.03809396177530289
2.9325554370880127 6.109769344329834 0.8321239948272705 40.0 11 -0.03809165954589844
2.225565195083618 4.634732246398926 -0.6312832832336426 39.0 4 -0.03808935731649399
2.9357244968414307 6.110896110534668 1.0737663507461548 46.0 12 -0.03808705136179924
2.951082944869995 6.140127658843994 1.3242145776748657 60.0 13 -0.03808244317770004
2.4900455474853516 5.178561687469482 -0.3011411130428314 2.0 6 -0.03808014094829559
2.9626529216766357 6.158685684204102 1.577806830406189 67.0 14 -0.038077834993600845
2.577275514602661 5.35518741607666 -0.10373710095882416 40.0 7 -0.038075532764196396
2.969275951385498 6.166950225830078 1.8339918851852417 32.0 15 -0.03807322680950165
1.7870943546295166 3.7000772953033447 -1.1010162830352783 1.0 0 -0.03805249184370041
2.895411491394043 5.992114543914795 0.1161632165312767 48.0 8 -0.03805018588900566
2.1008715629577637 4.345866680145264 -1.1144076585769653 1.0 1 -0.03804788365960121
2.916395902633667 6.032861709594727 0.35117432475090027 29.0 9 -0.038045577704906464
2.3412365913391113 4.84092378616333 -1.045251727104187 1.0 2 -0.038043275475502014
2.9226696491241455 6.040450572967529 0.5870810747146606 49.0 10 -0.038040973246097565
2.5037055015563965 5.172256946563721 -0.910135805606842 64.0 3 -0.03803866729140282
2.933100700378418 6.056615829467773 0.8262742161750793 46.0 11 -0.03803636506199837
2.2477896213531494 4.639440059661865 -0.6329894065856934 37.0 4 -0.03803405910730362
2.942190647125244 6.072684288024902 1.0687603950500488 45.0 12 -0.03803175687789917
2.948513984680176 6.080325603485107 1.313529133796692 61.0 13 -0.03802714869379997
2.488929033279419 5.13030481338501 -0.2988383173942566 1.0 6 -0.038024842739105225
2.9722187519073486 6.123763561248779 1.5715081691741943 63.0 14 -0.038022540509700775
2.972835063934326 6.122313022613525 1.823639154434204 30.0 15 -0.03801793232560158
1.8016911745071411 3.6972906589508057 -1.1020516157150269 1.0 0 -0.03799719735980034
2.897745370864868 5.94652795791626 0.11546511948108673 48.0 8 -0.03799489140510559
2.120396137237549 4.349384784698486 -1.1171070337295532 1.0 1 -0.03799258917570114
2.9164254665374756 5.979560375213623 0.3486621677875519 36.0 9 -0.03799028322100639
2.3064630031585693 4.726857662200928 -1.0223546028137207 1.0 2 -0.037987980991601944
2.9262547492980957 5.994402885437012 0.583594799041748 51.0 10 -0.037985675036907196
2.529510498046875 5.181676387786865 -0.9132645130157471 89.0 3 -0.03798337280750275
2.9357450008392334 6.011181831359863 0.821399450302124 44.0 11 -0.037981066852808
2.2710068225860596 4.648012638092041 -0.6351830959320068 30.0 4 -0.03797876462340355
2.9529592990875244 6.041081428527832 1.065005898475647 45.0 12 -0.0379764586687088
2.958310127258301 6.049351692199707 1.3089497089385986 60.0 13 -0.037971850484609604
2.548060894012451 5.208137035369873 -0.303862601518631 1.0 6 -0.037969548255205154
2.9745171070098877 6.077117443084717 1.5620602369308472 66.0 14 -0.037967242300510406
2.978890895843506 6.08066987991333 1.814321517944336 32.0 15 -0.03796263411641121
1.827573299407959 3.7190370559692383 -1.110333800315857 1.0 0 -0.03794189915060997
2.9078969955444336 5.914843559265137 0.11504627019166946 48.0 8 -0.03793959692120552
2.135566473007202 4.34195613861084 -1.1171070337295532 2.0 1 -0.03793729096651077
2.915233850479126 5.9245429039001465 0.3460453748703003 33.0 9 -0.03793498873710632
2.3255913257598877 4.726230144500732 -1.0238810777664185 2.0 2 -0.037932682782411575
2.932039499282837 5.956065654754639 0.5808058977127075 49.0 10 -0.037930380553007126
2.9426708221435547 5.97240686416626 0.8174996376037598 42.0 11 -0.03792577236890793
2.9565563201904297 5.995302200317383 1.0587486028671265 48.0 12 -0.03792116418480873
2.9663772583007812 6.012579917907715 1.3032255172729492 58.0 13 -0.037916556000709534
2.9758687019348145 6.02650785446167 1.5517125129699707 68.0 14 -0.037911947816610336
1.3772550821304321 2.787888765335083 -0.05427698418498039 6.0 7 -0.03790964186191559
2.987257957458496 6.044257640838623 1.806557059288025 45.0 15 -0.03790733963251114
1.830248236656189 3.691864490509033 -1.1041221618652344 1.0 0 -0.0378866046667099
2.9151997566223145 5.87778377532959 0.11452268809080124 50.0 8 -0.03788429871201515
2.1541738510131836 4.341458797454834 -1.1189066171646118 1.0 1 -0.0378819964826107
2.9243533611297607 5.891073703765869 0.3446846604347229 31.0 9 -0.037879690527915955
2.3316006660461426 4.696980953216553 -1.0193017721176147 1.0 2 -0.037877388298511505
2.935086965560913 5.9101057052612305 0.5773196220397949 48.0 10 -0.03787508234381676
2.5498030185699463 5.132047653198242 -0.9076328277587891 9.0 3 -0.03787278011441231
2.9502484798431396 5.935434341430664 0.8138435482978821 40.0 11 -0.03787047415971756
1.4062575101852417 2.8279294967651367 -0.3877882957458496 1.0 4 -0.03786817193031311
2.9589874744415283 5.947805881500244 1.0521783828735352 51.0 12 -0.03786586597561836
2.9742271900177 5.975823402404785 1.2975012063980103 60.0 13 -0.037861257791519165
1.378085732460022 2.76764178276062 -0.1620321422815323 15.0 6 -0.037858955562114716
2.9803764820098877 5.982942581176758 1.5431642532348633 76.0 14 -0.037856653332710266
1.3860856294631958 2.7812747955322266 -0.054242078214883804 34.0 7 -0.03785434737801552
2.9859251976013184 5.988842964172363 1.7930984497070312 47.0 15 -0.03785204514861107
1.8586788177490234 3.716553211212158 -1.1134395599365234 1.0 0 -0.03783130645751953
2.9178028106689453 5.83180570602417 0.11382459849119186 39.0 8 -0.03782900422811508
2.183272361755371 4.361793518066406 -1.1261049509048462 2.0 1 -0.037826698273420334
2.9296979904174805 5.850470066070557 0.3429052233695984 33.0 9 -0.037824396044015884
2.360290288925171 4.7133893966674805 -1.024644374847412 1.0 2 -0.037822090089321136
2.933387279510498 5.855291366577148 0.5729618668556213 46.0 10 -0.03781978785991669
2.581864833831787 5.151371479034424 -0.9126387238502502 1.0 3 -0.03781748190522194
2.955824851989746 5.894932270050049 0.8097000122070312 40.0 11 -0.03781517967581749
1.3671650886535645 2.7254140377044678 -0.3743826448917389 20.0 4 -0.03781287372112274
2.9620120525360107 5.902130126953125 1.045920968055725 49.0 12 -0.03781057149171829
1.361945390701294 2.7138237953186035 -0.2656506896018982 23.0 5 -0.03780826926231384
2.9756903648376465 5.926804542541504 1.2891056537628174 62.0 13 -0.037805963307619095
1.3823587894439697 2.752106189727783 -0.1614041030406952 33.0 6 -0.037803661078214645
2.9872446060180664 5.944642543792725 1.535965919494629 71.0 14 -0.0378013551235199
1.3877027034759521 2.7603394985198975 -0.053927935659885406 28.0 7 -0.03779905289411545
2.9946584701538086 5.954221725463867 1.7858514785766602 47.0 15 -0.0377967469394207
1.8751206398010254 3.71694278717041 -1.1155102252960205 1.0 0 -0.03777601197361946
2.1897003650665283 4.3367509841918945 -1.1216059923171997 2.0 1 -0.037771403789520264
2.9392945766448975 5.818815231323242 0.3416491448879242 34.0 9 -0.037769097834825516
2.57500958442688 5.097653865814209 -1.1101268529891968 1.0 2 -0.037766795605421066
2.943924903869629 5.8254547119140625 0.5710444450378418 48.0 10 -0.03776449337601662
2.6033947467803955 5.149379730224609 -0.9138903021812439 1.0 3 -0.03776218742132187
2.9566714763641357 5.845608711242676 0.804337739944458 47.0 11 -0.03775988519191742
1.3739821910858154 2.715311050415039 -0.3736514449119568 23.0 4 -0.03775757923722267
2.970996618270874 5.8688435554504395 1.041853666305542 48.0 12 -0.03775527700781822
1.3750091791152954 2.7161638736724854 -0.2663479447364807 30.0 5 -0.037752971053123474
2.977731704711914 5.87960147857666 1.2810916900634766 65.0 13 -0.037750668823719025
1.3901523351669312 2.7437005043029785 -0.16119475662708282 57.0 6 -0.03774836286902428
2.9921164512634277 5.902891635894775 1.5278676748275757 66.0 14 -0.03774606063961983
1.3973290920257568 2.755479097366333 -0.053927935659885406 34.0 7 -0.03774375468492508
3.001441478729248 5.916166305541992 1.77756929397583 47.0 15 -0.03774145245552063
1.8880847692489624 3.710374116897583 -1.1155102252960205 1.0 0 -0.03772071376442909
1.396212100982666 2.742588520050049 0.053718507289886475 27.0 8 -0.03771841153502464
2.224281072616577 4.367284297943115 -1.1315038204193115 1.0 1 -0.037716109305620193
2.938734769821167 5.7675886154174805 0.33924171328544617 36.0 9 -0.037713803350925446
2.6320064067840576 5.165600776672363 -1.1269179582595825 1.0 2 -0.037711501121520996
2.9515726566314697 5.790292739868164 0.568604052066803 49.0 10 -0.03770919516682625
2.635711193084717 5.168417453765869 -0.9188961386680603 1.0 3 -0.0377068929374218
2.955408811569214 5.792813301086426 0.7984880208969116 47.0 11 -0.03770458698272705
1.36811101436615 2.6804404258728027 -0.36950787901878357 32.0 4 -0.0377022847533226
2.9752933979034424 5.826770782470703 1.0362221002578735 45.0 12 -0.03769997879862785
1.3908238410949707 2.723768949508667 -0.2675681412220001 31.0 5 -0.037697676569223404
2.981269359588623 5.835952281951904 1.2738409042358398 61.0 13 -0.037695370614528656
1.3897238969802856 2.7192678451538086 -0.1600433737039566 58.0 6 -0.03769306838512421
2.9967334270477295 5.861180305480957 1.5197694301605225 71.0 14 -0.03769076243042946
1.4032971858978271 2.7434630393981934 -0.05378831923007965 40.0 7 -0.03768846020102501
3.0044751167297363 5.871257781982422 1.7672165632247925 49.0 15 -0.03768615424633026
1.4012104272842407 2.7288031578063965 0.05354398116469383 35.0 8 -0.03766311705112457
2.9442384243011475 5.728875160217285 0.33756694197654724 38.0 9 -0.037658508867025375
2.9571914672851562 5.751603126525879 0.5658150315284729 51.0 10 -0.03765390068292618
2.9683408737182617 5.7683424949646 0.7965381145477295 47.0 11 -0.03764929249882698
1.381093144416809 2.682708501815796 -0.37048283219337463 34.0 4 -0.03764698654413223
2.979335308074951 5.784738063812256 1.0305904150009155 46.0 12 -0.03764468431472778
1.4085341691970825 2.7348384857177734 -0.2691369354724884 40.0 5 -0.037642378360033035
2.994424819946289 5.811550617218018 1.2707879543304443 62.0 13 -0.037640076130628586
1.4019522666931152 2.719726324081421 -0.16035738587379456 57.0 6 -0.03763777017593384
2.999312400817871 5.816043376922607 1.51077139377594 76.0 14 -0.03763546794652939
1.4018635749816895 2.717221975326538 -0.05336945876479149 45.0 7 -0.03763316199183464
3.0090010166168213 5.829834461212158 1.7578990459442139 50.0 15 -0.03763085976243019
1.4059244394302368 2.7157838344573975 -0.819421112537384 13.0 0 -0.03761012479662895
1.4125672578811646 2.7274465560913086 0.05361378937959671 39.0 8 -0.037607818841934204
1.4155853986740112 2.732109308242798 -0.7103955149650574 22.0 1 -0.037605516612529755
2.952270746231079 5.6955108642578125 0.33620622754096985 13.0 9 -0.03760321065783501
1.4293193817138672 2.7574379444122314 -0.6037196516990662 11.0 2 -0.03760090842843056
2.9589076042175293 5.705870628356934 0.5623288154602051 48.0 10 -0.03759860247373581
1.4463907480239868 2.787989616394043 -0.4974616467952728 6.0 3 -0.03759630024433136
2.973828077316284 5.729754447937012 0.7926382422447205 45.0 11 -0.03759399428963661
1.414233922958374 2.7236764430999756 -0.37682005763053894 5.0 4 -0.03759169206023216
2.9822070598602295 5.740996837615967 1.0246458053588867 49.0 12 -0.037589386105537415
1.4143977165222168 2.7228331565856934 -0.2684396803379059 53.0 5 -0.037587083876132965
2.995682716369629 5.76447868347168 1.2627739906311035 60.0 13 -0.03758477792143822
1.4132806062698364 2.7183597087860107 -0.16056673228740692 50.0 6 -0.03758247569203377
3.0088040828704834 5.784792423248291 1.5053725242614746 76.0 14 -0.03758016973733902
1.4085688591003418 2.70699143409729 -0.05326474457979202 43.0 7 -0.03757786750793457
3.011493444442749 5.785023212432861 1.7475463151931763 50.0 15 -0.03757556527853012
1.4001964330673218 2.6817471981048584 -0.8106213212013245 19.0 0 -0.03755482658743858
1.4118932485580444 2.7030029296875 0.05322984233498573 45.0 8 -0.037552524358034134
1.4169913530349731 2.711606740951538 -0.706346333026886 30.0 1 -0.037550218403339386
1.4323989152908325 2.7399260997772217 0.1620321422815323 2.0 9 -0.037547916173934937
1.4380271434783936 2.7506916522979736 -0.6033380627632141 31.0 2 -0.03754561021924019
2.9575655460357666 5.654902935028076 0.5583196878433228 45.0 10 -0.03754330798983574
1.4469566345214844 2.765421152114868 -0.4943329691886902 30.0 3 -0.03754100203514099
2.975399971008301 5.684164524078369 0.7877634763717651 45.0 11 -0.03753869980573654
1.410838007926941 2.6941044330596924 -0.3734076917171478 33.0 4 -0.037536393851041794
2.985729694366455 5.6990556716918945 1.0190142393112183 51.0 12 -0.037534091621637344
1.4201956987380981 2.7108194828033447 -0.26774242520332336 39.0 5 -0.037531785666942596
3.000293731689453 5.724424362182617 1.2562865018844604 62.0 13 -0.03752948343753815
1.4190490245819092 2.7063355445861816 -0.1601480394601822 47.0 6 -0.0375271812081337
3.0126850605010986 5.743190288543701 1.4972742795944214 71.0 14 -0.03752487525343895
1.4180102348327637 2.7020576000213623 -0.05326474457979202 48.0 7 -0.0375225730240345
3.013704776763916 5.740269184112549 1.7371934652328491 50.0 15 -0.03752026706933975
1.4059480428695679 2.670006036758423 -0.8085507154464722 16.0 0 -0.03749953210353851
1.4175925254821777 2.690980911254883 0.05309021845459938 38.0 8 -0.037497226148843765
1.4155460596084595 2.6859560012817383 -0.7009475231170654 38.0 1 -0.037494923919439316
1.4368218183517456 2.7263262271881104 0.16150878369808197 22.0 9 -0.03749261796474457
1.423812985420227 2.700502634048462 -0.5934159755706787 31.0 2 -0.03749031573534012
2.960556745529175 5.612823486328125 0.5551820993423462 46.0 10 -0.03748800978064537
1.4188036918640137 2.688723564147949 -0.4815053343772888 32.0 3 -0.03748570755124092
2.9748337268829346 5.635123252868652 0.7824012041091919 47.0 11 -0.03748340532183647
1.422545075416565 2.6946773529052734 -0.3741389214992523 30.0 4 -0.037481099367141724
2.9926183223724365 5.666415691375732 1.0149469375610352 54.0 12 -0.037478797137737274
1.4296503067016602 2.7058451175689697 -0.26774242520332336 30.0 5 -0.037476491183042526
3.0009899139404297 5.677468299865723 1.2482725381851196 65.0 13 -0.03747418895363808
1.4247534275054932 2.694302797317505 -0.15972934663295746 42.0 6 -0.03747188299894333
3.016226053237915 5.703882694244385 1.4896259307861328 73.0 14 -0.03746958076953888
1.4316389560699463 2.7061779499053955 -0.053439266979694366 49.0 7 -0.03746727481484413
3.021881103515625 5.709753513336182 1.7309818267822266 48.0 15 -0.03746497258543968
1.409359335899353 2.6550912857055664 -0.8054448962211609 19.0 0 -0.037444233894348145
1.424633264541626 2.682732343673706 0.0530204102396965 28.0 8 -0.037441931664943695
1.4198720455169678 2.6726434230804443 -0.6986980438232422 45.0 1 -0.037439629435539246
1.4449158906936646 2.7197835445404053 0.1614041030406952 29.0 9 -0.0374373234808445
1.4161748886108398 2.6645617485046387 -0.5865468978881836 31.0 2 -0.03743502125144005
2.9698009490966797 5.585381984710693 0.5534389615058899 47.0 10 -0.0374327152967453
1.416577935218811 2.663076877593994 -0.4777509272098541 40.0 3 -0.03743041306734085
2.980447292327881 5.600694179534912 0.7789888978004456 52.0 11 -0.0374281071126461
1.4212145805358887 2.670668840408325 -0.3714577853679657 31.0 4 -0.03742580488324165
3.0002541542053223 5.635536193847656 1.0111924409866333 52.0 12 -0.037423498928546906
1.432995319366455 2.6905388832092285 -0.266696572303772 32.0 5 -0.037421196699142456
3.005951404571533 5.641496181488037 1.2425482273101807 63.0 13 -0.03741889074444771
1.4355599880218506 2.6930880546569824 -0.15993870794773102 48.0 6 -0.03741658851504326
3.0186257362365723 5.6628947257995605 1.4815278053283691 68.0 14 -0.03741428256034851
1.4387227296829224 2.6978869438171387 -0.05336945876479149 45.0 7 -0.03741198033094406
3.028067111968994 5.675839424133301 1.7237348556518555 48.0 15 -0.03740967437624931
1.4218024015426636 2.6572160720825195 -0.8075154423713684 18.0 0 -0.037388939410448074
1.4288026094436646 2.6691787242889404 0.05284588783979416 29.0 8 -0.037386637181043625
1.4250476360321045 2.66104793548584 -0.6968984007835388 40.0 1 -0.03738433122634888
1.442613124847412 2.6938486099243164 0.1601480394601822 38.0 9 -0.03738202899694443
1.414805293083191 2.6408143043518066 -0.5823490619659424 42.0 2 -0.03737972304224968
2.976069927215576 5.552675247192383 0.5511729121208191 49.0 10 -0.03737742081284523
1.4263354539871216 2.6601052284240723 -0.47806379199028015 48.0 3 -0.03737511485815048
2.9802377223968506 5.555792808532715 0.7741141319274902 52.0 11 -0.03737281262874603
1.4234952926635742 2.653695821762085 -0.36975163221359253 39.0 4 -0.037370506674051285
2.996506929397583 5.58378267288208 1.0036836862564087 48.0 12 -0.037368204444646835
1.4381393194198608 2.678750514984131 -0.26599931716918945 31.0 5 -0.03736589848995209
3.011638879776001 5.607281684875488 1.2372056245803833 62.0 13 -0.03736359626054764
1.4520448446273804 2.702387809753418 -0.1607760637998581 56.0 6 -0.03736129030585289
3.0198616981506348 5.620237827301025 1.4729796648025513 71.0 14 -0.03735898807644844
1.4448204040527344 2.687817335128784 -0.05326474457979202 43.0 7 -0.03735668212175369
3.0304040908813477 5.635140419006348 1.7144174575805664 50.0 15 -0.03735437989234924
1.4251033067703247 2.642284870147705 -0.8044096231460571 12.0 0 -0.037333644926548004
1.4357476234436035 2.6609058380126953 0.05277607962489128 32.0 8 -0.037331338971853256
1.419053077697754 2.6288704872131348 -0.6897000074386597 29.0 1 -0.03732903674244881
1.4458454847335815 2.6785049438476562 0.1595200151205063 27.0 9 -0.03732673078775406
1.4188898801803589 2.6274709701538086 -0.5804409980773926 51.0 2 -0.03732442855834961
2.9764747619628906 5.5094685554504395 0.5478609800338745 53.0 10 -0.03732212260365486
1.4304521083831787 2.646672010421753 -0.47649943828582764 46.0 3 -0.03731982037425041
2.987313985824585 5.524925708770752 0.7711892127990723 52.0 11 -0.037317514419555664
1.431342601776123 2.647214889526367 -0.36950787901878357 37.0 4 -0.037315212190151215
2.9999711513519287 5.546014785766602 0.9986777305603027 45.0 12 -0.03731290623545647
1.4413244724273682 2.6634533405303955 -0.26495346426963806 29.0 5 -0.03731060400605202
3.015260934829712 5.569640636444092 1.2310997247695923 61.0 13 -0.03730829805135727
1.4686083793640137 2.7116072177886963 -0.16161344945430756 43.0 6 -0.03730599582195282
3.0245628356933594 5.584488391876221 1.4662309885025024 73.0 14 -0.03730368986725807
1.4451513290405273 2.6671879291534424 -0.052950602024793625 42.0 7 -0.03730138763785362
3.0278990268707275 5.585997581481934 1.7025117874145508 52.0 15 -0.037299081683158875
1.4329323768615723 2.6336498260498047 -0.8033743500709534 9.0 0 -0.037276506423950195
1.4378421306610107 2.6415750980377197 0.05249683931469917 32.0 8 -0.037274204194545746
1.431475281715393 2.6287856101989746 -0.6910496354103088 38.0 1 -0.037271898239851
1.4484764337539673 2.6589019298553467 0.15868262946605682 38.0 9 -0.03726959601044655
1.4313287734985352 2.627424716949463 -0.5815858244895935 49.0 2 -0.0372672900557518
2.9785315990448 5.465283393859863 0.5445490479469299 49.0 10 -0.03726498782634735
1.4373070001602173 2.6362078189849854 -0.47556084394454956 39.0 3 -0.0372626818716526
2.9923367500305176 5.486056327819824 0.7672894597053528 52.0 11 -0.037260379642248154
1.4443498849868774 2.6469266414642334 -0.3702390789985657 38.0 4 -0.037258073687553406
3.0098845958709717 5.5136494636535645 0.9949232935905457 48.0 12 -0.037255771458148956
1.4453496932983398 2.64766001701355 -0.2639075815677643 31.0 5 -0.03725346550345421
3.0196588039398193 5.529259204864502 1.2246122360229492 58.0 13 -0.03725116327404976
1.4785364866256714 2.7062065601348877 -0.16161344945430756 48.0 6 -0.03724885731935501
3.0291588306427 5.542055130004883 1.4581328630447388 78.0 14 -0.03724655508995056
1.473610758781433 2.6949548721313477 -0.05361378937959671 47.0 7 -0.037244249135255814
3.0326383113861084 5.543822288513184 1.6931942701339722 52.0 15 -0.037241946905851364
1.4532667398452759 2.648956775665283 -0.8095860481262207 6.0 0 -0.037221211940050125
1.444167137145996 2.6312811374664307 0.05239212512969971 38.0 8 -0.03721890598535538
1.438766360282898 2.620356559753418 -0.6901498436927795 28.0 1 -0.03721660375595093
1.4587100744247437 2.655580520629883 0.1587873101234436 33.0 9 -0.03721429780125618
1.4404908418655396 2.62241268157959 -0.5815858244895935 45.0 2 -0.03721199557185173
2.98319935798645 5.428660869598389 0.5419344305992126 47.0 10 -0.03720968961715698
1.4474513530731201 2.632905960083008 -0.4758736789226532 36.0 3 -0.03720738738775253
2.9942476749420166 5.444268703460693 0.7629021406173706 52.0 11 -0.037205081433057785
1.4602798223495483 2.654042959213257 -0.37194526195526123 37.0 4 -0.037202779203653336
3.0138704776763916 5.475420951843262 0.9899173974990845 52.0 12 -0.03720047324895859
1.4526607990264893 2.6391079425811768 -0.263558954000473 33.0 5 -0.03719817101955414
3.020947217941284 5.486010551452637 1.2173614501953125 62.0 13 -0.03719586506485939
1.4821923971176147 2.6905324459075928 -0.16098542511463165 61.0 6 -0.03719356283545494
3.0381381511688232 5.512674331665039 1.4531840085983276 76.0 14 -0.03719125688076019
1.4936301708221436 2.709057092666626 -0.053997743874788284 32.0 7 -0.03718895465135574
3.0361111164093018 5.504444599151611 1.6843944787979126 51.0 15 -0.037186648696660995
1.446606993675232 2.6151301860809326 -0.8007861375808716 3.0 0 -0.037165913730859756
1.4572169780731201 2.6332223415374756 0.05253174528479576 38.0 8 -0.03716361150145531
1.4630070924758911 2.642596483230591 -0.6973482966423035 27.0 1 -0.03716130554676056
1.464606761932373 2.6454861164093018 0.15847328305244446 34.0 9 -0.03715900331735611
1.4553427696228027 2.627673625946045 -0.5838755369186401 34.0 2 -0.03715669736266136
2.99054217338562 5.39730167388916 0.5398426651954651 46.0 10 -0.03715439513325691
1.4633376598358154 2.6399309635162354 -0.47806379199028015 37.0 3 -0.037152089178562164
2.995903968811035 5.402535915374756 0.7585148811340332 52.0 11 -0.037149786949157715
1.4695346355438232 2.6489298343658447 -0.37194526195526123 34.0 4 -0.03714748099446297
3.0176384449005127 5.439485549926758 0.9852243661880493 56.0 12 -0.03714517876505852
1.4637986421585083 2.637504816055298 -0.2639075815677643 32.0 5 -0.03714287281036377
3.026737689971924 5.4514007568359375 1.2120188474655151 61.0 13 -0.03714057058095932
1.4838160276412964 2.671374559402466 -0.1601480394601822 50.0 6 -0.03713826462626457
3.0374860763549805 5.466263294219971 1.443735957145691 73.0 14 -0.03713596239686012
1.4822076559066772 2.6673824787139893 -0.05326474457979202 38.0 7 -0.03713366016745567
3.0449604988098145 5.477462291717529 1.679218053817749 63.0 15 -0.037131354212760925
1.4481993913650513 2.596566915512085 -0.7966450452804565 1.0 0 -0.037110619246959686
1.466914415359497 2.630122423171997 0.05256664752960205 39.0 8 -0.03710831329226494
1.490752100944519 2.6717660427093506 -0.706346333026886 30.0 1 -0.03710601106286049
1.4767522811889648 2.645589828491211 0.1587873101234436 46.0 9 -0.03710370510816574
1.4683356285095215 2.6294331550598145 -0.5854020118713379 36.0 2 -0.03710140287876129
2.9947876930236816 5.360740661621094 0.537227988243103 48.0 10 -0.037099096924066544
1.4817174673080444 2.6523091793060303 -0.4811924695968628 41.0 3 -0.037096794694662094
3.000246047973633 5.368310928344727 0.7551025152206421 57.0 11 -0.037094488739967346
1.4763727188110352 2.6405770778656006 -0.3714577853679657 36.0 4 -0.0370921865105629
3.017322540283203 5.394437313079834 0.978967010974884 51.0 12 -0.03708988428115845
1.4710497856140137 2.6289021968841553 -0.263558954000473 33.0 5 -0.0370875783264637
3.029458522796631 5.413922309875488 1.2059129476547241 63.0 13 -0.03708527609705925
1.4907146692276 2.662954330444336 -0.15993870794773102 43.0 6 -0.0370829701423645
3.0365538597106934 5.422153949737549 1.4347379207611084 67.0 14 -0.03708066791296005
1.4729384183883667 2.6290459632873535 -0.05260155349969864 42.0 7 -0.037078361958265305
3.0527262687683105 5.446578025817871 1.6730064153671265 60.0 15 -0.037076059728860855
1.462482213973999 2.601854085922241 -0.7997508645057678 1.0 0 -0.03705532103776932
1.4800077676773071 2.631957530975342 0.052706267684698105 42.0 8 -0.03705301880836487
1.5105787515640259 2.6852293014526367 -0.7112953066825867 27.0 1 -0.03705071285367012
1.4918562173843384 2.650861978530884 0.1594153493642807 46.0 9 -0.03704841062426567
1.478973627090454 2.6279709339141846 -0.5861652493476868 40.0 2 -0.03704610466957092
2.9969098567962646 5.323000907897949 0.5344390273094177 49.0 10 -0.03704380244016647
1.493874430656433 2.652284860610962 -0.48213109374046326 40.0 3 -0.037041500210762024
3.010197639465332 5.342239856719971 0.7529088854789734 60.0 11 -0.037039194256067276
1.487531304359436 2.6388654708862305 -0.37194526195526123 37.0 4 -0.03703689202666283
3.0206055641174316 5.356344223022461 0.9739611148834229 51.0 12 -0.03703458607196808
1.4758442640304565 2.617067813873291 -0.2628616988658905 30.0 5 -0.03703228384256363
3.034834384918213 5.379374980926514 1.2005702257156372 63.0 13 -0.03702997788786888
1.5000017881393433 2.6577341556549072 -0.15993870794773102 52.0 6 -0.03702767565846443
3.044919013977051 5.392857551574707 1.4297890663146973 71.0 14 -0.037025369703769684
1.4762061834335327 2.613441228866577 -0.05239212512969971 40.0 7 -0.037023067474365234
3.051762580871582 5.400568008422852 1.6621359586715698 65.0 15 -0.037020761519670486
1.4829845428466797 2.6169023513793945 -0.8059625029563904 1.0 0 -0.03700002655386925
1.484254240989685 2.6180777549743652 0.05253174528479576 35.0 8 -0.0369977205991745
1.5526304244995117 2.7375729084014893 -0.7265920042991638 30.0 1 -0.03699541836977005
1.5050435066223145 2.6525862216949463 0.15983402729034424 48.0 9 -0.0369931161403656
1.493951678276062 2.6330373287200928 -0.5884549617767334 36.0 2 -0.03699081018567085
2.999734878540039 5.284784317016602 0.5316500067710876 51.0 10 -0.0369885079562664
1.5040996074676514 2.648771286010742 -0.4824439287185669 41.0 3 -0.036986202001571655
3.015101194381714 5.307534217834473 0.7494965195655823 60.0 11 -0.036983899772167206
1.50654137134552 2.6509158611297607 -0.3743826448917389 36.0 4 -0.03698159381747246
3.0275697708129883 5.325159549713135 0.970206618309021 49.0 12 -0.03697929158806801
1.4790629148483276 2.6015079021453857 -0.2618158459663391 33.0 5 -0.03697698563337326
3.03806471824646 5.3414435386657715 1.1944643259048462 61.0 13 -0.03697468340396881
1.5063060522079468 2.6472744941711426 -0.15962468087673187 40.0 6 -0.03697237744927406
3.051193952560425 5.360178470611572 1.4239403009414673 73.0 14 -0.036970075219869614
1.489278793334961 2.615222692489624 -0.05253174528479576 42.0 7 -0.036967769265174866
3.049556255340576 5.352954864501953 1.6507478952407837 66.0 15 -0.036965467035770416
1.4864386320114136 2.6007273197174072 0.05228740721940994 30.0 8 -0.03694242611527443
1.5950641632080078 2.7896552085876465 -0.7418886423110962 29.0 1 -0.03694012388586998
1.5152833461761475 2.6490511894226074 0.15993870794773102 34.0 9 -0.03693781793117523
1.5128796100616455 2.6448490619659424 -0.5922711491584778 31.0 2 -0.03693551570177078
3.0023322105407715 5.246612071990967 0.5288610458374023 49.0 10 -0.036933209747076035
1.5143184661865234 2.645218849182129 -0.4827568233013153 40.0 3 -0.036930907517671585
3.015848398208618 5.26597261428833 0.7451092600822449 62.0 11 -0.03692860156297684
1.5197337865829468 2.6525304317474365 -0.37535759806632996 36.0 4 -0.03692629933357239
3.034353494644165 5.29399299621582 0.9664522409439087 49.0 12 -0.03692399337887764
1.4925516843795776 2.602983236312866 -0.26251310110092163 32.0 5 -0.03692169114947319
3.036179780960083 5.295042991638184 1.1864503622055054 60.0 13 -0.03691938519477844
1.5056004524230957 2.6246755123138428 -0.15857796370983124 33.0 6 -0.03691708296537399
3.0563080310821533 5.325831413269043 1.4176416397094727 78.0 14 -0.036914777010679245
1.4964054822921753 2.6065409183502197 -0.052461933344602585 42.0 7 -0.036912474781274796
3.0547547340393066 5.318823337554932 1.6435010433197021 65.0 15 -0.03691016882658005
1.4925111532211304 2.5903258323669434 0.052182696759700775 36.0 8 -0.03688713163137436
1.6009001731872559 2.7773165702819824 -0.7400889992713928 32.0 1 -0.03688482567667961
1.5205308198928833 2.636824369430542 0.1595200151205063 37.0 9 -0.03688252344727516
1.583386778831482 2.7447218894958496 -0.6159314513206482 28.0 2 -0.036880217492580414
3.009589910507202 5.214865207672119 0.5267692804336548 49.0 10 -0.036877915263175964
1.5279537439346313 2.646494150161743 -0.4840082824230194 40.0 3 -0.036875609308481216
3.0163471698760986 5.224467754364014 0.7407218813896179 62.0 11 -0.03687330707907677
1.531960129737854 2.652367353439331 -0.37608882784843445 38.0 4 -0.03687100112438202
3.040954113006592 5.262844562530518 0.9626978039741516 49.0 12 -0.03686869889497757
1.5056178569793701 2.60465669631958 -0.26321035623550415 32.0 5 -0.03686639294028282
3.0427935123443604 5.261782169342041 1.18148934841156 61.0 13 -0.03686409071087837
1.5062083005905151 2.6035804748535156 -0.1576359122991562 41.0 6 -0.036861784756183624
3.0572597980499268 5.282548427581787 1.4090934991836548 81.0 14 -0.036859482526779175
1.5064972639083862 2.603031873703003 -0.05249683931469917 43.0 7 -0.036857180297374725
3.06168794631958 5.288064479827881 1.63728928565979 66.0 15 -0.03685487434267998
1.4999876022338867 2.5813791751861572 0.0521128848195076 38.0 8 -0.03683183342218399
1.6081300973892212 2.766376495361328 -0.7387393116950989 28.0 1 -0.03682953119277954
1.529725193977356 2.6315009593963623 0.1595200151205063 34.0 9 -0.03682722523808479
1.598880648612976 2.7493607997894287 -0.6182212233543396 32.0 2 -0.036824923008680344
3.0157535076141357 5.183661937713623 0.524677574634552 49.0 10 -0.036822617053985596
1.5401628017425537 2.6462666988372803 -0.4849469065666199 34.0 3 -0.036820314824581146
3.0234885215759277 5.192792892456055 0.7377970814704895 62.0 11 -0.0368180088698864
1.553662896156311 2.6673171520233154 -0.37901368737220764 28.0 4 -0.03681570664048195
3.0364394187927246 5.212937355041504 0.9555018544197083 54.0 12 -0.0368134006857872
1.5167062282562256 2.6028285026550293 -0.263558954000473 28.0 5 -0.03681109845638275
3.0512514114379883 5.234170436859131 1.1776732206344604 62.0 13 -0.0368087962269783
1.519312858581543 2.605207920074463 -0.15805460512638092 46.0 6 -0.036806490272283554
3.056039571762085 5.238181114196777 1.4000954627990723 76.0 14 -0.036804188042879105
1.5065046548843384 2.5822126865386963 -0.052182696759700775 36.0 7 -0.03680188208818436
3.0723342895507812 5.263999938964844 1.6331483125686646 65.0 15 -0.03679957985877991
1.5166223049163818 2.590196132659912 0.05239212512969971 36.0 8 -0.03677653893828392
1.6202490329742432 2.76607346534729 -0.7400889992713928 21.0 1 -0.03677423298358917
1.5439512729644775 2.634760856628418 0.1600433737039566 40.0 9 -0.03677193075418472
1.6064828634262085 2.74037504196167 -0.617457926273346 32.0 2 -0.036769624799489975
3.0197150707244873 5.149044036865234 0.5222371816635132 44.0 10 -0.036767322570085526
1.5849043130874634 2.7024877071380615 -0.4962101876735687 23.0 3 -0.03676501661539078
3.0316524505615234 5.167326927185059 0.735603392124176 57.0 11 -0.03676271438598633
1.5624990463256836 2.6621508598327637 -0.37901368737220764 29.0 4 -0.03676041215658188
3.039611339569092 5.176756858825684 0.9508087635040283 56.0 12 -0.03675810620188713
1.5177103281021118 2.5837743282318115 -0.26216447353363037 34.0 5 -0.03675580397248268
