# .PCD v0.7 - Point Cloud Data file format
VERSION 0.7
FIELDS x y z intensity ring time
SIZE 4 4 4 4 4 4
TYPE F F F F F F
COUNT 1 1 1 1 1 1
WIDTH 547
HEIGHT 1
VIEWPOINT 0 0 0 1 0 0 0
POINTS 547
DATA ascii
-2.5145797729492188 0.2753911316394806 -0.04415459185838699 18.0 7 -0.07020877301692963
-9.620867729187012 1.0553550720214844 2.593366861343384 0.0 15 -0.07020646333694458
-2.522977113723755 0.279876708984375 -0.6801764369010925 10.0 0 -0.07018572837114334
-2.605567455291748 0.2894982695579529 0.04576021060347557 3.0 8 -0.07018342614173889
-2.512009382247925 0.2795470952987671 -0.5835230946540833 12.0 1 -0.07018112391233444
-3.0350143909454346 0.33828631043434143 0.1600433737039566 2.0 9 -0.0701788142323494
-2.513108968734741 0.2801141142845154 -0.49152401089668274 12.0 2 -0.07017651200294495
-2.4572901725769043 0.2743260860443115 0.21632054448127747 1.0 10 -0.0701742097735405
-2.489264965057373 0.2783355116844177 -0.3967178463935852 12.0 3 -0.07017190754413605
-2.4836559295654297 0.27858611941337585 -0.3068670332431793 13.0 4 -0.07016729563474655
-2.4848172664642334 0.2791554927825928 -0.2187609225511551 12.0 5 -0.07016269117593765
-2.4352211952209473 0.27444443106651306 -0.12843245267868042 23.0 6 -0.07015807926654816
-9.7422456741333 1.0996553897857666 2.2634575366973877 1.0 14 -0.07015577703714371
-2.4897584915161133 0.2814713716506958 -0.04373573139309883 18.0 7 -0.07015347480773926
-9.643998146057129 1.0919747352600098 2.600613832473755 0.0 15 -0.07015117257833481
-2.483598470687866 0.28428739309310913 -0.6698237061500549 10.0 0 -0.07013043016195297
-2.58467435836792 0.29631415009498596 0.045411162078380585 4.0 8 -0.07012812793254852
-2.468425989151001 0.28342416882514954 -0.5736252665519714 11.0 1 -0.07012582570314407
-2.992147207260132 0.3440861105918884 0.15784525871276855 1.0 9 -0.07012352347373962
-2.4497029781341553 0.2817069888114929 -0.4793122112751007 12.0 2 -0.07012122124433517
-2.4088141918182373 0.2774308919906616 0.21213705837726593 1.0 10 -0.07011891156435013
-2.456880569458008 0.2834019362926483 -0.391711950302124 13.0 3 -0.07011660933494568
-2.4511172771453857 0.2836034893989563 -0.30296722054481506 12.0 4 -0.07011200487613678
-2.44028639793396 0.28278249502182007 -0.21492604911327362 12.0 5 -0.07010739296674728
-2.4263126850128174 0.2820209264755249 -0.1280137598514557 20.0 6 -0.07010278850793839
-9.738348007202148 1.1336556673049927 2.2634575366973877 1.0 14 -0.07010047882795334
-2.429173707962036 0.28321343660354614 -0.04268858581781387 15.0 7 -0.07009817659854889
-9.628615379333496 1.1242856979370117 2.597507953643799 0.0 15 -0.07009587436914444
-2.4442200660705566 0.2884272038936615 -0.6594709753990173 10.0 0 -0.0700751394033432
-2.450570583343506 0.28961023688316345 0.04307254031300545 1.0 8 -0.07007283717393875
-2.436457633972168 0.28837352991104126 -0.5664268136024475 11.0 1 -0.0700705274939537
-2.3860483169555664 0.2824071943759918 0.12592032551765442 2.0 9 -0.07006822526454926
-2.42141056060791 0.28702107071876526 -0.47396957874298096 13.0 2 -0.0700659230351448
-2.364304304122925 0.2806704342365265 0.20830221474170685 1.0 10 -0.07006362080574036
-2.426453113555908 0.28847768902778625 -0.38701891899108887 13.0 3 -0.07006131112575531
-2.4146320819854736 0.28792765736579895 -0.2985799014568329 13.0 4 -0.07005670666694641
-2.4056527614593506 0.2872827649116516 -0.2119627594947815 12.0 5 -0.07005209475755692
-2.4094486236572266 0.28858909010887146 -0.12717638909816742 21.0 6 -0.07004749029874802
-9.734332084655762 1.1676422357559204 2.2634575366973877 1.0 14 -0.07004518806934357
-2.3845410346984863 0.2860279381275177 -0.041920680552721024 15.0 7 -0.07004287838935852
-9.655523300170898 1.1598962545394897 2.605790376663208 0.0 15 -0.07004057615995407
-2.397172689437866 0.2913632392883301 -0.6470476388931274 21.0 0 -0.07001984119415283
-2.346372127532959 0.2851887047290802 0.04125748947262764 23.0 8 -0.07001753896474838
-2.4064712524414062 0.2929196357727051 -0.5596782565116882 26.0 1 -0.07001523673534393
-2.367204427719116 0.28855928778648376 0.12497827410697937 66.0 9 -0.07001292705535889
-2.397008180618286 0.2926168739795685 -0.4693901240825653 31.0 2 -0.07001062482595444
-2.343533754348755 0.28650403022766113 0.20655910670757294 40.0 10 -0.07000832259654999
-2.40195369720459 0.29364603757858276 -0.3832644820213318 38.0 3 -0.07000602036714554
-2.3841090202331543 0.29230913519859314 -0.2949238419532776 45.0 4 -0.07000140845775604
-2.3710179328918457 0.2915441393852234 -0.20899945497512817 60.0 5 -0.06999680399894714
-2.3906378746032715 0.29438015818595886 -0.12623433768749237 78.0 6 -0.06999219208955765
-2.3577280044555664 0.2911631464958191 -0.04146691784262657 68.0 7 -0.06998758763074875
-9.670587539672852 1.1959667205810547 2.610966682434082 0.0 15 -0.0699852854013443
-2.4038612842559814 0.30026885867118835 -0.649118185043335 31.0 0 -0.06996454298496246
-2.3413939476013184 0.29288044571876526 0.04118768125772476 69.0 8 -0.06996224075555801
-2.407367467880249 0.30156028270721436 -0.5601281523704529 44.0 1 -0.06995993852615356
-2.376091480255127 0.2980636656284332 0.1255016326904297 78.0 9 -0.06995763629674911
-2.3940765857696533 0.3003197908401489 -0.46900853514671326 48.0 2 -0.06995532661676407
-2.350477933883667 0.2952667474746704 0.20725634694099426 100.0 10 -0.06995302438735962
-2.3911139965057373 0.30079591274261475 -0.3817001283168793 60.0 3 -0.06995072215795517
-2.3771655559539795 0.2998846769332886 -0.2941926121711731 54.0 4 -0.06994611024856567
-2.366032600402832 0.29931873083114624 -0.2086508423089981 67.0 5 -0.06994150578975677
-2.3856327533721924 0.3022218644618988 -0.1260250061750412 92.0 6 -0.06993690133094788
-9.72615909576416 1.2338725328445435 2.2634575366973877 1.0 14 -0.06993459165096283
-2.376534938812256 0.3019115924835205 -0.04181596636772156 96.0 7 -0.06993228942155838
-9.63569164276123 1.2258156538009644 2.602684497833252 0.0 15 -0.06992998719215393
-2.448730230331421 0.31499287486076355 -0.6615415215492249 40.0 0 -0.06990925222635269
-2.3423407077789307 0.30130741000175476 0.04122258722782135 74.0 8 -0.06990694254636765
-2.4546196460723877 0.31618592143058777 -0.5713757276535034 50.0 1 -0.0699046403169632
-2.373055934906006 0.30609995126724243 0.1253969669342041 33.0 9 -0.06990233808755875
-2.453319549560547 0.3168890178203583 -0.48083871603012085 67.0 2 -0.0699000358581543
-2.3632116317749023 0.3056693375110626 0.20847654342651367 58.0 10 -0.06989772617816925
-2.433094024658203 0.31513944268226624 -0.3885832726955414 71.0 3 -0.0698954239487648
-2.4450056552886963 0.31711670756340027 -0.3027234971523285 66.0 4 -0.0698908194899559
-2.406464099884033 0.31297144293785095 -0.21231138706207275 37.0 5 -0.0698862075805664
-2.3746066093444824 0.3096717298030853 -0.1255016326904297 38.0 6 -0.06988160312175751
-9.721570014953613 1.269514799118042 2.2634575366973877 1.0 14 -0.06987930089235306
-2.7561755180358887 0.3599218428134918 -0.04851769283413887 51.0 7 -0.06987699121236801
-9.635185241699219 1.259941816329956 2.603719711303711 0.0 15 -0.06987468898296356
-2.579763889312744 0.34100672602653503 -0.6972585916519165 67.0 0 -0.06985395401716232
-3.0330798625946045 0.4014662504196167 0.05340436473488808 44.0 8 -0.06985165178775787
-2.5577640533447266 0.33900704979896545 -0.5956704616546631 78.0 1 -0.06984934210777283
-3.031294107437134 0.40176892280578613 0.16025270521640778 31.0 9 -0.06984703987836838
-2.561184883117676 0.33991533517837524 -0.5022093057632446 89.0 2 -0.06984473764896393
-2.567089319229126 0.34161075949668884 -0.410171240568161 82.0 3 -0.06984013319015503
-2.5520477294921875 0.34051576256752014 -0.31612908840179443 56.0 4 -0.06983552128076553
-9.288866996765137 1.2393990755081177 1.4842504262924194 0.0 12 -0.06983321905136108
-2.748979330062866 0.36728033423423767 -0.24264158308506012 11.0 5 -0.06983091682195663
-2.3853886127471924 0.31954991817474365 -0.12612967193126678 19.0 6 -0.06982630491256714
-9.717080116271973 1.3034396171569824 2.2634575366973877 1.0 14 -0.06982400268316269
-2.9986815452575684 0.40224021673202515 -0.05281098559498787 87.0 7 -0.06982170045375824
-9.714973449707031 1.3048831224441528 2.626495838165283 0.0 15 -0.0698193907737732
-2.5747292041778564 0.3494894504547119 -0.696223258972168 78.0 0 -0.06979865580797195
-3.029750347137451 0.41125327348709106 0.05336945876479149 48.0 8 -0.0697963535785675
-2.5662806034088135 0.3487987816333771 -0.5979199409484863 72.0 1 -0.06979405134916306
-3.04768443107605 0.41477176547050476 0.16119475662708282 34.0 9 -0.0697917491197586
-2.5560922622680664 0.34832271933555603 -0.5014460682868958 86.0 2 -0.06978943943977356
-2.984834671020508 0.40727874636650085 0.263558954000473 2.0 10 -0.06978713721036911
-2.5561561584472656 0.3487858772277832 -0.4086068868637085 79.0 3 -0.06978483498096466
-2.5410706996917725 0.3476315438747406 -0.3149104118347168 63.0 4 -0.06978022307157516
-2.7516283988952637 0.37741535902023315 -0.24299021065235138 9.0 5 -0.06977561861276627
-2.4001455307006836 0.3296325206756592 -0.12696704268455505 21.0 6 -0.06977100670337677
-9.7127046585083 1.335655927658081 2.2634575366973877 1.0 14 -0.06976870447397232
-2.989335060119629 0.4116140902042389 -0.05267136171460152 69.0 7 -0.06976640224456787
-9.668255805969238 1.3329823017120361 2.615107536315918 0.0 15 -0.06976410001516342
-2.5697293281555176 0.3574933409690857 -0.6951879858970642 77.0 0 -0.06974336504936218
-3.02829647064209 0.42182666063308716 0.05336945876479149 48.0 8 -0.06974105536937714
-2.5708374977111816 0.3585628867149353 -0.5992696285247803 64.0 1 -0.06973875313997269
-3.052152395248413 0.42623648047447205 0.16150878369808197 33.0 9 -0.06973645091056824
-2.560756206512451 0.3576124310493469 -0.5025908946990967 78.0 2 -0.06973414868116379
-2.973601818084717 0.41579511761665344 0.26268741488456726 2.0 10 -0.06973183900117874
-2.5510101318359375 0.35715922713279724 -0.40798112750053406 77.0 3 -0.06972953677177429
-2.5437734127044678 0.35705074667930603 -0.31539788842201233 63.0 4 -0.0697249323129654
-2.762132167816162 0.388683944940567 -0.24403607845306396 9.0 5 -0.0697203204035759
-2.4049134254455566 0.33884403109550476 -0.127281054854393 21.0 6 -0.069715715944767
-2.991840124130249 0.4226057827472687 -0.052741169929504395 74.0 7 -0.0697111040353775
-9.705626487731934 1.372674584388733 2.626495838165283 0.0 15 -0.06970880180597305
-2.56840181350708 0.36690956354141235 -0.6951879858970642 72.0 0 -0.06968806684017181
-3.030764579772949 0.43296048045158386 0.053439266979694366 43.0 8 -0.06968576461076736
-3.0625083446502686 0.4385860860347748 0.16213680803775787 33.0 9 -0.06968115270137787
-2.565258502960205 0.3678310811519623 -0.5037357807159424 86.0 2 -0.06967885047197342
-2.9661412239074707 0.4258424639701843 0.26216447353363037 2.0 10 -0.06967654824256897
-2.565326452255249 0.36875468492507935 -0.41048407554626465 86.0 3 -0.06967423856258392
-2.560195207595825 0.3684737980365753 -0.3175915479660034 69.0 4 -0.06966963410377502
-9.736802101135254 1.4030948877334595 1.5580873489379883 0.0 12 -0.06966733187437057
-2.7568142414093018 0.39775359630584717 -0.2436874657869339 9.0 5 -0.06966502219438553
-9.822293281555176 1.4189143180847168 1.9290790557861328 1.0 13 -0.06966271996498108
-2.3977251052856445 0.3467991352081299 -0.12696704268455505 20.0 6 -0.06966041773557663
-3.0061793327331543 0.4353387951850891 -0.0530204102396965 74.0 7 -0.06965581327676773
-9.739013671875 1.4120895862579346 2.6368486881256104 0.0 15 -0.06965350359678268
-2.582396984100342 0.37811240553855896 -0.6993290781974792 72.0 0 -0.06963276863098145
-3.0271787643432617 0.44377586245536804 0.05340436473488808 39.0 8 -0.069630466401577
-3.0510783195495605 0.4478233754634857 0.16161344945430756 29.0 9 -0.0696258544921875
-2.565901041030884 0.3770694136619568 -0.5041174292564392 82.0 2 -0.06962355226278305
-2.976463794708252 0.43793314695358276 0.26321035623550415 2.0 10 -0.0696212500333786
-2.548389196395874 0.3754040598869324 -0.40798112750053406 77.0 3 -0.06961894780397415
-2.5509722232818604 0.37669438123703003 -0.31661656498908997 69.0 4 -0.06961433589458466
-9.759203910827637 1.4411121606826782 1.5624676942825317 0.0 12 -0.0696120336651802
-2.7554092407226562 0.4073743224143982 -0.2436874657869339 10.0 5 -0.06960973143577576
-2.3826704025268555 0.35311654210090637 -0.12623433768749237 18.0 6 -0.06960511952638626
-3.010575294494629 0.4467110335826874 -0.05312512442469597 81.0 7 -0.06960051506757736
-9.734025001525879 1.4460768699645996 2.6368486881256104 0.0 15 -0.06959821283817291
-2.5887033939361572 0.38826996088027954 -0.7013996243476868 69.0 0 -0.06957747042179108
-3.0336008071899414 0.4549984633922577 0.05354398116469383 39.0 8 -0.06957516819238663
-3.0494964122772217 0.45847174525260925 0.16161344945430756 29.0 9 -0.06957056373357773
-2.5568039417266846 0.38485434651374817 -0.5025908946990967 68.0 2 -0.06956826150417328
-2.990678071975708 0.45069560408592224 0.2646048367023468 2.0 10 -0.06956595182418823
-2.549083709716797 0.3841472566127777 -0.4082939922809601 73.0 3 -0.06956364959478378
-2.5418577194213867 0.38396573066711426 -0.3156416416168213 67.0 4 -0.06955904513597488
-9.851771354675293 1.4899389743804932 1.5781110525131226 0.0 12 -0.06955673545598984
-2.761850118637085 0.4181838929653168 -0.24438470602035522 9.0 5 -0.06955443322658539
-2.401233196258545 0.36400941014289856 -0.127281054854393 21.0 6 -0.06954982876777649
-2.9951589107513428 0.4551144242286682 -0.05288079380989075 69.0 7 -0.069545216858387
-9.728918075561523 1.4800440073013306 2.6368486881256104 0.0 15 -0.06954291462898254
-2.583582639694214 0.3962666094303131 -0.700364351272583 11.0 0 -0.0695221796631813
-3.035947322845459 0.4661920666694641 0.05361378937959671 32.0 8 -0.06951987743377686
-2.4615707397460938 0.3784320652484894 -0.5749749541282654 1.0 1 -0.06951756775379181
-3.0557737350463867 0.4703283905982971 0.1620321422815323 28.0 9 -0.06951526552438736
-2.9871978759765625 0.460307240486145 0.26443052291870117 2.0 10 -0.06951066106557846
-2.5848207473754883 0.3987654447555542 -0.4142385423183441 86.0 3 -0.06950835138559341
-2.548349142074585 0.39404961466789246 -0.31661656498908997 69.0 4 -0.06950374692678452
-9.84650993347168 1.5243215560913086 1.5781110525131226 0.0 12 -0.06950144469738007
-2.7486343383789062 0.4255114197731018 -0.24333882331848145 9.0 5 -0.06949913501739502
-9.807162284851074 1.5199804306030273 1.9290790557861328 1.0 13 -0.06949683278799057
-2.3999478816986084 0.3723891079425812 -0.127281054854393 18.0 6 -0.06949453055858612
-2.9975039958953857 0.4661806523799896 -0.052950602024793625 69.0 7 -0.06948991864919662
-9.723692893981934 1.5139955282211304 2.6368486881256104 0.0 15 -0.06948761641979218
-2.5211122035980225 0.39569729566574097 -0.6837999820709229 1.0 0 -0.06946688145399094
-3.0165224075317383 0.47399306297302246 0.05329965054988861 27.0 8 -0.06946457922458649
-3.0541133880615234 0.4809921979904175 0.1620321422815323 28.0 9 -0.06945996731519699
-2.4804296493530273 0.39064276218414307 -0.4880894422531128 1.0 2 -0.06945766508579254
-2.9717962741851807 0.4685596525669098 0.26321035623550415 2.0 10 -0.06945536285638809
-2.546339750289917 0.401933878660202 -0.4082939922809601 53.0 3 -0.06945306062698364
-2.550879716873169 0.40356311202049255 -0.3171040713787079 67.0 4 -0.06944844871759415
-2.7392611503601074 0.4338560700416565 -0.24264158308506012 9.0 5 -0.06944384425878525
-2.4006059169769287 0.381077378988266 -0.1273857206106186 18.0 6 -0.06943923234939575
-3.007707357406616 0.4785263240337372 -0.05316003039479256 74.0 7 -0.06943462789058685
-9.718348503112793 1.5479309558868408 2.6368486881256104 0.0 15 -0.0694323182106018
-2.4052693843841553 0.38612300157546997 -0.6527416706085205 1.0 0 -0.06941158324480057
-3.0148494243621826 0.4845191538333893 0.05329965054988861 28.0 8 -0.06940928101539612
-2.4588687419891357 0.3956078290939331 -0.5749749541282654 1.0 1 -0.06940697878599167
-3.068190574645996 0.49419105052948 0.16286951303482056 27.0 9 -0.06940467655658722
-2.9701428413391113 0.47892966866493225 0.26321035623550415 2.0 10 -0.06940006464719772
-2.5651321411132812 0.41500118374824524 -0.3190539479255676 67.0 4 -0.06939315050840378
-2.737729787826538 0.4434153139591217 -0.24264158308506012 9.0 5 -0.06938854604959488
-2.3933467864990234 0.3884947896003723 -0.12707172334194183 18.0 6 -0.06938393414020538
-3.0079922676086426 0.48934346437454224 -0.053194932639598846 72.0 7 -0.06937932968139648
-2.4915993213653564 0.4089076519012451 -0.6765530109405518 1.0 0 -0.0693562924861908
-3.0210325717926025 0.49633753299713135 0.053439266979694366 28.0 8 -0.06935398280620575
-2.4343979358673096 0.4003933072090149 -0.5695760846138 1.0 1 -0.0693516805768013
-3.060534715652466 0.5039239525794983 0.1625555008649826 25.0 9 -0.06934937834739685
-2.404029607772827 0.39582887291908264 -0.4735879600048065 1.0 2 -0.0693470761179924
-2.9920430183410645 0.4931837022304535 0.26530206203460693 3.0 10 -0.06934476643800735
-2.4616129398345947 0.40619325637817383 -0.3951534926891327 1.0 3 -0.0693424642086029
-2.5558340549468994 0.4226572513580322 -0.31807902455329895 67.0 4 -0.069337859749794
-2.7341997623443604 0.4526437520980835 -0.2424672693014145 8.0 5 -0.06933324784040451
-2.3978869915008545 0.39782753586769104 -0.1273857206106186 16.0 6 -0.06932864338159561
-3.018101453781128 0.5018082857131958 -0.05340436473488808 72.0 7 -0.06932403147220612
-2.4253780841827393 0.40673908591270447 -0.6589533090591431 1.0 0 -0.06930099427700043
-3.027170181274414 0.5082043409347534 0.05357888713479042 26.0 8 -0.06929869204759598
-2.4560470581054688 0.4127637445926666 -0.5749749541282654 1.0 1 -0.06929638236761093
-3.0607264041900635 0.5149362683296204 0.1626601666212082 23.0 9 -0.06929408013820648
-2.425865888595581 0.40812739729881287 -0.4781673550605774 1.0 2 -0.06929177790880203
-2.9863739013671875 0.5029631853103638 0.26495346426963806 2.0 10 -0.06928947567939758
-2.464076042175293 0.41543975472450256 -0.39577925205230713 1.0 3 -0.06928716599941254
-2.558257818222046 0.4322376847267151 -0.3185664713382721 66.0 4 -0.06928256154060364
-2.7364511489868164 0.4633273184299469 -0.24281588196754456 8.0 5 -0.06927795708179474
-2.392545461654663 0.405527800321579 -0.12717638909816742 16.0 6 -0.06927334517240524
-3.006474256515503 0.5106661319732666 -0.05322984233498573 69.0 7 -0.06926874071359634
-2.439103603363037 0.4182378053665161 -0.6630944013595581 1.0 0 -0.06924569606781006
-3.0352325439453125 0.5204572081565857 0.05375341325998306 23.0 8 -0.06924339383840561
-2.389289140701294 0.4101252853870392 -0.5596782565116882 1.0 1 -0.06924109160900116
-3.0608787536621094 0.5259554386138916 0.16276483237743378 24.0 9 -0.06923878937959671
-2.9727296829223633 0.5118761658668518 0.2639075815677643 2.0 10 -0.06923417747020721
-2.509256362915039 0.4325219988822937 -0.4032880961894989 1.0 3 -0.06923187524080276
-2.5684704780578613 0.44318971037864685 -0.3200289309024811 63.0 4 -0.06922726333141327
-2.715184450149536 0.469481885433197 -0.24107277393341064 8.0 5 -0.06922265887260437
-2.4008827209472656 0.4159991443157196 -0.12769974768161774 18.0 6 -0.06921804696321487
-2.998762845993042 0.5201324224472046 -0.05312512442469597 60.0 7 -0.06921344250440598
-3.021486282348633 0.5295080542564392 0.05354398116469383 23.0 8 -0.06918809562921524
-2.3839311599731445 0.4182063341140747 -0.5587784647941589 2.0 1 -0.06918579339981079
-3.0746679306030273 0.5399335026741028 0.16360221803188324 21.0 9 -0.06918349117040634
-2.992509603500366 0.526045024394989 0.2658250033855438 2.0 10 -0.06917887926101685
-2.566828727722168 0.45260128378868103 -0.3200289309024811 64.0 4 -0.0691719725728035
-2.7193315029144287 0.4804697334766388 -0.24159571528434753 8.0 5 -0.069167360663414
-2.4092495441436768 0.42611658573150635 -0.12822310626506805 18.0 6 -0.0691627562046051
-2.998805046081543 0.5314689874649048 -0.05316003039479256 57.0 7 -0.0691581442952156
-3.0235564708709717 0.5407552123069763 0.05361378937959671 19.0 8 -0.06913280487060547
-2.4515135288238525 0.4388883709907532 -0.5749749541282654 1.0 1 -0.06913049519062042
-3.0766963958740234 0.551367461681366 0.1638115644454956 21.0 9 -0.06912819296121597
-2.9591853618621826 0.5313747525215149 0.26303601264953613 2.0 10 -0.06912358850240707
-2.569140672683716 0.4622609615325928 -0.3205164074897766 61.0 4 -0.06911667436361313
-2.717637777328491 0.4899597764015198 -0.24159571528434753 8.0 5 -0.06911206245422363
-2.401775360107422 0.4338783323764801 -0.1279090791940689 18.0 6 -0.06910745799541473
-3.0107059478759766 0.5444244146347046 -0.05340436473488808 60.0 7 -0.06910285353660583
-3.6042215824127197 0.6523991227149963 0.9814419150352478 1.0 15 -0.06910054385662079
-2.3890533447265625 0.43502599000930786 -0.650671124458313 1.0 0 -0.06908226013183594
-3.0158450603485107 0.5497031807899475 0.05350907891988754 15.0 8 -0.06907995790243149
-2.400200128555298 0.43792134523391724 -0.5632774829864502 1.0 1 -0.06907765567302704
-3.0728862285614014 0.5612084269523621 0.16370689868927002 22.0 9 -0.06907534599304199
-2.4276561737060547 0.4433685839176178 -0.47969385981559753 1.0 2 -0.06907304376363754
-2.982980251312256 0.5453266501426697 0.26530206203460693 2.0 10 -0.0690707415342331
-3.6084144115448 0.660965621471405 0.45042911171913147 1.0 11 -0.0690661296248436
-2.567593812942505 0.47077807784080505 -0.3205164074897766 61.0 4 -0.06906382739543915
-3.5633232593536377 0.65399169921875 0.5738016963005066 1.0 12 -0.0690615251660347
-2.7278432846069336 0.500652551651001 -0.24264158308506012 8.0 5 -0.06905922293663025
-3.5239639282226562 0.6474037170410156 0.6964528560638428 1.0 13 -0.0690569132566452
-2.402364730834961 0.44178298115730286 -0.1280137598514557 21.0 6 -0.06905461102724075
-3.490020990371704 0.6424272060394287 0.8192718029022217 1.0 14 -0.0690523087978363
-3.012817144393921 0.555130124092102 -0.053474172949790955 20.0 7 -0.06905000656843185
-3.5222463607788086 0.649631142616272 0.9597010612487793 3.0 15 -0.06904769688844681
-3.0178396701812744 0.5609580278396606 0.05357888713479042 13.0 8 -0.06902465969324112
-2.448469400405884 0.4555651545524597 -0.5749749541282654 1.0 1 -0.06902235746383667
-3.0650181770324707 0.5708343982696533 0.16339287161827087 20.0 9 -0.06902005523443222
-2.43381404876709 0.4532778561115265 -0.4812203049659729 1.0 2 -0.06901774555444717
-3.0104379653930664 0.561212956905365 0.267916738986969 4.0 10 -0.06901544332504272
-3.5221774578094482 0.6578848361968994 0.43994835019111633 2.0 11 -0.06901083886623383
-2.5698370933532715 0.4804674983024597 -0.32100388407707214 57.0 4 -0.06900852918624878
-3.516360282897949 0.6580685377120972 0.5666056871414185 2.0 12 -0.06900622695684433
-2.733912467956543 0.5116375088691711 -0.24333882331848145 8.0 5 -0.06900392472743988
-3.5139636993408203 0.6582556962966919 0.694926381111145 2.0 13 -0.06900162249803543
-2.400808095932007 0.45016616582870483 -0.1280137598514557 21.0 6 -0.06899931281805038
-3.5107407569885254 0.6589195728302002 0.8246706128120422 1.0 14 -0.06899701058864594
-3.2959253787994385 0.6197925806045532 0.8986197710037231 5.0 15 -0.06899240612983704
-2.4315133094787598 0.46031835675239563 -0.6630944013595581 1.0 0 -0.0689716711640358
-3.0178279876708984 0.571861207485199 0.05361378937959671 12.0 8 -0.06896936148405075
-2.446864128112793 0.4641086161136627 -0.5749749541282654 1.0 1 -0.0689670592546463
-3.0669312477111816 0.5822750329971313 0.16360221803188324 20.0 9 -0.06896475702524185
-2.412929058074951 0.4581088423728943 -0.4774041175842285 1.0 2 -0.0689624547958374
-3.012375593185425 0.5724620223045349 0.26826536655426025 4.0 10 -0.06896014511585236
-3.512059450149536 0.6686904430389404 0.43897342681884766 2.0 11 -0.06895554065704346
-2.5564446449279785 0.4872053265571594 -0.31954145431518555 50.0 4 -0.06895323842763901
-3.116262197494507 0.5944592952728271 0.5024675726890564 2.0 12 -0.06895092874765396
-2.7164530754089355 0.5181915760040283 -0.2419443279504776 8.0 5 -0.06894862651824951
-3.0931785106658936 0.5906146168708801 0.6121153235435486 3.0 13 -0.06894632428884506
-2.4149160385131836 0.46154335141181946 -0.12885113060474396 22.0 6 -0.06894402205944061
-3.0394816398620605 0.5814620852470398 0.7144445776939392 3.0 14 -0.06894171983003616
-3.030014753341675 0.5807467103004456 0.8266680836677551 19.0 15 -0.06893710792064667
-2.479210376739502 0.47831833362579346 -0.6765530109405518 1.0 0 -0.06891637295484543
-3.004033088684082 0.580116331577301 0.05340436473488808 11.0 8 -0.06891407072544098
-3.0766453742980957 0.5952534675598145 0.16423025727272034 20.0 9 -0.06890945881605148
-3.029919385910034 0.5867609977722168 0.27000847458839417 11.0 10 -0.06890485435724258
-3.0673370361328125 0.5951187014579773 0.3836447298526764 30.0 11 -0.06890024244785309
-2.5586256980895996 0.4968823194503784 -0.3200289309024811 50.0 4 -0.06889794021844864
-3.0598738193511963 0.5947790741920471 0.49370723962783813 46.0 12 -0.06889563798904419
-2.700937271118164 0.5250089168548584 -0.24072414636611938 7.0 5 -0.06889333575963974
-3.052555799484253 0.593909502029419 0.6044829487800598 51.0 13 -0.0688910260796547
-2.4211320877075195 0.47149673104286194 -0.1292698234319687 27.0 6 -0.06888872385025024
-3.056560754776001 0.5957960486412048 0.7189435958862305 42.0 14 -0.0688864216208458
-3.012800693511963 0.5883585810661316 0.8225269913673401 34.0 15 -0.0688818097114563
-3.0137619972229004 0.5929149389266968 0.05361378937959671 10.0 8 -0.06885877251625061
-2.4435644149780273 0.48118025064468384 -0.5749749541282654 1.0 1 -0.06885647028684616
-3.086306095123291 0.6083059906959534 0.16485828161239624 20.0 9 -0.06885416060686111
-3.0532639026641846 0.6023470163345337 0.27227452397346497 23.0 10 -0.06884955614805222
-3.059398651123047 0.6046667695045471 0.3829135298728943 48.0 11 -0.06884495168924332
-2.5724544525146484 0.5088931322097778 -0.3219788372516632 50.0 4 -0.06884264200925827
-3.0558412075042725 0.6050727367401123 0.4933943450450897 45.0 12 -0.06884033977985382
-2.701042890548706 0.5348207950592041 -0.2408984750509262 7.0 5 -0.06883803755044937
-3.0427606105804443 0.6030339598655701 0.6029564738273621 46.0 13 -0.06883573532104492
-2.397921323776245 0.47567105293273926 -0.12811844050884247 26.0 6 -0.06883342564105988
-3.05255126953125 0.6060824394226074 0.7184937596321106 31.0 14 -0.06883112341165543
-2.696842670440674 0.5359458923339844 -0.04799411818385124 2.0 7 -0.06882882118225098
-3.0145182609558105 0.5996246933937073 0.8235622644424438 30.0 15 -0.06882651895284653
-2.4303483963012695 0.4865134656429291 -0.6641297340393066 1.0 0 -0.06880577653646469
-3.011673927307129 0.6034321784973145 0.05361378937959671 10.0 8 -0.06880347430706024
-3.0841639041900635 0.61907559633255 0.16485828161239624 20.0 9 -0.06879886984825134
-2.3887507915496826 0.4794872999191284 -0.4735879600048065 1.0 2 -0.0687965676188469
-3.0609095096588135 0.6149643063545227 0.2731460928916931 24.0 10 -0.06879425793886185
-3.035862445831299 0.6110339164733887 0.38023239374160767 33.0 11 -0.06878965348005295
-2.566770315170288 0.5170855522155762 -0.3214913308620453 47.0 4 -0.0687873512506485
-3.0459647178649902 0.6141742467880249 0.4921428859233856 31.0 12 -0.06878504157066345
-2.7069714069366455 0.5458212494850159 -0.24159571528434753 7.0 5 -0.068782739341259
-3.0329396724700928 0.6120980381965637 0.6014299988746643 36.0 13 -0.06878043711185455
-2.3962464332580566 0.48403850197792053 -0.12811844050884247 26.0 6 -0.0687781348824501
-3.0179452896118164 0.6101690530776978 0.7108453512191772 30.0 14 -0.06877582520246506
-2.714555025100708 0.5493226647377014 -0.04834316670894623 37.0 7 -0.06877352297306061
-3.008620023727417 0.6093767881393433 0.8225269913673401 33.0 15 -0.06877122074365616
-3.0173869132995605 0.6155393719673157 0.05375341325998306 10.0 8 -0.06874818354845047
-2.44014573097229 0.49822723865509033 -0.5749749541282654 1.0 1 -0.06874587386846542
-3.0780704021453857 0.6290385723114014 0.16464893519878387 20.0 9 -0.06874357163906097
-3.0528886318206787 0.6244467496871948 0.2726231813430786 42.0 10 -0.06873896718025208
-3.03760027885437 0.6224250793457031 0.3807198405265808 50.0 11 -0.06873435527086258
-2.5649497509002686 0.5260421633720398 -0.3214913308620453 46.0 4 -0.06873205304145813
-3.0321924686431885 0.6224191188812256 0.4902656674385071 36.0 12 -0.06872975081205368
-2.689436435699463 0.5520614385604858 -0.2402012199163437 7.0 5 -0.06872744113206863
-3.0327072143554688 0.6230771541595459 0.6018115878105164 41.0 13 -0.06872513890266418
-2.41214919090271 0.49602067470550537 -0.12906047701835632 24.0 6 -0.06872283667325974
-3.0253407955169678 0.6226634979248047 0.7130948901176453 32.0 14 -0.06872053444385529
-3.0405313968658447 0.6268970966339111 0.8318444490432739 36.0 15 -0.06871592253446579
-3.0210936069488525 0.6272879838943481 0.05385812744498253 9.0 8 -0.0686928853392601
-2.43839168548584 0.5067419409751892 -0.5749749541282654 1.0 1 -0.06869058310985565
-3.0797667503356934 0.6405927538871765 0.16485828161239624 21.0 9 -0.0686882734298706
-3.048739433288574 0.634693443775177 0.2724488377571106 28.0 10 -0.0686836689710617
-3.0665018558502197 0.639508843421936 0.38461968302726746 46.0 11 -0.06867905706167221
-2.5630979537963867 0.5349918007850647 -0.3214913308620453 46.0 4 -0.06867675483226776
-3.0667402744293213 0.6406756043434143 0.4962101876735687 40.0 12 -0.06867445260286331
-2.69529390335083 0.5630764365196228 -0.2408984750509262 7.0 5 -0.06867215037345886
-3.0843212604522705 0.6449102759361267 0.6124969124794006 41.0 13 -0.06866984069347382
-2.404538154602051 0.5032097697257996 -0.12874646484851837 22.0 6 -0.06866753846406937
-3.0937206745147705 0.6480028033256531 0.7297412753105164 46.0 14 -0.06866523623466492
-3.0553410053253174 0.6410764455795288 0.8365032076835632 40.0 15 -0.06866063177585602
-3.011059284210205 0.6361762881278992 0.053718507289886475 9.0 8 -0.06863758713006973
-3.093143939971924 0.6546469926834106 0.1656956523656845 20.0 9 -0.06863298267126083
-3.089386463165283 0.6544151306152344 0.2762836813926697 36.0 10 -0.06862837076187134
-3.1089136600494385 0.6596854329109192 0.39022567868232727 53.0 11 -0.06862376630306244
-2.5806329250335693 0.5480594038963318 -0.32392874360084534 42.0 4 -0.06862145662307739
-3.1011970043182373 0.6591801047325134 0.5021546483039856 51.0 12 -0.06861915439367294
-2.685516595840454 0.5708244442939758 -0.2402012199163437 7.0 5 -0.0686168521642685
-3.101254463195801 0.6597572565078735 0.616313099861145 48.0 13 -0.06861454993486404
-2.4066741466522217 0.5124320387840271 -0.12895581126213074 22.0 6 -0.0686122477054596
-3.085721969604492 0.6575795412063599 0.7283915877342224 43.0 14 -0.06860993802547455
-3.0568628311157227 0.6525450944900513 0.8375384211540222 38.0 15 -0.06860533356666565
-3.004910469055176 0.6458419561386108 0.0536486990749836 9.0 8 -0.06858228892087936
-3.0986499786376953 0.6671217083930969 0.16611434519290924 21.0 9 -0.06857768446207047
-3.094874620437622 0.6668732166290283 0.2769809365272522 34.0 10 -0.06857307255268097
-3.1027114391326904 0.669696033000946 0.38973820209503174 52.0 11 -0.06856846809387207
-2.5884056091308594 0.559160590171814 -0.32514744997024536 40.0 4 -0.06856616586446762
-3.0969467163085938 0.6695832014083862 0.5018418431282043 40.0 12 -0.06856386363506317
-2.6835079193115234 0.5801945924758911 -0.2402012199163437 7.0 5 -0.06856155395507812
-3.0931761264801025 0.6693331003189087 0.6151682734489441 42.0 13 -0.06855925172567368
-2.406822681427002 0.5212531685829163 -0.12906047701835632 23.0 6 -0.06855694949626923
-3.092930316925049 0.6704100966453552 0.7306410670280457 41.0 14 -0.06855464726686478
-3.0545663833618164 0.6632115840911865 0.8375384211540222 37.0 15 -0.06855003535747528
-3.016312599182129 0.6593170762062073 0.05389302968978882 9.0 8 -0.06852699816226959
-3.088498115539551 0.6762245297431946 0.1656956523656845 22.0 9 -0.0685223862528801
-3.1003122329711914 0.6793789863586426 0.2776781916618347 36.0 10 -0.0685177817940712
-3.0887210369110107 0.6779689192771912 0.38827574253082275 53.0 11 -0.0685131698846817
-2.570927381515503 0.5647844076156616 -0.32319754362106323 40.0 4 -0.06851086765527725
-3.094590425491333 0.6803895831108093 0.5018418431282043 43.0 12 -0.0685085654258728
-2.67952036857605 0.5891305208206177 -0.24002692103385925 6.0 5 -0.06850626319646835
-3.067811965942383 0.6750632524490356 0.610588788986206 36.0 13 -0.0685039535164833
-2.401087522506714 0.5287917852401733 -0.12885113060474396 23.0 6 -0.06850165128707886
-3.0582196712493896 0.6740716695785522 0.7229927778244019 41.0 14 -0.06849934905767441
-3.0333685874938965 0.6697044968605042 0.8323620557785034 40.0 15 -0.06849473714828491
-2.264981746673584 0.5029634237289429 -0.6216834187507629 1.0 0 -0.06847400218248367
-3.017896890640259 0.6707097291946411 0.053962841629981995 8.0 8 -0.06847169995307922
-3.0880684852600098 0.6874361634254456 0.1658003330230713 23.0 9 -0.06846709549427032
-3.078474760055542 0.6858643889427185 0.2759350836277008 36.0 10 -0.06846248358488083
-3.065023422241211 0.6839905381202698 0.38559460639953613 47.0 11 -0.06845787912607193
-2.559253215789795 0.5715917944908142 -0.3219788372516632 39.0 4 -0.06845556944608688
-3.061351776123047 0.6842929720878601 0.4968359172344208 37.0 12 -0.06845326721668243
-2.6813364028930664 0.5993494987487793 -0.24037553369998932 6.0 5 -0.06845096498727798
-3.061605215072632 0.6849106550216675 0.6098255515098572 36.0 13 -0.06844866275787354
-2.410921096801758 0.5397881865501404 -0.12947916984558105 23.0 6 -0.06844635307788849
-3.046339988708496 0.6826122999191284 0.7207432389259338 38.0 14 -0.06844405084848404
-3.034782648086548 0.6811351180076599 0.833397388458252 40.0 15 -0.06843944638967514
-2.242483139038086 0.506188154220581 -0.6159893274307251 2.0 0 -0.0684187114238739
-3.02724027633667 0.6838839650154114 0.054172269999980927 8.0 8 -0.06841640174388885
-3.0856502056121826 0.6982113718986511 0.1658003330230713 23.0 9 -0.06841179728507996
-3.0721755027770996 0.6957260370254517 0.27558645606040955 34.0 10 -0.06840718537569046
-2.618135929107666 0.5933837890625 -0.42518892884254456 1.0 3 -0.06840488314628601
-3.0722970962524414 0.6968810558319092 0.38681334257125854 46.0 11 -0.06840258091688156
-2.5727291107177734 0.5840374827384949 -0.32392874360084534 39.0 4 -0.06840027868747711
-3.0589442253112793 0.6949750185012817 0.4968359172344208 37.0 12 -0.06839796900749207
-2.6714565753936768 0.606939971446991 -0.239678293466568 5.0 5 -0.06839566677808762
-3.068767786026001 0.6977700591087341 0.6117336750030518 38.0 13 -0.06839336454868317
-2.4207069873809814 0.5508596301078796 -0.13010719418525696 18.0 6 -0.06839106231927872
-3.0553390979766846 0.6958383321762085 0.7234426140785217 42.0 14 -0.06838875263929367
-3.0229690074920654 0.6895761489868164 0.8308091163635254 46.0 15 -0.06838414818048477
-2.250117301940918 0.5161725282669067 -0.6185775399208069 1.0 0 -0.06836341321468353
-3.0170390605926514 0.6926564574241638 0.05403264984488487 8.0 8 -0.06836111098527908
-3.092926263809204 0.7112160921096802 0.1663236916065216 25.0 9 -0.06835649907588959
-3.067786931991577 0.7059982419013977 0.2754121422767639 40.0 10 -0.06835189461708069
-2.5813989639282227 0.59453946352005 -0.4195573031902313 2.0 3 -0.06834958493709564
-3.064042568206787 0.706263542175293 0.38608211278915405 56.0 11 -0.06834728270769119
-2.5822806358337402 0.5956911444664001 -0.32539117336273193 39.0 4 -0.06834498047828674
-3.058424711227417 0.7060929536819458 0.4971488118171692 45.0 12 -0.0683426782488823
-2.673204183578491 0.6171578168869019 -0.24002692103385925 6.0 5 -0.06834036856889725
-3.0529232025146484 0.7053840756416321 0.6090623736381531 46.0 13 -0.0683380663394928
-2.422661304473877 0.5602055788040161 -0.13031654059886932 8.0 6 -0.06833576411008835
-3.0661816596984863 0.7095749378204346 0.7265920042991638 58.0 14 -0.0683334618806839
-3.0261893272399902 0.7014328241348267 0.8323620557785034 53.0 15 -0.0683288499712944
-3.0184977054595947 0.704092264175415 0.05410246178507805 8.0 8 -0.06830581277608871
-3.0943145751953125 0.7229161858558655 0.16653302311897278 25.0 9 -0.06830120086669922
-3.0653038024902344 0.7167025804519653 0.2754121422767639 40.0 10 -0.06829659640789032
-2.585078001022339 0.6048969030380249 -0.4204958975315094 32.0 3 -0.06829429417848587
-3.0654244422912598 0.7178593277931213 0.3865695893764496 58.0 11 -0.06829198449850082
-2.587916374206543 0.6065139174461365 -0.326366126537323 36.0 4 -0.06828968226909637
-3.063633918762207 0.7185689210891724 0.4984002709388733 47.0 12 -0.06828738003969193
-2.66715407371521 0.6255754232406616 -0.239678293466568 3.0 5 -0.06828507781028748
-3.0485315322875977 0.7155871987342834 0.6086807250976562 48.0 13 -0.06828277558088303
-2.4265236854553223 0.5700296759605408 -0.13063055276870728 25.0 6 -0.06828046590089798
-3.0560977458953857 0.7184896469116211 0.7247923612594604 52.0 14 -0.06827816367149353
-3.0237221717834473 0.7119920253753662 0.8323620557785034 54.0 15 -0.06827355921268463
-2.2126212120056152 0.5238568186759949 -0.6092600226402283 1.0 0 -0.0682528167963028
-3.0199129581451416 0.7155473232269287 0.054172269999980927 8.0 8 -0.06825051456689835
-3.085942506790161 0.7323295474052429 0.16621901094913483 28.0 9 -0.06824591010808945
-3.0705370903015137 0.7292404770851135 0.27610939741134644 38.0 10 -0.06824129819869995
-2.586794376373291 0.6148298382759094 -0.42112162709236145 20.0 3 -0.0682389959692955
-3.0551748275756836 0.7267178893089294 0.38559460639953613 57.0 11 -0.06823669373989105
-2.576127767562866 0.6132452487945557 -0.32514744997024536 33.0 4 -0.0682343915104866
-3.0745582580566406 0.732462465763092 0.5005903244018555 53.0 12 -0.06823208183050156
-3.055563449859619 0.7285008430480957 0.610588788986206 45.0 13 -0.06822747737169266
-2.4342329502105713 0.5808141231536865 -0.1311539113521576 34.0 6 -0.06822517514228821
-3.0497806072235107 0.7282472252845764 0.7238925695419312 52.0 14 -0.06822286546230316
-3.0287342071533203 0.7243399620056152 0.8344326615333557 56.0 15 -0.06821826100349426
-2.229562282562256 0.536093533039093 -0.6144364476203918 3.0 0 -0.06819752603769302
-3.0212855339050293 0.7270194888114929 0.054242078214883804 8.0 8 -0.06819522380828857
-2.6107289791107178 0.6287083029747009 -0.619965136051178 1.0 1 -0.06819291412830353
-3.079483985900879 0.7421619892120361 0.16600966453552246 29.0 9 -0.06819061189889908
-3.0795938968658447 0.7427563667297363 0.2771552503108978 38.0 10 -0.06818600744009018
-2.590393543243408 0.6252462863922119 -0.4220602512359619 26.0 3 -0.06818369776010513
-3.058408260345459 0.7387771606445312 0.3863258361816406 53.0 11 -0.06818139553070068
-2.591337203979492 0.6264313459396362 -0.32734107971191406 7.0 4 -0.06817909330129623
-3.062382698059082 0.7408678531646729 0.49902600049972534 48.0 12 -0.06817679107189178
-2.6685314178466797 0.6455852389335632 -0.2402012199163437 3.0 5 -0.06817448139190674
-3.0568182468414307 0.7400871515274048 0.6113520860671997 45.0 13 -0.06817217916250229
-2.4321906566619873 0.5893071889877319 -0.1311539113521576 31.0 6 -0.06816987693309784
-3.0510075092315674 0.7398069500923157 0.7247923612594604 52.0 14 -0.06816757470369339
-3.0374512672424316 0.7376424670219421 0.8375384211540222 54.0 15 -0.0681629627943039
-3.0342698097229004 0.7413583993911743 0.05452131852507591 8.0 8 -0.0681399255990982
-2.487368106842041 0.6081947684288025 -0.591171383857727 1.0 1 -0.06813762336969376
-3.084634780883789 0.7548050880432129 0.1664283573627472 29.0 9 -0.06813531368970871
-3.069241762161255 0.7516061067581177 0.2764580249786377 40.0 10 -0.06813070923089981
-2.603543758392334 0.638046145439148 -0.4245631992816925 44.0 3 -0.06812840700149536
-3.0770184993743896 0.7546491026878357 0.38900697231292725 55.0 11 -0.06812609732151031
-2.5872066020965576 0.6349998116493225 -0.3270973265171051 30.0 4 -0.06812379509210587
-3.063614845275879 0.7524963021278381 0.4996517598628998 48.0 12 -0.06812149286270142
-2.6623916625976562 0.6539464592933655 -0.23985259234905243 4.0 5 -0.06811919063329697
-3.0694682598114014 0.7545013427734375 0.6144050359725952 46.0 13 -0.06811688095331192
-2.4378767013549805 0.599702000617981 -0.13157260417938232 34.0 6 -0.06811457872390747
-3.0540831089019775 0.7518507838249207 0.7261420488357544 51.0 14 -0.06811227649450302
-2.6289796829223633 0.6476853489875793 -0.04726111888885498 1.0 7 -0.06810997426509857
-3.023603677749634 0.7454661130905151 0.8344326615333557 56.0 15 -0.06810766458511353
-3.031663417816162 0.7519455552101135 0.05452131852507591 8.0 8 -0.06808462738990784
-3.0955495834350586 0.7689383625984192 0.16716106235980988 33.0 9 -0.06808002293109894
-3.0704662799835205 0.7632765769958496 0.27680662274360657 40.0 10 -0.06807541102170944
-2.593632936477661 0.6452228426933289 -0.423311710357666 39.0 3 -0.06807310879230499
-3.076292037963867 0.7658650279045105 0.3892507255077362 52.0 11 -0.06807080656290054
-2.596531867980957 0.6469064354896545 -0.3285597860813141 39.0 4 -0.0680684968829155
-3.072469472885132 0.7660523653030396 0.5015289187431335 48.0 12 -0.06806619465351105
-2.652359962463379 0.6613073945045471 -0.2391553521156311 4.0 5 -0.0680638924241066
-3.0630059242248535 0.7642606496810913 0.6136417388916016 46.0 13 -0.06806159019470215
-2.4377059936523438 0.608691930770874 -0.1316772699356079 36.0 6 -0.0680592805147171
-3.0552213191986084 0.7634511590003967 0.7270418405532837 55.0 14 -0.06805697828531265
-3.0209829807281494 0.756016731262207 0.8344326615333557 56.0 15 -0.06805237382650375
-3.021263599395752 0.7605701088905334 0.05438169836997986 7.0 8 -0.06802932918071747
-3.098656415939331 0.7812039852142334 0.16747507452964783 30.0 9 -0.06802472472190857
-3.0755109786987305 0.775938868522644 0.2775038778781891 40.0 10 -0.06802011281251907
-2.587534189224243 0.6533052921295166 -0.42268598079681396 41.0 3 -0.06801781058311462
-3.0697505474090576 0.7756260633468628 0.3887632191181183 51.0 11 -0.06801550835371017
-2.6000311374664307 0.6574260592460632 -0.3292909860610962 36.0 4 -0.06801320612430573
-3.069776773452759 0.776772677898407 0.5015289187431335 46.0 12 -0.06801089644432068
-2.665487766265869 0.6744718551635742 -0.24054984748363495 4.0 5 -0.06800859421491623
-3.052706718444824 0.7730202078819275 0.6121153235435486 45.0 13 -0.06800629198551178
-2.4220142364501953 0.6137632131576538 -0.13094457983970642 34.0 6 -0.06800398975610733
-3.063871383666992 0.7769855260848999 0.7297412753105164 55.0 14 -0.06800168752670288
-3.02581524848938 0.7684594988822937 0.8365032076835632 56.0 15 -0.06799707561731339
-3.0224647521972656 0.7721023559570312 0.054451506584882736 7.0 8 -0.0679740384221077
-3.097846031188965 0.792509913444519 0.1675797551870346 31.0 9 -0.0679694265127182
-3.0805041790008545 0.7886469960212708 0.2782011330127716 37.0 10 -0.0679648220539093
-2.6024601459503174 0.6667459011077881 -0.4255017936229706 42.0 3 -0.06796251237392426
-3.0689473152160645 0.7868291139602661 0.38900697231292725 48.0 11 -0.0679602101445198
-2.591952085494995 0.6650179028511047 -0.3285597860813141 33.0 4 -0.06795790791511536
-3.082353353500366 0.7914136648178101 0.5040318965911865 51.0 12 -0.06795560568571091
-2.7345194816589355 0.7021051645278931 -0.2469993680715561 6.0 5 -0.06795330345630646
-3.05759596824646 0.7856251001358032 0.6136417388916016 45.0 13 -0.06795099377632141
-2.4256598949432373 0.623706042766571 -0.13125859200954437 36.0 6 -0.06794869154691696
-3.059253215789795 0.7871901392936707 0.7292913794517517 60.0 14 -0.06794638931751251
-3.030597448348999 0.7809445261955261 0.8385737538337708 56.0 15 -0.06794177740812302
-3.027494430541992 0.7846549153327942 0.05459113046526909 7.0 8 -0.06791874021291733
-3.0853946208953857 0.800810694694519 0.1670563817024231 29.0 9 -0.06791413575410843
-2.5748934745788574 0.6683107018470764 -0.5170924067497253 1.0 2 -0.06791182607412338
-3.0931596755981445 0.803402304649353 0.27959561347961426 40.0 10 -0.06790952384471893
-2.598205327987671 0.6753286719322205 -0.42518892884254456 41.0 3 -0.06790722161531448
-3.0777089595794678 0.800536036491394 0.39046943187713623 47.0 11 -0.06790491938591003
-2.587693929672241 0.6735614538192749 -0.3283160626888275 34.0 4 -0.06790260970592499
-3.0719258785247803 0.8001759052276611 0.5027804374694824 50.0 12 -0.06790030747652054
-2.9846272468566895 0.777436375617981 -0.2698341906070709 13.0 5 -0.06789800524711609
-3.062434196472168 0.7982749938964844 0.6151682734489441 46.0 13 -0.06789570301771164
-2.4311983585357666 0.6341859102249146 -0.1316772699356079 36.0 6 -0.06789339333772659
-3.060257911682129 0.7988478541374207 0.730191171169281 63.0 14 -0.06789109110832214
-3.025982618331909 0.7904654741287231 -0.05459113046526909 4.0 7 -0.0678887888789177
-3.0334599018096924 0.7929843664169312 0.840126633644104 58.0 15 -0.06788648664951324
-3.032472848892212 0.7972511649131775 0.054730746895074844 7.0 8 -0.06786344200372696
-3.1076889038085938 0.8181864619255066 0.16841712594032288 22.0 9 -0.06785883754491806
-2.589632034301758 0.6817933917045593 -0.5205269455909729 19.0 2 -0.06785653531551361
-3.090336799621582 0.8141939043998718 0.27959561347961426 41.0 10 -0.06785422563552856
-2.6092028617858887 0.6879192590713501 -0.4273790121078491 29.0 3 -0.06785192340612411
-3.0902512073516846 0.8153258562088013 0.39241933822631836 48.0 11 -0.06784962117671967
-2.7657437324523926 0.7302239537239075 -0.3512274920940399 24.0 4 -0.06784731894731522
-3.0691137313842773 0.8108949065208435 0.5027804374694824 48.0 12 -0.06784500926733017
-3.0184946060180664 0.7975206971168518 -0.2731460928916931 27.0 5 -0.06784270703792572
-3.071017026901245 0.8119710683822632 0.617457926273346 46.0 13 -0.06784040480852127
-2.4386239051818848 0.6452223658561707 -0.13220062851905823 34.0 6 -0.06783810257911682
-3.0668699741363525 0.8120200634002686 0.7324406504631042 61.0 14 -0.06783579289913177
-3.036735773086548 0.8046084642410278 -0.05483546108007431 36.0 7 -0.06783349066972733
-3.0400102138519287 0.8060439229011536 0.8427148461341858 67.0 15 -0.06783118844032288
-3.018078565597534 0.8047405481338501 0.05452131852507591 7.0 8 -0.06780815124511719
-2.9571125507354736 0.7895902395248413 -0.5949424505233765 6.0 2 -0.06780123710632324
-3.0855507850646973 0.8244619965553284 0.27942129969596863 36.0 10 -0.06779893487691879
-3.059060573577881 0.8179566264152527 -0.5015289187431335 38.0 3 -0.06779662519693375
-3.0873866081237793 0.8261071443557739 0.39241933822631836 50.0 11 -0.0677943229675293
-3.060396671295166 0.8194577097892761 -0.38900697231292725 31.0 4 -0.06779202073812485
-3.070080518722534 0.8226256966590881 0.5034061670303345 50.0 12 -0.0677897185087204
-3.0195412635803223 0.8090837597846985 -0.2734947204589844 30.0 5 -0.06778740882873535
-3.0624754428863525 0.8211600184440613 0.616313099861145 50.0 13 -0.0677851065993309
-2.4382858276367188 0.6542484760284424 -0.132305309176445 32.0 6 -0.06778280436992645
-3.073427200317383 0.8252473473548889 0.7346901893615723 63.0 14 -0.067780502140522
-3.043564558029175 0.8177984356880188 -0.05500998720526695 29.0 7 -0.06777819991111755
-3.0409092903137207 0.817654013633728 0.8437501192092896 67.0 15 -0.06777589023113251
-3.0133206844329834 0.8147488832473755 0.05448641628026962 4.0 8 -0.06777914613485336
-3.0887670516967773 0.835726797580719 -0.7387393116950989 5.0 1 -0.06777684390544891
-2.941890239715576 0.7965373396873474 0.15972934663295746 2.0 9 -0.06777453422546387
-3.075619697570801 0.8327454924583435 -0.6193659901618958 31.0 2 -0.06777223199605942
-3.0845773220062256 0.8357487320899963 0.27959561347961426 40.0 10 -0.06776992976665497
-3.067626476287842 0.8317306637763977 -0.5034061670303345 36.0 3 -0.06776762753725052
