# .PCD v0.7 - Point Cloud Data file format
VERSION 0.7
FIELDS x y z intensity ring time
SIZE 4 4 4 4 4 4
TYPE F F F F F F
COUNT 1 1 1 1 1 1
WIDTH 546
HEIGHT 1
VIEWPOINT 0 0 0 1 0 0 0
POINTS 546
DATA ascii
-1.911488652229309 0.8832311034202576 -0.03675476834177971 13.0 7 -0.036668624728918076
-3.0546841621398926 1.412109136581421 0.9017255902290344 70.0 15 -0.03666631877422333
-1.8320984840393066 0.8500428795814514 0.0352538600564003 6.0 8 -0.03664327785372734
-3.1374781131744385 1.456368327140808 -0.798576295375824 14.0 1 -0.03664097562432289
-1.9291998147964478 0.8959137201309204 0.11147560179233551 81.0 9 -0.03663866966962814
-1.9996293783187866 0.9286209344863892 -0.42855700850486755 4.0 2 -0.036636367440223694
-3.1132748126983643 1.446455478668213 0.3003386855125427 36.0 10 -0.036634065210819244
-2.0044848918914795 0.9317265748977661 -0.3501003682613373 9.0 3 -0.036631759256124496
-2.039379596710205 0.9483797550201416 0.276155948638916 29.0 11 -0.03662945702672005
-1.985219120979309 0.9236147403717041 -0.26884379982948303 1.0 4 -0.0366271510720253
-1.982506275177002 0.9227729439735413 0.3463459312915802 1.0 12 -0.03662484884262085
-1.9614886045455933 0.9134071469306946 -0.18930228054523468 9.0 5 -0.0366225428879261
-2.0627267360687256 0.9605507850646973 0.44229528307914734 1.0 13 -0.03662024065852165
-1.937155842781067 0.902487576007843 -0.11199896037578583 12.0 6 -0.036617934703826904
-3.087496280670166 1.4390664100646973 0.7864289283752441 72.0 14 -0.036615632474422455
-1.899332046508789 0.8856730461120605 -0.036580245941877365 10.0 7 -0.03661332651972771
-3.0619914531707764 1.4284807443618774 0.90534907579422 74.0 15 -0.03661102429032326
-2.8465466499328613 1.3328137397766113 -0.8421972393989563 6.0 0 -0.03659028932452202
-1.8345531225204468 0.8589767813682556 0.035358574241399765 6.0 8 -0.03658798336982727
-3.1147279739379883 1.4590448141098022 -0.7940772771835327 22.0 1 -0.03658568114042282
-1.9170180559158325 0.8984052538871765 0.1109522357583046 70.0 9 -0.03658337518572807
-2.0015451908111572 0.9384441375732422 -0.42970186471939087 5.0 2 -0.036581072956323624
-3.1241872310638428 1.4654710292816162 0.301907479763031 18.0 10 -0.036578767001628876
-2.0046327114105225 0.940746009349823 -0.35072609782218933 9.0 3 -0.036576464772224426
-2.0288684368133545 0.9521195292472839 0.27518099546432495 43.0 11 -0.03657415881752968
-1.9747956991195679 0.92716383934021 -0.26786884665489197 1.0 4 -0.03657185658812523
-1.9810611009597778 0.9305275082588196 0.3466588258743286 2.0 12 -0.03656955063343048
-1.9564849138259888 0.9194011092185974 -0.18912795186042786 8.0 5 -0.03656724840402603
-2.059192419052124 0.9681041240692139 0.44229528307914734 1.0 13 -0.036564942449331284
-1.9266058206558228 0.906181275844574 -0.1115802749991417 13.0 6 -0.036562640219926834
-3.080437660217285 1.449544072151184 0.7859790325164795 75.0 14 -0.036560334265232086
-1.89260995388031 0.8905947208404541 -0.03651043400168419 9.0 7 -0.03655803203582764
-3.070969343185425 1.4457423686981201 0.909490168094635 78.0 15 -0.03655572608113289
-2.8313965797424316 1.3377902507781982 -0.8390913605690002 6.0 0 -0.03653499111533165
-1.8368161916732788 0.8682583570480347 0.03546328842639923 6.0 8 -0.0365326888859272
-3.088219404220581 1.460453748703003 -0.7886784672737122 29.0 1 -0.03653038293123245
-1.904842734336853 0.9008216261863708 0.11042887717485428 64.0 9 -0.036528080701828
-2.0124545097351074 0.9521421790122986 -0.4327548146247864 5.0 2 -0.036525774747133255
-2.0421509742736816 0.966629147529602 0.19766922295093536 2.0 10 -0.036523472517728806
-2.0156197547912598 0.9545009136199951 -0.3532290756702423 9.0 3 -0.03652116656303406
-2.023571491241455 0.9586989283561707 0.274937242269516 44.0 11 -0.03651886433362961
-1.985734224319458 0.9411978125572205 -0.2698187232017517 1.0 4 -0.03651655837893486
-1.9742306470870972 0.935745358467102 0.34603309631347656 2.0 12 -0.03651425614953041
-1.9658653736114502 0.932200014591217 -0.19034813344478607 9.0 5 -0.03651195019483566
-2.055800676345825 0.9752861857414246 0.44229528307914734 1.0 13 -0.03650964796543121
-1.9306483268737793 0.9163264036178589 -0.11199896037578583 10.0 6 -0.036507342010736465
-3.077119827270508 1.4611231088638306 0.7864289283752441 71.0 14 -0.036505039781332016
-1.8840709924697876 0.8946222066879272 -0.03640572354197502 10.0 7 -0.03650273382663727
-3.0693938732147217 1.45811128616333 0.9105254411697388 76.0 15 -0.03650043159723282
-2.83019757270813 1.349327802658081 -0.840126633644104 6.0 0 -0.03647969663143158
-1.837537169456482 0.8760659694671631 0.03553309664130211 6.0 8 -0.03647739067673683
-3.064011335372925 1.4614583253860474 -0.7837295532226562 31.0 1 -0.03647508844733238
-1.9052917957305908 0.9091855883598328 0.11063822358846664 66.0 9 -0.036472782492637634
-2.000260353088379 0.9549316763877869 -0.4308467507362366 6.0 2 -0.036470480263233185
-1.9902222156524658 0.9505665302276611 0.19296279549598694 15.0 10 -0.03646817430853844
-2.014225482940674 0.9620309472084045 -0.35354191064834595 8.0 3 -0.03646587207913399
-2.0185904502868652 0.9645484089851379 0.2746935188770294 43.0 11 -0.03646356612443924
-1.9897663593292236 0.9512019157409668 -0.27079370617866516 1.0 4 -0.03646126389503479
-1.9370931386947632 0.9264370799064636 0.34008854627609253 1.0 12 -0.03645895794034004
-1.9410324096679688 0.9287372827529907 -0.1882563978433609 9.0 5 -0.03645665571093559
-2.0525550842285156 0.9820982217788696 0.44229528307914734 1.0 13 -0.036454349756240845
-1.9348047971725464 0.9261730909347534 -0.11241763830184937 10.0 6 -0.036452047526836395
-3.088075637817383 1.478894829750061 0.7904780507087708 74.0 14 -0.036449745297431946
-1.8917566537857056 0.9063775539398193 -0.036615148186683655 9.0 7 -0.0364474393427372
-3.0677692890167236 1.4704874753952026 0.9115607142448425 76.0 15 -0.03644513711333275
-2.8204843997955322 1.356194257736206 -0.8385737538337708 7.0 0 -0.03642439842224121
-1.8254573345184326 0.878140926361084 0.035358574241399765 5.0 8 -0.03642209619283676
-3.0571351051330566 1.4712997674942017 -0.7832795977592468 32.0 1 -0.036419790238142014
-1.9147032499313354 0.9218959808349609 0.11137092113494873 70.0 9 -0.036417488008737564
-2.0183088779449463 0.9717803001403809 -0.43542614579200745 7.0 2 -0.036415182054042816
-1.9583393335342407 0.943327009677887 0.19017383456230164 25.0 10 -0.03641287982463837
-2.010855197906494 0.9690561294555664 -0.35354191064834595 8.0 3 -0.03641057386994362
-2.0169990062713623 0.9724507927894592 0.274937242269516 39.0 11 -0.03640827164053917
-2.0007376670837402 0.9650411605834961 -0.2727436125278473 1.0 4 -0.03640596568584442
-1.9374059438705444 0.9349103569984436 0.34071433544158936 1.0 12 -0.03640366345643997
-1.9451197385787964 0.9386326670646667 -0.18895365297794342 11.0 5 -0.03640136122703552
-1.9297617673873901 0.9320521950721741 -0.11231297254562378 10.0 6 -0.036396753042936325
-3.0934226512908936 1.4947524070739746 0.7931774854660034 74.0 14 -0.03639444708824158
-1.8921818733215332 0.9147161245346069 -0.03668495640158653 12.0 7 -0.03639214485883713
-3.0626180171966553 1.4811863899230957 0.9115607142448425 80.0 15 -0.03638983890414238
-2.8174710273742676 1.3668745756149292 -0.8390913605690002 7.0 0 -0.03636910393834114
-1.8223810195922852 0.8845076560974121 0.035358574241399765 5.0 8 -0.03636679798364639
-3.02217960357666 1.467491626739502 -0.775631308555603 30.0 1 -0.03636449575424194
-1.9150669574737549 0.9303190112113953 0.1115802749991417 73.0 9 -0.036362189799547195
-2.0219686031341553 0.9822506904602051 -0.4369526505470276 9.0 2 -0.036359887570142746
-1.9711620807647705 0.9579953551292419 0.19174262881278992 48.0 10 -0.036357585340738297
-2.0021307468414307 0.9734782576560974 -0.35260334610939026 9.0 3 -0.03635527938604355
-1.9993114471435547 0.9725388288497925 0.27298733592033386 13.0 11 -0.0363529771566391
-1.9830772876739502 0.9650700092315674 -0.27079370617866516 1.0 4 -0.03635067120194435
-1.944786787033081 0.9468556642532349 0.3425915241241455 1.0 12 -0.0363483689725399
-1.941831350326538 0.9454167485237122 -0.18895365297794342 11.0 5 -0.036346063017845154
-1.9193147420883179 0.9352829456329346 -0.11189427971839905 11.0 6 -0.036341454833745956
-3.0969443321228027 1.509811282157898 0.7954270243644714 72.0 14 -0.03633915260434151
-1.9033560752868652 0.9283285140991211 -0.03696419671177864 17.0 7 -0.03633684664964676
-3.0678462982177734 1.4969509840011597 0.9146665334701538 78.0 15 -0.03633454442024231
-2.8213582038879395 1.3809481859207153 -0.841679573059082 9.0 0 -0.03631380572915077
-1.8264662027359009 0.8943814039230347 0.03549819439649582 4.0 8 -0.03631150349974632
-2.9995388984680176 1.4694582223892212 -0.7711322903633118 30.0 1 -0.03630920127034187
-1.9119713306427002 0.9366645812988281 0.1115802749991417 79.0 9 -0.036306895315647125
-2.034393310546875 0.9970794320106506 -0.44038718938827515 9.0 2 -0.036304593086242676
-1.9642282724380493 0.963115930557251 0.19139400124549866 45.0 10 -0.03630228713154793
-2.0075883865356445 0.9848105311393738 -0.3541676700115204 8.0 3 -0.03629998490214348
-1.9798660278320312 0.9716408848762512 0.27079370617866516 3.0 11 -0.03629767894744873
-1.9975154399871826 0.980735182762146 -0.2732310891151428 1.0 4 -0.03629537671804428
-1.9416362047195435 0.9532997012138367 0.3425915241241455 1.0 12 -0.03629307076334953
-1.949249267578125 0.9574591517448425 -0.1899995058774948 9.0 5 -0.036290768533945084
-1.9178308248519897 0.9428582191467285 -0.11199896037578583 12.0 6 -0.036286160349845886
-3.0881574153900146 1.5188922882080078 0.7945271730422974 72.0 14 -0.03628385439515114
-1.9038560390472412 0.9364004731178284 -0.03703400865197182 19.0 7 -0.03628155216574669
-3.073265552520752 1.512233853340149 0.9177724123001099 80.0 15 -0.03627924621105194
-2.826913595199585 1.3959203958511353 -0.8447853922843933 9.0 0 -0.0362585112452507
-1.8342480659484863 0.9057455062866211 0.03570762276649475 3.0 8 -0.03625620901584625
-2.975430488586426 1.4699026346206665 -0.7661833167076111 30.0 1 -0.036253903061151505
-1.90510892868042 0.9415630102157593 0.11137092113494873 79.0 9 -0.036251600831747055
-2.0115416049957275 0.9946028590202332 -0.4361893832683563 8.0 2 -0.03624929487705231
-1.9626405239105225 0.9708495140075684 0.19156832993030548 45.0 10 -0.03624699264764786
-2.0060818195343018 0.9923384189605713 -0.3544805347919464 9.0 3 -0.03624468669295311
-1.9766329526901245 0.9782010316848755 0.27079370617866516 2.0 11 -0.03624238446354866
-2.0049262046813965 0.9926385879516602 -0.2746935188770294 1.0 4 -0.03624007850885391
-1.9312164783477783 0.9565639495849609 0.3413400650024414 2.0 12 -0.03623777627944946
-1.9387542009353638 0.9607195258140564 -0.18930228054523468 9.0 5 -0.036235470324754715
-1.9200619459152222 0.9518741965293884 -0.11231297254562378 13.0 6 -0.03623086214065552
-3.093579053878784 1.534319281578064 0.79722660779953 71.0 14 -0.03622855991125107
-1.893410563468933 0.9394851922988892 -0.03689438849687576 18.0 7 -0.03622625395655632
-3.0818111896514893 1.529824137687683 0.9219135046005249 82.0 15 -0.03622395172715187
-2.815351724624634 1.4018429517745972 -0.8427148461341858 7.0 0 -0.03620321676135063
-1.834655523300171 0.9139257073402405 0.03577743470668793 3.0 8 -0.036200910806655884
-2.9615604877471924 1.4759339094161987 -0.7639338374137878 31.0 1 -0.036198608577251434
-1.9053852558135986 0.9499902725219727 0.1115802749991417 79.0 9 -0.036196302622556686
-2.0064754486083984 1.000391960144043 -0.4358077645301819 7.0 2 -0.03619400039315224
-1.9469298124313354 0.9711272716522217 0.19034813344478607 51.0 10 -0.03619169443845749
-2.006140947341919 1.0010989904403687 -0.35510629415512085 9.0 3 -0.03618939220905304
-1.955445647239685 0.9762281179428101 0.2683563232421875 3.0 11 -0.03618708625435829
-1.9278656244277954 0.9632993936538696 0.3413400650024414 2.0 12 -0.036182478070259094
-1.9353888034820557 0.9674811959266663 -0.18930228054523468 9.0 5 -0.036180175840854645
-1.9203003644943237 0.9603569507598877 -0.11252231895923615 13.0 6 -0.03617556765675545
-3.0916895866394043 1.5468531847000122 0.7981263995170593 71.0 14 -0.0361732617020607
-1.877602219581604 0.9398232698440552 -0.03665005415678024 11.0 7 -0.03617095947265625
-3.0764524936676025 1.540571689605713 0.9219135046005249 80.0 15 -0.0361686572432518
-2.8067426681518555 1.4104167222976685 -0.841679573059082 7.0 0 -0.03614791855216026
-1.8207331895828247 0.9149370193481445 0.035568006336688995 3.0 8 -0.036145616322755814
-2.938979148864746 1.4775103330612183 -0.7594348192214966 30.0 1 -0.036143310368061066
-1.9020578861236572 0.9566351175308228 0.1115802749991417 73.0 9 -0.036141008138656616
-2.004549264907837 1.008621335029602 -0.4361893832683563 6.0 2 -0.03613870218396187
-1.9415775537490845 0.9773613810539246 0.19017383456230164 62.0 10 -0.03613639995455742
-1.9918725490570068 1.0031142234802246 -0.3532290756702423 9.0 3 -0.03613409399986267
-1.962664008140564 0.9884046912193298 0.2698187232017517 3.0 11 -0.03613179177045822
-1.9227272272109985 0.9691343903541565 0.341027170419693 3.0 12 -0.036127183586359024
-1.9284422397613525 0.9724365472793579 -0.18895365297794342 9.0 5 -0.036124877631664276
-1.9167672395706177 0.9673892259597778 -0.11252231895923615 12.0 6 -0.03612027317285538
-3.0946974754333496 1.5625654458999634 0.8003758788108826 70.0 14 -0.03611796721816063
-1.8814505338668823 0.9499764442443848 -0.036789670586586 9.0 7 -0.03611566498875618
-3.074504852294922 1.553043246269226 0.9229487776756287 82.0 15 -0.03611335903406143
-2.798356056213379 1.4184588193893433 -0.8406442999839783 9.0 0 -0.03609262406826019
-1.8120170831680298 0.9188909530639648 0.03546328842639923 2.0 8 -0.036090318113565445
-2.916165590286255 1.4794549942016602 -0.7549358010292053 30.0 1 -0.036088015884160995
-1.912786602973938 0.970831573009491 0.11241763830184937 79.0 9 -0.03608570992946625
-2.008018970489502 1.0191665887832642 -0.4377158582210541 6.0 2 -0.0360834077000618
-1.9417072534561157 0.9859364032745361 0.1905224472284317 64.0 10 -0.03608110174536705
-2.004209041595459 1.0181128978729248 -0.35604485869407654 10.0 3 -0.0360787995159626
-1.966106653213501 0.9991896152496338 0.27079370617866516 2.0 11 -0.03607649728655815
-1.9174017906188965 0.9752791523933411 0.34071433544158936 5.0 12 -0.036071889102458954
-1.9285876750946045 0.9809687733650208 -0.18930228054523468 10.0 5 -0.036069583147764206
-2.027947187423706 1.0319538116455078 0.44229528307914734 1.0 13 -0.036067280918359756
-1.9044796228408813 0.9695432186126709 -0.11199896037578583 10.0 6 -0.03606497496366501
-3.1065890789031982 1.5822025537490845 0.8048748970031738 66.0 14 -0.03606267273426056
-1.8815191984176636 0.9586820006370544 -0.036859482526779175 9.0 7 -0.03606036677956581
-3.0722341537475586 1.566056251525879 0.9239840507507324 78.0 15 -0.03605806455016136
-2.796827793121338 1.4299771785736084 -0.841679573059082 9.0 0 -0.036037325859069824
-1.814139485359192 0.9279424548149109 0.035568006336688995 2.0 8 -0.036035023629665375
-2.8953704833984375 1.4816356897354126 -0.7508866190910339 32.0 1 -0.036032721400260925
-1.9022748470306396 0.9738620519638062 0.11199896037578583 79.0 9 -0.03603041544556618
-1.9939638376235962 1.0208019018173218 -0.43542614579200745 7.0 2 -0.03602811321616173
-1.9453471899032593 0.9963412880897522 0.19121968746185303 64.0 10 -0.03602580726146698
-2.002401113510132 1.0260035991668701 -0.35635775327682495 9.0 3 -0.03602350503206253
-1.916677474975586 0.9825022220611572 0.26445648074150085 3.0 11 -0.03602119907736778
-1.9157432317733765 0.9828678965568542 0.341027170419693 6.0 12 -0.036016590893268585
-1.9393330812454224 0.9949706196784973 -0.19069677591323853 10.0 5 -0.036014288663864136
-1.9509750604629517 1.0013736486434937 0.4262673258781433 1.0 13 -0.03601198270916939
-1.9010837078094482 0.9761852025985718 -0.11199896037578583 11.0 6 -0.03600968047976494
-3.102780342102051 1.593928337097168 0.8053248524665833 72.0 14 -0.03600737452507019
-1.8834971189498901 0.9679856300354004 -0.03696419671177864 9.0 7 -0.03600507229566574
-3.0839293003082275 1.585604190826416 0.9291604161262512 78.0 15 -0.03600276634097099
-2.8055548667907715 1.4468148946762085 -0.8458206653594971 9.0 0 -0.035982031375169754
-1.8108892440795898 0.934269368648529 0.035568006336688995 2.0 8 -0.035979729145765305
-2.879791259765625 1.4863700866699219 -0.748187243938446 32.0 1 -0.03597742319107056
-1.8988637924194336 0.980496346950531 0.11199896037578583 70.0 9 -0.03597512096166611
-1.9834108352661133 1.0241529941558838 -0.4338997006416321 6.0 2 -0.03597281500697136
-1.9471678733825684 1.0058690309524536 0.19174262881278992 58.0 10 -0.03597051277756691
-2.002317190170288 1.0348008871078491 -0.356983482837677 9.0 3 -0.03596820682287216
-1.946739912033081 1.0065089464187622 0.269087553024292 5.0 11 -0.03596590459346771
-1.9140551090240479 0.9904569387435913 0.3413400650024414 4.0 12 -0.035961296409368515
-1.9323090314865112 0.9999027252197266 -0.19034813344478607 11.0 5 -0.03595899045467377
-1.9404937028884888 1.0045675039291382 0.42474085092544556 1.0 13 -0.03595668822526932
-1.9029850959777832 0.9855708479881287 -0.11231297254562378 11.0 6 -0.03595438227057457
-3.104118585586548 1.6083353757858276 0.8071244359016418 72.0 14 -0.03595208004117012
-1.8747807741165161 0.9717936515808105 -0.036859482526779175 9.0 7 -0.03594977408647537
-3.085235834121704 1.5999170541763306 0.9312310218811035 78.0 15 -0.03594747185707092
-2.783348798751831 1.4476851224899292 -0.8406442999839783 9.0 0 -0.035926736891269684
-1.8200345039367676 0.9470457434654236 0.03581233695149422 2.0 8 -0.035924430936574936
-2.8607563972473145 1.4892154932022095 -0.7445880174636841 33.0 1 -0.035922128707170486
-1.8936580419540405 0.986195981502533 0.11189427971839905 66.0 9 -0.03591982275247574
-1.9780824184417725 1.030163288116455 -0.43351805210113525 6.0 2 -0.03591752052307129
-1.9524797201156616 1.01726233959198 0.19261418282985687 54.0 10 -0.03591521456837654
-2.0021963119506836 1.0436100959777832 -0.35760921239852905 9.0 3 -0.03591291233897209
-1.943214774131775 1.0132982730865479 0.269087553024292 4.0 11 -0.035910606384277344
-1.914088487625122 0.9989602565765381 0.34196579456329346 4.0 12 -0.035905998200178146
-1.92527437210083 1.004798173904419 -0.1899995058774948 10.0 5 -0.0359036959707737
-2.0170297622680664 1.0531331300735474 0.44229528307914734 1.0 13 -0.03590139001607895
-1.9083844423294067 0.9968315958976746 -0.1128363311290741 10.0 6 -0.0358990877866745
-3.101940393447876 1.6209654808044434 0.8080242872238159 67.0 14 -0.03589678183197975
-1.867832899093628 0.976479172706604 -0.036789670586586 9.0 7 -0.0358944796025753
-3.0864791870117188 1.6142586469650269 0.9333015084266663 80.0 15 -0.035892173647880554
-2.7714357376098633 1.4538017511367798 -0.8385737538337708 9.0 0 -0.03584480285644531
-1.8078641891479492 0.948747456073761 0.03563781455159187 2.0 8 -0.03584250062704086
-2.8520898818969727 1.4973807334899902 -0.7436882257461548 36.0 1 -0.035840194672346115
-1.9009875059127808 0.9980407357215881 0.11252231895923615 64.0 9 -0.035837892442941666
-1.9727367162704468 1.0361485481262207 -0.4331364631652832 4.0 2 -0.03583558648824692
-1.9489166736602783 1.0240720510482788 0.19261418282985687 51.0 10 -0.03583328425884247
-2.0072836875915527 1.055188536643982 -0.35917356610298157 8.0 3 -0.03583097830414772
-1.9379088878631592 1.019150733947754 0.26884379982948303 3.0 11 -0.03582867607474327
-1.9055206775665283 1.0025428533554077 0.341027170419693 6.0 12 -0.035824067890644073
-1.9147030115127563 1.007800579071045 -0.18930228054523468 10.0 5 -0.035821761935949326
-1.9101946353912354 1.0062792301177979 -0.11315035074949265 11.0 6 -0.03581715375185013
-3.1083309650421143 1.6381434202194214 0.8111735582351685 77.0 14 -0.03581485152244568
-1.871660590171814 0.9863970875740051 -0.03692929446697235 9.0 7 -0.03581254556775093
-3.0811097621917725 1.624483585357666 0.9333015084266663 80.0 15 -0.03581024333834648
-2.773174524307251 1.4670805931091309 -0.8406442999839783 10.0 0 -0.03578950837254524
-1.8029407262802124 0.9538019895553589 0.035602912306785583 2.0 8 -0.035787202417850494
-2.82643985748291 1.4958915710449219 -0.7382894158363342 36.0 1 -0.035784900188446045
-1.9080829620361328 1.0102773904800415 0.11315035074949265 61.0 9 -0.0357825942337513
-1.9656376838684082 1.0411903858184814 -0.43237319588661194 5.0 2 -0.03578029200434685
-1.9629348516464233 1.0401980876922607 0.19435729086399078 49.0 10 -0.0357779860496521
-2.0037732124328613 1.0618391036987305 -0.35917356610298157 8.0 3 -0.03577568382024765
-1.9222415685653687 1.0190629959106445 0.2671376168727875 6.0 11 -0.0357733778655529
-1.912479281425476 1.014743447303772 0.34290438890457153 6.0 12 -0.035768769681453705
-1.9252523183822632 1.0219507217407227 -0.19069677591323853 10.0 5 -0.035766467452049255
-2.009814977645874 1.0668377876281738 0.44229528307914734 1.0 13 -0.03576416149735451
-1.9015552997589111 1.0097980499267578 -0.1128363311290741 11.0 6 -0.03576185926795006
-3.1063232421875 1.650270700454712 0.8120733499526978 68.0 14 -0.03575955331325531
-1.8805667161941528 0.999493420124054 -0.03717362508177757 9.0 7 -0.03575725108385086
-3.0856544971466064 1.6406713724136353 0.9364073872566223 80.0 15 -0.03575494512915611
-2.768294334411621 1.4762687683105469 -0.8406442999839783 10.0 0 -0.035734210163354874
-1.8013644218444824 0.9610313177108765 0.03563781455159187 2.0 8 -0.035731907933950424
-2.7868173122406006 1.4873963594436646 -0.7292913794517517 32.0 1 -0.035729601979255676
-1.9080684185028076 1.0188132524490356 0.11335969716310501 59.0 9 -0.03572729974985123
-1.9742971658706665 1.0541760921478271 -0.4350445568561554 4.0 2 -0.03572499379515648
-1.9665042161941528 1.0504567623138428 0.1950545459985733 42.0 10 -0.03572269156575203
-2.0105082988739014 1.0744130611419678 -0.3610507845878601 8.0 3 -0.03572038561105728
-1.9186726808547974 1.0257667303085327 0.2671376168727875 5.0 11 -0.03571808338165283
-1.9246010780334473 1.0298000574111938 0.34572020173072815 5.0 12 -0.035713475197553635
-1.9288796186447144 1.0320894718170166 -0.19139400124549866 9.0 5 -0.03571116924285889
-2.0060787200927734 1.0738469362258911 0.44229528307914734 1.0 13 -0.03570886701345444
-1.892736554145813 1.0136009454727173 -0.11252231895923615 13.0 6 -0.03570656105875969
-3.08851957321167 1.6546618938446045 0.8089240789413452 66.0 14 -0.03570425882935524
-1.878828763961792 1.0069968700408936 -0.03720853105187416 9.0 7 -0.03570195659995079
-3.0901238918304443 1.656909704208374 0.9395131468772888 78.0 15 -0.03569965064525604
-2.769929885864258 1.489582896232605 -0.8427148461341858 10.0 0 -0.0356789156794548
-1.7979989051818848 0.9673129916191101 0.03563781455159187 1.0 8 -0.035676609724760056
-2.779892683029175 1.4961916208267212 -0.7288414835929871 19.0 1 -0.035674307495355606
-1.900983452796936 1.0235737562179565 0.11315035074949265 59.0 9 -0.03567200154066086
-1.9585050344467163 1.0545459985733032 -0.43237319588661194 3.0 2 -0.03566969931125641
-1.9715962409973145 1.0620386600494385 0.19592611491680145 37.0 10 -0.03566739335656166
-2.0067458152770996 1.081424593925476 -0.3610507845878601 8.0 3 -0.03566509112715721
-1.930806040763855 1.0409365892410278 0.26933127641677856 7.0 11 -0.03566278517246246
-1.9227333068847656 1.0374500751495361 0.34603309631347656 3.0 12 -0.035658180713653564
-1.9357857704162598 1.0444928407669067 -0.19243988394737244 9.0 5 -0.035655874758958817
-2.0023179054260254 1.080843448638916 0.44229528307914734 1.0 13 -0.03565357252955437
-1.9032460451126099 1.0277938842773438 -0.11335969716310501 17.0 6 -0.03565126657485962
-3.1050140857696533 1.6774736642837524 0.8147727847099304 70.0 14 -0.03564896434545517
-1.878820776939392 1.0154508352279663 -0.03727834299206734 10.0 7 -0.03564665839076042
-3.0979161262512207 1.6750370264053345 0.9436542987823486 76.0 15 -0.03564435616135597
-2.7647132873535156 1.4992427825927734 -0.8427148461341858 11.0 0 -0.035623617470264435
-1.8332810401916504 0.9945616722106934 0.03640572354197502 1.0 8 -0.035621315240859985
-2.7575254440307617 1.4965906143188477 -0.7243424654006958 9.0 1 -0.03561900928616524
-1.9079300165176392 1.0359212160110474 0.11377837508916855 58.0 9 -0.03561670705676079
-1.944460153579712 1.0557554960250854 -0.4300835132598877 1.0 2 -0.03561440110206604
-1.9696276187896729 1.069865345954895 0.1961004137992859 25.0 10 -0.03561209887266159
-2.009901285171509 1.0921956300735474 -0.3623022735118866 6.0 3 -0.03560979664325714
-1.946345329284668 1.0580989122390747 0.2720124125480652 5.0 11 -0.03560749068856239
-1.9121593236923218 1.0403790473937988 0.3447815775871277 3.0 12 -0.035602882504463196
-1.928627610206604 1.0493391752243042 -0.19209124147891998 10.0 5 -0.035600580275058746
-1.998532772064209 1.0878262519836426 0.44229528307914734 1.0 13 -0.035598274320364
-1.904909372329712 1.0372962951660156 -0.11367370933294296 14.0 6 -0.03559597209095955
-3.1111183166503906 1.6948283910751343 0.817922055721283 67.0 14 -0.0355936661362648
-1.8717527389526367 1.020089030265808 -0.03720853105187416 10.0 7 -0.03559136390686035
-3.092050790786743 1.6858398914337158 0.9436542987823486 76.0 15 -0.035589057952165604
-2.745903253555298 1.501469612121582 -0.8385737538337708 11.0 0 -0.035568322986364365
-1.80523681640625 0.9875192046165466 0.03591705113649368 1.0 8 -0.03556601703166962
-2.7454464435577393 1.502465009689331 -0.7225428223609924 12.0 1 -0.03556371480226517
-1.914813756942749 1.0483297109603882 0.11440641433000565 49.0 9 -0.03556141257286072
-1.9476510286331177 1.066307544708252 -0.43160995841026306 1.0 2 -0.03555910661816597
-1.9763658046722412 1.0824768543243408 0.19714628159999847 7.0 10 -0.03555680438876152
-2.018202781677246 1.1058498620986938 -0.36449235677719116 6.0 3 -0.03555449843406677
-1.946121335029602 1.0667948722839355 0.27249985933303833 4.0 11 -0.03555219620466232
-1.906783938407898 1.046097755432129 0.34446874260902405 4.0 12 -0.035547588020563126
-1.9354335069656372 1.0618155002593994 -0.19313712418079376 9.0 5 -0.03554528206586838
-1.9430915117263794 1.0664573907852173 0.4308467507362366 1.0 13 -0.03554297983646393
-1.9082796573638916 1.047784447669983 -0.1140923947095871 10.0 6 -0.03554067388176918
-3.11201548576355 1.7094309329986572 0.8197216987609863 72.0 14 -0.03553837165236473
-1.8716858625411987 1.0285422801971436 -0.03727834299206734 11.0 7 -0.03553606569766998
-3.092918634414673 1.7003456354141235 0.9457248449325562 76.0 15 -0.03553376346826553
-2.7338781356811523 1.507314682006836 -0.8365032076835632 12.0 0 -0.035513028502464294
-1.8157869577407837 1.0015407800674438 0.03619629144668579 1.0 8 -0.035510722547769547
-2.7145919799804688 1.4979169368743896 -0.7157943248748779 29.0 1 -0.0355084203183651
-1.923567771911621 1.0614283084869385 0.11513911187648773 47.0 9 -0.03550611436367035
-1.995479941368103 1.1015639305114746 -0.44305849075317383 1.0 2 -0.0355038121342659
-2.0248985290527344 1.1182643175125122 0.2023756206035614 1.0 10 -0.03550150617957115
-2.0143306255340576 1.1128876209259033 -0.36449235677719116 6.0 3 -0.0354992039501667
-1.95454740524292 1.0803035497665405 0.2742060422897339 2.0 11 -0.035496897995471954
-1.924048900604248 1.0638856887817383 0.34822314977645874 4.0 12 -0.03549228981137276
-1.9299718141555786 1.0676000118255615 -0.19296279549598694 8.0 5 -0.03548998758196831
-1.9496636390686035 1.078937292098999 0.4331364631652832 1.0 13 -0.03548768162727356
-1.8958734273910522 1.049602746963501 -0.11356903612613678 11.0 6 -0.03548537939786911
-3.126788377761841 1.7310678958892822 0.8251205086708069 79.0 14 -0.03548307344317436
-1.8805099725723267 1.0415253639221191 -0.03752267360687256 10.0 7 -0.03548077121376991
-3.0957119464874268 1.715274453163147 0.9483130574226379 70.0 15 -0.035478465259075165
-2.7423739433288574 1.523879051208496 -0.8406442999839783 11.0 0 -0.035457730293273926
-1.8159513473510742 1.0095000267028809 0.03626609966158867 1.0 8 -0.035455428063869476
-2.6925787925720215 1.4974392652511597 -0.7112953066825867 32.0 1 -0.03545312210917473
-1.9182919263839722 1.0668306350708008 0.11503444612026215 49.0 9 -0.03545081987977028
-1.9575037956237793 1.0890852212905884 -0.43542614579200745 1.0 2 -0.03544851392507553
-3.14753794670105 1.7518961429595947 0.31515514850616455 26.0 10 -0.03544621169567108
-2.0330650806427 1.1320542097091675 -0.36855965852737427 6.0 3 -0.035443905740976334
-3.138868570327759 1.7485069036483765 0.44116705656051636 37.0 11 -0.035441603511571884
-1.9170598983764648 1.0683362483978271 0.3475974202156067 5.0 12 -0.03543699532747269
-1.9473036527633667 1.0856364965438843 -0.1950545459985733 8.0 5 -0.03543468937277794
-3.1120052337646484 1.7356784343719482 0.6926366686820984 59.0 13 -0.03543238714337349
-1.8958708047866821 1.0578298568725586 -0.11377837508916855 11.0 6 -0.03543008118867874
-3.1125223636627197 1.7366790771484375 0.8228710293769836 66.0 14 -0.03542777895927429
-1.8875223398208618 1.0536036491394043 -0.03773210570216179 9.0 7 -0.03542547672986984
-3.0967535972595215 1.7292983531951904 0.9503835439682007 69.0 15 -0.035423170775175095
-2.7406764030456543 1.5348527431488037 -0.841679573059082 11.0 0 -0.035402435809373856
-1.8474847078323364 1.0350643396377563 0.03696419671177864 1.0 8 -0.03540012985467911
-2.6841986179351807 1.5044538974761963 -0.7103955149650574 14.0 1 -0.03539782762527466
-1.9128141403198242 1.0725435018539429 0.11492977291345596 52.0 9 -0.03539552167057991
-3.1573500633239746 1.7710968255996704 0.31672394275665283 25.0 10 -0.03539091348648071
-2.0465266704559326 1.1484565734863281 -0.3716883361339569 6.0 3 -0.03538861125707626
-3.1417076587677 1.7637653350830078 0.442385733127594 61.0 11 -0.035386305302381516
-1.932262659072876 1.0856659412384033 0.35103899240493774 3.0 12 -0.03538169711828232
-1.9469759464263916 1.0943799018859863 -0.19540317356586456 8.0 5 -0.03537939488887787
-3.1113662719726562 1.748874545097351 0.6937815546989441 61.0 13 -0.03537709265947342
-1.904538869857788 1.070963740348816 -0.11451108753681183 11.0 6 -0.03537478670477867
-3.1115365028381348 1.7503995895385742 0.8242207169532776 67.0 14 -0.03537248447537422
-1.8733769655227661 1.0543015003204346 -0.03752267360687256 9.0 7 -0.035370178520679474
-3.1024820804595947 1.7467318773269653 0.9540070295333862 76.0 15 -0.035367876291275024
-2.7013916969299316 1.5258846282958984 -0.8313267827033997 12.0 0 -0.03534713760018349
-1.8090378046035767 1.0218374729156494 0.03626609966158867 1.0 8 -0.03534483537077904
-2.2038824558258057 1.245374083518982 -0.5844228863716125 1.0 1 -0.03534252941608429
-1.921229362487793 1.0860936641693115 0.11566247045993805 58.0 9 -0.03534022718667984
-3.152571201324463 1.7836391925811768 0.31689828634262085 23.0 10 -0.03533561900258064
-2.0680899620056152 1.1705456972122192 -0.37638136744499207 6.0 3 -0.035333313047885895
-3.161445379257202 1.7893882989883423 0.4460418224334717 60.0 11 -0.035331010818481445
-1.974867820739746 1.1186918020248413 0.3594864308834076 1.0 12 -0.03532640263438225
-1.9431439638137817 1.101169466972351 -0.19540317356586456 7.0 5 -0.0353241004049778
-3.1134755611419678 1.7651071548461914 0.6956896185874939 64.0 13 -0.03532179445028305
-1.9040753841400146 1.0799076557159424 -0.1147204264998436 12.0 6 -0.0353194922208786
-3.120354413986206 1.7704473733901978 0.8282698392868042 72.0 14 -0.03531718626618385
-1.8679460287094116 1.0598475933074951 -0.03748776763677597 7.0 7 -0.035314884036779404
-3.0946857929229736 1.7565975189208984 0.9534894227981567 70.0 15 -0.035312578082084656
-2.657437801361084 1.5133174657821655 -0.819421112537384 24.0 0 -0.03529184311628342
-1.8747810125350952 1.068055272102356 0.037662290036678314 1.0 8 -0.03528953716158867
-2.1654419898986816 1.2341443300247192 -0.57542484998703 1.0 1 -0.03528723493218422
-1.931115984916687 1.101042628288269 0.11649984866380692 59.0 9 -0.03528492897748947
-1.94599187374115 1.1095242500305176 -0.43542614579200745 1.0 2 -0.03528262674808502
-3.1411337852478027 1.7916712760925293 0.31637534499168396 20.0 10 -0.03528032451868057
-2.0159521102905273 1.1503446102142334 -0.3676210343837738 2.0 3 -0.035278018563985825
-3.1652097702026367 1.8068684339523315 0.4475042521953583 67.0 11 -0.035275716334581375
-3.111356735229492 1.7775657176971436 0.5675443410873413 57.0 12 -0.03527110815048218
-1.9444785118103027 1.1109102964401245 -0.19592611491680145 7.0 5 -0.03526880219578743
-3.114112615585327 1.7798620462417603 0.6972161531448364 61.0 13 -0.03526649996638298
-1.910697102546692 1.0924957990646362 -0.1153484508395195 10.0 6 -0.03526419401168823
-3.1209216117858887 1.7851982116699219 0.8300694227218628 72.0 14 -0.03526189178228378
-1.8848763704299927 1.0786052942276 -0.03790662810206413 7.0 7 -0.035259585827589035
-3.0932562351226807 1.7708075046539307 0.95504230260849 76.0 15 -0.035257283598184586
-2.6370608806610107 1.5139280557632446 -0.8147624135017395 36.0 0 -0.03523654863238335
-1.8710414171218872 1.0745930671691895 0.037662290036678314 1.0 8 -0.0352342426776886
-2.090153694152832 1.2009207010269165 -0.5565289855003357 1.0 1 -0.03523194044828415
-1.9307239055633545 1.1097674369812012 0.11670918762683868 58.0 9 -0.0352296344935894
-1.9421069622039795 1.1163102388381958 -0.43542614579200745 1.0 2 -0.03522733226418495
-3.152132749557495 1.812556266784668 0.31811845302581787 20.0 10 -0.035225026309490204
-1.9862401485443115 1.1425997018814087 -0.36292800307273865 2.0 3 -0.035222724080085754
-3.155441999435425 1.8159259557724 0.44701680541038513 66.0 11 -0.035220418125391006
-3.1325201988220215 1.8041905164718628 0.5725501775741577 76.0 12 -0.03521580994129181
-1.9388618469238281 1.116697072982788 -0.19575178623199463 7.0 5 -0.03521350771188736
-3.1078808307647705 1.7907216548919678 0.6972161531448364 60.0 13 -0.03521120175719261
-1.9016811847686768 1.0961661338806152 -0.11503444612026215 9.0 6 -0.03520889952778816
-3.1349287033081055 1.8077641725540161 0.8354682922363281 72.0 14 -0.035206593573093414
-1.8897604942321777 1.0901743173599243 -0.038081150501966476 7.0 7 -0.035204291343688965
-3.1004421710968018 1.7893187999725342 0.959183394908905 76.0 15 -0.03520198538899422
-2.6250717639923096 1.519253134727478 -0.8126918077468872 36.0 0 -0.03518125042319298
-1.867279052734375 1.0811177492141724 0.037662290036678314 1.0 8 -0.03517894819378853
-2.0893211364746094 1.2101633548736572 -0.557428777217865 1.0 1 -0.03517664223909378
-1.9253050088882446 1.115162968635559 0.1166045218706131 48.0 9 -0.03517434000968933
-3.154405355453491 1.82854425907135 0.31898999214172363 20.0 10 -0.035169731825590134
-1.9736952781677246 1.1445716619491577 -0.3613636791706085 2.0 3 -0.035167425870895386
-3.150801420211792 1.8279247283935547 0.4472605288028717 64.0 11 -0.035165123641490936
-1.9589647054672241 1.1369425058364868 -0.27810585498809814 2.0 4 -0.03516281768679619
-3.131646156311035 1.817542314529419 0.5734888315200806 65.0 12 -0.03516051545739174
-1.9504592418670654 1.1324617862701416 -0.1973206102848053 5.0 5 -0.03515820950269699
-3.1185882091522217 1.8114193677902222 0.701032280921936 64.0 13 -0.03515590727329254
-1.899570107460022 1.1038011312484741 -0.11513911187648773 9.0 6 -0.035153601318597794
-3.1218602657318115 1.8147785663604736 0.8336686491966248 72.0 14 -0.035151299089193344
-1.8999652862548828 1.1044749021530151 -0.038360390812158585 6.0 7 -0.035148993134498596
-3.1045117378234863 1.805417537689209 0.9622892737388611 78.0 15 -0.03514669090509415
-2.6130781173706055 1.5245131254196167 -0.8106213212013245 36.0 0 -0.03512595593929291
-1.8636835813522339 1.087303876876831 0.037662290036678314 1.0 8 -0.03512364998459816
-2.588528633117676 1.5107954740524292 -0.6919494867324829 9.0 1 -0.03512134775519371
-1.9334741830825806 1.1289256811141968 0.11733722686767578 39.0 9 -0.03511904180049896
-3.156604290008545 1.844570279121399 0.3198615610599518 20.0 10 -0.035114433616399765
-1.9801222085952759 1.1570898294448853 -0.3632408678531647 1.0 3 -0.035112131386995316
-3.1550049781799316 1.8443742990493774 0.4487229585647583 66.0 11 -0.03510982543230057
-1.9620381593704224 1.1474411487579346 -0.2790808379650116 3.0 4 -0.03510752320289612
-3.123577356338501 1.827466368675232 0.5731759667396545 67.0 12 -0.03510521724820137
-1.9516533613204956 1.1422823667526245 -0.197843536734581 5.0 5 -0.03510291501879692
-3.115952730178833 1.8237346410751343 0.7017955183982849 63.0 13 -0.03510060906410217
-1.9096876382827759 1.1181676387786865 -0.1159764900803566 10.0 6 -0.03509830683469772
-3.1208696365356445 1.8280760049819946 0.8350183367729187 73.0 14 -0.035096004605293274
-1.8822963237762451 1.1030118465423584 -0.038081150501966476 7.0 7 -0.035093698650598526
-3.1081900596618652 1.8221054077148438 0.9653950929641724 78.0 15 -0.03509139642119408
-2.5946850776672363 1.525337815284729 -0.8064801692962646 38.0 0 -0.03507065773010254
-1.8598769903182983 1.0938024520874023 0.037662290036678314 1.0 8 -0.03506835550069809
-2.578199863433838 1.5168579816818237 -0.690599799156189 24.0 1 -0.03506604954600334
-1.9312430620193481 1.1366811990737915 0.11744190007448196 31.0 9 -0.03506374731659889
-3.1573376655578613 1.8590716123580933 0.3205588161945343 17.0 10 -0.035059139132499695
-1.9794752597808838 1.1659998893737793 -0.3638666272163391 1.0 3 -0.03505683317780495
-3.158809185028076 1.8614230155944824 0.4501853883266449 66.0 11 -0.0350545309484005
-2.0093226432800293 1.1845262050628662 -0.2863929867744446 1.0 4 -0.03505222499370575
-3.1205825805664062 1.840364694595337 0.5738016963005066 63.0 12 -0.0350499227643013
-2.018009662628174 1.1905966997146606 -0.20499029755592346 1.0 5 -0.03504762053489685
-3.1230947971343994 1.842581033706665 0.7048484683036804 63.0 13 -0.0350453145802021
-1.917812705039978 1.1319332122802734 -0.11670918762683868 8.0 6 -0.03504301235079765
-3.1295723915100098 1.8478755950927734 0.8390675187110901 72.0 14 -0.035040706396102905
-1.8887650966644287 1.1156777143478394 -0.03829057887196541 6.0 7 -0.035038404166698456
-3.0984835624694824 1.8309791088104248 0.9643597602844238 80.0 15 -0.03503609821200371
-2.569135904312134 1.5230154991149902 -0.8002685308456421 24.0 0 -0.03501536324620247
-2.5678608417510986 1.5228662490844727 -0.6892500519752502 12.0 1 -0.03501075506210327
-1.941004991531372 1.1515681743621826 0.11827926337718964 38.0 9 -0.035008449107408524
-3.1367974281311035 1.8624937534332275 0.31916433572769165 15.0 10 -0.035003844648599625
-1.9683948755264282 1.1692118644714355 -0.3626151382923126 1.0 3 -0.03500153869390488
-3.1625325679779053 1.8785208463668823 0.4516478180885315 64.0 11 -0.03499923646450043
-1.957392692565918 1.1631388664245605 -0.27956831455230713 1.0 4 -0.03499693050980568
-3.1294214725494385 1.8603310585021973 0.5766174793243408 65.0 12 -0.03499462828040123
-1.9932920932769775 1.1854130029678345 -0.2028985619544983 1.0 5 -0.03499232232570648
-3.1230692863464355 1.8580304384231567 0.7063749432563782 66.0 13 -0.03499002009630203
-1.9308137893676758 1.1491695642471313 -0.11775590479373932 9.0 6 -0.034987714141607285
-3.131150722503662 1.8643184900283813 0.8413169980049133 69.0 14 -0.034985411912202835
-1.8882956504821777 1.1243101358413696 -0.038360390812158585 4.0 7 -0.03498310595750809
-3.102032423019409 1.8477146625518799 0.9674656391143799 80.0 15 -0.03498080372810364
-2.555511713027954 1.5270203351974487 -0.7976803779602051 14.0 0 -0.0349600650370121
-2.548882484436035 1.5242657661437988 -0.6856508255004883 10.0 1 -0.0349554605782032
-1.9470551013946533 1.1648269891738892 0.11890730261802673 25.0 9 -0.03495315462350845
-3.1593399047851562 1.8908257484436035 0.3221276104450226 11.0 10 -0.034948546439409256
-1.9371846914291382 1.1598396301269531 -0.35760921239852905 1.0 3 -0.034946244210004807
-3.159031867980957 1.8921395540237427 0.4521353244781494 63.0 11 -0.03494393825531006
-3.1327476501464844 1.8778823614120483 0.5784947276115417 63.0 12 -0.03493933007121086
-1.9891419410705566 1.1923636198043823 -0.2028985619544983 1.0 5 -0.03493702784180641
-3.119931936264038 1.8709402084350586 0.707138180732727 63.0 13 -0.034934721887111664
-1.9182273149490356 1.1507651805877686 -0.117232546210289 7.0 6 -0.034932419657707214
-3.137991189956665 1.8832594156265259 0.8449162244796753 69.0 14 -0.034930113703012466
-1.9013062715530396 1.1415166854858398 -0.03870943933725357 3.0 7 -0.03492781147360802
-3.1051759719848633 1.8650398254394531 0.9705714583396912 80.0 15 -0.03492550551891327
-2.5683693885803223 1.546895146369934 -0.8033743500709534 12.0 0 -0.03490477055311203
-2.6069676876068115 1.5713826417922974 -0.702747106552124 21.0 1 -0.03490016236901283
-1.960080862045288 1.1819298267364502 0.11995401978492737 12.0 9 -0.03489786013960838
-3.174899101257324 1.9152206182479858 0.3243936598300934 13.0 10 -0.034893251955509186
-1.9263588190078735 1.1625125408172607 -0.35635775327682495 1.0 3 -0.03489094600081444
-3.1524078845977783 1.9031550884246826 0.4521353244781494 61.0 11 -0.03488864377140999
-3.1380088329315186 1.8959569931030273 0.5806847810745239 67.0 12 -0.03488403558731079
-3.1268234252929688 1.8899439573287964 0.7101911306381226 66.0 13 -0.034879427403211594
-1.9227442741394043 1.1626206636428833 -0.11775590479373932 1.0 6 -0.034877121448516846
-3.1247284412384033 1.8901671171188354 0.8431165814399719 69.0 14 -0.034874819219112396
-1.8973100185394287 1.148146629333496 -0.03870943933725357 2.0 7 -0.03487251326441765
-3.1052567958831787 1.8798704147338867 0.9726420044898987 82.0 15 -0.0348702110350132
-2.685157060623169 1.6300339698791504 -0.841679573059082 7.0 0 -0.03484947606921196
-2.738035202026367 1.6634429693222046 -0.7396391034126282 55.0 1 -0.03484486788511276
-1.9764246940612793 1.2012121677398682 0.12121009081602097 11.0 9 -0.034842561930418015
-3.1801111698150635 1.933537244796753 0.3256138265132904 22.0 10 -0.03483795374631882
-3.1542251110076904 1.9193063974380493 0.45335400104522705 57.0 11 -0.03483334556221962
-3.1296842098236084 1.9058717489242554 0.5803719758987427 65.0 12 -0.03482873737812042
-2.0862741470336914 1.270470380783081 -0.2137058824300766 2.0 5 -0.03482643514871597
-3.1336207389831543 1.90901780128479 0.7132440805435181 61.0 13 -0.034824129194021225
-1.9340236186981201 1.178680419921875 -0.11869796365499496 1.0 6 -0.034821826964616776
-3.1264307498931885 1.906135082244873 0.8453661203384399 67.0 14 -0.03481952100992203
-1.8949981927871704 1.1558033227920532 -0.03874434158205986 2.0 7 -0.03481721878051758
-3.1184656620025635 1.902772307395935 0.9788536429405212 80.0 15 -0.03481491655111313
-2.682746648788452 1.641413688659668 -0.8427148461341858 7.0 0 -0.03479417786002159
-2.7355363368988037 1.6750248670578003 -0.7405388951301575 54.0 1 -0.034789569675922394
-1.9977664947509766 1.2237528562545776 0.12278016656637192 8.0 9 -0.034787267446517944
-2.7472450733184814 1.6828539371490479 -0.6262351274490356 1.0 2 -0.034784961491823196
-3.158053159713745 1.9352575540542603 0.3240450322628021 1.0 10 -0.03478265926241875
-2.659203052520752 1.6301994323730469 -0.49402010440826416 1.0 3 -0.034780353307724
-2.7766146659851074 1.7035123109817505 -0.3999752104282379 1.0 4 -0.0347757451236248
-3.1331143379211426 1.922984004020691 0.5822491645812988 63.0 12 -0.03477344289422035
-2.0852229595184326 1.2798290252685547 -0.21405449509620667 24.0 5 -0.034771136939525604
-3.1436684131622314 1.9302171468734741 0.7170602083206177 63.0 13 -0.034768834710121155
-2.035412073135376 1.2502360343933105 -0.12518762052059174 3.0 6 -0.034766532480716705
-3.131380796432495 1.924177885055542 0.8485153913497925 66.0 14 -0.03476422652602196
-1.8943589925765991 1.1645060777664185 -0.038814153522253036 1.0 7 -0.03476192429661751
-3.111804485321045 1.9136462211608887 0.9788536429405212 78.0 15 -0.03475961834192276
-2.6835780143737793 1.6548242568969727 -0.8447853922843933 7.0 0 -0.03473888337612152
-2.7429394721984863 1.692751169204712 -0.7441381216049194 56.0 1 -0.034734275192022324
-2.0223731994628906 1.2485557794570923 0.12455958873033524 1.0 9 -0.034731969237327576
-2.7213072776794434 1.6800578832626343 -0.6216557621955872 25.0 2 -0.034729667007923126
-2.9580321311950684 1.8269171714782715 0.3041735291481018 2.0 10 -0.03472736105322838
-2.6938278675079346 1.6643909215927124 -0.5015289187431335 51.0 3 -0.03472505882382393
-2.9634480476379395 1.8316924571990967 0.427761435508728 2.0 11 -0.03472275659441948
-2.723376750946045 1.6839617490768433 -0.39315053820610046 9.0 4 -0.03472045063972473
-3.1331024169921875 1.9380656480789185 0.5835006237030029 63.0 12 -0.03471814841032028
-2.0841314792633057 1.289196252822876 -0.21440312266349792 27.0 5 -0.034715842455625534
-3.1402499675750732 1.943245768547058 0.7178234457969666 63.0 13 -0.034713540226221085
-2.049715995788574 1.2688969373703003 -0.12633900344371796 46.0 6 -0.03471123427152634
-3.136242389678955 1.9422791004180908 0.8516647815704346 63.0 14 -0.03470893204212189
-1.8766834735870361 1.1626864671707153 -0.03853491693735123 1.0 7 -0.03470662608742714
-3.1083903312683105 1.9265316724777222 0.9798889756202698 80.0 15 -0.03470432385802269
-2.6728627681732178 1.661122441291809 -0.8432324528694153 7.0 0 -0.03468358516693115
-2.7303948402404785 1.698198676109314 -0.7423385381698608 56.0 1 -0.03467898070812225
-2.9829134941101074 1.8559775352478027 0.18411791324615479 7.0 9 -0.034676674753427505
-2.728761911392212 1.6978437900543213 -0.6247087121009827 48.0 2 -0.034674372524023056
-2.9617855548858643 1.8435486555099487 0.3052194118499756 7.0 10 -0.03467206656932831
-2.6863248348236084 1.6727399826049805 -0.5012161135673523 59.0 3 -0.03466976433992386
-2.963776111602783 1.8462234735488892 0.4287363886833191 4.0 11 -0.03466745838522911
-2.7141127586364746 1.691358208656311 -0.39266306161880493 16.0 4 -0.03466515615582466
-3.141404390335083 1.958396553993225 0.5863164663314819 62.0 12 -0.03466285020112991
-2.079618453979492 1.296463966369629 -0.21440312266349792 24.0 5 -0.034660547971725464
-3.123453140258789 1.9479613304138184 0.7155337929725647 63.0 13 -0.034658242017030716
-2.0503575801849365 1.2792155742645264 -0.1266530305147171 71.0 6 -0.034655939787626266
-3.1426684856414795 1.9614702463150024 0.8552640080451965 67.0 14 -0.03465363383293152
-1.9743857383728027 1.2327752113342285 -0.040629200637340546 1.0 7 -0.03465133160352707
-3.1180312633514404 1.947604775428772 0.9850653409957886 80.0 15 -0.03464902564883232
-2.663773536682129 1.6683915853500366 -0.8421972393989563 7.0 0 -0.03462829068303108
-2.7294039726257324 1.7108242511749268 -0.7436882257461548 55.0 1 -0.034623682498931885
-2.9814929962158203 1.8695616722106934 0.18443192541599274 7.0 9 -0.034621380269527435
-2.7394516468048096 1.7177883386611938 -0.6285248398780823 55.0 2 -0.03461907431483269
-2.972210168838501 1.8644638061523438 0.3069625198841095 7.0 10 -0.03461677208542824
-2.687162160873413 1.6863069534301758 -0.5024675726890564 60.0 3 -0.03461446613073349
-2.957313299179077 1.8565577268600464 0.4287363886833191 4.0 11 -0.03461216390132904
-2.696424722671509 1.6934316158294678 -0.3909568786621094 24.0 4 -0.03460985794663429
-3.1546213626861572 1.9819600582122803 0.5900708436965942 61.0 12 -0.03460755571722984
-2.085203170776367 1.3100745677947998 -0.2154489904642105 18.0 5 -0.034605249762535095
-3.1399052143096924 1.9734785556793213 0.7208763957023621 60.0 13 -0.034602947533130646
-2.0357351303100586 1.2799863815307617 -0.1260250061750412 49.0 6 -0.0346006415784359
-3.139101505279541 1.9745033979415894 0.8561637997627258 63.0 14 -0.03459833934903145
-2.02423095703125 1.273739218711853 -0.04174615815281868 31.0 7 -0.0345960333943367
-3.1242926120758057 1.9667108058929443 0.9892064332962036 78.0 15 -0.03459373116493225
-2.6644680500030518 1.6818042993545532 -0.844267725944519 6.0 0 -0.03457299619913101
