# .PCD v0.7 - Point Cloud Data file format
VERSION 0.7
FIELDS x y z intensity ring time
SIZE 4 4 4 4 4 4
TYPE F F F F F F
COUNT 1 1 1 1 1 1
WIDTH 543
HEIGHT 1
VIEWPOINT 0 0 0 1 0 0 0
POINTS 543
DATA ascii
-2.6595840454101562 -2.0816357135772705 0.1770002245903015 6.0 9 -0.08591187000274658
-2.2896409034729004 -1.7920840978622437 -0.565176248550415 55.0 2 -0.08590956777334213
-2.724074602127075 -2.131345272064209 0.3026047348976135 7.0 10 -0.08590726554393768
-2.7320408821105957 -2.1360414028167725 0.4258115291595459 4.0 11 -0.08590265363454819
-2.703845977783203 -2.112475872039795 0.5434533953666687 13.0 12 -0.08589804917573929
-2.7077341079711914 -2.114752769470215 0.667831540107727 10.0 13 -0.08589343726634979
-2.5188651084899902 -1.966537594795227 -0.16747507452964783 2.0 6 -0.08589113503694534
-2.69612979888916 -2.104175090789795 0.7895782589912415 16.0 14 -0.0858888328075409
-2.194683790206909 -1.712208867073059 -0.04858750104904175 12.0 7 -0.08588653057813644
-2.6856789588928223 -2.094510793685913 0.9125959873199463 49.0 15 -0.085884228348732
-2.1721131801605225 -1.6891186237335205 0.04802902415394783 4.0 8 -0.08586118370294571
-2.300140142440796 -1.7880330085754395 -0.6726037263870239 36.0 1 -0.08585888147354126
-2.6684112548828125 -2.0735647678375244 0.1771048903465271 7.0 9 -0.08585657924413681
-2.277279853820801 -1.769624948501587 -0.5605968832969666 47.0 2 -0.08585426956415176
-2.7204842567443848 -2.113267183303833 0.3013845682144165 8.0 10 -0.08585196733474731
-2.730072021484375 -2.1191885471343994 0.4243490695953369 4.0 11 -0.08584736287593842
-2.701838254928589 -2.0957603454589844 0.5415762066841125 13.0 12 -0.08584275096654892
-2.713547468185425 -2.104085683822632 0.6674498915672302 8.0 13 -0.08583814650774002
-2.5588643550872803 -1.9834283590316772 -0.16967318952083588 2.0 6 -0.08583584427833557
-2.7003774642944336 -2.0923635959625244 0.7886784672737122 23.0 14 -0.08583353459835052
-2.2006468772888184 -1.704538106918335 -0.04858750104904175 9.0 7 -0.08583123236894608
-2.6807539463043213 -2.0756614208221436 0.9084548950195312 51.0 15 -0.08582893013954163
-2.217567205429077 -1.712077021598816 0.048901643604040146 6.0 8 -0.08580588549375534
-2.300196409225464 -1.7752305269241333 -0.6708040833473206 12.0 1 -0.08580358326435089
-2.6693079471588135 -2.0593576431274414 0.17668621242046356 7.0 9 -0.08580128103494644
-2.2865519523620605 -1.7640633583068848 -0.5613601207733154 49.0 2 -0.08579897880554199
-2.723111391067505 -2.1001076698303223 0.3008616268634796 11.0 10 -0.08579666912555695
-2.7343082427978516 -2.107222080230713 0.42386162281036377 4.0 11 -0.08579206466674805
-2.713832139968872 -2.089932680130005 0.5425148010253906 18.0 12 -0.08578746020793915
-2.708430767059326 -2.085019111633301 0.6643969416618347 8.0 13 -0.08578284829854965
-2.5499441623687744 -1.9623034000396729 -0.16862647235393524 3.0 6 -0.0857805460691452
-2.7045750617980957 -2.0805487632751465 0.7877786159515381 28.0 14 -0.08577824383974075
-2.192317008972168 -1.6858742237091064 -0.04827335476875305 12.0 7 -0.0857759341597557
-2.675729990005493 -2.0568718910217285 0.9043138027191162 51.0 15 -0.08577363193035126
-2.2679688930511475 -1.7383880615234375 0.04987897723913193 8.0 8 -0.08575059473514557
-2.670138359069824 -2.0451691150665283 0.17626751959323883 7.0 9 -0.08574598282575607
-2.292696237564087 -1.756070613861084 -0.5613601207733154 42.0 2 -0.08574368059635162
-2.7320070266723633 -2.091801166534424 0.30103594064712524 13.0 10 -0.08574137836694717
-2.725881814956665 -2.085601806640625 0.4214242398738861 4.0 11 -0.08573676645755768
-2.7242491245269775 -2.0828464031219482 0.5431405305862427 21.0 12 -0.08573216199874878
-2.707892894744873 -2.0695912837982178 0.6624888777732849 7.0 13 -0.08572755008935928
-2.545668363571167 -1.9449034929275513 -0.16789376735687256 3.0 6 -0.08572524785995483
-2.7118210792541504 -2.0710954666137695 0.7877786159515381 33.0 14 -0.08572294563055038
-2.212493419647217 -1.689132571220398 -0.04858750104904175 7.0 7 -0.08572064340114594
-2.6844284534454346 -2.048691749572754 0.9048314094543457 53.0 15 -0.08571833372116089
-2.240605354309082 -1.7050305604934692 0.049145977944135666 12.0 8 -0.0856952965259552
-2.615257501602173 -1.9886882305145264 0.17218531668186188 10.0 9 -0.0856906920671463
-2.3160018920898438 -1.7611291408538818 -0.5655578970909119 25.0 2 -0.08568838238716125
-2.73294734954834 -2.0774290561676025 0.3003386855125427 16.0 10 -0.0856860801577568
-2.7220797538757324 -2.06766939163208 0.41971805691719055 6.0 11 -0.0856814756989479
-2.73150372505188 -2.0733234882354736 0.5431405305862427 25.0 12 -0.08567686378955841
-2.705716609954834 -2.053006887435913 0.6601991653442383 7.0 13 -0.08567225933074951
-2.507885694503784 -1.9022098779678345 -0.16496294736862183 2.0 6 -0.08566994965076447
-2.7128233909606934 -2.0569064617156982 0.7859790325164795 44.0 14 -0.08566764742136002
-2.197658061981201 -1.6656969785690308 -0.048133738338947296 12.0 7 -0.08566534519195557
-2.691563606262207 -2.039309024810791 0.9048314094543457 54.0 15 -0.08566304296255112
-2.243351936340332 -1.6947886943817139 0.04907616600394249 13.0 8 -0.08563999831676483
-2.612619161605835 -1.9723268747329712 0.17155727744102478 10.0 9 -0.08563539385795593
-2.3252692222595215 -1.7553997039794922 -0.5663211345672607 28.0 2 -0.08563309162855148
-2.7322304248809814 -2.0618765354156494 0.2994671165943146 18.0 10 -0.08563078194856644
-2.7229409217834473 -2.0533740520477295 0.4187431037425995 8.0 11 -0.08562617748975754
-2.721370220184326 -2.0506999492645264 0.5396989583969116 27.0 12 -0.08562156558036804
-2.7081618309020996 -2.040005683898926 0.6590543389320374 7.0 13 -0.08561696112155914
-2.319859504699707 -1.746869683265686 -0.15219298005104065 1.0 6 -0.0856146588921547
-2.7137582302093506 -2.0427370071411133 0.7841793894767761 53.0 14 -0.08561234921216965
-2.19067645072937 -1.6483968496322632 -0.04785449802875519 13.0 7 -0.0856100469827652
-2.6894032955169678 -2.022933006286621 0.9017255902290344 55.0 15 -0.08560774475336075
-2.244455099105835 -1.6833481788635254 0.04897145554423332 12.0 8 -0.08558470755815506
-1.9162497520446777 -1.436670184135437 -0.5529297590255737 1.0 1 -0.08558239787817001
-2.672229528427124 -2.0027225017547607 0.17501145601272583 7.0 9 -0.08558009564876556
-2.3439507484436035 -1.7566914558410645 -0.5693740844726562 27.0 2 -0.08557779341936111
-2.7394115924835205 -2.052325963973999 0.2994671165943146 26.0 10 -0.08557549118995667
-2.7348592281341553 -2.0474255084991455 0.4194743037223816 9.0 11 -0.08557087928056717
-2.723767042160034 -2.0376381874084473 0.5387603640556335 32.0 12 -0.08556627482175827
-2.7136940956115723 -2.0293643474578857 0.6586726903915405 7.0 13 -0.08556166291236877
-2.2715535163879395 -1.6981029510498047 -0.148634135723114 4.0 6 -0.08555936068296432
-2.7115063667297363 -2.0262527465820312 0.7814800143241882 61.0 14 -0.08555705845355988
-2.180396318435669 -1.628772258758545 -0.0475054495036602 12.0 7 -0.08555475622415543
-2.6840643882751465 -2.004286289215088 0.8975844979286194 56.0 15 -0.08555244654417038
-2.248713731765747 -1.6743085384368896 0.048936549574136734 14.0 8 -0.08552940934896469
-1.921252965927124 -1.4299722909927368 -0.5529297590255737 1.0 1 -0.08552710711956024
-2.6727941036224365 -1.9886140823364258 0.1745927631855011 7.0 9 -0.0855247974395752
-2.367394208908081 -1.7613903284072876 -0.5735718607902527 29.0 2 -0.08552249521017075
-2.735368013381958 -2.0344278812408447 0.29824694991111755 30.0 10 -0.0855201929807663
-2.734022617340088 -2.0319466590881348 0.41825562715530396 11.0 11 -0.0855155810713768
-2.7324488162994385 -2.0292956829071045 0.5390732288360596 38.0 12 -0.0855109766125679
-2.71445631980896 -2.015198230743408 0.6571462154388428 7.0 13 -0.085506372153759
-2.2710516452789307 -1.685402274131775 -0.14821544289588928 4.0 6 -0.08550406247377396
-2.7169976234436035 -2.0156142711639404 0.7810301184654236 63.0 14 -0.0855017602443695
-2.1940999031066895 -1.6271071434020996 -0.047679975628852844 9.0 7 -0.08549945801496506
-2.678629159927368 -1.9857014417648315 0.8934433460235596 54.0 15 -0.08549715578556061
-2.260976791381836 -1.6712031364440918 0.04907616600394249 21.0 8 -0.08547411113977432
-1.8478665351867676 -1.3653544187545776 -0.5304346084594727 1.0 1 -0.08547180891036987
-2.686145782470703 -1.9840178489685059 0.17501145601272583 7.0 9 -0.08546950668096542
-2.395637273788452 -1.7694449424743652 -0.5789145231246948 31.0 2 -0.08546720445156097
-2.74405574798584 -2.026050567626953 0.2984212636947632 40.0 10 -0.08546489477157593
-2.7299177646636963 -2.0141398906707764 0.4165494441986084 13.0 11 -0.08546029031276703
-2.7283856868743896 -2.011540412902832 0.5368831753730774 40.0 12 -0.08545567840337753
-2.7135720252990723 -1.9998869895935059 0.655238151550293 8.0 13 -0.08545107394456863
-2.26566481590271 -1.669171929359436 -0.1474827378988266 9.0 6 -0.08544877171516418
-2.7302932739257812 -2.0107409954071045 0.782829761505127 72.0 14 -0.08544646203517914
-2.2013766765594482 -1.6206238269805908 -0.04771488159894943 10.0 7 -0.08544415980577469
-2.683988332748413 -1.9751938581466675 0.8929257392883301 60.0 15 -0.08544185757637024
-1.7239677906036377 -1.2654536962509155 -0.5730253458023071 1.0 0 -0.085421122610569
-2.3054897785186768 -1.6916933059692383 0.049913883209228516 27.0 8 -0.08541882038116455
-1.85262131690979 -1.3588958978652954 -0.5304346084594727 1.0 1 -0.0854165107011795
-2.6850016117095947 -1.968724250793457 0.1744880974292755 6.0 9 -0.08541420847177505
-2.4207985401153564 -1.7750024795532227 -0.5834939479827881 31.0 2 -0.0854119062423706
-2.744682788848877 -2.011748790740967 0.29772400856018066 45.0 10 -0.08540960401296616
-2.7241199016571045 -1.995214819908142 0.41459953784942627 19.0 11 -0.08540499210357666
-2.736985206604004 -2.0031702518463135 0.5371960401535034 51.0 12 -0.08540038764476776
-2.722120761871338 -1.9915616512298584 0.655619740486145 10.0 13 -0.08539577573537827
-2.2698652744293213 -1.6600745916366577 -0.147378072142601 15.0 6 -0.08539347350597382
-2.726283550262451 -1.9931466579437256 0.7796803712844849 85.0 14 -0.08539117127656937
-2.215092658996582 -1.6188292503356934 -0.047889403998851776 11.0 7 -0.08538886159658432
-2.7017858028411865 -1.9737910032272339 0.8965492248535156 70.0 15 -0.08538655936717987
-2.291985034942627 -1.6695070266723633 0.04949502646923065 33.0 8 -0.08536352217197418
-1.8983134031295776 -1.38224458694458 -0.5421320796012878 1.0 1 -0.08536121994256973
-2.6757092475891113 -1.9475868940353394 0.17344138026237488 6.0 9 -0.08535891026258469
-2.433328628540039 -1.7711635828018188 -0.5850204229354858 25.0 2 -0.08535660803318024
-2.761354923248291 -2.0091891288757324 0.29876989126205444 53.0 10 -0.08535430580377579
-2.731067657470703 -1.9856942892074585 0.41459953784942627 22.0 11 -0.08534969389438629
-2.7359704971313477 -1.9877985715866089 0.5356317162513733 52.0 12 -0.08534508943557739
-2.724290132522583 -1.9785869121551514 0.6544748544692993 11.0 13 -0.0853404775261879
-2.2804951667785645 -1.655660629272461 -0.14769208431243896 18.0 6 -0.08533817529678345
-2.711144208908081 -1.9675931930541992 0.773381769657135 81.0 14 -0.085335873067379
-2.272524833679199 -1.6486639976501465 -0.04900635778903961 18.0 7 -0.08533357083797455
-2.7055318355560303 -1.9620786905288696 0.8955139517784119 70.0 15 -0.0853312611579895
-2.3026599884033203 -1.6650112867355347 0.04959974065423012 13.0 8 -0.08530822396278381
-1.9189200401306152 -1.387026071548462 -0.5466310977935791 1.0 1 -0.08530592173337936
-2.6824913024902344 -1.938234806060791 0.17344138026237488 7.0 9 -0.08530361950397491
-2.4379048347473145 -1.761508822441101 -0.584638774394989 7.0 2 -0.08530130982398987
-2.7441248893737793 -1.9820384979248047 0.2961552143096924 57.0 10 -0.08529900759458542
-2.736372709274292 -1.9749870300292969 0.4143557846546173 30.0 11 -0.08529440313577652
-2.7252683639526367 -1.9655259847640991 0.5321901440620422 56.0 12 -0.08528979122638702
-2.7295875549316406 -1.9679172039031982 0.6540932655334473 12.0 13 -0.08528518676757812
-2.2846405506134033 -1.6465225219726562 -0.14758741855621338 22.0 6 -0.08528287708759308
-2.7211577892303467 -1.9603962898254395 0.7742815613746643 86.0 14 -0.08528057485818863
-2.2750208377838135 -1.638384222984314 -0.048936549574136734 20.0 7 -0.08527827262878418
-2.698253631591797 -1.9424644708633423 0.8908551931381226 74.0 15 -0.08527597039937973
-2.241852283477783 -1.6091550588607788 0.048168644309043884 21.0 8 -0.08525292575359344
-2.685994863510132 -1.926531195640564 0.1732320338487625 6.0 9 -0.08524832129478455
-2.7413113117218018 -1.965482473373413 0.2951093316078186 57.0 10 -0.08524370938539505
-2.744863748550415 -1.9665794372558594 0.41459953784942627 37.0 11 -0.08523910492658615
-2.7321126461029053 -1.9560009241104126 0.5321901440620422 57.0 12 -0.08523449301719666
-2.720475673675537 -1.9469506740570068 0.6502770781517029 15.0 13 -0.08522988855838776
-2.2919979095458984 -1.639699935913086 -0.14769208431243896 20.0 6 -0.0852275863289833
-2.72956919670105 -1.952019453048706 0.7747315168380737 89.0 14 -0.08522528409957886
-2.262831926345825 -1.6176400184631348 -0.04855259507894516 13.0 7 -0.08522297441959381
-2.695586681365967 -1.9262953996658325 0.8877493143081665 76.0 15 -0.08522067219018936
-1.6628109216690063 -1.185196042060852 -0.5471434593200684 1.0 0 -0.08519993722438812
-2.2327980995178223 -1.5908762216567993 0.04785449802875519 26.0 8 -0.08519763499498367
-2.6992111206054688 -1.9217770099639893 0.17365071177482605 5.0 9 -0.08519302308559418
-2.7465319633483887 -1.954746127128601 0.294935017824173 61.0 10 -0.08518841862678528
-2.733916997909546 -1.9443305730819702 0.41191840171813965 45.0 11 -0.08518380671739578
-2.7389237880706787 -1.946452021598816 0.5321901440620422 61.0 12 -0.08517920225858688
-2.7224533557891846 -1.9340323209762573 0.649132251739502 17.0 13 -0.08517459034919739
-2.286308765411377 -1.6235946416854858 -0.14695937931537628 16.0 6 -0.08517228811979294
-2.726832151412964 -1.935711145401001 0.7720320820808411 83.0 14 -0.08516998589038849
-2.283141613006592 -1.6201469898223877 -0.04886673763394356 23.0 7 -0.08516768366098404
-2.699143171310425 -1.9146387577056885 0.8867141008377075 76.0 15 -0.08516537398099899
-2.2399704456329346 -1.584227204322815 0.047889403998851776 29.0 8 -0.0851423367857933
-2.6961171627044678 -1.9054272174835205 0.17302268743515015 5.0 9 -0.0851377323269844
-2.750084161758423 -1.942847728729248 0.2945863902568817 63.0 10 -0.08513312041759491
-2.7374439239501953 -1.9324859380722046 0.4114309251308441 55.0 11 -0.08512851595878601
-2.745701551437378 -1.9368795156478882 0.5321901440620422 65.0 12 -0.08512390404939651
-2.724374294281006 -1.9211229085922241 0.6479873657226562 23.0 13 -0.08511929959058762
-2.298492193222046 -1.6202068328857422 -0.147378072142601 11.0 6 -0.08511698991060257
-2.719236135482788 -1.916077971458435 0.7679829597473145 81.0 14 -0.08511468768119812
-2.2871484756469727 -1.6110159158706665 -0.04883183166384697 25.0 7 -0.08511238545179367
-2.705810070037842 -1.9052053689956665 0.8867141008377075 78.0 15 -0.08511008322238922
-2.2389397621154785 -1.5718032121658325 0.04774978384375572 38.0 8 -0.08508703857660294
-2.696211576461792 -1.8914161920547485 0.17260399460792542 5.0 9 -0.08508243411779404
-2.7552175521850586 -1.9320930242538452 0.29441210627555847 66.0 10 -0.08507782220840454
-2.7344188690185547 -1.9160836935043335 0.4099684953689575 60.0 11 -0.08507321774959564
-2.737882614135742 -1.9170860052108765 0.5293743014335632 61.0 12 -0.08506860584020615
-2.3632373809814453 -1.6547565460205078 -0.25240302085876465 1.0 5 -0.0850663036108017
-2.734280586242676 -1.9138530492782593 0.6487506031990051 28.0 13 -0.08506400138139725
-2.3090434074401855 -1.6156079769134521 -0.14769208431243896 10.0 6 -0.0850616991519928
-2.721116781234741 -1.9032241106033325 0.7666332721710205 78.0 14 -0.08505938947200775
-2.3107855319976807 -1.6156266927719116 -0.049215786159038544 26.0 7 -0.0850570872426033
-2.709277629852295 -1.893534541130066 0.8856788277626038 76.0 15 -0.08505478501319885
-2.2493348121643066 -1.5674079656600952 0.04785449802875519 41.0 8 -0.08503174781799316
-2.6962409019470215 -1.8774285316467285 0.17218531668186188 4.0 9 -0.08502713590860367
-2.7586748600006104 -1.9201865196228027 0.2940634489059448 68.0 10 -0.08502253144979477
-2.7476089000701904 -1.9110615253448486 0.41094347834587097 63.0 11 -0.08501791954040527
-2.611034631729126 -1.815392255783081 -0.39046943187713623 4.0 4 -0.08501561731100082
-2.73644757270813 -1.9018805027008057 0.5278099179267883 65.0 12 -0.08501331508159637
-2.3510026931762695 -1.6339894533157349 -0.2504855990409851 5.0 5 -0.08501100540161133
-2.732882261276245 -1.8986965417861938 0.6468425393104553 31.0 13 -0.08500870317220688
-2.3507585525512695 -1.6326032876968384 -0.1499948650598526 3.0 6 -0.08500640094280243
-2.7245421409606934 -1.891491413116455 0.7657334208488464 78.0 14 -0.08500409871339798
-2.334481954574585 -1.6200922727584839 -0.04959974065423012 28.0 7 -0.08500179648399353
-2.703171968460083 -1.8752573728561401 0.881537675857544 80.0 15 -0.08499948680400848
-1.5997645854949951 -1.1069039106369019 -0.5212615728378296 1.0 0 -0.08500909805297852
-2.2761731147766113 -1.5743340253829956 0.04830826073884964 33.0 8 -0.08500679582357407
-1.6301687955856323 -1.127099871635437 -0.4575504958629608 1.0 1 -0.08500449359416962
-2.6994919776916504 -1.8657342195510864 0.1719759702682495 5.0 9 -0.08500218391418457
-2.755525827407837 -1.9037501811981201 0.29301759600639343 77.0 10 -0.08499757945537567
-2.6087939739227295 -1.801703691482544 -0.5021546483039856 1.0 3 -0.08499527722597122
-2.752629518508911 -1.9003310203552246 0.410699725151062 68.0 11 -0.08499296754598618
-2.6173555850982666 -1.8062669038772583 -0.39046943187713623 18.0 4 -0.08499066531658173
-2.7349390983581543 -1.8867089748382568 0.5262455940246582 62.0 12 -0.08498836308717728
-2.356691598892212 -1.625773310661316 -0.2504855990409851 7.0 5 -0.08498606085777283
-2.731412887573242 -1.8835718631744385 0.6449344158172607 36.0 13 -0.08498375117778778
-2.4287972450256348 -1.6742640733718872 -0.15460044145584106 1.0 6 -0.08498144894838333
-2.7279183864593506 -1.879758358001709 0.7648336291313171 72.0 14 -0.08497914671897888
-2.353297710418701 -1.6210078001022339 -0.04987897723913193 29.0 7 -0.08497684448957443
-2.703336715698242 -1.8614274263381958 0.8794671893119812 74.0 15 -0.08497453480958939
-1.584509253501892 -1.0881885290145874 -0.515049934387207 0.0 0 -0.08495379984378815
-2.3014373779296875 -1.579960823059082 0.048727117478847504 27.0 8 -0.0849514976143837
-1.5730355978012085 -1.0795015096664429 -0.4404541850090027 0.0 1 -0.08494919538497925
-2.712576389312744 -1.8608185052871704 0.17239466309547424 5.0 9 -0.0849468931555748
-1.685315728187561 -1.156121015548706 -0.3972643315792084 1.0 2 -0.08494458347558975
-2.7605106830596924 -1.892993688583374 0.2928432822227478 75.0 10 -0.0849422812461853
-2.616696357727051 -1.7937030792236328 -0.5024675726890564 16.0 3 -0.08493997901678085
-2.747783899307251 -1.882855772972107 0.40899354219436646 74.0 11 -0.0849376767873764
-2.6432971954345703 -1.8105818033218384 -0.39339426159858704 18.0 4 -0.08493536710739136
-2.7447683811187744 -1.879382848739624 0.526871383190155 62.0 12 -0.08493306487798691
-2.3623523712158203 -1.617537021636963 -0.2504855990409851 7.0 5 -0.08493076264858246
-2.728250741958618 -1.8673728704452515 0.6426447629928589 46.0 13 -0.08492846041917801
-2.5236380100250244 -1.7266771793365479 -0.16025270521640778 2.0 6 -0.08492615073919296
-2.7328548431396484 -1.8691246509552002 0.7643837332725525 68.0 14 -0.08492384850978851
-2.3572912216186523 -1.6116548776626587 -0.04984407499432564 21.0 7 -0.08492154628038406
-2.713007926940918 -1.8541598320007324 0.880502462387085 74.0 15 -0.08491924405097961
-1.6074532270431519 -1.0957084894180298 -0.5212615728378296 1.0 0 -0.08489850908517838
-2.308590888977051 -1.5730435848236084 0.04876202344894409 14.0 8 -0.08489619940519333
-2.7091493606567383 -1.8445944786071777 0.17176662385463715 5.0 9 -0.08489159494638443
-2.6435506343841553 -1.7999299764633179 -0.6216557621955872 9.0 2 -0.08488929271697998
-2.762160062789917 -1.8799829483032227 0.2923203408718109 77.0 10 -0.08488698303699493
-2.653973340988159 -1.805670142173767 -0.5084120631217957 25.0 3 -0.08488468080759048
-2.7412075996398926 -1.864322304725647 0.4070436358451843 82.0 11 -0.08488237857818604
-2.657809257507324 -1.8069241046905518 -0.39461296796798706 16.0 4 -0.08488007634878159
-2.751312494277954 -1.8697896003723145 0.526871383190155 62.0 12 -0.08487776666879654
-2.3679845333099365 -1.6092803478240967 -0.2504855990409851 7.0 5 -0.08487546443939209
-2.7298805713653564 -1.8545281887054443 0.6414998769760132 50.0 13 -0.08487316220998764
-2.532954216003418 -1.720102310180664 -0.16046206653118134 2.0 6 -0.08487085998058319
-2.7232398986816406 -1.848628044128418 0.7598847150802612 68.0 14 -0.08486855775117874
-2.3678667545318604 -1.6067849397659302 -0.049948789179325104 25.0 7 -0.0848662480711937
-2.7130682468414307 -1.8403408527374268 0.8784318566322327 74.0 15 -0.08486394584178925
-1.691271424293518 -1.1442161798477173 -0.5471434593200684 1.0 0 -0.084843210875988
-2.2991600036621094 -1.5548933744430542 0.048447877168655396 20.0 8 -0.08484090864658356
-2.695713758468628 -1.821707010269165 0.17051056027412415 6.0 9 -0.08483629673719406
-2.6612040996551514 -1.7983859777450562 -0.6243270635604858 19.0 2 -0.08483399450778961
-2.7753100395202637 -1.874790906906128 0.29301759600639343 70.0 10 -0.08483169227838516
-2.681541681289673 -1.8107666969299316 -0.5124793648719788 24.0 3 -0.08482938259840012
-2.7509891986846924 -1.8569635152816772 0.40753111243247986 82.0 11 -0.08482708036899567
-2.6887834072113037 -1.8142905235290527 -0.39826905727386475 21.0 4 -0.08482477813959122
-2.746358633041382 -1.8524420261383057 0.5246812701225281 65.0 12 -0.08482247591018677
-2.380194664001465 -1.6054613590240479 -0.2511828541755676 7.0 5 -0.08482017368078232
-2.7395925521850586 -1.8471834659576416 0.6422631144523621 55.0 13 -0.08481786400079727
-2.529006242752075 -1.7045518159866333 -0.15983402729034424 2.0 6 -0.08481556177139282
-2.7296764850616455 -1.8391108512878418 0.7598847150802612 70.0 14 -0.08481325954198837
-2.409949779510498 -1.623085618019104 -0.050716694444417953 28.0 7 -0.08481095731258392
-2.721078634262085 -1.831937551498413 0.8789495229721069 72.0 15 -0.08480864763259888
-1.6952552795410156 -1.1383055448532104 -0.5471434593200684 1.0 0 -0.08478791266679764
-2.3510630130767822 -1.5780633687973022 0.049425214529037476 13.0 8 -0.08478561043739319
-1.9079010486602783 -1.2801239490509033 -0.5304346084594727 1.0 1 -0.08478330820798874
-2.7086915969848633 -1.8167362213134766 0.17092925310134888 5.0 9 -0.08478099852800369
-2.68540096282959 -1.8011149168014526 -0.6285248398780823 22.0 2 -0.08477869629859924
-2.768598794937134 -1.856215000152588 0.2916231155395508 77.0 10 -0.0847763940691948
-2.7108194828033447 -1.8167917728424072 -0.5168595314025879 36.0 3 -0.08477409183979034
-2.755805253982544 -1.8462446928024292 0.4072873890399933 81.0 11 -0.0847717896103859
-2.731387138366699 -1.829194188117981 -0.4036312997341156 50.0 4 -0.08476947993040085
-2.744600296020508 -1.8373501300811768 0.5231168866157532 67.0 12 -0.0847671777009964
-2.3841283321380615 -1.596035122871399 -0.251008540391922 7.0 5 -0.08476487547159195
-2.7509188652038574 -1.840884804725647 0.6434080004692078 60.0 13 -0.0847625732421875
-2.541581153869629 -1.7001553773880005 -0.16025270521640778 7.0 6 -0.08476026356220245
-2.7344589233398438 -1.8284884691238403 0.7594348192214966 66.0 14 -0.084757961332798
-2.380688428878784 -1.5913267135620117 -0.04998369142413139 12.0 7 -0.08475565910339355
-2.7162129878997803 -1.8149151802062988 0.8753260374069214 66.0 15 -0.0847533568739891
-2.3415796756744385 -1.5598686933517456 0.04911107197403908 17.0 8 -0.08473031222820282
-1.9123579263687134 -1.2734562158584595 -0.5304346084594727 1.0 1 -0.08472800999879837
-2.6950650215148926 -1.793989896774292 0.16967318952083588 6.0 9 -0.08472570776939392
-2.721088409423828 -1.8113125562667847 -0.6353939771652222 54.0 2 -0.08472340553998947
-2.765108585357666 -1.8399176597595215 0.290577232837677 77.0 10 -0.08472109586000443
-2.730302572250366 -1.816070318222046 -0.5193625092506409 57.0 3 -0.08471879363059998
-2.7572736740112305 -1.8333170413970947 0.4065561592578888 82.0 11 -0.08471649140119553
-2.744367837905884 -1.8240444660186768 -0.40460625290870667 47.0 4 -0.08471418917179108
-2.7526426315307617 -1.8288516998291016 0.523429811000824 65.0 12 -0.08471187949180603
-2.378068447113037 -1.57998526096344 -0.24978835880756378 7.0 5 -0.08470957726240158
-2.7475156784057617 -1.8247532844543457 0.6411182284355164 63.0 13 -0.08470727503299713
-2.5541558265686035 -1.695692539215088 -0.1606713980436325 5.0 6 -0.08470497280359268
-2.744072437286377 -1.82108736038208 0.7603346109390259 63.0 14 -0.08470266312360764
-2.39955997467041 -1.59184992313385 -0.0502629317343235 16.0 7 -0.08470036089420319
-2.7064309120178223 -1.7947465181350708 0.8701496720314026 64.0 15 -0.08469805866479874
-2.4270787239074707 -1.604621410369873 0.05078650265932083 13.0 8 -0.08467502146959305
-1.9167912006378174 -1.2667735815048218 -0.5304346084594727 1.0 1 -0.084672711789608
-2.67798113822937 -1.7691582441329956 0.1682077795267105 6.0 9 -0.08467040956020355
-2.7519659996032715 -1.8180350065231323 -0.6411182284355164 49.0 2 -0.0846681073307991
-2.774839401245117 -1.8324501514434814 0.29092586040496826 77.0 10 -0.08466580510139465
-2.7432191371917725 -1.8108822107315063 -0.520613968372345 47.0 3 -0.0846634954214096
-2.7553725242614746 -1.8182138204574585 0.40533748269081116 68.0 11 -0.08466119319200516
-2.7457473278045654 -1.8111745119094849 -0.4038750231266022 43.0 4 -0.08465889096260071
-2.755711555480957 -1.8170570135116577 0.5228040814399719 65.0 12 -0.08465658873319626
-2.3819057941436768 -1.570577621459961 -0.24961404502391815 7.0 5 -0.08465427905321121
-2.744032859802246 -1.8086694478988647 0.6388285160064697 63.0 13 -0.08465197682380676
-2.536710262298584 -1.671382188796997 -0.15920598804950714 2.0 6 -0.08464967459440231
-2.7536673545837402 -1.8136413097381592 0.7612344026565552 63.0 14 -0.08464737236499786
-2.3249316215515137 -1.5306825637817383 -0.04858750104904175 10.0 7 -0.08464506268501282
-2.7175207138061523 -1.7884745597839355 0.8717026114463806 67.0 15 -0.08464276045560837
-2.382507085800171 -1.5632299184799194 0.04973935708403587 14.0 8 -0.08461972326040268
-2.687480926513672 -1.7619893550872803 0.16841712594032288 6.0 9 -0.08461511135101318
-2.7484443187713623 -1.8019587993621826 -0.6388285160064697 40.0 2 -0.08461280912160873
-2.777885913848877 -1.820569396018982 0.290577232837677 68.0 10 -0.08461050689220428
-2.7429146766662598 -1.7969650030136108 -0.5193625092506409 45.0 3 -0.08460820466279984
-2.7583811283111572 -1.806409478187561 0.4048500061035156 70.0 11 -0.08460589498281479
-2.7354440689086914 -1.7907065153121948 -0.4014376401901245 41.0 4 -0.08460359275341034
-2.765343189239502 -1.8095901012420654 0.523429811000824 65.0 12 -0.08460129052400589
-2.3923749923706055 -1.5655264854431152 -0.25013697147369385 7.0 5 -0.08459898829460144
-2.7470438480377197 -1.7969304323196411 0.6380652785301208 63.0 13 -0.0845966786146164
-2.5625884532928467 -1.6756337881088257 -0.16046206653118134 3.0 6 -0.08459437638521194
-2.745300769805908 -1.7944222688674927 0.7571852803230286 61.0 14 -0.0845920741558075
-2.3252384662628174 -1.5192762613296509 -0.04848278686404228 18.0 7 -0.08458977192640305
-2.7221295833587646 -1.777921199798584 0.8711849451065063 66.0 15 -0.0845874696969986
-2.377894401550293 -1.5483567714691162 0.04952992871403694 13.0 8 -0.08456442505121231
-1.9255884885787964 -1.253360390663147 -0.5304346084594727 1.0 1 -0.08456212282180786
-2.7237486839294434 -1.772204041481018 0.17030121386051178 6.0 9 -0.08455982059240341
-2.74155330657959 -1.7837884426116943 -0.635775625705719 36.0 2 -0.08455751091241837
-2.777543067932129 -1.806516408920288 0.28988000750541687 63.0 10 -0.08455520868301392
-2.7491705417633057 -1.787379264831543 -0.5193625092506409 42.0 3 -0.08455290645360947
-2.759676456451416 -1.7935245037078857 0.40411877632141113 67.0 11 -0.08455060422420502
-2.7383484840393066 -1.7789846658706665 -0.40095019340515137 38.0 4 -0.08454829454421997
-2.7617027759552 -1.793470859527588 0.521552562713623 65.0 12 -0.08454599231481552
-2.397825241088867 -1.5571659803390503 -0.25013697147369385 7.0 5 -0.08454369008541107
-2.751652956008911 -1.7862616777420044 0.6376836895942688 68.0 13 -0.08454138785600662
-2.5416152477264404 -1.6492832899093628 -0.1587873101234436 2.0 6 -0.08453908562660217
-2.743373394012451 -1.779525876045227 0.7549358010292053 60.0 14 -0.08453677594661713
-2.3372387886047363 -1.5155019760131836 -0.04862240329384804 24.0 7 -0.08453447371721268
-2.7250771522521973 -1.766306757926941 0.8701496720314026 63.0 15 -0.08453217148780823
-2.4168758392333984 -1.5617531538009644 0.05022802576422691 10.0 8 -0.08450912684202194
-2.739985227584839 -1.7691866159439087 0.17092925310134888 6.0 9 -0.08450452238321304
-2.7411651611328125 -1.7699484825134277 -0.6342491507530212 36.0 2 -0.0845022201538086
-2.778810501098633 -1.7935678958892822 0.28935706615448 67.0 10 -0.08449991047382355
-2.7570531368255615 -1.7788429260253906 -0.5196753740310669 40.0 3 -0.0844976082444191
-2.7709248065948486 -1.7871090173721313 0.4048500061035156 70.0 11 -0.08449530601501465
-2.7412052154541016 -1.7672632932662964 -0.40046271681785583 38.0 4 -0.0844930037856102
-2.7563233375549316 -1.7763290405273438 0.5193625092506409 67.0 12 -0.08449070155620575
-2.396547555923462 -1.5444693565368652 -0.24943974614143372 7.0 5 -0.0844883918762207
-2.757871150970459 -1.7766462564468384 0.6376836895942688 67.0 13 -0.08448608964681625
-2.5910162925720215 -1.6685161590576172 -0.16150878369808197 3.0 6 -0.0844837874174118
-2.751206874847412 -1.770993709564209 0.75538569688797 61.0 14 -0.08448148518800735
-2.3425145149230957 -1.507334589958191 -0.04862240329384804 25.0 7 -0.08447917550802231
-2.7279765605926514 -1.754693627357483 0.8691143989562988 60.0 15 -0.08447687327861786
-2.378546714782715 -1.5252412557601929 0.04932050406932831 8.0 8 -0.08445383608341217
-2.7377357482910156 -1.7542235851287842 0.17040587961673737 7.0 9 -0.08444922417402267
-2.747326612472534 -1.760369062423706 -0.6342491507530212 36.0 2 -0.08444692194461823
-2.766599178314209 -1.772036075592041 0.28743961453437805 63.0 10 -0.08444461971521378
-2.743281841278076 -1.7564269304275513 -0.5159209370613098 41.0 3 -0.08444231748580933
-2.7704579830169678 -1.773145318031311 0.4038750231266022 68.0 11 -0.08444000780582428
-2.7473576068878174 -1.7576837539672852 -0.40046271681785583 40.0 4 -0.08443770557641983
-2.757514238357544 -1.7635046243667603 0.518423855304718 66.0 12 -0.08443540334701538
-2.396888256072998 -1.532874584197998 -0.24891680479049683 7.0 5 -0.08443310111761093
-2.7574398517608643 -1.7627780437469482 0.636157214641571 67.0 13 -0.08443079143762589
-2.6405820846557617 -1.6874240636825562 -0.16423025727272034 6.0 6 -0.08442848920822144
-2.754086971282959 -1.7592817544937134 0.7544858455657959 61.0 14 -0.08442618697881699
-2.452256917953491 -1.5658725500106812 -0.05078650265932083 22.0 7 -0.08442388474941254
-2.7194294929504395 -1.7358057498931885 0.8644556403160095 57.0 15 -0.08442157506942749
-2.500265121459961 -1.5910049676895142 0.05172893404960632 13.0 8 -0.0843985378742218
-1.9386078119277954 -1.2331277132034302 -0.5304346084594727 1.0 1 -0.08439623564481735
-2.752270221710205 -1.750014066696167 0.17092925310134888 9.0 9 -0.0843939334154129
-2.753455400466919 -1.750767707824707 -0.6342491507530212 34.0 2 -0.08439162373542786
-2.779493808746338 -1.766643762588501 0.28813689947128296 60.0 10 -0.08438932150602341
-2.742727041244507 -1.742603063583374 -0.5146694779396057 40.0 3 -0.08438701927661896
-2.7649011611938477 -1.75601327419281 0.402168869972229 67.0 11 -0.08438471704721451
-2.751800298690796 -1.7470197677612305 -0.4002189636230469 31.0 4 -0.08438240736722946
-2.7653214931488037 -1.7549269199371338 0.5187367796897888 67.0 12 -0.08438010513782501
-2.398860216140747 -1.5223634243011475 -0.24856817722320557 7.0 5 -0.08437780290842056
-2.7503137588500977 -1.7447285652160645 0.6331042647361755 66.0 13 -0.08437550067901611
-2.656576156616211 -1.6846145391464233 -0.16485828161239624 6.0 6 -0.08437319099903107
-2.7585654258728027 -1.7486141920089722 0.754036009311676 63.0 14 -0.08437088876962662
-2.5050039291381836 -1.5872716903686523 -0.05176383629441261 19.0 7 -0.08436858654022217
-2.730367660522461 -1.729404091835022 0.8660085797309875 58.0 15 -0.08436628431081772
-2.543001651763916 -1.6057560443878174 0.05249683931469917 24.0 8 -0.08434323966503143
-2.7482268810272217 -1.7340022325515747 0.17030121386051178 9.0 9 -0.08433863520622253
-2.754568576812744 -1.7380034923553467 -0.6331042647361755 33.0 2 -0.08433633297681808
-2.7839581966400146 -1.755867838859558 0.28796255588531494 65.0 10 -0.08433402329683304
-2.7471225261688232 -1.7319642305374146 -0.5143565535545349 38.0 3 -0.08433172106742859
-2.7676548957824707 -1.7442352771759033 0.40168139338493347 66.0 11 -0.08432941883802414
-2.7410857677459717 -1.7268224954605103 -0.3977815806865692 33.0 4 -0.08432711660861969
-2.7764456272125244 -1.7484205961227417 0.5196753740310669 65.0 12 -0.08432480692863464
-2.405845880508423 -1.5150415897369385 -0.24874247610569 7.0 5 -0.0843225046992302
-2.7597100734710693 -1.7372100353240967 0.6338675618171692 65.0 13 -0.08432020246982574
-2.650607109069824 -1.6678849458694458 -0.16412557661533356 7.0 6 -0.0843179002404213
-2.7514564990997314 -1.7306729555130005 0.7504367828369141 67.0 14 -0.08431559056043625
-2.508836507797241 -1.5774540901184082 -0.05172893404960632 23.0 7 -0.0843132883310318
-2.7347519397735596 -1.7188347578048706 0.8654909133911133 57.0 15 -0.08431098610162735
-1.7498162984848022 -1.0968066453933716 -0.5533550977706909 1.0 0 -0.08429025113582611
-2.550285816192627 -1.597931146621704 0.05253174528479576 23.0 8 -0.08428794890642166
-1.947169303894043 -1.219563603401184 -0.5304346084594727 1.0 1 -0.08428563922643661
-2.739027261734009 -1.7148596048355103 0.16935916244983673 7.0 9 -0.08428333699703217
-2.7489705085754395 -1.7210848331451416 -0.6304329633712769 36.0 2 -0.08428103476762772
-2.788381338119507 -1.7450820207595825 0.2877882421016693 60.0 10 -0.08427873253822327
-2.7531511783599854 -1.7223650217056274 -0.5143565535545349 39.0 3 -0.08427642285823822
-2.766993999481201 -1.7303533554077148 0.4007064402103424 67.0 11 -0.08427412062883377
-2.7100648880004883 -1.6940945386886597 -0.39241933822631836 37.0 4 -0.08427181839942932
-2.769129514694214 -1.7303444147109985 0.5171723961830139 65.0 12 -0.08426951617002487
-2.4161880016326904 -1.509802222251892 -0.2492654174566269 7.0 5 -0.08426720649003983
-2.7657573223114014 -1.7275662422180176 0.6338675618171692 66.0 13 -0.08426490426063538
-2.6428604125976562 -1.650159478187561 -0.1632881909608841 7.0 6 -0.08426260203123093
-2.7558274269104004 -1.7200268507003784 0.7499868273735046 66.0 14 -0.08426029980182648
-2.5414724349975586 -1.585622787475586 -0.05228740721940994 29.0 7 -0.08425799757242203
-2.7390966415405273 -1.708255410194397 0.8649733066558838 50.0 15 -0.08425568789243698
-1.7175445556640625 -1.0682456493377686 -0.5419670939445496 1.0 0 -0.08423495292663574
-2.5694336891174316 -1.5974663496017456 0.05281098559498787 19.0 8 -0.08423265069723129
-1.9514144659042358 -1.212759256362915 -0.5304346084594727 1.0 1 -0.08423034846782684
-2.7466931343078613 -1.706342101097107 0.1694638431072235 6.0 9 -0.0842280387878418
-2.748290777206421 -1.7073346376419067 -0.6289064884185791 34.0 2 -0.08422573655843735
-2.7843005657196045 -1.7290318012237549 0.2867423892021179 58.0 10 -0.0842234343290329
-2.7541117668151855 -1.7096186876296997 -0.5134179592132568 37.0 3 -0.08422113209962845
-2.776390790939331 -1.722777247428894 0.40119388699531555 63.0 11 -0.0842188224196434
-2.71258807182312 -1.682531476020813 -0.39193183183670044 37.0 4 -0.08421652019023895
-2.7650794982910156 -1.7144222259521484 0.5152952075004578 65.0 12 -0.0842142179608345
-2.4062039852142334 -1.4919097423553467 -0.2476966232061386 7.0 5 -0.08421191573143005
-2.768433094024658 -1.7158325910568237 0.6331042647361755 66.0 13 -0.0842096135020256
-2.668977975845337 -1.6535472869873047 -0.1645442545413971 7.0 6 -0.08420730382204056
-2.761814832687378 -1.7103965282440186 0.7499868273735046 55.0 14 -0.08420500159263611
-2.632005214691162 -1.6293699741363525 -0.05403264984488487 22.0 7 -0.08420269936323166
-2.731900453567505 -1.6905516386032104 0.8608322143554688 49.0 15 -0.08420039713382721
-1.7426347732543945 -1.0754334926605225 -0.5486963987350464 2.0 0 -0.08417965471744537
-2.5971195697784424 -1.6021356582641602 0.05326474457979202 9.0 8 -0.08417735248804092
-1.9556360244750977 -1.2059400081634521 -0.5304346084594727 1.0 1 -0.08417505025863647
-2.3309812545776367 -1.4368354082107544 0.14350520074367523 4.0 9 -0.08417274802923203
-2.7575759887695312 -1.6997917890548706 -0.629669725894928 36.0 2 -0.08417044579982758
-2.786926746368408 -1.7172118425369263 0.28639376163482666 49.0 10 -0.08416813611984253
-2.7600626945495605 -1.699994683265686 -0.5134179592132568 40.0 3 -0.08416583389043808
-2.777316093444824 -1.7099539041519165 0.40046271681785583 62.0 11 -0.08416353166103363
-2.7218260765075684 -1.6751335859298706 -0.39241933822631836 37.0 4 -0.08416122943162918
-2.7727296352386475 -1.7057948112487793 0.5156080722808838 61.0 12 -0.08415891975164413
-2.404608964920044 -1.4793254137039185 -0.2469993680715561 7.0 5 -0.08415661752223969
-2.764371633529663 -1.6999878883361816 0.6308146119117737 55.0 13 -0.08415431529283524
-2.6747336387634277 -1.6442205905914307 -0.1645442545413971 7.0 6 -0.08415201306343079
-2.76112699508667 -1.696664571762085 0.748187243938446 47.0 14 -0.08414970338344574
-2.625749349594116 -1.6128462553024292 -0.05378831923007965 19.0 7 -0.08414740115404129
-2.7476625442504883 -1.6870701313018799 0.8639379739761353 50.0 15 -0.08414509892463684
-1.7414356470108032 -1.0663169622421265 -0.5471434593200684 1.0 0 -0.0841243639588356
-2.56858491897583 -1.5721811056137085 0.05256664752960205 9.0 8 -0.08412206172943115
-1.9598333835601807 -1.1991066932678223 -0.5304346084594727 1.0 1 -0.0841197520494461
-2.3462061882019043 -1.4349420070648193 0.14413323998451233 8.0 9 -0.08411744982004166
-2.7551186084747314 -1.6850333213806152 -0.6277616620063782 38.0 2 -0.08411514759063721
-2.6297152042388916 -1.6077059507369995 0.2696598470211029 10.0 10 -0.08411284536123276
-2.757551670074463 -1.6851999759674072 -0.5118536353111267 41.0 3 -0.08411053568124771
-2.7815744876861572 -1.6992132663726807 0.4002189636230469 56.0 11 -0.08410823345184326
-2.727656602859497 -1.6656222343444824 -0.39241933822631836 37.0 4 -0.08410593122243881
-2.7702364921569824 -1.6909605264663696 0.5140437483787537 51.0 12 -0.08410362899303436
-2.413159132003784 -1.4729994535446167 -0.24734798073768616 7.0 5 -0.08410131931304932
-2.766937017440796 -1.68828284740448 0.63005131483078 51.0 13 -0.08409901708364487
-2.668520927429199 -1.6275938749313354 -0.1638115644454956 8.0 6 -0.08409671485424042
-2.793654441833496 -1.7032479047775269 0.75538569688797 55.0 14 -0.08409441262483597
-2.72698712348938 -1.6619482040405273 -0.055742986500263214 41.0 7 -0.08409210294485092
-2.784881353378296 -1.69656503200531 0.8737731575965881 55.0 15 -0.08408980071544647
-1.7715638875961304 -1.0762805938720703 -0.5554257035255432 1.0 0 -0.08406906574964523
-2.615077495574951 -1.5881177186965942 0.05340436473488808 13.0 8 -0.08406676352024078
-2.412670135498047 -1.4640438556671143 0.14790143072605133 5.0 9 -0.08406215161085129
-2.757627248764038 -1.6733689308166504 -0.6269984245300293 38.0 2 -0.08405984938144684
-2.7341136932373047 -1.6584486961364746 0.2797699272632599 14.0 10 -0.08405754715204239
-2.760039806365967 -1.6735150814056396 -0.5112279057502747 41.0 3 -0.08405524492263794
-2.7756056785583496 -1.6822909116744995 0.3985127806663513 52.0 11 -0.0840529352426529
-2.721569061279297 -1.648890733718872 -0.3907131552696228 38.0 4 -0.08405063301324844
-2.782881021499634 -1.6853727102279663 0.5152952075004578 53.0 12 -0.084048330783844
-2.4199907779693604 -1.465598464012146 -0.24752230942249298 7.0 5 -0.08404602855443954
-2.803044080734253 -1.6969151496887207 0.6369204521179199 55.0 13 -0.0840437188744545
-2.6588070392608643 -1.6089634895324707 -0.16286951303482056 7.0 6 -0.08404141664505005
-2.8229269981384277 -1.7076058387756348 0.7616842985153198 66.0 14 -0.0840391144156456
-2.71052622795105 -1.6389679908752441 -0.05528922379016876 28.0 7 -0.08403681218624115
-2.8040127754211426 -1.694828748703003 0.8779142498970032 55.0 15 -0.0840345025062561
-1.7885459661483765 -1.0780688524246216 -0.5595667958259583 1.0 0 -0.08401376754045486
-2.5983386039733887 -1.5655635595321655 0.052950602024793625 11.0 8 -0.08401146531105042
-2.340766668319702 -1.4092564582824707 0.14319118857383728 3.0 9 -0.08400686085224152
-2.756723165512085 -1.6596827507019043 -0.6254718899726868 38.0 2 -0.08400455117225647
-2.5179641246795654 -1.5153394937515259 0.2571094334125519 20.0 10 -0.08400224894285202
-2.7540154457092285 -1.6567423343658447 -0.5090377926826477 36.0 3 -0.08399994671344757
-2.7916674613952637 -1.6787303686141968 0.3999752104282379 53.0 11 -0.08399764448404312
-2.7205028533935547 -1.6352900266647339 -0.38973820209503174 38.0 4 -0.08399533480405807
-2.8226115703582764 -1.6959959268569946 0.521552562713623 60.0 12 -0.08399303257465363
-2.4182605743408203 -1.4530373811721802 -0.24682505428791046 7.0 5 -0.08399073034524918
-2.832512140274048 -1.7012730836868286 0.6422631144523621 60.0 13 -0.08398842811584473
-2.6575582027435303 -1.5955594778060913 -0.16245082020759583 8.0 6 -0.08398611843585968
-2.825528860092163 -1.6957359313964844 0.7607845067977905 57.0 14 -0.08398381620645523
-2.7402377128601074 -1.6438989639282227 -0.055777888745069504 42.0 7 -0.08398151397705078
-2.808255195617676 -1.684036374092102 0.8773965835571289 51.0 15 -0.08397921174764633
-1.7922983169555664 -1.0718190670013428 -0.5595667958259583 1.0 0 -0.08395847678184509
-2.3308792114257812 -1.393345594406128 0.047400735318660736 21.0 8 -0.08395616710186005
-2.766883611679077 -1.6533234119415283 -0.7441381216049194 10.0 1 -0.0839538648724556
-2.261652708053589 -1.3508923053741455 0.1380622535943985 8.0 9 -0.08395156264305115
-2.755758047103882 -1.6460230350494385 -0.6239454746246338 38.0 2 -0.0839492604136467
-2.8072097301483154 -1.676089882850647 0.2860451340675354 40.0 10 -0.08394695073366165
-2.7733516693115234 -1.6552186012268066 -0.5115407705307007 43.0 3 -0.0839446485042572
-2.831605911254883 -1.6893165111541748 0.4048500061035156 62.0 11 -0.08394234627485275
-2.722785234451294 -1.6237494945526123 -0.3892507255077362 38.0 4 -0.0839400440454483
-2.835301399230957 -1.6901795864105225 0.5228040814399719 58.0 12 -0.08393773436546326
-2.4198949337005615 -1.4425474405288696 -0.2464764267206192 8.0 5 -0.08393543213605881
-2.8552987575531006 -1.7014250755310059 0.6460793018341064 55.0 13 -0.08393312990665436
-2.6442365646362305 -1.5750304460525513 -0.1612994372844696 6.0 6 -0.08393082767724991
-2.8280816078186035 -1.6838693618774414 0.7598847150802612 55.0 14 -0.08392852544784546
-2.7339305877685547 -1.627164602279663 -0.05553355813026428 12.0 7 -0.08392621576786041
-2.804155111312866 -1.6682969331741333 0.8742908239364624 52.0 15 -0.08392391353845596
-1.822611927986145 -1.0813275575637817 -0.5678489804267883 1.0 0 -0.08390317857265472
-2.6573643684387207 -1.57594633102417 0.053927935659885406 51.0 8 -0.08390087634325027
-2.7743144035339355 -1.6446489095687866 -0.7445880174636841 14.0 1 -0.08389856666326523
-2.2732274532318115 -1.3470622301101685 0.13848096132278442 9.0 9 -0.08389626443386078
-2.7665538787841797 -1.639396071434021 -0.6250903010368347 45.0 2 -0.08389396220445633
-2.8438987731933594 -1.6845585107803345 0.28918275237083435 36.0 10 -0.08389165997505188
-2.7570157051086426 -1.632443904876709 -0.5074734687805176 42.0 3 -0.08388935029506683
-2.851151943206787 -1.68751060962677 0.40679988265037537 66.0 11 -0.08388704806566238
-2.728436231613159 -1.6142359972000122 -0.3892507255077362 41.0 4 -0.08388474583625793
-2.84798526763916 -1.68429434299469 0.524055540561676 52.0 12 -0.08388244360685349
-2.4197707176208496 -1.43104887008667 -0.2459534853696823 8.0 5 -0.08388014137744904
-2.842630624771118 -1.6804571151733398 0.6418814659118652 46.0 13 -0.08387783169746399
-2.579219341278076 -1.5241316556930542 -0.15700788795948029 2.0 6 -0.08387552946805954
-2.8305861949920654 -1.6720048189163208 0.7589848637580872 48.0 14 -0.08387322723865509
-2.8066341876983643 -1.6565344333648682 0.8732554912567139 51.0 15 -0.0838686153292656
-1.8163862228393555 -1.0690793991088867 -0.5647432208061218 1.0 0 -0.08384788036346436
-2.767984390258789 -1.6285159587860107 0.05605712905526161 10.0 8 -0.0838455781340599
-2.7665998935699463 -1.627051591873169 -0.7409887909889221 27.0 1 -0.08384327590465546
-2.2848026752471924 -1.3431675434112549 0.13889963924884796 12.0 9 -0.08384097367525101
-2.768874406814575 -1.6277389526367188 -0.6243270635604858 45.0 2 -0.08383866399526596
-2.829148769378662 -1.6625080108642578 0.2870910167694092 11.0 10 -0.08383636176586151
-2.757587432861328 -1.619808554649353 -0.5065348744392395 41.0 3 -0.08383405953645706
-2.8518896102905273 -1.6745325326919556 0.40606871247291565 55.0 11 -0.08383175730705261
-2.7306301593780518 -1.6026923656463623 -0.3887632191181183 43.0 4 -0.08382944762706757
-2.8504397869110107 -1.672343373298645 0.523429811000824 53.0 12 -0.08382714539766312
-2.4213144779205322 -1.420577049255371 -0.24560487270355225 8.0 5 -0.08382484316825867
-2.833237648010254 -1.6615855693817139 0.6384469270706177 50.0 13 -0.08382254093885422
-2.345024585723877 -1.3747180700302124 -0.1424584835767746 1.0 6 -0.08382023125886917
-2.841449499130249 -1.665069818496704 0.7603346109390259 45.0 14 -0.08381792902946472
-2.814066171646118 -1.647704005241394 0.8737731575965881 40.0 15 -0.08381332457065582
-1.8367899656295776 -1.072473406791687 -0.5699195861816406 1.0 0 -0.08379258960485458
-2.557770252227783 -1.4928442239761353 0.051694028079509735 55.0 8 -0.08379027992486954
-2.7688958644866943 -1.6154210567474365 -0.7400889992713928 29.0 1 -0.08378797769546509
-2.2981040477752686 -1.340214729309082 0.13942299783229828 11.0 9 -0.08378567546606064
-2.7677559852600098 -1.614107608795166 -0.6228005886077881 45.0 2 -0.08378337323665619
-2.680020332336426 -1.5623151063919067 0.2714029848575592 7.0 10 -0.08378106355667114
-2.7563979625701904 -1.6061947345733643 -0.5052834153175354 46.0 3 -0.0837787613272667
-2.8388490676879883 -1.6535766124725342 0.40338757634162903 51.0 11 -0.08377645909786224
-2.7259151935577393 -1.5871578454971313 -0.3873008191585541 40.0 4 -0.0837741568684578
-2.849431037902832 -1.6584079265594482 0.5221782922744751 51.0 12 -0.08377184718847275
-2.427980661392212 -1.4131180047988892 -0.24577918648719788 7.0 5 -0.0837695449590683
-2.837322950363159 -1.6506989002227783 0.6380652785301208 42.0 13 -0.08376724272966385
-2.3256375789642334 -1.3524671792984009 -0.14099308848381042 1.0 6 -0.0837649405002594
-2.8371362686157227 -1.6492642164230347 0.757635235786438 33.0 14 -0.08376263082027435
-2.833164691925049 -1.6456334590911865 0.8779142498970032 17.0 15 -0.08375802636146545
-1.863925814628601 -1.079610824584961 -0.5771664977073669 1.0 0 -0.08373729139566422
