# .PCD v0.7 - Point Cloud Data file format
VERSION 0.7
FIELDS x y z intensity ring time
SIZE 4 4 4 4 4 4
TYPE F F F F F F
COUNT 1 1 1 1 1 1
WIDTH 538
HEIGHT 1
VIEWPOINT 0 0 0 1 0 0 0
POINTS 538
DATA ascii
-2.7326595783233643 -2.1158509254455566 0.4243490695953369 4.0 11 -0.028209414333105087
-2.7090835571289062 -2.0960845947265625 0.5425148010253906 17.0 12 -0.02820480614900589
-2.7005867958068848 -2.088757038116455 0.6636337041854858 8.0 13 -0.028200197964906693
-2.566025972366333 -1.9839657545089722 -0.16998720169067383 3.0 6 -0.028197893872857094
-2.7044734954833984 -2.090254783630371 0.7891283631324768 26.0 14 -0.028195589780807495
-2.1979806423187256 -1.698180079460144 -0.04848278686404228 10.0 7 -0.028193285688757896
-2.6771717071533203 -2.0676615238189697 0.906384289264679 49.0 15 -0.028190981596708298
-2.2196571826934814 -1.7093666791915894 0.048901643604040146 7.0 8 -0.02816794253885746
-2.68131947517395 -2.0634028911590576 0.17731423676013947 7.0 9 -0.028163334354758263
-2.2933733463287354 -1.7648600339889526 -0.5625049471855164 51.0 2 -0.028161030262708664
-2.7256743907928467 -2.0967798233032227 0.3008616268634796 11.0 10 -0.028158726170659065
-2.730585813522339 -2.0990402698516846 0.4228866696357727 4.0 11 -0.028154117986559868
-2.721083402633667 -2.0902252197265625 0.5434533953666687 20.0 12 -0.02814950980246067
-2.7031898498535156 -2.075730323791504 0.6624888777732849 7.0 13 -0.028144901618361473
-2.5491702556610107 -1.9567551612854004 -0.16841712594032288 3.0 6 -0.028142597526311874
-2.710207462310791 -2.079615354537964 0.7886784672737122 31.0 14 -0.028140293434262276
-2.2086551189422607 -1.6941484212875366 -0.04858750104904175 10.0 7 -0.028137989342212677
-2.681306838989258 -2.055952787399292 0.90534907579422 51.0 15 -0.02813568525016308
-2.260559558868408 -1.7283287048339844 0.049669548869132996 7.0 8 -0.02811264619231224
-2.6456539630889893 -2.0212929248809814 0.1744880974292755 9.0 9 -0.028108038008213043
-2.3060672283172607 -1.7612096071243286 -0.5640314221382141 25.0 2 -0.028105733916163445
-2.744426965713501 -2.095238208770752 0.30208179354667664 16.0 10 -0.028103429824113846
-2.72684907913208 -2.081066131591797 0.42118048667907715 5.0 11 -0.02809882164001465
-2.7236509323120117 -2.077120304107666 0.5425148010253906 21.0 12 -0.02809421345591545
-2.7045340538024902 -2.061048746109009 0.6609624028205872 7.0 13 -0.028089605271816254
-2.524550199508667 -1.9231919050216675 -0.1663236916065216 3.0 6 -0.028087301179766655
-2.7100589275360107 -2.063765287399292 0.7864289283752441 39.0 14 -0.028084997087717056
-2.203418731689453 -1.6779483556747437 -0.04834316670894623 8.0 7 -0.028082692995667458
-2.686929941177368 -2.04541015625 0.9048314094543457 54.0 15 -0.02808038890361786
-2.242983818054199 -1.7019007205963135 0.049145977944135666 13.0 8 -0.02805734984576702
-2.605299949645996 -1.9753806591033936 0.17134793102741241 10.0 9 -0.028052741661667824
-2.3106369972229004 -1.751962423324585 -0.5636498332023621 29.0 2 -0.028050437569618225
-2.739020824432373 -2.0760183334350586 0.3006872832775116 16.0 10 -0.028048133477568626
-2.721799373626709 -2.061469078063965 0.41923055052757263 8.0 11 -0.02804352529346943
-2.7296700477600098 -2.065932035446167 0.5422019362449646 28.0 12 -0.02803891710937023
-2.710146188735962 -2.0504109859466553 0.6605807542800903 7.0 13 -0.028034308925271034
-2.5073530673980713 -1.8962969779968262 -0.16475361585617065 1.0 6 -0.028032004833221436
-2.711028814315796 -2.049591302871704 0.7846293449401855 45.0 14 -0.028029702603816986
-2.188814640045166 -1.654186725616455 -0.047889403998851776 14.0 7 -0.028027398511767387
-2.6944081783294678 -2.0355491638183594 0.9048314094543457 56.0 15 -0.02802509441971779
-2.2473137378692627 -1.6928577423095703 0.04911107197403908 12.0 8 -0.028002053499221802
-2.640901803970337 -1.9878954887390137 0.1732320338487625 10.0 9 -0.027997445315122604
-2.3292860984802246 -1.7533320188522339 -0.5667027235031128 26.0 2 -0.027995141223073006
-2.744658946990967 -2.06524658203125 0.30051299929618835 26.0 10 -0.027992837131023407
-2.732151508331299 -2.054342269897461 0.41971805691719055 8.0 11 -0.02798822894692421
-2.71791410446167 -2.0421512126922607 0.5384474992752075 28.0 12 -0.027983620762825012
-2.714146852493286 -2.0385806560516357 0.6598175168037415 7.0 13 -0.027979014441370964
-2.275977373123169 -1.7088528871536255 -0.14915749430656433 1.0 6 -0.027976710349321365
-2.7150497436523438 -2.037775754928589 0.7837295532226562 53.0 14 -0.027974406257271767
-2.1881768703460693 -1.6417362689971924 -0.04774978384375572 14.0 7 -0.027972102165222168
-2.6829516887664795 -2.0122220516204834 0.8986197710037231 55.0 15 -0.02796979807317257
-2.2403976917266846 -1.675421953201294 0.04883183166384697 14.0 8 -0.027946757152676582
-1.916692852973938 -1.4328263998031616 -0.5524798035621643 1.0 1 -0.027944453060626984
-2.678222894668579 -2.001380681991577 0.175220787525177 7.0 9 -0.027942148968577385
-2.357409715652466 -1.761643648147583 -0.5720453858375549 28.0 2 -0.027939844876527786
-2.734292984008789 -2.042537212371826 0.2985955774784088 27.0 10 -0.027937540784478188
-2.732942819595337 -2.0400428771972656 0.4187431037425995 9.0 11 -0.02793293446302414
-2.7281923294067383 -2.0350143909454346 0.5390732288360596 35.0 12 -0.027928326278924942
-2.7102293968200684 -2.0208792686462402 0.6571462154388428 7.0 13 -0.027923718094825745
-2.2739224433898926 -1.6949292421340942 -0.148634135723114 6.0 6 -0.027921414002776146
-2.7190206050872803 -2.0259580612182617 0.782829761505127 70.0 14 -0.027919109910726547
-2.192291021347046 -1.632893681526184 -0.04771488159894943 11.0 7 -0.02791680581867695
-2.6775636672973633 -1.9936141967773438 0.8944786190986633 56.0 15 -0.02791450172662735
-2.254260301589966 -1.673551082611084 0.04900635778903961 14.0 8 -0.027891460806131363
-1.899774432182312 -1.4098684787750244 -0.5461812019348145 1.0 1 -0.027889158576726913
-2.6819844245910645 -1.9896396398544312 0.17501145601272583 7.0 9 -0.027886854484677315
-2.3824656009674072 -1.7674404382705688 -0.5766248106956482 31.0 2 -0.027884550392627716
-2.738205671310425 -2.030606746673584 0.29824694991111755 32.0 10 -0.027882246300578117
-2.7256929874420166 -2.019853353500366 0.4165494441986084 12.0 11 -0.02787763811647892
-2.733691930770874 -2.0243031978607178 0.5387603640556335 43.0 12 -0.027873029932379723
-2.7109551429748535 -2.0067341327667236 0.655619740486145 7.0 13 -0.027868421748280525
-2.2621638774871826 -1.673913598060608 -0.1474827378988266 5.0 6 -0.027866117656230927
-2.7260758876800537 -2.0164544582366943 0.782829761505127 70.0 14 -0.027863813564181328
-2.1979777812957764 -1.6252306699752808 -0.04771488159894943 9.0 7 -0.02786150947213173
-2.6860599517822266 -1.9854037761688232 0.8949962854385376 58.0 15 -0.02785920538008213
-2.2971127033233643 -1.6929587125778198 0.04980916902422905 25.0 8 -0.027836166322231293
-1.904684066772461 -1.4032284021377563 -0.5461812019348145 1.0 1 -0.027833862230181694
-2.682135820388794 -1.975996494293213 0.1745927631855011 7.0 9 -0.027831558138132095
-2.40759015083313 -1.773084282875061 -0.5812042355537415 29.0 2 -0.027829254046082497
-2.7500905990600586 -2.0245797634124756 0.29876989126205444 42.0 10 -0.027826949954032898
-2.723133087158203 -2.0032689571380615 0.4150870144367218 15.0 11 -0.0278223417699337
-2.7372069358825684 -2.0128860473632812 0.5381346344947815 40.0 12 -0.027817733585834503
-2.716362237930298 -1.9960957765579224 0.655238151550293 8.0 13 -0.027813125401735306
-2.2647738456726074 -1.663642168045044 -0.14727339148521423 11.0 6 -0.027810821309685707
-2.7264657020568848 -2.002788543701172 0.7810301184654236 77.0 14 -0.02780851721763611
-2.2130255699157715 -1.6250345706939697 -0.047924306243658066 10.0 7 -0.02780621312558651
-2.689514398574829 -1.9741992950439453 0.8939610123634338 58.0 15 -0.02780390903353691
-2.2994868755340576 -1.6829698085784912 0.04973935708403587 41.0 8 -0.027780869975686073
-1.8527077436447144 -1.355480432510376 -0.529984712600708 1.0 1 -0.027778565883636475
-2.670942544937134 -1.9541184902191162 0.17344138026237488 6.0 9 -0.027776261791586876
-2.4166259765625 -1.7674084901809692 -0.5819674730300903 27.0 2 -0.027773957699537277
-2.753572702407837 -2.0130972862243652 0.2984212636947632 46.0 10 -0.02777165360748768
-2.734569549560547 -1.9977411031723022 0.4158182442188263 20.0 11 -0.02776704542338848
-2.7327001094818115 -1.9956430196762085 0.5359445214271545 47.0 12 -0.027762437239289284
-2.718207836151123 -1.983606219291687 0.6540932655334473 10.0 13 -0.027757829055190086
-2.2799599170684814 -1.6631851196289062 -0.14790143072605133 19.0 6 -0.027755524963140488
-2.704753875732422 -1.9730637073516846 0.7729318737983704 75.0 14 -0.02775322087109089
-2.2119393348693848 -1.6129740476608276 -0.04778468981385231 12.0 7 -0.02775091677904129
-2.7069742679595947 -1.9732352495193481 0.8975844979286194 70.0 15 -0.02774861454963684
-2.2985846996307373 -1.67063307762146 0.04959974065423012 25.0 8 -0.027725573629140854
-1.8571926355361938 -1.3493291139602661 -0.529984712600708 1.0 1 -0.027723269537091255
-2.680979013442993 -1.9471311569213867 0.17365071177482605 6.0 9 -0.027720965445041656
-2.432004690170288 -1.7663068771362305 -0.5842571258544922 24.0 2 -0.027718661352992058
-2.7424979209899902 -1.9910789728164673 0.29650384187698364 50.0 10 -0.02771635726094246
-2.7299318313598633 -1.9805021286010742 0.41411206126213074 23.0 11 -0.02771174907684326
-2.7380502223968506 -1.984932541847229 0.5356317162513733 57.0 12 -0.027707140892744064
-2.720001459121704 -1.9711250066757202 0.6529484391212463 11.0 13 -0.027702534571290016
-2.2757580280303955 -1.6485849618911743 -0.14727339148521423 20.0 6 -0.027700230479240417
-2.7195162773132324 -1.9693251848220825 0.7751813530921936 83.0 14 -0.02769792638719082
-2.26129150390625 -1.636902928352356 -0.048727117478847504 16.0 7 -0.02769562229514122
-2.6981942653656006 -1.9524495601654053 0.8924081325531006 72.0 15 -0.02769331820309162
-2.2768337726593018 -1.6427081823349 0.04900635778903961 14.0 8 -0.027670277282595634
-1.8618910312652588 -1.3428385257720947 -0.529984712600708 1.0 1 -0.027667973190546036
-2.6877596378326416 -1.937760829925537 0.17365071177482605 6.0 9 -0.027665669098496437
-2.4894301891326904 -1.7941126823425293 -0.5964689254760742 1.0 2 -0.02766336500644684
-2.7433104515075684 -1.976355791091919 0.2958065867424011 57.0 10 -0.02766106091439724
-2.7416608333587646 -1.9744408130645752 0.41484326124191284 31.0 11 -0.02765645459294319
-2.732135057449341 -1.9661327600479126 0.5331287384033203 55.0 12 -0.027651846408843994
-2.725614547729492 -1.9599956274032593 0.6525667905807495 13.0 13 -0.027647238224744797
-2.2834064960479736 -1.6413992643356323 -0.147378072142601 20.0 6 -0.027644934132695198
-2.720386028289795 -1.9547957181930542 0.773381769657135 83.0 14 -0.0276426300406456
-2.283231258392334 -1.6406680345535278 -0.04907616600394249 20.0 7 -0.027640325948596
-2.6940102577209473 -1.9351298809051514 0.888784646987915 74.0 15 -0.027638021856546402
-2.234060525894165 -1.5994306802749634 0.047959212213754654 24.0 8 -0.027614980936050415
-2.6948437690734863 -1.9278967380523682 0.17365071177482605 6.0 9 -0.027610372751951218
-2.7437102794647217 -1.9621320962905884 0.2951093316078186 58.0 10 -0.02760576643049717
-2.7327282428741455 -1.9528372287750244 0.4124058783054352 38.0 11 -0.027601158246397972
-2.7409307956695557 -1.957252860069275 0.5334416031837463 62.0 12 -0.027596550062298775
-2.7212541103363037 -1.942484974861145 0.6498954892158508 15.0 13 -0.027591941878199577
-2.285870313644409 -1.6310981512069702 -0.14716872572898865 20.0 6 -0.02758963778614998
-2.7256064414978027 -1.9441561698913574 0.7729318737983704 86.0 14 -0.02758733369410038
-2.289229154586792 -1.6322885751724243 -0.04907616600394249 20.0 7 -0.02758502960205078
-2.6947922706604004 -1.92075777053833 0.8867141008377075 78.0 15 -0.027582725510001183
-2.2347400188446045 -1.5881472826004028 0.04785449802875519 31.0 8 -0.027559686452150345
-2.6885297298431396 -1.9092270135879517 0.17281334102153778 5.0 9 -0.027555078268051147
-2.7521674633026123 -1.9536960124969482 0.29528364539146423 61.0 10 -0.02755047008395195
-2.7330522537231445 -1.9386922121047974 0.4114309251308441 45.0 11 -0.027545861899852753
-2.7461347579956055 -1.946531057357788 0.5331287384033203 63.0 12 -0.027541253715753555
-2.724813938140869 -1.9307048320770264 0.649132251739502 18.0 13 -0.027536645531654358
-2.291550636291504 -1.6231085062026978 -0.14716872572898865 13.0 6 -0.02753434143960476
-2.724424123764038 -1.928999662399292 0.7706823348999023 89.0 14 -0.02753203734755516
-2.283487319946289 -1.616201400756836 -0.04883183166384697 22.0 7 -0.027529733255505562
-2.7014803886413574 -1.9113394021987915 0.8867141008377075 78.0 15 -0.027527429163455963
-2.2451722621917725 -1.5837949514389038 0.047959212213754654 35.0 8 -0.027504390105605125
-2.6821184158325195 -1.890624761581421 0.1719759702682495 5.0 9 -0.027499781921505928
-2.75571346282959 -1.9417812824249268 0.294935017824173 68.0 10 -0.02749517373740673
-2.7398030757904053 -1.929140329360962 0.4114309251308441 57.0 11 -0.027490565553307533
-2.738372325897217 -1.926703691482544 0.5303128957748413 62.0 12 -0.027485957369208336
-2.728325128555298 -1.918922781944275 0.6483690142631531 25.0 13 -0.02748134918510914
-2.3037378787994385 -1.6196945905685425 -0.14758741855621338 10.0 6 -0.02747904509305954
-2.719980001449585 -1.9116346836090088 0.7675330638885498 86.0 14 -0.02747674100100994
-2.2989327907562256 -1.6151174306869507 -0.0490412637591362 24.0 7 -0.027474436908960342
-2.7144596576690674 -1.9063388109207153 0.888784646987915 80.0 15 -0.027472132816910744
-1.6726815700531006 -1.1712242364883423 -0.5471434593200684 1.0 0 -0.027451397851109505
-2.2441351413726807 -1.5713603496551514 0.0478195957839489 38.0 8 -0.027449093759059906
-1.5613863468170166 -1.092888593673706 -0.44000428915023804 0.0 1 -0.027446789667010307
-2.6919748783111572 -1.8835402727127075 0.17218531668186188 4.0 9 -0.02744448557496071
-1.6747535467147827 -1.1713688373565674 -0.3972643315792084 1.0 2 -0.02744218148291111
-2.753014326095581 -1.924818754196167 0.2938891649246216 72.0 10 -0.02743987739086151
-2.7432665824890137 -1.9172897338867188 0.41094347834587097 63.0 11 -0.027435269206762314
-2.5890088081359863 -1.8088061809539795 -0.3877882957458496 1.0 4 -0.027432965114712715
-2.73698353767395 -1.9114779233932495 0.5287485718727112 63.0 12 -0.027430661022663116
-2.3165359497070312 -1.6172398328781128 -0.24717368185520172 3.0 5 -0.027428356930613518
-2.7337300777435303 -1.9077863693237305 0.6479873657226562 27.0 13 -0.02742605283856392
-2.3260390758514404 -1.6226677894592285 -0.148634135723114 9.0 6 -0.02742375060915947
-2.7157795429229736 -1.8938491344451904 0.7643837332725525 78.0 14 -0.02742144651710987
-2.31111741065979 -1.611657977104187 -0.049180880188941956 28.0 7 -0.027419142425060272
-2.705249309539795 -1.8858050107955933 0.8836082816123962 76.0 15 -0.027416838333010674
-1.6767597198486328 -1.1653783321380615 -0.5471434593200684 1.0 0 -0.027396101504564285
-2.240025281906128 -1.556279182434082 0.047610167413949966 36.0 8 -0.027393797412514687
-1.606997013092041 -1.1160603761672974 -0.4517017602920532 1.0 1 -0.027391493320465088
-2.702141046524048 -1.8759397268295288 0.17239466309547424 4.0 9 -0.02738918922841549
-1.5981968641281128 -1.1095353364944458 -0.3781834542751312 0.0 2 -0.02738688513636589
-2.7531685829162598 -1.9106539487838745 0.29319190979003906 75.0 10 -0.027384581044316292
-2.751905918121338 -1.9083540439605713 0.41118720173835754 67.0 11 -0.027379972860217094
-2.602147102355957 -1.8038278818130493 -0.3887632191181183 11.0 4 -0.027377668768167496
-2.7374765872955322 -1.8969330787658691 0.5274971127510071 65.0 12 -0.027375366538763046
-2.3552041053771973 -1.6314291954040527 -0.25065991282463074 7.0 5 -0.027373062446713448
-2.7323036193847656 -1.892642617225647 0.6460793018341064 33.0 13 -0.02737075835466385
-2.3825926780700684 -1.6497849225997925 -0.1518789678812027 2.0 6 -0.02736845426261425
-2.727180242538452 -1.8876855373382568 0.7657334208488464 81.0 14 -0.02736615017056465
-2.3367421627044678 -1.6168309450149536 -0.04959974065423012 27.0 7 -0.027363846078515053
-2.7026102542877197 -1.8692829608917236 0.880502462387085 78.0 15 -0.027361541986465454
-1.60150146484375 -1.1043893098831177 -0.5212615728378296 1.0 0 -0.027340805158019066
-2.281661033630371 -1.5734248161315918 0.04837806895375252 35.0 8 -0.027338501065969467
-1.630136489868164 -1.1237162351608276 -0.4571005702018738 1.0 1 -0.02733619697391987
-2.7119617462158203 -1.8687629699707031 0.17260399460792542 5.0 9 -0.02733389288187027
-2.7601535320281982 -1.9005495309829712 0.29319190979003906 75.0 10 -0.027329284697771072
-2.5872132778167725 -1.7808033227920532 -0.4974616467952728 3.0 3 -0.027326982468366623
-2.745469331741333 -1.8897323608398438 0.4092372953891754 70.0 11 -0.027324678376317024
-2.6264164447784424 -1.8071117401123047 -0.3914443552494049 18.0 4 -0.027322374284267426
-2.744081497192383 -1.887365698814392 0.5274971127510071 63.0 12 -0.027320070192217827
-2.3592426776885986 -1.622069239616394 -0.2504855990409851 7.0 5 -0.027317766100168228
-2.7311320304870605 -1.8770554065704346 0.6441711783409119 42.0 13 -0.02731546200811863
-2.4956252574920654 -1.714554786682129 -0.15868262946605682 2.0 6 -0.02731315791606903
-2.724442958831787 -1.8710572719573975 0.7630340456962585 70.0 14 -0.027310853824019432
-2.3539109230041504 -1.6165881156921387 -0.04984407499432564 23.0 7 -0.027308549731969833
-2.709118604660034 -1.8598381280899048 0.880502462387085 78.0 15 -0.027306245639920235
-1.643410563468933 -1.1252671480178833 -0.5336848497390747 1.0 0 -0.02758169174194336
-2.318493127822876 -1.5869109630584717 0.0490412637591362 24.0 8 -0.02757938764989376
-1.630832552909851 -1.1158182621002197 -0.4562007784843445 1.0 1 -0.027577083557844162
-2.698685646057129 -1.845754861831665 0.17134793102741241 5.0 9 -0.027574779465794563
-2.6430158615112305 -1.8076796531677246 -0.6224189400672913 1.0 2 -0.027572475373744965
-2.7664406299591064 -1.8913861513137817 0.29319190979003906 75.0 10 -0.027570171281695366
-2.630614757537842 -1.7978495359420776 -0.5046576261520386 22.0 3 -0.027567867189645767
-2.745492458343506 -1.8756580352783203 0.40826234221458435 79.0 11 -0.02756556309759617
-2.6458230018615723 -1.8068888187408447 -0.39339426159858704 18.0 4 -0.02756325900554657
-2.747390031814575 -1.875548243522644 0.526871383190155 65.0 12 -0.02756095491349697
-2.3711907863616943 -1.6187299489974976 -0.2511828541755676 7.0 5 -0.027558650821447372
-2.7324769496917725 -1.8646684885025024 0.6430263519287109 48.0 13 -0.027556348592042923
-2.529346227645874 -1.7254033088684082 -0.16046206653118134 2.0 6 -0.027554044499993324
-2.7290220260620117 -1.8609150648117065 0.7625840902328491 72.0 14 -0.027551740407943726
-2.359539031982422 -1.608362078666687 -0.04984407499432564 20.0 7 -0.027549436315894127
-2.7124009132385254 -1.8481944799423218 0.8794671893119812 74.0 15 -0.027547132223844528
-1.6313507556915283 -1.108664631843567 -0.5285084843635559 1.0 0 -0.02752639539539814
-2.2975528240203857 -1.5608288049697876 0.04848278686404228 20.0 8 -0.02752409130334854
-1.657287359237671 -1.1254462003707886 -0.46249938011169434 1.0 1 -0.027521787211298943
-2.705112934112549 -1.8363227844238281 0.17134793102741241 5.0 9 -0.027519483119249344
-2.637939929962158 -1.7907235622406006 -0.6197476387023926 13.0 2 -0.027517179027199745
-2.769728899002075 -1.8794803619384766 0.2928432822227478 75.0 10 -0.027514874935150146
-2.6646652221679688 -1.807508111000061 -0.5099764466285706 24.0 3 -0.027512570843100548
-2.74709415435791 -1.8627208471298218 0.40753111243247986 85.0 11 -0.0275102686136961
-2.6718320846557617 -1.8110072612762451 -0.39631912112236023 16.0 4 -0.0275079645216465
-2.747378349304199 -1.861514925956726 0.5256198644638062 63.0 12 -0.0275056604295969
-2.3735275268554688 -1.608208417892456 -0.25083422660827637 7.0 5 -0.027503356337547302
-2.738969087600708 -1.8551188707351685 0.6430263519287109 52.0 13 -0.027501052245497704
-2.5370073318481445 -1.71768319606781 -0.16056673228740692 2.0 6 -0.027498748153448105
-2.7242043018341064 -1.8437317609786987 0.7594348192214966 66.0 14 -0.027496444061398506
-2.3817014694213867 -1.6113210916519165 -0.050193123519420624 26.0 7 -0.027494139969348907
-2.722036600112915 -1.8408796787261963 0.880502462387085 76.0 15 -0.02749183587729931
-1.6352108716964722 -1.1029634475708008 -0.5285084843635559 1.0 0 -0.02747109904885292
-2.324540853500366 -1.5673327445983887 0.048936549574136734 21.0 8 -0.027468794956803322
-2.6979377269744873 -1.8184118270874023 0.17051056027412415 4.0 9 -0.027464188635349274
-2.6702258586883545 -1.7990561723709106 -0.6258535385131836 19.0 2 -0.027461884543299675
-2.7680094242095947 -1.8642363548278809 0.29197174310684204 77.0 10 -0.027459580451250076
-2.695538282394409 -1.8147428035736084 -0.5146694779396057 25.0 3 -0.027457276359200478
-2.7519328594207764 -1.852012038230896 0.4072873890399933 81.0 11 -0.02745497226715088
-2.699232578277588 -1.8165453672409058 -0.3994877338409424 27.0 4 -0.02745266817510128
-2.742063283920288 -1.8446756601333618 0.523429811000824 67.0 12 -0.02745036408305168
-2.379127025604248 -1.5999127626419067 -0.25083422660827637 7.0 5 -0.027448059991002083
-2.7421693801879883 -1.8433561325073242 0.6422631144523621 55.0 13 -0.027445755898952484
-2.5313832759857178 -1.7010197639465332 -0.15983402729034424 3.0 6 -0.027443451806902885
-2.7416253089904785 -1.8422966003417969 0.7625840902328491 81.0 14 -0.027441147714853287
-2.3920116424560547 -1.6067593097686768 -0.05029783770442009 23.0 7 -0.027438843622803688
-2.710484027862549 -1.8199965953826904 0.8748083710670471 69.0 15 -0.02743653953075409
-2.343019485473633 -1.5685150623321533 0.049215786159038544 16.0 8 -0.02741350047290325
-2.7039527893066406 -1.8094557523727417 0.17051056027412415 6.0 9 -0.027408892288804054
-2.7006540298461914 -1.8065650463104248 -0.6315777897834778 27.0 2 -0.027406588196754456
-2.762583017349243 -1.847294569015503 0.29075154662132263 75.0 10 -0.027404284104704857
-2.717963695526123 -1.8167719841003418 -0.517798125743866 49.0 3 -0.027401980012655258
-2.75640869140625 -1.8417730331420898 0.4070436358451843 82.0 11 -0.02739967592060566
-2.7448549270629883 -1.8340531587600708 -0.40533748269081116 54.0 4 -0.02739737182855606
-2.7465226650238037 -1.834475040435791 0.5231168866157532 65.0 12 -0.027395067736506462
-2.3777916431427 -1.5875890254974365 -0.25013697147369385 7.0 5 -0.027392763644456863
-2.7499003410339355 -1.835342526435852 0.6426447629928589 63.0 13 -0.027390459552407265
-2.548640012741089 -1.700374960899353 -0.16056673228740692 7.0 6 -0.027388155460357666
-2.7379932403564453 -1.8267056941986084 0.7598847150802612 67.0 14 -0.027385851368308067
-2.380690336227417 -1.587722897529602 -0.049948789179325104 11.0 7 -0.02738354727625847
-2.7100749015808105 -1.8067117929458618 0.8727378845214844 67.0 15 -0.02738124318420887
-2.371523380279541 -1.576233148574829 0.049704451113939285 14.0 8 -0.027358204126358032
-2.6902878284454346 -1.7867456674575806 0.16925449669361115 5.0 9 -0.027353595942258835
-2.736067771911621 -1.8171502351760864 -0.6384469270706177 65.0 2 -0.027351291850209236
-2.768693685531616 -1.8381232023239136 0.29075154662132263 75.0 10 -0.027348987758159637
-2.733848810195923 -1.814302682876587 -0.5196753740310669 50.0 3 -0.02734668366611004
-2.754230260848999 -1.827135443687439 0.4058249592781067 73.0 11 -0.02734437957406044
-2.7429678440093994 -1.818975567817688 -0.40411877632141113 45.0 4 -0.02734207548201084
-2.7529094219207764 -1.8248767852783203 0.5231168866157532 65.0 12 -0.027339771389961243
-2.376675605773926 -1.5748772621154785 -0.24943974614143372 7.0 5 -0.027337467297911644
-2.7412421703338623 -1.816453218460083 0.6392101645469666 65.0 13 -0.027335163205862045
-2.537613868713379 -1.680884599685669 -0.1595200151205063 3.0 6 -0.027332859113812447
-2.7427282333374023 -1.81606125831604 0.7594348192214966 66.0 14 -0.027330555021762848
-2.387885570526123 -1.580506682395935 -0.04998369142413139 14.0 7 -0.02732825092971325
-2.7050867080688477 -1.789779782295227 0.8691143989562988 64.0 15 -0.02732594683766365
-2.4337656497955322 -1.6053822040557861 0.0508912168443203 14.0 8 -0.027302907779812813
-1.9164901971817017 -1.2636926174163818 -0.529984712600708 1.0 1 -0.027300603687763214
-2.6664912700653076 -1.7575595378875732 0.16737040877342224 6.0 9 -0.027298299595713615
-2.750905990600586 -1.8125110864639282 -0.6403550505638123 45.0 2 -0.027295995503664017
-2.775412082672119 -1.82796311378479 0.29075154662132263 75.0 10 -0.027293691411614418
-2.7404801845550537 -1.8042703866958618 -0.5196753740310669 46.0 3 -0.02729138731956482
-2.7539589405059814 -1.8131444454193115 0.4048500061035156 70.0 11 -0.02728908322751522
-2.7376930713653564 -1.8017504215240479 -0.4024125933647156 41.0 4 -0.027286779135465622
-2.760913610458374 -1.8163412809371948 0.523429811000824 65.0 12 -0.027284475043416023
-2.393810987472534 -1.574235200881958 -0.25065991282463074 7.0 5 -0.027282170951366425
-2.7478809356689453 -1.806394338607788 0.6392101645469666 65.0 13 -0.027279866859316826
-2.5487654209136963 -1.6748623847961426 -0.15983402729034424 2.0 6 -0.027277564629912376
-2.7412221431732178 -1.8006467819213867 0.7571852803230286 63.0 14 -0.027275260537862778
-2.321519136428833 -1.5249534845352173 -0.04848278686404228 11.0 7 -0.02727295644581318
-2.7177772521972656 -1.7845675945281982 0.8711849451065063 63.0 15 -0.02727065235376358
-2.3727023601531982 -1.5526530742645264 0.04949502646923065 13.0 8 -0.027247611433267593
-2.7030043601989746 -1.7674493789672852 0.16925449669361115 6.0 9 -0.027243003249168396
-2.7424278259277344 -1.7932277917861938 -0.6369204521179199 38.0 2 -0.027240699157118797
-2.7801082134246826 -1.817173719406128 0.290577232837677 70.0 10 -0.0272383950650692
-2.7550301551818848 -1.8000956773757935 -0.521239697933197 42.0 3 -0.0272360909730196
-2.7605857849121094 -1.8030383586883545 0.4048500061035156 72.0 11 -0.02723378688097
-2.7376296520233154 -1.7873632907867432 -0.4014376401901245 40.0 4 -0.027231484651565552
-2.760934829711914 -1.8018916845321655 0.5221782922744751 63.0 12 -0.027229180559515953
-2.3876121044158936 -1.5582469701766968 -0.24943974614143372 7.0 5 -0.027226876467466354
-2.7541699409484863 -1.7967913150787354 0.6392101645469666 66.0 13 -0.027224572375416756
-2.5696523189544678 -1.6757748126983643 -0.1607760637998581 2.0 6 -0.027222268283367157
-2.7376959323883057 -1.7846819162368774 0.7544858455657959 63.0 14 -0.02721996419131756
-2.3371455669403076 -1.5229843854904175 -0.048692215234041214 22.0 7 -0.02721766009926796
-2.730774402618408 -1.7788119316101074 0.8732554912567139 63.0 15 -0.02721535600721836
-2.3932013511657715 -1.5541632175445557 0.04980916902422905 12.0 8 -0.027192315086722374
-1.9254839420318604 -1.249946117401123 -0.529984712600708 1.0 1 -0.027190010994672775
-2.729262351989746 -1.7710496187210083 0.17051056027412415 6.0 9 -0.027187706902623177
-2.740436315536499 -1.7783005237579346 -0.6350123286247253 36.0 2 -0.027185402810573578
-2.7780768871307373 -1.8020367622375488 0.28970569372177124 65.0 10 -0.02718310058116913
-2.746379852294922 -1.7807953357696533 -0.518423855304718 41.0 3 -0.02718079648911953
-2.763531446456909 -1.791231632232666 0.4043624997138977 71.0 11 -0.02717849239706993
-2.743852138519287 -1.7777962684631348 -0.4014376401901245 41.0 4 -0.027176188305020332
-2.760576009750366 -1.7879478931427002 0.520926833152771 71.0 12 -0.027173884212970734
-2.4030706882476807 -1.5564016103744507 -0.2504855990409851 8.0 5 -0.027171580120921135
-2.763721227645874 -1.789300560951233 0.6399734020233154 67.0 13 -0.027169276028871536
-2.5603957176208496 -1.6570285558700562 -0.15983402729034424 2.0 6 -0.027166971936821938
-2.7422728538513184 -1.774056077003479 0.754036009311676 61.0 14 -0.02716466784477234
-2.3357303142547607 -1.5104738473892212 -0.04855259507894516 25.0 7 -0.02716236375272274
-2.7158758640289307 -1.7556349039077759 0.866526186466217 60.0 15 -0.02716005966067314
-2.378441333770752 -1.5328006744384766 0.049390312284231186 8.0 8 -0.027137020602822304
-2.738786220550537 -1.7636744976043701 0.1707199066877365 6.0 9 -0.027132412418723106
-2.743325710296631 -1.7665977478027344 -0.6342491507530212 34.0 2 -0.027130108326673508
-2.777649164199829 -1.7880148887634277 0.2890084385871887 67.0 10 -0.02712780423462391
-2.7492566108703613 -1.769060492515564 -0.517798125743866 40.0 3 -0.02712550014257431
-2.773106336593628 -1.7837220430374146 0.4048500061035156 68.0 11 -0.02712319605052471
-2.746701717376709 -1.7660603523254395 -0.40095019340515137 41.0 4 -0.027120891958475113
-2.7568297386169434 -1.7718924283981323 0.5190495848655701 66.0 12 -0.027118587866425514
-2.388643980026245 -1.5346601009368896 -0.24839386343955994 7.0 5 -0.027116283774375916
-2.7567362785339355 -1.7711527347564697 0.6369204521179199 65.0 13 -0.027113979682326317
-2.618260622024536 -1.6815389394760132 -0.16307885944843292 5.0 6 -0.027111675590276718
-2.753368616104126 -1.7676312923431396 0.75538569688797 60.0 14 -0.02710937149822712
-2.3679161071777344 -1.5195916891098022 -0.04911107197403908 25.0 7 -0.02710706740617752
-2.7268660068511963 -1.7492733001708984 0.8680790662765503 60.0 15 -0.027104763314127922
-2.4006235599517822 -1.5352634191513062 0.04973935708403587 7.0 8 -0.027081724256277084
-1.934163212776184 -1.2364732027053833 -0.529984712600708 1.0 1 -0.027079420164227486
-2.7466092109680176 -1.7551791667938232 0.1708245724439621 9.0 9 -0.027077116072177887
-2.749781847000122 -1.7565317153930664 -0.6342491507530212 34.0 2 -0.02707481198012829
-2.7774667739868164 -1.7735332250595093 0.2883111834526062 65.0 10 -0.02707250788807869
-2.747396945953369 -1.753657341003418 -0.5162338018417358 42.0 3 -0.02707020379602909
-2.7609097957611084 -1.7622824907302856 0.402168869972229 67.0 11 -0.027067899703979492
-2.749502420425415 -1.7543269395828247 -0.40046271681785583 40.0 4 -0.027065595611929893
-2.769660234451294 -1.7665075063705444 0.520301103591919 65.0 12 -0.027063291519880295
-2.3973464965820312 -1.5284547805786133 -0.24874247610569 7.0 5 -0.027060987427830696
-2.749964475631714 -1.752596378326416 0.6338675618171692 67.0 13 -0.027058683335781097
-2.6463043689727783 -1.6858818531036377 -0.1644395887851715 6.0 6 -0.0270563792437315
-2.761472225189209 -1.7585744857788086 0.7558355927467346 61.0 14 -0.0270540751516819
-2.4845290184020996 -1.5822100639343262 -0.05141478776931763 19.0 7 -0.0270517710596323
-2.721548318862915 -1.7324814796447754 0.8644556403160095 57.0 15 -0.027049466967582703
-2.5210587978363037 -1.5992950201034546 0.0521128848195076 17.0 8 -0.027026427909731865
-2.744588851928711 -1.739754557609558 0.17030121386051178 9.0 9 -0.027021819725632668
-2.7542386054992676 -1.7458714246749878 -0.6338675618171692 33.0 2 -0.02701951563358307
-2.7870068550109863 -1.7659600973129272 0.28865981101989746 67.0 10 -0.02701721154153347
-2.748494863510132 -1.7408859729766846 -0.5152952075004578 41.0 3 -0.02701490744948387
-2.767350196838379 -1.7521512508392334 0.402168869972229 66.0 11 -0.027012603357434273
-2.750882387161255 -1.7410520315170288 -0.39973148703575134 29.0 4 -0.027010299265384674
-2.777784585952759 -1.7574009895324707 0.520613968372345 67.0 12 -0.027007995173335075
-2.399299383163452 -1.5179474353790283 -0.24839386343955994 7.0 5 -0.027005691081285477
-2.752746820449829 -1.7408870458602905 0.6331042647361755 67.0 13 -0.027003386989235878
-2.650484561920166 -1.6755669116973877 -0.16433492302894592 7.0 6 -0.02700108289718628
-2.75111985206604 -1.73851478099823 0.7513365745544434 66.0 14 -0.02699878066778183
-2.5122900009155273 -1.5869765281677246 -0.05186855047941208 21.0 7 -0.02699647657573223
-2.73604679107666 -1.727652668952942 0.8670438528060913 60.0 15 -0.026994172483682632
-1.7278988361358643 -1.0881156921386719 -0.5471434593200684 1.0 0 -0.026973435655236244
-2.5503180027008057 -1.6053998470306396 0.05260155349969864 25.0 8 -0.026971131563186646
-2.743882656097412 -1.7259089946746826 0.16988252103328705 9.0 9 -0.026966523379087448
-2.750345230102539 -1.7299740314483643 -0.6315777897834778 33.0 2 -0.02696421928703785
-2.7948403358459473 -1.75728178024292 0.2888341248035431 59.0 10 -0.02696191519498825
-2.7545549869537354 -1.7312812805175781 -0.5152952075004578 40.0 3 -0.026959611102938652
-2.770087718963623 -1.7403687238693237 0.40168139338493347 65.0 11 -0.026957307010889053
-2.7216403484344482 -1.7092689275741577 -0.39461296796798706 41.0 4 -0.026955002918839455
-2.768845319747925 -1.7382413148880005 0.517798125743866 65.0 12 -0.026952698826789856
-2.4079582691192627 -1.5116815567016602 -0.24874247610569 7.0 5 -0.026950396597385406
-2.7588069438934326 -1.7312674522399902 0.6331042647361755 66.0 13 -0.026948092505335808
-2.646165609359741 -1.6599373817443848 -0.16370689868927002 7.0 6 -0.02694578841328621
-2.7538702487945557 -1.7268297672271729 0.7504367828369141 66.0 14 -0.02694348432123661
-2.5025649070739746 -1.5686389207839966 -0.05155441164970398 22.0 7 -0.02694118022918701
-2.746971845626831 -1.7211686372756958 0.8685967326164246 57.0 15 -0.026938876137137413
-1.7218563556671143 -1.0759354829788208 -0.5440376400947571 1.0 0 -0.026918139308691025
-2.5559065341949463 -1.5964877605438232 0.05260155349969864 22.0 8 -0.026915835216641426
-1.947217583656311 -1.2158113718032837 -0.529984712600708 1.0 1 -0.026913531124591827
-2.7431130409240723 -1.712091326713562 0.1694638431072235 7.0 9 -0.02691122703254223
-2.751370668411255 -1.7172452211380005 -0.6304329633712769 36.0 2 -0.02690892294049263
-2.780673027038574 -1.734859824180603 0.2867423892021179 59.0 10 -0.02690661884844303
-2.755553722381592 -1.718518853187561 -0.5143565535545349 39.0 3 -0.026904316619038582
-2.7710916996002197 -1.7275387048721313 0.40095019340515137 70.0 11 -0.026902012526988983
-2.7141122817993164 -1.6913589239120483 -0.39266306161880493 38.0 4 -0.026899708434939384
-2.76315975189209 -1.7212536334991455 0.5156080722808838 67.0 12 -0.026897404342889786
-2.403074026107788 -1.4969456195831299 -0.2476966232061386 7.0 5 -0.026895100250840187
-2.7681665420532227 -1.7237029075622559 0.6338675618171692 67.0 13 -0.02689279615879059
-2.655334949493408 -1.6528011560440063 -0.1639162302017212 7.0 6 -0.02689049206674099
-2.7598812580108643 -1.7172062397003174 0.7504367828369141 61.0 14 -0.02688818797469139
-2.5929276943206787 -1.6126998662948608 -0.05329965054988861 31.0 7 -0.026885883882641792
-2.7316348552703857 -1.6983098983764648 0.8618674278259277 49.0 15 -0.026883579790592194
-1.7288856506347656 -1.071954607963562 -0.5450729727745056 1.0 0 -0.026862842962145805
-2.5648629665374756 -1.5896629095077515 0.05267136171460152 15.0 8 -0.026860538870096207
-1.9514495134353638 -1.2090073823928833 -0.529984712600708 1.0 1 -0.026858236640691757
-2.7151126861572266 -1.681473970413208 0.16737040877342224 4.0 9 -0.02685593254864216
-2.750671863555908 -1.703495740890503 -0.6289064884185791 36.0 2 -0.02685362845659256
-2.7833237648010254 -1.7230453491210938 0.28639376163482666 56.0 10 -0.02685132436454296
-2.7480969429016113 -1.7005743980407715 -0.5118536353111267 38.0 3 -0.026849020272493362
-2.782170057296753 -1.7209880352020264 0.40168139338493347 66.0 11 -0.026846716180443764
-2.7200000286102295 -1.6818740367889404 -0.39266306161880493 38.0 4 -0.026844412088394165
-2.7657904624938965 -1.7095205783843994 0.514982283115387 62.0 12 -0.026842107996344566
-2.404895067214966 -1.4864530563354492 -0.24734798073768616 7.0 5 -0.026839803904294968
-2.772496461868286 -1.7129977941513062 0.6334859132766724 60.0 13 -0.02683749981224537
-2.6678855419158936 -1.647719383239746 -0.16433492302894592 7.0 6 -0.02683519572019577
-2.7658586502075195 -1.7075620889663696 0.7504367828369141 55.0 14 -0.02683289162814617
-2.632575750350952 -1.6246434450149536 -0.053997743874788284 16.0 7 -0.026830587536096573
-2.7342584133148193 -1.6867352724075317 0.8608322143554688 49.0 15 -0.026828283444046974
-1.732616901397705 -1.0659130811691284 -0.5450729727745056 1.0 0 -0.026807548478245735
-2.582319736480713 -1.5880327224731445 0.05291569605469704 8.0 8 -0.026805244386196136
-1.9556578397750854 -1.2021880149841309 -0.529984712600708 1.0 1 -0.026802940294146538
-2.3361380100250244 -1.4360780715942383 0.1437145471572876 6.0 9 -0.02680063620209694
-2.759946823120117 -1.6959394216537476 -0.629669725894928 40.0 2 -0.02679833211004734
-2.7910192012786865 -1.7143619060516357 0.2865680754184723 24.0 10 -0.02679602801799774
-2.7506496906280518 -1.6889044046401978 -0.5112279057502747 38.0 3 -0.026793723925948143
-2.7729337215423584 -1.7019201517105103 0.3994877338409424 63.0 11 -0.026791419833898544
-2.7241625785827637 -1.6713310480117798 -0.39241933822631836 37.0 4 -0.026789115741848946
-2.769760847091675 -1.699306607246399 0.5146694779396057 55.0 12 -0.026786811649799347
-2.4117672443389893 -1.4790916442871094 -0.24752230942249298 7.0 5 -0.026784507557749748
-2.755025863647461 -1.6889441013336182 0.6281432509422302 50.0 13 -0.02678220346570015
-2.66170072555542 -1.6310919523239136 -0.16360221803188324 8.0 6 -0.02677989937365055
-2.7684786319732666 -1.69586181640625 0.7495369911193848 47.0 14 -0.026777595281600952
-2.6737582683563232 -1.637839913368225 -0.054730746895074844 18.0 7 -0.026775291189551353
-2.766197443008423 -1.6937997341156006 0.8691143989562988 52.0 15 -0.026772987097501755
-1.762709617614746 -1.0759631395339966 -0.5533550977706909 1.0 0 -0.026752252131700516
-2.5790374279022217 -1.5742521286010742 0.052741169929504395 10.0 8 -0.026749948039650917
-1.9596335887908936 -1.1956961154937744 -0.529984712600708 1.0 1 -0.02674764394760132
-2.359893321990967 -1.439354658126831 0.144865944981575 7.0 9 -0.02674533985555172
-2.7658495903015137 -1.686295747756958 -0.629669725894928 40.0 2 -0.02674303576350212
-2.618346929550171 -1.5957378149032593 0.26826536655426025 14.0 10 -0.026740731671452522
-2.749488353729248 -1.675661325454712 -0.5099764466285706 39.0 3 -0.026738427579402924
-2.7717814445495605 -1.6885844469070435 0.3985127806663513 52.0 11 -0.026736123487353325
-2.7178213596343994 -1.6550606489181519 -0.3907131552696228 41.0 4 -0.026733819395303726
-2.7756752967834473 -1.6896284818649292 0.5146694779396057 51.0 12 -0.026731515303254128
-2.4237236976623535 -1.4748064279556274 -0.2482195496559143 7.0 5 -0.02672921121120453
-2.774028778076172 -1.6879628896713257 0.6311962008476257 53.0 13 -0.02672690711915493
-2.6551501750946045 -1.6149908304214478 -0.16286951303482056 7.0 6 -0.02672460302710533
-2.8007285594940186 -1.70287024974823 0.7567353844642639 55.0 14 -0.026722298935055733
-2.7358505725860596 -1.6627697944641113 -0.05588260665535927 41.0 7 -0.026719994843006134
-2.801811695098877 -1.7021883726119995 0.8784318566322327 58.0 15 -0.026717692613601685
-1.7927042245864868 -1.0861284732818604 -0.5616373419761658 1.0 0 -0.026696955785155296
-2.6238579750061035 -1.5890648365020752 0.05354398116469383 13.0 8 -0.026694651693105698
-1.96379554271698 -1.1888483762741089 -0.529984712600708 1.0 1 -0.0266923476010561
-2.373446464538574 -1.436279058456421 0.14538930356502533 4.0 9 -0.0266900435090065
-2.759669065475464 -1.6699994802474976 -0.6269984245300293 38.0 2 -0.0266877394169569
-2.591233730316162 -1.567453145980835 0.26495346426963806 9.0 10 -0.026685435324907303
-2.7519397735595703 -1.6640093326568604 -0.5093506574630737 39.0 3 -0.026683131232857704
-2.7810559272766113 -1.6809529066085815 0.39900025725364685 51.0 11 -0.026680827140808105
-2.7167859077453613 -1.6414581537246704 -0.38973820209503174 40.0 4 -0.026678523048758507
-2.801847219467163 -1.6921839714050293 0.518423855304718 55.0 12 -0.026676218956708908
-2.425445318222046 -1.4642783403396606 -0.24787092208862305 8.0 5 -0.02667391486465931
-2.8168797492980957 -1.700593113899231 0.6395918130874634 56.0 13 -0.02667161263525486
-2.6641910076141357 -1.6077772378921509 -0.16307885944843292 8.0 6 -0.02666930854320526
-2.820004940032959 -1.7011359930038452 0.7603346109390259 66.0 14 -0.026667004451155663
-2.6954023838043213 -1.6253286600112915 -0.054940178990364075 29.0 7 -0.026664700359106064
-2.804426908493042 -1.6904040575027466 0.8773965835571289 53.0 15 -0.026662396267056465
-1.79004967212677 -1.0755702257156372 -0.5595667958259583 1.0 0 -0.026641659438610077
-2.4374125003814697 -1.4645450115203857 0.04963464289903641 10.0 8 -0.026639355346560478
-2.781501293182373 -1.6706347465515137 -0.7490870356559753 9.0 1 -0.02663705125451088
-2.267143964767456 -1.3611605167388916 0.13858562707901 3.0 9 -0.02663474716246128
-2.753988027572632 -1.6528009176254272 -0.6243270635604858 40.0 2 -0.026632443070411682
-2.682387113571167 -1.6091939210891724 0.27366903424263 23.0 10 -0.026630138978362083
-2.761408567428589 -1.6559436321258545 -0.5099764466285706 39.0 3 -0.026627834886312485
-2.8158488273620605 -1.6885899305343628 0.40314382314682007 56.0 11 -0.026625532656908035
-2.7259042263031006 -1.6340057849884033 -0.39022567868232727 38.0 4 -0.026623228564858437
-2.8314595222473145 -1.6966078281402588 0.5228040814399719 60.0 12 -0.026620924472808838
-2.4168686866760254 -1.4476122856140137 -0.2464764267206192 8.0 5 -0.02661862038075924
-2.844991683959961 -1.7033671140670776 0.6445528268814087 57.0 13 -0.02661631628870964
-2.659783124923706 -1.591847538948059 -0.16245082020759583 7.0 6 -0.026614012196660042
-2.8295655250549316 -1.6927897930145264 0.7612344026565552 57.0 14 -0.026611708104610443
-2.737095832824707 -1.6374696493148804 -0.05567317456007004 36.0 7 -0.026609404012560844
-2.8069944381713867 -1.6786212921142578 0.8763613104820251 51.0 15 -0.026607099920511246
-1.7871555089950562 -1.0653588771820068 -0.5574962496757507 1.0 0 -0.026586363092064857
-2.339693784713745 -1.3941845893859863 0.04754035547375679 22.0 8 -0.02658405900001526
-2.764166831970215 -1.6464663743972778 -0.7427884340286255 10.0 1 -0.02658175490796566
-2.2633016109466553 -1.3481277227401733 0.1380622535943985 8.0 9 -0.02657945081591606
-2.768174409866333 -1.6482001543045044 -0.6262351274490356 47.0 2 -0.026577148586511612
-2.826667547225952 -1.6823593378067017 0.2877882421016693 49.0 10 -0.026574844494462013
-2.7552883625030518 -1.6392241716384888 -0.5077863335609436 41.0 3 -0.026572540402412415
-2.845905303955078 -1.6924632787704468 0.4065561592578888 71.0 11 -0.026570236310362816
-2.731874704360962 -1.6240037679672241 -0.39022567868232727 38.0 4 -0.026567932218313217
-2.8424582481384277 -1.6897419691085815 0.5237426161766052 56.0 12 -0.02656562812626362
-2.4236197471618652 -1.4401847124099731 -0.24665075540542603 8.0 5 -0.02656332403421402
-2.8475441932678223 -1.6914204359054565 0.6437895894050598 51.0 13 -0.02656101994216442
-2.642998218536377 -1.5692975521087646 -0.16109009087085724 6.0 6 -0.026558715850114822
-2.832105875015259 -1.680912971496582 0.7603346109390259 52.0 14 -0.026556411758065224
-2.7995452880859375 -1.6609269380569458 0.8722202181816101 50.0 15 -0.026551803573966026
-1.8141430616378784 -1.0728815793991089 -0.5647432208061218 1.0 0 -0.026531068608164787
-2.7694461345672607 -1.6378463506698608 0.05616184324026108 22.0 8 -0.02652876451611519
-2.7645790576934814 -1.6343159675598145 -0.7414387464523315 22.0 1 -0.02652646042406559
-2.274871349334717 -1.3442840576171875 0.13848096132278442 9.0 9 -0.02652415633201599
-2.760388135910034 -1.6305394172668457 -0.6231822371482849 42.0 2 -0.026521852239966393
-2.8531110286712646 -1.6846375465393066 0.28988000750541687 28.0 10 -0.026519548147916794
-2.755606174468994 -1.6270651817321777 -0.5068477392196655 42.0 3 -0.026517244055867195
-2.848083257675171 -1.6809985637664795 0.40606871247291565 58.0 11 -0.026514939963817596
-2.7304062843322754 -1.6109014749526978 -0.3892507255077362 41.0 4 -0.026512635871767998
-2.8432350158691406 -1.6767991781234741 0.5228040814399719 55.0 12 -0.0265103317797184
-2.4303486347198486 -1.432727575302124 -0.24682505428791046 7.0 5 -0.0265080276876688
-2.8362252712249756 -1.6719980239868164 0.6399734020233154 48.0 13 -0.0265057235956192
-2.4967641830444336 -1.4712942838668823 -0.1518789678812027 1.0 6 -0.026503419503569603
-2.8410227298736572 -1.673490285873413 0.7612344026565552 48.0 14 -0.026501115411520004
-2.8086557388305664 -1.653104305267334 0.8732554912567139 49.0 15 -0.026496507227420807
-1.8443480730056763 -1.0825055837631226 -0.5730253458023071 1.0 0 -0.026475772261619568
-2.7285773754119873 -1.6008472442626953 0.055219411849975586 12.0 8 -0.02647346816956997
-2.758500099182129 -1.6177548170089722 -0.7382894158363342 27.0 1 -0.02647116407752037
-2.277827024459839 -1.335325002670288 0.13837628066539764 21.0 9 -0.026468859985470772
-2.769167423248291 -1.6233623027801514 -0.6239454746246338 42.0 2 -0.026466555893421173
-2.7022533416748047 -1.5835018157958984 0.2740176320075989 7.0 10 -0.026464251801371574
-2.7595643997192383 -1.6164379119873047 -0.5065348744392395 46.0 3 -0.026461947709321976
-2.840228796005249 -1.6630228757858276 0.40411877632141113 50.0 11 -0.026459643617272377
-2.7223072052001953 -1.593338131904602 -0.3873008191585541 41.0 4 -0.02645733952522278
-2.855890989303589 -1.6708542108535767 0.524055540561676 53.0 12 -0.02645503543317318
-2.4353344440460205 -1.4242357015609741 -0.24682505428791046 8.0 5 -0.02645273134112358
-2.8386545181274414 -1.6601059436798096 0.6392101645469666 48.0 13 -0.026450427249073982
-2.3398056030273438 -1.3678196668624878 -0.14203980565071106 1.0 6 -0.026448123157024384
-2.8333868980407715 -1.6556973457336426 0.757635235786438 48.0 14 -0.026445819064974785
-2.824418783187866 -1.6491347551345825 0.8763613104820251 38.0 15 -0.026441210880875587
-1.8483034372329712 -1.0757379531860352 -0.5730253458023071 1.0 0 -0.02642047591507435
-2.5302116870880127 -1.4726178646087646 0.05110064893960953 64.0 8 -0.02641817182302475
-2.7658145427703857 -1.609096646308899 -0.7387393116950989 30.0 1 -0.02641586773097515
-2.310098886489868 -1.3434306383132935 0.14005103707313538 14.0 9 -0.026413563638925552
-2.7649152278900146 -1.6072810888290405 -0.6216557621955872 47.0 2 -0.026411259546875954
-2.7855594158172607 -1.618632435798645 0.28186166286468506 13.0 10 -0.026408955454826355
-2.7671782970428467 -1.6073055267333984 -0.5068477392196655 47.0 3 -0.026406651362776756
-2.849449634552002 -1.655092477798462 0.40460625290870667 47.0 11 -0.026404347270727158
-2.72956919670105 -1.584822416305542 -0.38754454255104065 45.0 4 -0.02640204317867756
-2.8463294506073 -1.651951789855957 0.521239697933197 47.0 12 -0.02639973908662796
-2.438568115234375 -1.4147263765335083 -0.24665075540542603 8.0 5 -0.02639743499457836
-2.843021869659424 -1.6487048864364624 0.6388285160064697 35.0 13 -0.026395130902528763
-2.3240675926208496 -1.3472155332565308 -0.14078372716903687 3.0 6 -0.026392828673124313
-2.8411221504211426 -1.6462783813476562 0.7580850720405579 33.0 14 -0.026390524581074715
-2.8351733684539795 -1.6421704292297363 0.8779142498970032 9.0 15 -0.026385916396975517
-1.83866286277771 -1.06155264377594 -0.5688843131065369 1.0 0 -0.02636517956852913
-2.3710553646087646 -1.368377923965454 0.04778468981385231 12.0 8 -0.02636287547647953
-2.7835099697113037 -1.6057642698287964 -0.7418886423110962 41.0 1 -0.02636057138442993
-2.3028957843780518 -1.3279705047607422 0.1393183320760727 24.0 9 -0.026358267292380333
-2.7603039741516113 -1.591736078262329 -0.6193659901618958 47.0 2 -0.026355963200330734
-2.8636908531188965 -1.6506884098052979 0.28918275237083435 40.0 10 -0.026353659108281136
-2.7744839191436768 -1.5986219644546509 -0.5071606040000916 46.0 3 -0.026351355016231537
