# .PCD v0.7 - Point Cloud Data file format
VERSION 0.7
FIELDS x y z intensity ring time
SIZE 4 4 4 4 4 4
TYPE F F F F F F
COUNT 1 1 1 1 1 1
WIDTH 543
HEIGHT 1
VIEWPOINT 0 0 0 1 0 0 0
POINTS 543
DATA ascii
-3.0306930541992188 0.8547437191009521 0.8437501192092896 66.0 15 -0.02777579240500927
-2.8474960327148438 0.8068334460258484 -0.793021559715271 16.0 0 -0.02775505557656288
-2.9069488048553467 0.8242281675338745 0.052741169929504395 3.0 8 -0.027752751484513283
-3.091449737548828 0.8771231770515442 -0.7418886423110962 27.0 1 -0.027750447392463684
-2.9377033710479736 0.8340554237365723 0.1600433737039566 2.0 9 -0.027748145163059235
-2.740375280380249 0.7780311703681946 -0.5537277460098267 11.0 2 -0.027745841071009636
-3.1048011779785156 0.8820831775665283 0.28238460421562195 38.0 10 -0.027743536978960037
-2.7190213203430176 0.7729941606521606 -0.44771552085876465 6.0 3 -0.02774123288691044
-3.0797574520111084 0.8761292695999146 0.39315053820610046 46.0 11 -0.02773892879486084
-3.0146901607513428 0.8581884503364563 -0.3848634362220764 10.0 4 -0.02773662470281124
-3.0833780765533447 0.8783227205276489 0.5077863335609436 61.0 12 -0.027734320610761642
-3.040800094604492 0.8667678236961365 -0.2766323387622833 21.0 5 -0.027732016518712044
-3.0775198936462402 0.8772346377372742 0.6220373511314392 53.0 13 -0.027729712426662445
-2.4334704875946045 0.6941108703613281 -0.13261932134628296 33.0 6 -0.027727408334612846
-3.0657074451446533 0.875024676322937 0.7360398769378662 66.0 14 -0.027725104242563248
-2.968813896179199 0.8479301333427429 -0.05389302968978882 1.0 7 -0.02772280015051365
-3.049980640411377 0.8716881275177002 0.8499617576599121 61.0 15 -0.02772049605846405
-2.8203821182250977 0.8103296756744385 -0.7862922549247742 25.0 0 -0.02769976109266281
-2.9117422103881836 0.8365784883499146 0.05288079380989075 3.0 8 -0.027697457000613213
-3.065894603729248 0.8814476132392883 -0.7364898324012756 12.0 1 -0.027695152908563614
-2.9347739219665527 0.8443056344985962 0.1600433737039566 2.0 9 -0.027692848816514015
-2.711092472076416 0.7804663181304932 -0.5483850836753845 11.0 2 -0.027690544724464417
-3.0977182388305664 0.8923531770706177 0.2820359766483307 40.0 10 -0.027688240632414818
-2.6952905654907227 0.7769368290901184 -0.4442739486694336 14.0 3 -0.02768593654036522
-3.0824027061462402 0.8885246515274048 0.39388173818588257 45.0 11 -0.02768363244831562
-2.6988742351531982 0.7784793376922607 -0.3448902666568756 21.0 4 -0.02768132835626602
-3.0670080184936523 0.8852458000183105 0.5055962204933167 55.0 12 -0.027679024264216423
-2.9937305450439453 0.8646621704101562 -0.2726231813430786 12.0 5 -0.027676720172166824
-3.066739797592163 0.8863281011581421 0.6205108761787415 36.0 13 -0.027674416080117226
-2.4366660118103027 0.7046893239021301 -0.1329333484172821 37.0 6 -0.027672111988067627
-3.0718390941619873 0.8889645934104919 0.7382894158363342 70.0 14 -0.027669807896018028
-2.9658358097076416 0.8582881093025208 -0.05389302968978882 1.0 7 -0.02766750380396843
-3.035785675048828 0.8791044354438782 0.8468559384346008 75.0 15 -0.02766519971191883
-2.811971664428711 0.8185499310493469 -0.7847393751144409 32.0 0 -0.027644464746117592
-2.9124958515167236 0.84836345911026 0.052950602024793625 3.0 8 -0.027642160654067993
-2.821298837661743 0.8223333358764648 -0.6784523725509644 7.0 1 -0.027639856562018394
-2.943164348602295 0.8584111928939819 0.1606713980436325 2.0 9 -0.027637552469968796
-2.6970434188842773 0.786626935005188 -0.5460953712463379 15.0 2 -0.027635248377919197
-3.09840989112854 0.9042772650718689 0.28238460421562195 41.0 10 -0.0276329442858696
-2.6792891025543213 0.782463550567627 -0.44208386540412903 29.0 3 -0.02763064019382
-3.081031084060669 0.9003723859786987 0.39412549138069153 38.0 11 -0.0276283361017704
-2.680760145187378 0.7839093804359436 -0.3429403603076935 22.0 4 -0.027626032009720802
-3.08459734916687 0.9025833010673523 0.5090377926826477 62.0 12 -0.027623727917671204
-2.977308511734009 0.871189534664154 -0.2714029848575592 32.0 5 -0.027621423825621605
-3.084352970123291 0.9030961394309998 0.6247087121009827 58.0 13 -0.027619119733572006
-2.43994140625 0.7148759365081787 -0.13324734568595886 34.0 6 -0.027616815641522408
-3.0649771690368652 0.8985854387283325 0.7373896241188049 68.0 14 -0.02761451154947281
-2.96267032623291 0.8691520094871521 -0.05389302968978882 1.0 7 -0.02761220745742321
-3.0399577617645264 0.892402708530426 0.8489265441894531 82.0 15 -0.02760990336537361
-2.805391311645508 0.8272678256034851 -0.7837041020393372 34.0 0 -0.027589168399572372
-2.9171886444091797 0.8607885837554932 0.05309021845459938 3.0 8 -0.027586864307522774
-2.782900810241699 0.821691632270813 -0.6699042916297913 10.0 1 -0.027584560215473175
-2.9497268199920654 0.8715091347694397 0.16119475662708282 2.0 9 -0.027582256123423576
-2.6811015605926514 0.7921426296234131 -0.5434240102767944 19.0 2 -0.027579952031373978
-3.099055528640747 0.916217029094696 0.2827332317829132 39.0 10 -0.02757764793932438
-2.653810739517212 0.7850867509841919 -0.43832939863204956 34.0 3 -0.02757534384727478
-3.077869415283203 0.9111217856407166 0.39412549138069153 46.0 11 -0.02757303975522518
-2.641843795776367 0.7825495004653931 -0.33830931782722473 18.0 4 -0.027570735663175583
-3.089003562927246 0.9155906438827515 0.5102892518043518 67.0 12 -0.027568431571125984
-2.972339153289795 0.8810109496116638 -0.2712286710739136 21.0 5 -0.027566127479076385
-3.062359571456909 0.9082747101783752 0.6208925247192383 57.0 13 -0.027563823387026787
-2.4374308586120605 0.723388671875 -0.13324734568595886 33.0 6 -0.027561521157622337
-3.073030948638916 0.9126067757606506 0.7400889992713928 73.0 14 -0.02755921706557274
-2.959618091583252 0.8794891238212585 -0.05389302968978882 1.0 7 -0.02755691297352314
-3.040527582168579 0.9041098952293396 0.8499617576599121 84.0 15 -0.02755460888147354
-2.7987844944000244 0.8359490633010864 -0.7826688289642334 45.0 0 -0.027533872053027153
-2.92566180229187 0.8744020462036133 0.05329965054988861 3.0 8 -0.027531567960977554
-2.7650792598724365 0.8269339799880981 -0.6663050651550293 11.0 1 -0.027529263868927956
-2.9370999336242676 0.8789367079734802 0.1606713980436325 2.0 9 -0.027526959776878357
-2.682081937789917 0.8026217222213745 -0.5441873073577881 20.0 2 -0.027524655684828758
-3.0958385467529297 0.9270293116569519 0.2827332317829132 37.0 10 -0.02752235159277916
-2.6567306518554688 0.7960464954376221 -0.43926802277565 37.0 3 -0.02752004750072956
-3.0708670616149902 0.9207198619842529 0.393638014793396 46.0 11 -0.027517743408679962
-2.5801539421081543 0.7740830183029175 -0.3307534456253052 21.0 4 -0.027515441179275513
-3.0857887268066406 0.9263677000999451 0.5102892518043518 65.0 12 -0.027513137087225914
-2.9845120906829834 0.8959639668464661 -0.2726231813430786 25.0 5 -0.027510832995176315
-3.0629305839538574 0.9200891256332397 0.6216557621955872 58.0 13 -0.027508528903126717
-2.432978391647339 0.7313169836997986 -0.13314267992973328 37.0 6 -0.027506224811077118
-3.07169246673584 0.9238894581794739 0.7405388951301575 76.0 14 -0.02750392071902752
-2.9565300941467285 0.8898148536682129 -0.05389302968978882 1.0 7 -0.02750161662697792
-3.0484519004821777 0.9180597066879272 0.8530676364898682 84.0 15 -0.027499312534928322
-2.7810564041137695 0.8412396311759949 -0.7785277366638184 36.0 0 -0.027478575706481934
-2.9340755939483643 0.8880851864814758 0.05350907891988754 3.0 8 -0.027476271614432335
-2.7696361541748047 0.8388397097587585 -0.6681046485900879 11.0 1 -0.027473967522382736
-2.9416592121124268 0.8915015459060669 0.16109009087085724 2.0 9 -0.027471663430333138
-2.662353754043579 0.8068550229072571 -0.5407527089118958 22.0 2 -0.02746935933828354
-3.119276762008667 0.9459249377250671 0.28517356514930725 48.0 10 -0.02746705710887909
-2.6369237899780273 0.800152599811554 -0.4364522099494934 28.0 3 -0.02746475301682949
-3.0828299522399902 0.9360475540161133 0.3955879211425781 52.0 11 -0.027462448924779892
-2.5527443885803223 0.7755829095840454 -0.327584832906723 23.0 4 -0.027460144832730293
-3.0919864177703857 0.9400057196617126 0.5118536353111267 78.0 12 -0.027457840740680695
-3.036647319793701 0.9231818914413452 -0.2776781916618347 21.0 5 -0.027455536648631096
-3.0766050815582275 0.9359170198440552 0.6250903010368347 60.0 13 -0.027453232556581497
-2.436143159866333 0.7415501475334167 -0.13345670700073242 34.0 6 -0.0274509284645319
-3.0591278076171875 0.9317678213119507 0.7382894158363342 78.0 14 -0.0274486243724823
-2.9534060955047607 0.9001290798187256 -0.05389302968978882 1.0 7 -0.0274463202804327
-3.0563156604766846 0.9320763349533081 0.8561733961105347 86.0 15 -0.027444016188383102
-2.7670199871063232 0.8475475311279297 -0.7754218578338623 32.0 0 -0.027423279359936714
-2.9233100414276123 0.8959770202636719 0.05336945876479149 3.0 8 -0.027420977130532265
-2.7704174518585205 0.8496460318565369 -0.669004499912262 9.0 1 -0.027418673038482666
-2.9444150924682617 0.9030085206031799 0.1614041030406952 2.0 9 -0.027416368946433067
-2.6595211029052734 0.8161435127258301 -0.5407527089118958 22.0 2 -0.02741406485438347
-3.1064329147338867 0.9538825750350952 0.2843020260334015 42.0 10 -0.02741176076233387
-2.636002540588379 0.8099331259727478 -0.43676507472991943 29.0 3 -0.02740945667028427
-3.0928261280059814 0.950886607170105 0.3972941040992737 55.0 11 -0.027407152578234673
-2.5253562927246094 0.7769003510475159 -0.32441622018814087 9.0 4 -0.027404848486185074
-3.0737476348876953 0.9456074237823486 0.5093506574630737 68.0 12 -0.027402544394135475
-3.0429270267486572 0.9367078542709351 -0.2785497307777405 20.0 5 -0.027400240302085876
-3.0845768451690674 0.950118362903595 0.6273800134658813 63.0 13 -0.027397936210036278
-2.437357187271118 0.7512254118919373 -0.1336660534143448 34.0 6 -0.02739563211798668
-3.0670299530029297 0.9458857178688049 0.7409887909889221 78.0 14 -0.02739332802593708
-2.9504048824310303 0.9099180698394775 -0.05389302968978882 1.0 7 -0.02739102393388748
-3.0421323776245117 0.9387885928153992 0.8530676364898682 88.0 15 -0.027388719841837883
-2.764044761657715 0.8572004437446594 -0.7754218578338623 32.0 0 -0.027367984876036644
-2.920322895050049 0.9056662321090698 0.05336945876479149 3.0 8 -0.027365680783987045
-2.7824742794036865 0.8634482622146606 -0.6726037263870239 8.0 1 -0.027363376691937447
-2.9641339778900146 0.9203882813453674 0.1626601666212082 2.0 9 -0.027361072599887848
-2.6547813415527344 0.8248390555381775 -0.5403710603713989 21.0 2 -0.02735876850783825
-3.101181745529175 0.9641289114952087 0.28412771224975586 49.0 10 -0.02735646441578865
-2.5936896800994873 0.806354284286499 -0.4301948547363281 10.0 3 -0.027354160323739052
-3.0953423976898193 0.9629066586494446 0.3980253338813782 55.0 11 -0.027351856231689453
-2.4696953296661377 0.7687509655952454 -0.3175915479660034 2.0 4 -0.027349552139639854
-3.0987184047698975 0.9651433229446411 0.5140437483787537 75.0 12 -0.027347248047590256
-3.07766056060791 0.9591737389564514 0.6266167759895325 63.0 13 -0.02734263986349106
-2.4539194107055664 0.765250563621521 -0.13471277058124542 33.0 6 -0.02734033577144146
-3.0768983364105225 0.9601146578788757 0.7441381216049194 78.0 14 -0.02733803167939186
-2.9472107887268066 0.9202114939689636 -0.05389302968978882 1.0 7 -0.027335727587342262
-3.03883695602417 0.9494020342826843 0.8530676364898682 88.0 15 -0.027333423495292664
-2.774089813232422 0.8704102635383606 -0.7790454030036926 29.0 0 -0.027312688529491425
-2.9324066638946533 0.9206464886665344 0.0536486990749836 3.0 8 -0.027310384437441826
-2.918879747390747 0.9169601798057556 -0.706346333026886 7.0 1 -0.027308080345392227
-2.968524932861328 0.9331245422363281 0.16307885944843292 2.0 9 -0.02730577625334263
-2.6613962650299072 0.836581826210022 -0.5422792434692383 20.0 2 -0.02730347216129303
-3.0979676246643066 0.9744075536727905 0.28412771224975586 49.0 10 -0.02730116806924343
-2.481571912765503 0.7810084819793701 -0.41204842925071716 1.0 3 -0.027298863977193832
-3.0881755352020264 0.9725123643875122 0.39753782749176025 52.0 11 -0.027296559885144234
-2.3950507640838623 0.7546964287757874 -0.3083294630050659 1.0 4 -0.027294255793094635
-3.0896785259246826 0.9741719961166382 0.5131050944328308 82.0 12 -0.027291951701045036
-3.068676471710205 0.9681389331817627 0.6254718899726868 65.0 13 -0.02728734351694584
-2.434091806411743 0.7683998346328735 -0.13377071917057037 36.0 6 -0.02728503942489624
-3.0846776962280273 0.9743711352348328 0.7468375563621521 83.0 14 -0.02728273719549179
-2.9439806938171387 0.9304936528205872 -0.05389302968978882 1.0 7 -0.027280433103442192
-3.0502395629882812 0.9646640419960022 0.8572087287902832 88.0 15 -0.027278129011392593
-2.802335262298584 0.8900296092033386 -0.7878451943397522 13.0 0 -0.027257392182946205
-2.9329867362976074 0.9320883750915527 0.053718507289886475 3.0 8 -0.027255088090896606
-3.0939440727233887 0.9838343858718872 -0.7495369911193848 24.0 1 -0.027252783998847008
-2.9576363563537598 0.9410586357116699 0.1626601666212082 2.0 9 -0.02725047990679741
-2.660330295562744 0.8464620113372803 -0.5426608324050903 18.0 2 -0.02724817581474781
-3.1078367233276367 0.9894465804100037 0.28534790873527527 52.0 10 -0.02724587172269821
-2.3395490646362305 0.745296061038971 -0.388896107673645 1.0 3 -0.027243567630648613
-3.079087972640991 0.9814776182174683 0.39680659770965576 55.0 11 -0.027241263538599014
-2.3470118045806885 0.7485758066177368 -0.30247974395751953 2.0 4 -0.027238959446549416
-3.0975501537323 0.9885545372962952 0.514982283115387 82.0 12 -0.027236655354499817
-3.0764999389648438 0.9824273586273193 0.6277616620063782 68.0 13 -0.02723204903304577
-2.4332971572875977 0.7775002121925354 -0.13387538492679596 34.0 6 -0.02722974494099617
-3.0794012546539307 0.984539270401001 0.7463876008987427 81.0 14 -0.02722744084894657
-2.9407150745391846 0.9407637119293213 -0.05389302968978882 1.0 7 -0.027225136756896973
-3.061572790145874 0.9800171256065369 0.8613498210906982 95.0 15 -0.027222832664847374
-2.9537014961242676 0.9494670033454895 -0.8313267827033997 4.0 0 -0.027202095836400986
-2.929715156555176 0.9423207640647888 0.053718507289886475 3.0 8 -0.027199791744351387
-3.1053311824798584 0.9994043707847595 -0.753136157989502 29.0 1 -0.02719748765230179
-2.9562346935272217 0.9519893527030945 0.16276483237743378 3.0 9 -0.02719518356025219
-2.6498844623565674 0.8533360362052917 -0.5411343574523926 13.0 2 -0.02719287946820259
-3.110053062438965 1.0021229982376099 0.28587085008621216 49.0 10 -0.027190575376152992
-2.3181326389312744 0.7473959922790527 -0.3857674300670624 1.0 3 -0.027188273146748543
-3.085089683532715 0.9952672123908997 0.3980253338813782 55.0 11 -0.027185969054698944
-2.351940870285034 0.7592031359672546 -0.3034546673297882 2.0 4 -0.027183664962649345
-3.0846822261810303 0.9963247179985046 0.5134179592132568 77.0 12 -0.027181360870599747
-3.0842604637145996 0.9967829585075378 0.63005131483078 68.0 13 -0.02717675268650055
-2.4381699562072754 0.7884475588798523 -0.1342940777540207 39.0 6 -0.02717444859445095
-3.074092149734497 0.9946818947792053 0.7459377646446228 83.0 14 -0.027172144502401352
-2.937412977218628 0.9510238170623779 -0.05389302968978882 1.0 7 -0.027169840410351753
-3.0618090629577637 0.9918889403343201 0.862385094165802 94.0 15 -0.027167536318302155
-2.976088762283325 0.9681376218795776 -0.8385737538337708 4.0 0 -0.027146799489855766
-2.934014081954956 0.9550175070762634 0.05385812744498253 3.0 8 -0.027144495397806168
-3.1036767959594727 1.0108414888381958 -0.7535860538482666 28.0 1 -0.027142193168401718
-2.9718830585479736 0.9684920310974121 0.1638115644454956 3.0 9 -0.02713988907635212
-2.6450226306915283 0.8619731068611145 -0.5407527089118958 1.0 2 -0.02713758498430252
-3.1103246212005615 1.0142077207565308 0.28621944785118103 54.0 10 -0.027135280892252922
-2.334289073944092 0.7616105079650879 -0.388896107673645 1.0 3 -0.027132976800203323
-3.091031789779663 1.0091112852096558 0.3992440104484558 56.0 11 -0.027130672708153725
-2.3341808319091797 0.7624767422676086 -0.30150479078292847 2.0 4 -0.027128368616104126
-3.0830631256103516 1.007699966430664 0.5137308239936829 82.0 12 -0.027126064524054527
-3.0919580459594727 1.0112054347991943 0.6323410272598267 68.0 13 -0.02712145633995533
-2.448690414428711 0.8013012409210205 -0.13502678275108337 43.0 6 -0.02711915224790573
-3.076157331466675 1.0072256326675415 0.7472874522209167 81.0 14 -0.027116848155856133
-2.934075355529785 0.9612715840339661 -0.05389302968978882 1.0 7 -0.027114544063806534
-3.050985097885132 1.0001627206802368 0.8603145480155945 98.0 15 -0.027112239971756935
-2.9690208435058594 0.9773128628730774 -0.8375384211540222 5.0 0 -0.027091505005955696
-2.923065185546875 0.9627510905265808 0.053718507289886475 3.0 8 -0.027089200913906097
-3.101980447769165 1.0222785472869873 -0.754036009311676 29.0 1 -0.0270868968218565
-2.972278118133545 0.9801101684570312 0.16402089595794678 3.0 9 -0.0270845927298069
-3.1067652702331543 1.025058627128601 0.28621944785118103 55.0 10 -0.027079984545707703
-2.3353681564331055 0.7709921002388 -0.38952183723449707 1.0 3 -0.027077680453658104
-3.0893752574920654 1.0205166339874268 0.3994877338409424 62.0 11 -0.027075376361608505
-2.361661911010742 0.7805874943733215 -0.3054046034812927 2.0 4 -0.027073072269558907
-3.0870285034179688 1.0209375619888306 0.514982283115387 85.0 12 -0.027070768177509308
-3.086545944213867 1.0213748216629028 0.6319594383239746 71.0 13 -0.02706615999341011
-2.457254409790039 0.8136105537414551 -0.13565480709075928 42.0 6 -0.027063855901360512
-3.083721399307251 1.0216352939605713 0.7499868273735046 94.0 14 -0.027061551809310913
-2.930701971054077 0.9715068936347961 -0.05389302968978882 1.0 7 -0.027059247717261314
-3.051142454147339 1.0120230913162231 0.8613498210906982 98.0 15 -0.027056943625211716
-2.976588487625122 0.9913334250450134 -0.8406442999839783 4.0 0 -0.027036208659410477
-2.919686794281006 0.9729480147361755 0.053718507289886475 3.0 8 -0.027033904567360878
-3.1020901203155518 1.0343338251113892 -0.7549358010292053 29.0 1 -0.02703160047531128
-2.9877846240997314 0.9968003034591675 0.1650676131248474 3.0 9 -0.02702929638326168
-3.103168487548828 1.035897135734558 0.28621944785118103 57.0 10 -0.027024688199162483
-2.3157999515533447 0.7735076546669006 -0.38670605421066284 6.0 3 -0.027022384107112885
-3.085793972015381 1.0312944650650024 0.3994877338409424 62.0 11 -0.027020080015063286
-2.3438618183135986 0.7837901711463928 -0.3034546673297882 12.0 4 -0.027017775923013687
-3.0928125381469727 1.0348403453826904 0.5165466666221619 91.0 12 -0.02701547183096409
-3.079238176345825 1.0308960676193237 0.6311962008476257 71.0 13 -0.02701086364686489
-2.4449303150177 0.8190110325813293 -0.13513144850730896 49.0 6 -0.027008559554815292
-3.0856800079345703 1.0342504978179932 0.7513365745544434 92.0 14 -0.027006255462765694
-2.927293062210083 0.981731116771698 -0.05389302968978882 1.0 7 -0.027003951370716095
-3.0512542724609375 1.023897409439087 0.862385094165802 96.0 15 -0.027001649141311646
-2.9840946197509766 1.0054179430007935 -0.8437501192092896 4.0 0 -0.026980912312865257
-2.9314322471618652 0.9882442951202393 0.053997743874788284 3.0 8 -0.02697860822081566
-3.1021535396575928 1.0464016199111938 -0.7558355927467346 30.0 1 -0.02697630412876606
-2.976717472076416 1.004668951034546 0.16464893519878387 3.0 9 -0.02697400003671646
-2.308462619781494 0.7791268825531006 -0.4735879600048065 1.0 2 -0.026971695944666862
-3.1127471923828125 1.0511844158172607 0.28743961453437805 59.0 10 -0.026969391852617264
-2.2850143909454346 0.7721013426780701 -0.3820130228996277 9.0 3 -0.026967087760567665
-3.0821752548217773 1.0420597791671753 0.3994877338409424 62.0 11 -0.026964783668518066
-2.3166663646698 0.7836975455284119 -0.30028611421585083 18.0 4 -0.026962479576468468
-3.1022794246673584 1.0500633716583252 0.5187367796897888 93.0 12 -0.02696017548441887
-3.0591704845428467 1.0354719161987305 -0.2825589179992676 3.0 5 -0.02695787139236927
-3.083059310913086 1.0441575050354004 0.6327226758003235 82.0 13 -0.02695556916296482
-2.434490203857422 0.8249765038490295 -0.13471277058124542 49.0 6 -0.026953265070915222
-3.0820508003234863 1.0450154542922974 0.7513365745544434 92.0 14 -0.026950960978865623
-2.9238483905792236 0.9919434189796448 -0.05389302968978882 1.0 7 -0.026948656886816025
-3.060467004776001 1.0388882160186768 0.8660085797309875 104.0 15 -0.026946352794766426
-2.98056697845459 1.0158283710479736 -0.8437501192092896 5.0 0 -0.026925615966320038
-2.9317498207092285 0.9997624158859253 0.05406755208969116 4.0 8 -0.02692331187427044
-3.102170705795288 1.0584825277328491 -0.7567353844642639 29.0 1 -0.02692100778222084
-2.9731926918029785 1.0150527954101562 0.16464893519878387 3.0 9 -0.026918703690171242
-2.2165472507476807 0.7567327618598938 -0.45527029037475586 2.0 2 -0.026916399598121643
-3.1128292083740234 1.063332438468933 0.2877882421016693 57.0 10 -0.026914095506072044
-2.2654824256896973 0.7743229866027832 -0.3791971802711487 10.0 3 -0.026911791414022446
-3.091667652130127 1.0573080778121948 0.40119388699531555 67.0 11 -0.026909489184617996
-2.2876222133636475 0.7827820777893066 -0.2968737483024597 23.0 4 -0.026907185092568398
-3.0948572158813477 1.0596063137054443 0.5181110501289368 93.0 12 -0.0269048810005188
-3.0781571865081787 1.0538886785507202 -0.28465065360069275 14.0 5 -0.0269025769084692
-3.0812530517578125 1.0555486679077148 0.6331042647361755 77.0 13 -0.0269002728164196
-2.4240384101867676 0.8308791518211365 -0.1342940777540207 29.0 6 -0.026897968724370003
-3.0728542804718018 1.0538709163665771 0.7499868273735046 94.0 14 -0.026895664632320404
-2.920367956161499 1.0021436214447021 -0.05389302968978882 1.0 7 -0.026893360540270805
-3.065957546234131 1.0527018308639526 0.8685967326164246 100.0 15 -0.026891056448221207
-2.9660446643829346 1.0224487781524658 -0.8406442999839783 4.0 0 -0.02687031961977482
-2.9509270191192627 1.0178146362304688 0.05448641628026962 4.0 8 -0.02686801552772522
-3.113194227218628 1.074389934539795 -0.7603346109390259 30.0 1 -0.02686571143567562
-2.9885098934173584 1.031944751739502 0.1656956523656845 3.0 9 -0.026863407343626022
-2.1842000484466553 0.754213273525238 -0.44916439056396484 6.0 2 -0.026861105114221573
-3.1015660762786865 1.0715893507003784 0.2870910167694092 59.0 10 -0.026858801022171974
-2.2478301525115967 0.7770626544952393 -0.3766942620277405 13.0 3 -0.026856496930122375
-3.1010899543762207 1.072636604309082 0.4029000997543335 73.0 11 -0.026854192838072777
-2.2698683738708496 0.7855687737464905 -0.2949238419532776 22.0 4 -0.026851888746023178
-3.091139793395996 1.0704023838043213 0.5181110501289368 93.0 12 -0.02684958465397358
-2.2121801376342773 0.7660355567932129 -0.20481599867343903 3.0 5 -0.02684728056192398
-3.0923900604248047 1.071440577507019 0.636157214641571 73.0 13 -0.026844976469874382
-2.1173033714294434 0.734009861946106 -0.11744190007448196 29.0 6 -0.026842672377824783
-3.0875682830810547 1.0709762573242188 0.7544858455657959 89.0 14 -0.026840368285775185
-2.9168519973754883 1.0123316049575806 -0.05389302968978882 1.0 7 -0.026838064193725586
-3.060439109802246 1.0627638101577759 0.8680790662765503 104.0 15 -0.026835760101675987
-2.955160617828369 1.0302529335021973 -0.8385737538337708 5.0 0 -0.026815025135874748
-2.9473564624786377 1.0281083583831787 0.05448641628026962 3.0 8 -0.02681272104382515
-3.1131045818328857 1.086534857749939 -0.7612344026565552 32.0 1 -0.02681041695177555
-2.999974250793457 1.047638177871704 0.16653302311897278 3.0 9 -0.026808112859725952
-2.1463379859924316 0.7495349645614624 -0.4419136643409729 9.0 2 -0.026805808767676353
-3.1090924739837646 1.086351990699768 0.28813689947128296 61.0 10 -0.026803504675626755
-2.220862865447998 0.7764294147491455 -0.3726269602775574 12.0 3 -0.026801200583577156
-3.1029481887817383 1.0854214429855347 0.4036312997341156 75.0 11 -0.026798896491527557
-2.233386754989624 0.7816828489303589 -0.2905365228652954 31.0 4 -0.02679659239947796
-3.0985703468322754 1.0851041078567505 0.5199882388114929 93.0 12 -0.02679428830742836
-2.185047149658203 0.7651926875114441 -0.20254994928836823 11.0 5 -0.02679198421537876
-3.1016006469726562 1.0867730379104614 0.6388285160064697 87.0 13 -0.026789680123329163
-2.1298065185546875 0.7466818690299988 -0.11827926337718964 64.0 6 -0.026787376031279564
-3.0874886512756348 1.083038330078125 0.75538569688797 89.0 14 -0.026785071939229965
-2.8868844509124756 1.0132356882095337 -0.05340436473488808 1.0 7 -0.026782767847180367
-3.060356616973877 1.0747199058532715 0.8691143989562988 106.0 15 -0.026780463755130768
-2.9643001556396484 1.0450576543807983 -0.8421972393989563 5.0 0 -0.02675972878932953
-2.947521209716797 1.0397207736968994 0.0545562244951725 3.0 8 -0.02675742469727993
-3.118480920791626 1.1006386280059814 -0.7634838819503784 19.0 1 -0.02675512060523033
-3.0002503395080566 1.0589102506637573 0.16674236953258514 3.0 9 -0.026752816513180733
-2.1251962184906006 0.7504846453666687 -0.43809744715690613 20.0 2 -0.026750512421131134
-3.103402853012085 1.0965343713760376 0.28796255588531494 67.0 10 -0.026748208329081535
-2.199514627456665 0.7775933742523193 -0.36949828267097473 14.0 3 -0.026745904237031937
-3.0935263633728027 1.09425950050354 0.4029000997543335 73.0 11 -0.026743600144982338
-2.234525203704834 0.7904087901115417 -0.29102399945259094 24.0 4 -0.02674129605293274
-3.1042661666870117 1.0986679792404175 0.521552562713623 87.0 12 -0.02673899196088314
-2.1729722023010254 0.7694899439811707 -0.20167838037014008 21.0 5 -0.026736687868833542
-3.082984447479248 1.0923470258712769 0.635775625705719 82.0 13 -0.026734383776783943
-2.0914204120635986 0.7414320111274719 -0.11629050970077515 57.0 6 -0.026732079684734344
-3.094900608062744 1.0971771478652954 0.7580850720405579 94.0 14 -0.026729775592684746
-2.1334195137023926 0.7567409873008728 -0.03951225057244301 1.0 7 -0.026727471500635147
-3.058596134185791 1.0855087041854858 0.8696320056915283 102.0 15 -0.02672516740858555
-2.9571785926818848 1.053585410118103 -0.8411619663238525 6.0 0 -0.02670443244278431
-2.947824239730835 1.0508323907852173 0.05462603271007538 3.0 8 -0.02670212835073471
-3.1386754512786865 1.1194839477539062 -0.7693326473236084 2.0 1 -0.026699824258685112
-3.0042474269866943 1.071536898612976 0.16716106235980988 3.0 9 -0.026697520166635513
-2.109752655029297 0.7529090046882629 -0.43542614579200745 24.0 2 -0.026695216074585915
-3.1110074520111084 1.1108397245407104 0.2890084385871887 65.0 10 -0.026692911982536316
-2.1876230239868164 0.7815595865249634 -0.36793389916419983 15.0 3 -0.026690607890486717
-3.091749668121338 1.105180263519287 0.40314382314682007 76.0 11 -0.02668830379843712
-2.1664679050445557 0.7744280099868774 -0.28249314427375793 1.0 4 -0.02668599970638752
-3.1136257648468018 1.1136128902435303 0.5237426161766052 96.0 12 -0.02668369561433792
-2.1722843647003174 0.7773629426956177 -0.2018527090549469 27.0 5 -0.026681391522288322
-3.0941314697265625 1.1078590154647827 0.6388285160064697 83.0 13 -0.026679087430238724
-2.0870697498321533 0.7476898431777954 -0.11618582904338837 54.0 6 -0.026676785200834274
-3.0894107818603516 1.1067770719528198 0.757635235786438 99.0 14 -0.026674481108784676
-2.110191583633423 0.756389319896698 -0.039128296077251434 25.0 7 -0.026672177016735077
-3.0749826431274414 1.1028194427490234 0.8753260374069214 104.0 15 -0.026669872924685478
-2.9718449115753174 1.0699299573898315 -0.8463383316993713 5.0 0 -0.02664913609623909
-2.9311540126800537 1.0558582544326782 0.05438169836997986 2.0 8 -0.02664683200418949
-2.9969193935394287 1.08013916015625 0.1669517159461975 3.0 9 -0.026642223820090294
-2.170036792755127 0.7825449705123901 -0.44840118288993835 1.0 2 -0.026639919728040695
-3.124173879623413 1.127236008644104 0.290577232837677 77.0 10 -0.026637615635991096
-2.164581060409546 0.7814314961433411 -0.36449235677719116 1.0 3 -0.026635311543941498
-3.1067378520965576 1.1221706867218018 0.40558120608329773 80.0 11 -0.0266330074518919
-3.0969111919403076 1.119232177734375 0.521552562713623 91.0 12 -0.02662840113043785
-2.167820930480957 0.7838842868804932 -0.20167838037014008 28.0 5 -0.026626097038388252
-3.1089024543762207 1.1247929334640503 0.6426447629928589 82.0 13 -0.026623792946338654
-2.0789449214935303 0.7525672316551208 -0.11587180942296982 48.0 6 -0.026621488854289055
-3.0820586681365967 1.1156892776489258 0.7567353844642639 92.0 14 -0.026619184762239456
-2.0851099491119385 0.7552105784416199 -0.03870943933725357 54.0 7 -0.026616880670189857
-3.0767574310302734 1.1149851083755493 0.8768789768218994 102.0 15 -0.02661457657814026
-2.95194149017334 1.073834776878357 -0.841679573059082 6.0 0 -0.02659383974969387
-2.164722204208374 0.7878944277763367 0.04021034389734268 1.0 8 -0.026591535657644272
-3.013964891433716 1.0975892543792725 0.16810311377048492 3.0 9 -0.026586927473545074
-3.1204185485839844 1.1375900506973267 0.290577232837677 80.0 10 -0.026582319289445877
-3.1104588508605957 1.1351892948150635 0.4065561592578888 88.0 11 -0.02657771296799183
-3.0987493991851807 1.1315287351608276 0.5224911570549011 96.0 12 -0.02657310478389263
-2.1521098613739014 0.7862827777862549 -0.20045821368694305 27.0 5 -0.026570800691843033
-3.1088428497314453 1.1364444494247437 0.6434080004692078 83.0 13 -0.026568496599793434
-2.0783138275146484 0.7601433396339417 -0.1159764900803566 51.0 6 -0.026566192507743835
-3.0929834842681885 1.1312588453292847 0.7603346109390259 92.0 14 -0.026563888415694237
-2.0788381099700928 0.7607465386390686 -0.038639627397060394 83.0 7 -0.026561584323644638
-3.0694148540496826 1.1238534450531006 0.8758436441421509 100.0 15 -0.02655928023159504
-2.9226033687591553 1.0753087997436523 -0.8344326615333557 6.0 0 -0.026536941528320312
-2.062361478805542 0.7592095136642456 0.038360390812158585 14.0 8 -0.026534637436270714
-3.037838935852051 1.1195133924484253 0.16967318952083588 2.0 9 -0.026530029252171516
-3.1162283420562744 1.1490185260772705 0.290577232837677 80.0 10 -0.02652542106807232
-3.1193130016326904 1.1513938903808594 0.40826234221458435 96.0 11 -0.02652081288397312
-3.105499267578125 1.1475268602371216 0.524368405342102 93.0 12 -0.026516204699873924
-2.135993242263794 0.7897040247917175 -0.19923801720142365 20.0 5 -0.026513900607824326
-3.108339548110962 1.1491928100585938 0.6441711783409119 87.0 13 -0.026511598378419876
-2.0755136013031006 0.7677556872367859 -0.1159764900803566 60.0 6 -0.026509294286370277
-3.1032376289367676 1.1485378742218018 0.7639338374137878 100.0 14 -0.02650699019432068
-2.066525459289551 0.7652509808540344 -0.03846510127186775 54.0 7 -0.02650468610227108
-3.0668883323669434 1.1363028287887573 0.8763613104820251 108.0 15 -0.02650238201022148
-2.8824312686920166 1.0725387334823608 -0.8240798711776733 10.0 0 -0.026481645181775093
-2.0578243732452393 0.7657064199447632 0.038325484842061996 39.0 8 -0.026479341089725494
-3.1518256664276123 1.1740316152572632 0.17626751959323883 55.0 9 -0.026474732905626297
-3.1194629669189453 1.1632177829742432 0.2912744879722595 95.0 10 -0.0264701247215271
-3.111555576324463 1.1608868837356567 0.4077748656272888 100.0 11 -0.02646551840007305
-3.118129253387451 1.1645803451538086 0.5271841883659363 91.0 12 -0.026460910215973854
-2.172417163848877 0.8118007183074951 -0.2028985619544983 1.0 5 -0.026458606123924255
-3.1059458255767822 1.16126549243927 0.6445528268814087 92.0 13 -0.026456302031874657
-2.059591054916382 0.7704592347145081 -0.11524379253387451 51.0 6 -0.026453997939825058
-3.0953571796417236 1.1585372686386108 0.7630340456962585 100.0 14 -0.02645169384777546
-2.0544776916503906 0.7689546346664429 -0.03829057887196541 40.0 7 -0.02644938975572586
-3.0773766040802 1.1524207592010498 0.880502462387085 106.0 15 -0.026447085663676262
-2.851546287536621 1.0723941326141357 -0.8163152933120728 27.0 0 -0.026426348835229874
-2.041903018951416 0.7683141231536865 0.038081150501966476 39.0 8 -0.026424044743180275
-3.138155698776245 1.1820564270019531 0.1757441610097885 55.0 9 -0.026419438421726227
-2.0962910652160645 0.7896148562431335 -0.43542614579200745 1.0 2 -0.026417134329676628
-3.1228413581848145 1.1769094467163086 0.29197174310684204 100.0 10 -0.02641483023762703
-2.1052610874176025 0.7938322424888611 -0.35635775327682495 1.0 3 -0.02641252614557743
-3.1072793006896973 1.1722842454910278 0.4077748656272888 100.0 11 -0.026410222053527832
-2.119051218032837 0.7998769879341125 -0.27810585498809814 1.0 4 -0.026407917961478233
-3.121232032775879 1.1787927150726318 0.5284357070922852 100.0 12 -0.026405613869428635
-3.1073827743530273 1.1741821765899658 0.6456976532936096 87.0 13 -0.026401005685329437
-3.087648630142212 1.1679569482803345 0.7621342539787292 100.0 14 -0.02639639750123024
-2.046034812927246 0.7743565440177917 -0.03818586841225624 39.0 7 -0.02639409340918064
-3.0731325149536133 1.1636914014816284 0.880502462387085 111.0 15 -0.026391789317131042
-2.8550093173980713 1.0850861072540283 -0.8183858394622803 48.0 0 -0.026371054351329803
-2.037339448928833 0.7747262716293335 0.03804624453186989 44.0 8 -0.026368750259280205
-3.1396102905273438 1.1951342821121216 0.17605817317962646 58.0 9 -0.026364142075181007
-3.139195203781128 1.195603609085083 0.2938891649246216 90.0 10 -0.02635953389108181
-2.1024770736694336 0.8011767268180847 -0.35635775327682495 1.0 3 -0.02635722979903221
-3.1068785190582275 1.1845371723175049 0.40826234221458435 100.0 11 -0.026354925706982613
-3.107870578765869 1.1861590147018433 0.526871383190155 96.0 12 -0.026350317522883415
-3.114269971847534 1.189223289489746 0.6479873657226562 87.0 13 -0.026345709338784218
-2.0690882205963135 0.7905212044715881 -0.11608116328716278 1.0 6 -0.02634340524673462
-3.0853729248046875 1.1794235706329346 0.7625840902328491 100.0 14 -0.02634110115468502
-2.020906448364258 0.7729212641716003 -0.03776700794696808 7.0 7 -0.026338797062635422
-3.0834853649139404 1.1799358129501343 0.8846435546875 106.0 15 -0.026336492970585823
-2.838580369949341 1.0901970863342285 -0.8147624135017395 45.0 0 -0.026315758004784584
-2.038355827331543 0.7832677960395813 0.038116052746772766 17.0 8 -0.026313453912734985
-2.080867290496826 0.8000202178955078 -0.5146880745887756 1.0 1 -0.026311149820685387
-3.1374940872192383 1.2062560319900513 0.17616285383701324 56.0 9 -0.026308845728635788
-2.0284271240234375 0.7802651524543762 -0.42245110869407654 1.0 2 -0.02630654163658619
-3.1108298301696777 1.197251796722412 0.2916231155395508 42.0 10 -0.02630423754453659
-2.0627992153167725 0.7943134903907776 -0.3501003682613373 1.0 3 -0.026301933452486992
-3.1175436973571777 1.2010844945907593 0.4102122485637665 97.0 11 -0.026299629360437393
-2.0209388732910156 0.7785996198654175 -0.26591894030570984 1.0 4 -0.026297325268387794
-3.0873312950134277 1.1900643110275269 0.524055540561676 87.0 12 -0.026295021176338196
-3.1009416580200195 1.1965532302856445 0.6460793018341064 81.0 13 -0.026290412992239
-3.0650832653045654 1.1833319664001465 0.7585350275039673 88.0 14 -0.0262858048081398
-3.059734344482422 1.1824934482574463 0.8789495229721069 90.0 15 -0.026281196624040604
-2.833148241043091 1.0989055633544922 -0.8142447471618652 37.0 0 -0.026260461658239365
-2.009648084640503 0.7798945307731628 0.037627387791872025 1.0 8 -0.026258157566189766
-2.103635549545288 0.8167911767959595 -0.5209866762161255 1.0 1 -0.026255853474140167
-3.1465096473693848 1.2217141389846802 0.17689554393291473 25.0 9 -0.02625354938209057
-1.9855682849884033 0.7713472843170166 -0.4140555262565613 1.0 2 -0.02625124529004097
-3.0864150524139404 1.1996207237243652 0.28970569372177124 38.0 10 -0.02624894119799137
-2.0454254150390625 0.7954221367835999 -0.3475974202156067 1.0 3 -0.026246637105941772
-3.0857937335968018 1.2006192207336426 0.4065561592578888 83.0 11 -0.026244333013892174
-2.018345832824707 0.7852970361709595 -0.26591894030570984 1.0 4 -0.026242028921842575
-3.0833680629730225 1.200295090675354 0.524055540561676 87.0 12 -0.026239724829792976
-3.082322359085083 1.2011271715164185 0.6430263519287109 81.0 13 -0.02623511664569378
-2.0636589527130127 0.8045872449874878 -0.11608116328716278 1.0 6 -0.02623281441628933
-3.0738515853881836 1.1984449625015259 0.7616842985153198 83.0 14 -0.02623051032423973
-3.048597574234009 1.1898239850997925 0.8768789768218994 92.0 15 -0.026225902140140533
-2.8420801162719727 1.1132267713546753 -0.817868173122406 32.0 0 -0.026205165311694145
-2.0070507526397705 0.7865545153617859 0.037627387791872025 1.0 8 -0.026202861219644547
-2.1480863094329834 0.8422576189041138 -0.5326840877532959 7.0 1 -0.026200557127594948
-2.0842812061309814 0.8176600933074951 0.11733722686767578 11.0 9 -0.02619825303554535
-1.979344129562378 0.776493489742279 -0.4132923185825348 1.0 2 -0.02619594894349575
-3.089838743209839 1.2127610445022583 0.29040294885635376 38.0 10 -0.02619364485144615
-2.063001871109009 0.8101433515548706 -0.35103899240493774 4.0 3 -0.026191340759396553
-3.0781002044677734 1.2093937397003174 0.40606871247291565 75.0 11 -0.026189036667346954
-2.059931516647339 0.8097676038742065 -0.2717686593532562 1.0 4 -0.026186734437942505
-3.0809977054595947 1.2117745876312256 0.524368405342102 85.0 12 -0.026184430345892906
-3.078322410583496 1.2113419771194458 0.6430263519287109 77.0 13 -0.02617982216179371
-1.9977936744689941 0.7865488529205322 -0.11252231895923615 1.0 6 -0.02617751806974411
-3.080528497695923 1.2134528160095215 0.7643837332725525 89.0 14 -0.02617521397769451
-2.0092577934265137 0.791872501373291 -0.0376971997320652 1.0 7 -0.026172909885644913
-3.051614284515381 1.203292965888977 0.8789495229721069 92.0 15 -0.026170605793595314
-2.8705105781555176 1.1359360218048096 -0.8271856904029846 25.0 0 -0.026149868965148926
-2.004293203353882 0.7935552597045898 0.037627387791872025 1.0 8 -0.026147564873099327
-2.8317928314208984 1.1217578649520874 -0.7031970620155334 46.0 1 -0.02614526078104973
-2.0684170722961426 0.8197795152664185 0.1166045218706131 31.0 9 -0.02614295668900013
-1.9656707048416138 0.7790578603744507 -0.41100257635116577 2.0 2 -0.02614065259695053
-3.0929951667785645 1.2264761924743652 0.2911001741886139 42.0 10 -0.02613835036754608
-2.05281662940979 0.8144257068634033 -0.34978750348091125 6.0 3 -0.026136046275496483
-3.07570481300354 1.2208634614944458 0.40631240606307983 78.0 11 -0.026133742183446884
-2.0829215049743652 0.8272104859352112 -0.27518099546432495 1.0 4 -0.026131438091397285
-3.084092140197754 1.2254389524459839 0.5256198644638062 85.0 12 -0.026129133999347687
-2.1108007431030273 0.8387095332145691 -0.19871510565280914 1.0 5 -0.026126829907298088
-3.074075222015381 1.2220799922943115 0.6430263519287109 68.0 13 -0.02612452581524849
-2.0395760536193848 0.8112339377403259 -0.11503444612026215 2.0 6 -0.02612222172319889
-3.0708422660827637 1.2220361232757568 0.7630340456962585 86.0 14 -0.026119917631149292
-2.0027658939361572 0.797402024269104 -0.037627387791872025 1.0 7 -0.026117613539099693
-3.0581634044647217 1.2182282209396362 0.8820553421974182 90.0 15 -0.026115309447050095
-2.902404308319092 1.1602907180786133 -0.8375384211540222 13.0 0 -0.026094572618603706
-1.9272432327270508 0.7708423733711243 0.03623119741678238 1.0 8 -0.026092270389199257
-2.8242413997650146 1.1301878690719604 -0.7022972702980042 54.0 1 -0.026089966297149658
-2.047001600265503 0.8195706009864807 0.11555780470371246 34.0 9 -0.02608766220510006
-1.9684075117111206 0.788103461265564 -0.4121474623680115 5.0 2 -0.02608535811305046
-3.0997917652130127 1.2417113780975342 0.29214605689048767 41.0 10 -0.026083054021000862
-2.0627963542938232 0.8267306089401245 -0.3519775867462158 7.0 3 -0.026080749928951263
-3.0787947177886963 1.2345467805862427 0.4072873890399933 78.0 11 -0.026078445836901665
-2.0652823448181152 0.8285637497901917 -0.2732310891151428 1.0 4 -0.026076141744852066
-3.07612943649292 1.2347253561019897 0.5249941349029541 85.0 12 -0.026073837652802467
-2.0782761573791504 0.8341978192329407 -0.19592611491680145 1.0 5 -0.02607153356075287
-3.069790840148926 1.2328025102615356 0.6430263519287109 68.0 13 -0.02606922946870327
-2.0385854244232178 0.8190926313400269 -0.11513911187648773 6.0 6 -0.02606692537665367
-3.0683658123016357 1.233474850654602 0.7634838819503784 83.0 14 -0.026064621284604073
-1.9981147050857544 0.8036419153213501 -0.037592481821775436 3.0 7 -0.026062317192554474
-3.0574769973754883 1.230337381362915 0.883090615272522 90.0 15 -0.026060013100504875
-2.90371036529541 1.1725850105285645 -0.8390913605690002 14.0 0 -0.026039278134703636
-1.9171241521835327 0.7745685577392578 0.036091577261686325 1.0 8 -0.026036974042654037
-2.8184726238250732 1.1393084526062012 -0.7018473148345947 52.0 1 -0.02603466995060444
-2.0385732650756836 0.8244644403457642 0.11524379253387451 30.0 9 -0.02603236585855484
-1.9638242721557617 0.7942335605621338 -0.41176581382751465 2.0 2 -0.02603006176650524
-3.0954384803771973 1.2525241374969482 0.29214605689048767 42.0 10 -0.026027757674455643
-2.0598981380462646 0.8339256048202515 -0.3519775867462158 7.0 3 -0.026025453582406044
-3.085505247116089 1.2497583627700806 0.4087498188018799 81.0 11 -0.026023149490356445
-2.0274219512939453 0.8216023445129395 -0.2686000466346741 4.0 4 -0.026020845398306847
-3.0644781589508057 1.2424860000610352 0.5237426161766052 26.0 12 -0.026018541306257248
-2.0568878650665283 0.8339606523513794 -0.19418299198150635 4.0 5 -0.02601623721420765
-3.0800228118896484 1.2494152784347534 0.6460793018341064 67.0 13 -0.02601393312215805
-2.028311252593994 0.8231993913650513 -0.1147204264998436 6.0 6 -0.026011629030108452
-3.0640413761138916 1.244178056716919 0.7634838819503784 78.0 14 -0.026009324938058853
-1.9934446811676025 0.8098592162132263 -0.03755757957696915 7.0 7 -0.026007020846009254
-3.0513737201690674 1.2402751445770264 0.8825729489326477 84.0 15 -0.026004716753959656
-2.901388168334961 1.1834442615509033 -0.8396090269088745 12.0 0 -0.025983981788158417
-1.9144090414047241 0.7812554836273193 0.036091577261686325 1.0 8 -0.025981677696108818
-2.8108701705932617 1.1476666927337646 -0.7009475231170654 47.0 1 -0.02597937360405922
-2.0356829166412354 0.8315759897232056 0.11524379253387451 28.0 9 -0.02597706951200962
-1.9554482698440552 0.7991978526115417 -0.4106209874153137 2.0 2 -0.025974765419960022
-3.0836706161499023 1.2603058815002441 0.29144880175590515 42.0 10 -0.025972461327910423
-2.060631513595581 0.8426063656806946 -0.35260334610939026 7.0 3 -0.025970157235860825
-3.0976600646972656 1.2672861814498901 0.41094347834587097 83.0 11 -0.025967853143811226
-2.0282161235809326 0.830178439617157 -0.269087553024292 4.0 4 -0.025965549051761627
-2.037224292755127 0.8346958756446838 -0.19261418282985687 3.0 5 -0.02596094086766243
-3.071789503097534 1.2592064142227173 0.6453160643577576 68.0 13 -0.02595863677561283
-2.0178887844085693 0.8275964260101318 -0.11430173367261887 6.0 6 -0.025956332683563232
-3.066891670227051 1.2578239440917969 0.7652835249900818 78.0 14 -0.025954030454158783
-1.988755702972412 0.8160536289215088 -0.03752267360687256 8.0 7 -0.025951726362109184
-3.047025680541992 1.250918984413147 0.8825729489326477 82.0 15 -0.025949422270059586
-2.897031545639038 1.194069743156433 -0.8396090269088745 10.0 0 -0.025928685441613197
-1.9004405736923218 0.7836928367614746 0.035882145166397095 1.0 8 -0.0259263813495636
-2.806644916534424 1.157961368560791 -0.7009475231170654 38.0 1 -0.025924077257514
-2.0344674587249756 0.8397931456565857 0.1153484508395195 25.0 9 -0.0259217731654644
-1.981539011001587 0.8183504939079285 -0.41672685742378235 2.0 2 -0.025919469073414803
-3.097445487976074 1.2792056798934937 0.29319190979003906 41.0 10 -0.025917164981365204
-2.035621166229248 0.8411015272140503 -0.3488488793373108 7.0 3 -0.025914860889315605
-3.0838217735290527 1.2748385667800903 0.40972477197647095 75.0 11 -0.025912556797266006
-2.023325204849243 0.8368479013442993 -0.26884379982948303 3.0 4 -0.025910252705216408
-2.084462881088257 0.862560510635376 0.3572963774204254 1.0 12 -0.02590794861316681
-2.043355703353882 0.8459674119949341 -0.19348573684692383 3.0 5 -0.02590564638376236
-3.0671536922454834 1.2704566717147827 0.6453160643577576 67.0 13 -0.02590334229171276
-2.0148420333862305 0.8349869251251221 -0.11430173367261887 6.0 6 -0.025901038199663162
-3.0694620609283447 1.2720404863357544 0.7670831084251404 78.0 14 -0.025898734107613564
-1.9986820220947266 0.8286980986595154 -0.03776700794696808 7.0 7 -0.025896430015563965
-3.049558401107788 1.2650394439697266 0.8846435546875 82.0 15 -0.025894125923514366
-2.8926355838775635 1.2046799659729004 -0.8396090269088745 9.0 0 -0.025873389095067978
-1.8717132806777954 0.779885470867157 0.03539348021149635 1.0 8 -0.02587108500301838
-2.813174247741699 1.1727395057678223 -0.7036469578742981 29.0 1 -0.02586878091096878
-2.01493239402771 0.8399731516838074 0.11440641433000565 28.0 9 -0.025866476818919182
-1.9877303838729858 0.8290411233901978 -0.41863495111465454 1.0 2 -0.025864172726869583
-3.1000914573669434 1.2936182022094727 0.2938891649246216 41.0 10 -0.025861868634819984
-2.0489308834075928 0.8554057478904724 -0.3516647219657898 6.0 3 -0.025859566405415535
-2.022076368331909 0.8450232148170471 -0.269087553024292 3.0 4 -0.025854958221316338
-2.0577454566955566 0.8599292635917664 0.3532290756702423 1.0 12 -0.02585265412926674
-2.0348753929138184 0.8507897257804871 -0.19296279549598694 5.0 5 -0.02585035003721714
-3.07175612449646 1.2849435806274414 0.6472241282463074 61.0 13 -0.02584804594516754
-1.9953334331512451 0.835074782371521 -0.11335969716310501 7.0 6 -0.025845741853117943
-3.0683743953704834 1.2847875356674194 0.7679829597473145 83.0 14 -0.025843437761068344
-1.9810206890106201 0.8294914960861206 -0.03748776763677597 7.0 7 -0.025841133669018745
-3.04868745803833 1.2771697044372559 0.8856788277626038 80.0 15 -0.025838829576969147
-2.895535707473755 1.2177655696868896 -0.841679573059082 9.0 0 -0.02581809274852276
-1.9096696376800537 0.8031432628631592 0.0361613854765892 1.0 8 -0.02581578865647316
-3.0948665142059326 1.3022332191467285 -0.7751813530921936 49.0 1 -0.02581348642706871
-2.006465435028076 0.844677209854126 0.1140923947095871 31.0 9 -0.02581118233501911
-1.9848244190216064 0.8359741568565369 -0.41863495111465454 1.0 2 -0.025808878242969513
-3.0973927974700928 1.3052053451538086 0.2940634489059448 40.0 10 -0.025806574150919914
-2.035160779953003 0.8575931191444397 -0.34978750348091125 6.0 3 -0.025804270058870316
-2.094407558441162 0.8829901218414307 0.2790808379650116 21.0 11 -0.025801965966820717
-2.0137758255004883 0.8494095802307129 -0.2683563232421875 2.0 4 -0.025799661874771118
-2.0347113609313965 0.8586585521697998 0.34978750348091125 2.0 12 -0.02579735778272152
-2.0373997688293457 0.8602125644683838 -0.19348573684692383 7.0 5 -0.02579505369067192
-1.9907134771347046 0.8409098982810974 -0.11325501650571823 8.0 6 -0.025790445506572723
-3.0640971660614014 1.2949548959732056 0.7679829597473145 83.0 14 -0.025788141414523125
-1.956011176109314 0.8270562887191772 -0.03706891089677811 7.0 7 -0.025785837322473526
-3.0584447383880615 1.2938244342803955 0.8898199200630188 80.0 15 -0.025783533230423927
-2.8861465454101562 1.2250964641571045 -0.840126633644104 6.0 0 -0.02576279826462269
-1.89212965965271 0.8035510182380676 0.035882145166397095 1.0 8 -0.02576049417257309
-3.1405222415924072 1.3343653678894043 -0.7877786159515381 48.0 1 -0.02575819008052349
-2.0018155574798584 0.8505443930625916 0.11398772895336151 36.0 9 -0.025755885988473892
-1.982041358947754 0.8425515294075012 -0.41863495111465454 1.0 2 -0.025753581896424294
