# .PCD v0.7 - Point Cloud Data file format
VERSION 0.7
FIELDS x y z intensity ring time
SIZE 4 4 4 4 4 4
TYPE F F F F F F
COUNT 1 1 1 1 1 1
WIDTH 546
HEIGHT 1
VIEWPOINT 0 0 0 1 0 0 0
POINTS 546
DATA ascii
-3.3714330196380615 6.362154960632324 1.1404074430465698 63.0 12 -0.013177930377423763
-2.9778592586517334 5.61945104598999 -0.5564022660255432 3.0 5 -0.013175626285374165
-3.3643434047698975 6.351455211639404 1.3971035480499268 95.0 13 -0.013173322193324566
-2.5635459423065186 4.84169340133667 -0.28711506724357605 1.0 6 -0.013171018101274967
-3.3573246002197266 6.343556880950928 1.656989574432373 100.0 14 -0.013168714009225368
-2.4527688026428223 4.636384963989258 -0.09155532717704773 62.0 7 -0.013166410848498344
-3.344998359680176 6.325606346130371 1.917331576347351 43.0 15 -0.013164106756448746
-1.548802375793457 2.937563180923462 -0.8898199200630188 6.0 0 -0.013143369928002357
-2.440821647644043 4.6313862800598145 0.09138079732656479 64.0 8 -0.013141066767275333
-1.7520419359207153 3.3258581161499023 -0.867861270904541 3.0 1 -0.013138762675225735
-3.3381283283233643 6.336686611175537 0.37535351514816284 5.0 9 -0.013136458583176136
-2.0023350715637207 3.8025925159454346 -0.8353618383407593 1.0 2 -0.013134154491126537
-3.3584096431732178 6.380578994750977 0.6308332681655884 86.0 10 -0.013131850399076939
-2.34999680519104 4.466610431671143 -0.7993801832199097 1.0 3 -0.01312954630702734
-3.344810962677002 6.360135555267334 0.8823341131210327 59.0 11 -0.013127242214977741
-3.3466415405273438 6.366305828094482 1.1391559839248657 63.0 12 -0.013122634030878544
-2.985100269317627 5.680960655212402 -0.5614572763442993 7.0 5 -0.013120329938828945
-3.3366730213165283 6.352732181549072 1.394813895225525 97.0 13 -0.013118026778101921
-2.5707693099975586 4.8965888023376465 -0.2898365557193756 1.0 6 -0.013115722686052322
-3.333348274230957 6.351787567138672 1.6560897827148438 100.0 14 -0.013113418594002724
-2.4596805572509766 4.686989784240723 -0.09239304065704346 82.0 7 -0.013111114501953125
-3.3266942501068115 6.341797351837158 1.918884515762329 24.0 15 -0.013108810409903526
-1.5367481708526611 2.939527988433838 -0.888784646987915 5.0 0 -0.013088074512779713
-2.4245221614837646 4.637683391571045 0.0913458988070488 45.0 8 -0.013085770420730114
-1.7446141242980957 3.3385579586029053 -0.8696608543395996 3.0 1 -0.013083466328680515
-3.310441732406616 6.337677478790283 0.37472549080848694 5.0 9 -0.013081162236630917
-3.335193395614624 6.39049768447876 0.6306589841842651 78.0 10 -0.01307655405253172
-2.342484712600708 4.488388538360596 -0.8018831610679626 1.0 3 -0.01307424996048212
-3.319112539291382 6.362392425537109 0.8811154365539551 56.0 11 -0.013071946799755096
-2.8572447299957275 5.479372024536133 -0.7587586045265198 1.0 4 -0.013069642707705498
-3.321657657623291 6.372694492340088 1.1382173299789429 61.0 12 -0.013067338615655899
-2.974459171295166 5.709014892578125 -0.5632004141807556 5.0 5 -0.0130650345236063
-3.3119609355926514 6.356797218322754 1.3932874202728271 97.0 13 -0.013062730431556702
-2.62278413772583 5.0361738204956055 -0.2975822687149048 1.0 6 -0.013060426339507103
-3.3050692081451416 6.3489766120910645 1.652490496635437 100.0 14 -0.013058122247457504
-2.4488444328308105 4.7061896324157715 -0.09260246902704239 100.0 7 -0.013055818155407906
-3.2965152263641357 6.337944984436035 1.914225697517395 22.0 15 -0.013053514063358307
-1.5305497646331787 2.951467275619507 -0.8908551931381226 5.0 0 -0.013032778166234493
-2.431326389312744 4.690501689910889 0.09221851825714111 47.0 8 -0.013030474074184895
-1.7338454723358154 3.346358299255371 -0.8701107501983643 3.0 1 -0.013028169982135296
-3.280033588409424 6.333232402801514 0.3737834393978119 5.0 9 -0.013025866821408272
-3.3084888458251953 6.390905857086182 0.6296131014823914 78.0 10 -0.013021258637309074
-3.2923245429992676 6.365122318267822 0.8798967003822327 59.0 11 -0.013016650453209877
-2.823514938354492 5.461097717285156 -0.7548587918281555 1.0 4 -0.013014346361160278
-3.2903218269348145 6.366702556610107 1.1350886821746826 65.0 12 -0.01301204226911068
-3.289752721786499 6.368319034576416 1.3932874202728271 95.0 13 -0.013007434085011482
-2.544710397720337 4.928171634674072 -0.2906739413738251 1.0 6 -0.013005129992961884
-3.277522563934326 6.350085735321045 1.6497911214828491 100.0 14 -0.01300282683223486
-2.416816234588623 4.684497833251953 -0.09200908988714218 43.0 7 -0.01300052274018526
-3.2725989818573 6.345980167388916 1.9131903648376465 28.0 15 -0.012998218648135662
-1.5202372074127197 2.9567923545837402 -0.8908551931381226 5.0 0 -0.012977482751011848
-2.429564952850342 4.727416515350342 0.09277699887752533 64.0 8 -0.01297517865896225
-1.7283878326416016 3.364523410797119 -0.8732600808143616 3.0 1 -0.012972874566912651
-3.256080389022827 6.341090679168701 0.3735741078853607 5.0 9 -0.012970570474863052
-3.275240898132324 6.381145477294922 0.6275213360786438 81.0 10 -0.012965962290763855
-3.2700843811035156 6.376576900482178 0.8798967003822327 63.0 11 -0.012961354106664658
-3.2617735862731934 6.365842342376709 1.1328985691070557 63.0 12 -0.01295674592256546
-3.2657113075256348 6.376269340515137 1.3925241231918335 97.0 13 -0.012952138669788837
-3.2537922859191895 6.355731010437012 -0.3742021322250366 43.0 6 -0.012949834577739239
-3.2535626888275146 6.358017921447754 1.6488913297653198 100.0 14 -0.01294753048568964
-2.394984483718872 4.682224273681641 -0.09179966151714325 63.0 7 -0.012945226393640041
-3.2433931827545166 6.34360408782959 1.909049391746521 31.0 15 -0.012942922301590443
-1.5090299844741821 2.9603593349456787 -0.8903375267982483 5.0 0 -0.012922186404466629
-2.4121391773223877 4.7340874671936035 0.09274208545684814 56.0 8 -0.01291988231241703
-1.7139804363250732 3.365326404571533 -0.8719103336334229 3.0 1 -0.012917578220367432
-3.2266781330108643 6.338177680969238 0.37273672223091125 5.0 9 -0.012915274128317833
-3.247526168823242 6.381884574890137 0.62647545337677 76.0 10 -0.012910665944218636
-3.2460079193115234 6.384413242340088 0.8794092535972595 59.0 11 -0.012906058691442013
-3.2368500232696533 6.3719048500061035 1.1319599151611328 61.0 12 -0.012901450507342815
-3.234544038772583 6.370125770568848 1.3887079954147339 95.0 13 -0.012896842323243618
-3.2324917316436768 6.36883020401001 -0.3743067979812622 50.0 6 -0.01289453823119402
-3.228705644607544 6.364121913909912 1.6475416421890259 100.0 14 -0.01289223413914442
-2.3659629821777344 4.665587902069092 -0.09131099283695221 42.0 7 -0.012889930047094822
-3.2151176929473877 6.342824459075928 1.9054259061813354 34.0 15 -0.012887625955045223
-1.4999109506607056 2.9693195819854736 -0.8913728594779968 5.0 0 -0.01286689005792141
-2.401909112930298 4.754973411560059 0.09298641979694366 26.0 8 -0.012864585965871811
-1.7022218704223633 3.3712892532348633 -0.8719103336334229 3.0 1 -0.012862282805144787
-3.2072319984436035 6.354752540588379 0.373050719499588 5.0 9 -0.012859978713095188
-1.1150639057159424 2.210326671600342 -0.4812203049659729 1.0 2 -0.01285767462104559
-3.2178328037261963 6.381292343139648 0.625255286693573 74.0 10 -0.01285537052899599
-3.2156593799591064 6.379752159118652 0.8772156238555908 69.0 11 -0.012850762344896793
-3.2145864963531494 6.3831658363342285 1.1319599151611328 65.0 12 -0.012846154160797596
-3.2041168212890625 6.367908000946045 1.3856550455093384 95.0 13 -0.012841545976698399
-3.204481363296509 6.374172687530518 1.6470917463302612 100.0 14 -0.012836938723921776
-3.1903531551361084 6.348830699920654 1.9038729667663574 36.0 15 -0.012832330539822578
-1.4912675619125366 2.9779915809631348 -0.8924081325531006 4.0 0 -0.012811594642698765
-1.6820071935653687 3.3618202209472656 -0.867861270904541 3.0 1 -0.012806986458599567
-3.172307014465332 6.343242168426514 0.3716900050640106 6.0 9 -0.012804682366549969
-1.1090983152389526 2.217716932296753 -0.4819835424423218 28.0 2 -0.01280237827450037
-3.198212146759033 6.397831439971924 0.6257781982421875 78.0 10 -0.012800074182450771
-3.186934232711792 6.380838871002197 0.8757531642913818 73.0 11 -0.012795465998351574
-3.1885249614715576 6.389601707458496 1.1310213804244995 63.0 12 -0.012790858745574951
-3.1783649921417236 6.372025012969971 1.384128451347351 97.0 13 -0.012786250561475754
-3.172651529312134 6.366133213043213 1.6421427726745605 100.0 14 -0.012781642377376556
-3.163616180419922 6.353564739227295 1.90180242061615 39.0 15 -0.012777034193277359
-1.4851588010787964 2.991830348968506 -0.8949962854385376 5.0 0 -0.012756298296153545
-1.6745904684066772 3.3764004707336426 -0.8701107501983643 3.0 1 -0.012751690112054348
-3.1474857330322266 6.348907947540283 0.3713759779930115 7.0 9 -0.01274938602000475
-1.0978628396987915 2.214539051055908 -0.480457067489624 87.0 2 -0.012747082859277725
-3.170550584793091 6.3982462882995605 0.6247323155403137 76.0 10 -0.012744778767228127
-3.1602389812469482 6.383028507232666 0.8745344281196594 75.0 11 -0.01274017058312893
-3.1565654277801514 6.381216526031494 1.127579689025879 61.0 12 -0.012735562399029732
-3.156104326248169 6.383080005645752 1.384128451347351 95.0 13 -0.012730954214930534
-3.14436674118042 6.3649396896362305 1.638993501663208 100.0 14 -0.012726346030831337
-3.1362900733947754 6.354175090789795 1.8986966609954834 43.0 15 -0.012721738778054714
-1.4678821563720703 2.9831299781799316 -0.8908551931381226 5.0 0 -0.012701001949608326
-1.6679537296295166 3.3927178382873535 -0.8728101253509521 3.0 1 -0.012696394696831703
-3.1226603984832764 6.35447883605957 0.37106195092201233 10.0 9 -0.012694090604782104
-1.0875277519226074 2.213071823120117 -0.4793122112751007 80.0 2 -0.012691786512732506
-3.142927885055542 6.398543357849121 0.6236864924430847 81.0 10 -0.012689482420682907
-1.0908536911010742 2.22179913520813 -0.39202481508255005 1.0 3 -0.012687178328633308
-3.1414356231689453 6.401150703430176 0.8755094408988953 73.0 11 -0.01268487423658371
-3.128185272216797 6.379780292510986 1.1253896951675415 60.0 12 -0.012680266052484512
-3.1320743560791016 6.390533447265625 1.383365273475647 95.0 13 -0.01267565879970789
-3.1204171180725098 6.372375965118408 1.6380937099456787 100.0 14 -0.012671050615608692
-3.1089982986450195 6.354671478271484 1.8955907821655273 45.0 15 -0.012666442431509495
-1.4642342329025269 3.002126455307007 -0.8949962854385376 5.0 0 -0.012645706534385681
-1.6595162153244019 3.4055263996124268 -0.8746097683906555 3.0 1 -0.012641098350286484
-3.1013333797454834 6.367137432098389 0.3711666464805603 11.0 9 -0.012638794258236885
-1.0746371746063232 2.2062647342681885 -0.4770224988460541 75.0 2 -0.012636490166187286
-3.115342140197754 6.398726940155029 0.6226406097412109 81.0 10 -0.012634186074137688
-1.1038377285003662 2.2682223320007324 -0.3995336890220642 1.0 3 -0.012631881982088089
-3.1138603687286377 6.4013671875 0.874047040939331 75.0 11 -0.01262957789003849
-1.0963186025619507 2.2547714710235596 -0.3078419864177704 1.0 4 -0.012627274729311466
-3.1067585945129395 6.392438888549805 1.1257026195526123 61.0 12 -0.012624970637261868
-3.1028833389282227 6.387300491333008 1.3803123235702515 92.0 13 -0.01262036245316267
-1.0861467123031616 2.236828565597534 -0.13031654059886932 1.0 6 -0.012618058361113071
-3.0981526374816895 6.383230209350586 1.6380937099456787 100.0 14 -0.012615754269063473
-1.0858161449432373 2.238138437271118 -0.04342158883810043 1.0 7 -0.012613450177013874
-3.0859556198120117 6.363746166229248 1.8950731754302979 45.0 15 -0.012611146084964275
-1.452065110206604 3.0037405490875244 -0.8939610123634338 5.0 0 -0.012590410187840462
-1.6459225416183472 3.4077892303466797 -0.8737099766731262 3.0 1 -0.012585802003741264
-3.079334259033203 6.375586986541748 0.37106195092201233 20.0 9 -0.012583497911691666
-1.066929817199707 2.2100021839141846 -0.4770224988460541 75.0 2 -0.012581194750964642
-3.0921196937561035 6.407768726348877 0.6224662661552429 85.0 10 -0.012578890658915043
-1.0856144428253174 2.25071120262146 -0.39577925205230713 2.0 3 -0.012576586566865444
-3.0846009254455566 6.397891521453857 0.8720970749855042 73.0 11 -0.012574282474815845
-1.0784896612167358 2.2369375228881836 -0.3049171268939972 1.0 4 -0.012571978382766247
-3.0795414447784424 6.3902482986450195 1.1235123872756958 60.0 12 -0.012569674290716648
-3.074608325958252 6.385709762573242 1.377640962600708 85.0 13 -0.01256506610661745
-1.0488831996917725 2.179417610168457 -0.1267576962709427 1.0 6 -0.012562762014567852
-3.0735888481140137 6.386444091796875 1.6362940073013306 100.0 14 -0.012560458853840828
-1.0437138080596924 2.169645309448242 -0.04202539846301079 1.0 7 -0.01255815476179123
-3.061485528945923 6.366981029510498 1.8930025100708008 46.0 15 -0.01255585066974163
-1.4370867013931274 2.99808669090271 -0.8908551931381226 5.0 0 -0.012535114772617817
-1.6312466859817505 3.4061977863311768 -0.8719103336334229 3.0 1 -0.01253050658851862
-3.0711166858673096 6.412783145904541 0.37263205647468567 27.0 9 -0.01252820249646902
-1.057900309562683 2.209986448287964 -0.4762592613697052 75.0 2 -0.012525898404419422
-3.070855140686035 6.417986869812012 0.6224662661552429 85.0 10 -0.012523594312369823
-1.0832589864730835 2.26499080657959 -0.3976564407348633 2.0 3 -0.012521290220320225
-3.054807424545288 6.3901753425598145 0.8696596622467041 75.0 11 -0.012518986128270626
-1.0556551218032837 2.208264112472534 -0.300529807806015 1.0 4 -0.012516682036221027
-3.057483434677124 6.398642539978027 1.1231995820999146 61.0 12 -0.012514378875494003
-2.928981304168701 6.132474422454834 -0.5945764780044556 1.0 5 -0.012512074783444405
-3.0525710582733154 6.394098281860352 1.377259373664856 90.0 13 -0.012509770691394806
-1.0433709621429443 2.186488628387451 -0.12696704268455505 1.0 6 -0.012507466599345207
-3.044842004776001 6.380772590637207 1.6322449445724487 100.0 14 -0.012505162507295609
-3.069936752319336 6.436258316040039 -0.12447056919336319 1.0 7 -0.01250285841524601
-3.037027359008789 6.370123863220215 1.8909319639205933 46.0 15 -0.012500554323196411
-1.438745379447937 3.027263641357422 -0.8981021642684937 6.0 0 -0.012479818426072598
-1.0107885599136353 2.1277575492858887 0.041117873042821884 1.0 8 -0.012477514334022999
-1.6274642944335938 3.4274325370788574 -0.8759595155715942 3.0 1 -0.0124752102419734
-3.0487115383148193 6.423465251922607 0.37263205647468567 42.0 9 -0.012472906149923801
-1.0471982955932617 2.206388235092163 -0.47473281621932983 64.0 2 -0.012470602057874203
-3.0478458404541016 6.424535751342773 0.6221176981925964 86.0 10 -0.012468297965824604
-1.0875906944274902 2.2935590744018555 -0.4020366370677948 2.0 3 -0.01246599480509758
-3.0335981845855713 6.400271415710449 0.8696596622467041 75.0 11 -0.012463690713047981
-1.0411405563354492 2.1975841522216797 -0.2985799014568329 2.0 4 -0.012461386620998383
-3.0292093753814697 6.396779537200928 1.1210094690322876 60.0 12 -0.012459082528948784
-1.059931755065918 2.2382571697235107 -0.21666917204856873 1.0 5 -0.012456778436899185
-3.031348943710327 6.404186725616455 1.377259373664856 92.0 13 -0.012454474344849586
-1.0463640689849854 2.211601495742798 -0.12822310626506805 1.0 6 -0.012452170252799988
-3.016716718673706 6.379030704498291 1.6290956735610962 100.0 14 -0.012449866160750389
-2.977376699447632 6.2986884117126465 -0.12160836905241013 1.0 7 -0.01244756206870079
-3.0131239891052246 6.377192497253418 1.8898967504501343 46.0 15 -0.012445257976651192
-1.4257007837295532 3.027024030685425 -0.8965492248535156 6.0 0 -0.012424522079527378
-1.003355622291565 2.131272792816162 0.041117873042821884 1.0 8 -0.01242221798747778
-1.614661455154419 3.431328773498535 -0.8755095601081848 3.0 1 -0.012419914826750755
-3.023721694946289 6.428645133972168 0.3723180294036865 43.0 9 -0.012417610734701157
-1.0386549234390259 2.2082533836364746 -0.474351167678833 48.0 2 -0.012415306642651558
-3.0169260501861572 6.417104244232178 0.6203745603561401 93.0 10 -0.01241300255060196
-1.080418586730957 2.2991292476654053 -0.40234947204589844 2.0 3 -0.01241069845855236
-3.0103960037231445 6.409024238586426 0.8694159388542175 76.0 11 -0.012408394366502762
-1.0722713470458984 2.283862352371216 -0.3097918927669525 1.0 4 -0.012406090274453163
-3.0035037994384766 6.400162696838379 1.1197580099105835 63.0 12 -0.012403786182403564
-1.0690404176712036 2.2780168056488037 -0.22015538811683655 1.0 5 -0.012401482090353966
-3.0056421756744385 6.407618522644043 1.3757330179214478 90.0 13 -0.012399177998304367
-1.0250723361968994 2.1863067150115967 -0.12654836475849152 1.0 6 -0.012396873906254768
-2.9919488430023193 6.384230136871338 1.6277459859848022 100.0 14 -0.012394570745527744
-1.0009589195251465 2.1368167400360107 -0.04118768125772476 1.0 7 -0.012392266653478146
-2.985931396484375 6.37717342376709 1.8867909908294678 47.0 15 -0.012389962561428547
-1.414307951927185 3.0302319526672363 -0.8960315585136414 5.0 0 -0.012369226664304733
-0.9959104061126709 2.1347620487213135 0.041117873042821884 1.0 8 -0.012366922572255135
-1.61090886592865 3.454606056213379 -0.8800085783004761 3.0 1 -0.012364618480205536
-1.0267927646636963 2.2029683589935303 -0.4724431037902832 25.0 2 -0.012360010296106339
-2.9894607067108154 6.416759490966797 0.6193286776542664 93.0 10 -0.01235770620405674
-1.0573759078979492 2.270653486251831 -0.3967178463935852 2.0 3 -0.012355402112007141
-2.9871666431427 6.417694091796875 0.869172215461731 71.0 11 -0.012353098019957542
-1.0508953332901 2.258793830871582 -0.30589208006858826 1.0 4 -0.012350793927907944
-2.9769811630249023 6.401650905609131 1.1181936264038086 61.0 12 -0.01234849076718092
-1.060684323310852 2.2819197177886963 -0.22015538811683655 1.0 5 -0.012346186675131321
-2.9791176319122314 6.409170150756836 1.3738248348236084 87.0 13 -0.012343882583081722
-2.840230941772461 6.113165855407715 -0.35326775908470154 1.0 6 -0.012341578491032124
-2.9704675674438477 6.3964009284973145 1.628195881843567 100.0 14 -0.012339274398982525
-1.0187515020370483 2.1947121620178223 -0.04223482310771942 1.0 7 -0.012336970306932926
-2.9555201530456543 6.370034217834473 1.8816145658493042 47.0 15 -0.012334666214883327
-1.405624508857727 3.0406556129455566 -0.8975844979286194 6.0 0 -0.012313930317759514
-0.9884520769119263 2.138225555419922 0.041117873042821884 1.0 8 -0.012311626225709915
-1.5963886976242065 3.4549007415771484 -0.8786588907241821 3.0 1 -0.012309322133660316
-1.018712043762207 2.206716775894165 -0.4724431037902832 17.0 2 -0.012304713949561119
-2.9642508029937744 6.424055099487305 0.6189800500869751 88.0 10 -0.012302410788834095
-1.0416010618209839 2.2583696842193604 -0.3939020335674286 2.0 3 -0.012300106696784496
-2.953108549118042 6.40284538269043 0.8657599091529846 69.0 11 -0.012297802604734898
-1.0729223489761353 2.32734751701355 -0.31466665863990784 1.0 4 -0.012295498512685299
-2.9562718868255615 6.415591716766357 1.1188194751739502 61.0 12 -0.0122931944206357
-2.821404457092285 6.12571907043457 -0.590044379234314 1.0 5 -0.012290890328586102
-2.9498612880706787 6.407562255859375 1.371153473854065 92.0 13 -0.012288586236536503
-2.8094582557678223 6.1053900718688965 -0.3522210419178009 1.0 6 -0.012286282144486904
-2.9486336708068848 6.410785675048828 1.6290956735610962 100.0 14 -0.012283978052437305
-2.8761603832244873 6.2532172203063965 -0.120142363011837 1.0 7 -0.012281674891710281
-2.9348816871643066 6.383821487426758 1.8826497793197632 47.0 15 -0.012279370799660683
-1.3941967487335205 3.043787717819214 -0.8970668315887451 5.0 0 -0.012258633971214294
-0.9806089401245117 2.141833782196045 0.041117873042821884 1.0 8 -0.012256329879164696
-1.5764178037643433 3.4447803497314453 -0.8746097683906555 3.0 1 -0.012254026718437672
-1.006919264793396 2.2013328075408936 -0.470535010099411 4.0 2 -0.012249418534338474
-2.941809892654419 6.434362888336182 0.6189800500869751 91.0 10 -0.012247114442288876
-1.0435646772384644 2.2835512161254883 -0.3976564407348633 1.0 3 -0.012244810350239277
-2.9254953861236572 6.404598236083984 0.8645411729812622 69.0 11 -0.012242506258189678
-2.929455518722534 6.419195652008057 1.117568016052246 61.0 12 -0.01223789807409048
-2.80165696144104 6.139155864715576 -0.5903929471969604 1.0 5 -0.012235593982040882
-2.92258620262146 6.407104015350342 1.368863821029663 95.0 13 -0.012233290821313858
-2.783156394958496 6.104257106781006 -0.3515929877758026 1.0 6 -0.01223098672926426
-2.916538715362549 6.399760723114014 1.6236968040466309 100.0 14 -0.01222868263721466
-2.8631677627563477 6.285555362701416 -0.12056122720241547 1.0 7 -0.012226378545165062
-2.9082605838775635 6.387503623962402 1.8805792331695557 47.0 15 -0.012224074453115463
-1.3851609230041504 3.0521538257598877 -0.8981021642684937 5.0 0 -0.01220333855599165
-0.9731259942054749 2.1452441215515137 0.041117873042821884 1.0 8 -0.012201034463942051
-1.5692108869552612 3.4609110355377197 -0.8773091435432434 3.0 1 -0.012198730371892452
-0.9481080174446106 2.0920329093933105 0.1203727126121521 1.0 9 -0.012196426279842854
-0.9878838658332825 2.1797995567321777 -0.46519237756729126 1.0 2 -0.012194122187793255
-2.9185080528259277 6.442778587341309 0.6188057661056519 25.0 10 -0.012191818095743656
-1.0290683507919312 2.272784471511841 -0.3951534926891327 2.0 3 -0.012189514003694057
-2.903122663497925 6.414770603179932 0.8645411729812622 73.0 11 -0.012187210842967033
-1.0562407970428467 2.334965467453003 -0.31466665863990784 1.0 4 -0.012184906750917435
-2.9029626846313477 6.420382499694824 1.1160036325454712 63.0 12 -0.012182602658867836
-1.0367307662963867 2.2929015159606934 -0.22015538811683655 1.0 5 -0.012180298566818237
-2.901822090148926 6.420844078063965 1.3696271181106567 95.0 13 -0.012177994474768639
-0.990773618221283 2.193298578262329 -0.12612967193126678 1.0 6 -0.01217569038271904
-2.889371156692505 6.399245262145996 1.620997428894043 100.0 14 -0.012173386290669441
-2.8379201889038086 6.288219928741455 -0.12042160332202911 1.0 7 -0.012171082198619843
-2.884359121322632 6.394093990325928 1.8795440196990967 47.0 15 -0.012168778106570244
-1.3729146718978882 3.053446054458618 -0.8970668315887451 6.0 0 -0.01214804220944643
-0.9656322598457336 2.148627519607544 0.041117873042821884 1.0 8 -0.012145738117396832
-1.5603153705596924 3.473477840423584 -0.8791087865829468 3.0 1 -0.012143434025347233
-0.9211660623550415 2.051600933074951 0.1178605854511261 2.0 9 -0.012141130864620209
-0.9722278118133545 2.1653244495391846 -0.4613761901855469 1.0 2 -0.01213882677257061
-1.0275958776474 2.2907814979553223 -0.3976564407348633 2.0 3 -0.012134218588471413
-2.8799028396606445 6.423054218292236 0.8642974495887756 73.0 11 -0.012131914496421814
-1.0480831861495972 2.3386385440826416 -0.31466665863990784 1.0 4 -0.012129610404372215
-2.8732638359069824 6.414251804351807 1.1131877899169922 65.0 12 -0.012127306312322617
-1.01242995262146 2.2601406574249268 -0.21666917204856873 1.0 5 -0.012125002220273018
-2.87618350982666 6.423766613006592 1.368100643157959 92.0 13 -0.01212269812822342
-2.7437362670898438 6.13083028793335 -0.35201168060302734 1.0 6 -0.01212039403617382
-2.8646271228790283 6.403956413269043 1.619647741317749 100.0 14 -0.012118089944124222
-2.809424638748169 6.283483028411865 -0.120142363011837 1.0 7 -0.012115786783397198
-2.8557143211364746 6.390014171600342 1.875402808189392 46.0 15 -0.012113482691347599
-1.3583166599273682 3.049396514892578 -0.8944786190986633 4.0 0 -0.012092746794223785
-0.9451121091842651 2.1227564811706543 0.04055939242243767 1.0 8 -0.012090442702174187
-1.5561034679412842 3.4967076778411865 -0.883607804775238 3.0 1 -0.012088138610124588
-0.9123750925064087 2.051154375076294 0.11765124648809433 7.0 9 -0.01208583451807499
-0.9598755240440369 2.157942295074463 -0.45908647775650024 1.0 2 -0.01208353042602539
-1.0115718841552734 2.2763028144836426 -0.39452776312828064 2.0 3 -0.012078922241926193
-2.8550453186035156 6.42762565612793 0.8635662794113159 65.0 11 -0.012076618149876595
-1.0109156370162964 2.2769675254821777 -0.30589208006858826 1.0 4 -0.012074314057826996
-2.850857973098755 6.42424201965332 1.1131877899169922 65.0 12 -0.012072009965777397
-1.007767677307129 2.2709457874298096 -0.21736642718315125 1.0 5 -0.012069705873727798
-2.8473730087280273 6.419410705566406 1.365047574043274 100.0 13 -0.012067402713000774
-0.9819133281707764 2.214769124984741 -0.12696704268455505 1.0 6 -0.012065098620951176
-2.839888572692871 6.408570766448975 1.6182979345321655 100.0 14 -0.012062794528901577
-0.9669500589370728 2.183074712753296 -0.041676346212625504 1.0 7 -0.012060490436851978
-2.828700304031372 6.389343738555908 1.8722970485687256 47.0 15 -0.01205818634480238
-1.3497580289840698 3.0574185848236084 -0.8955139517784119 4.0 0 -0.012017489410936832
-0.929995059967041 2.10758376121521 0.04021034389734268 1.0 8 -0.012015185318887234
-1.5405681133270264 3.492933511734009 -0.8813583254814148 3.0 1 -0.012012881226837635
-0.9063740968704224 2.0559959411621094 0.11775590479373932 8.0 9 -0.012010577134788036
-0.9495466947555542 2.1539275646209717 -0.4575599730014801 1.0 2 -0.012008273042738438
-0.9327271580696106 2.1167778968811035 0.2023756206035614 1.0 10 -0.012005968950688839
-1.000833511352539 2.272413492202759 -0.39327630400657654 2.0 3 -0.012003665789961815
-2.8265178203582764 6.420705795288086 0.8613725900650024 63.0 11 -0.012001361697912216
-0.9921658039093018 2.2548696994781494 -0.30247974395751953 1.0 4 -0.011999057605862617
-2.8279495239257812 6.430043697357178 1.1125620603561401 65.0 12 -0.011996753513813019
-1.0130654573440552 2.303455352783203 -0.22015538811683655 1.0 5 -0.01199444942176342
-2.8181705474853516 6.410844326019287 1.3612314462661743 100.0 13 -0.011992145329713821
-0.9601011276245117 2.1850996017456055 -0.12508295476436615 1.0 6 -0.011989841237664223
-2.818622589111328 6.417952537536621 1.6182979345321655 100.0 14 -0.011987537145614624
-2.758551597595215 6.28415060043335 -0.11979331821203232 1.0 7 -0.011985233053565025
-2.8090479373931885 6.402228355407715 1.8733323812484741 46.0 15 -0.011982928961515427
-1.3475923538208008 3.0815811157226562 -0.9012079238891602 5.0 0 -0.011962193064391613
-0.9162248969078064 2.096158981323242 0.03993110731244087 1.0 8 -0.011959888972342014
-1.5221236944198608 3.484004020690918 -0.8777590990066528 3.0 1 -0.01195758581161499
-0.8880023956298828 2.033522129058838 0.11629050970077515 9.0 9 -0.011955281719565392
-0.9467368721961975 2.1680238246917725 -0.45984968543052673 1.0 2 -0.011952977627515793
-0.8982345461845398 2.0579357147216797 0.19644904136657715 1.0 10 -0.011950673535466194
-1.0079025030136108 2.3102943897247314 -0.3992207944393158 2.0 3 -0.011948369443416595
-2.799325704574585 6.419615745544434 0.8599101305007935 63.0 11 -0.011946065351366997
-0.9953933358192444 2.2837958335876465 -0.30589208006858826 1.0 4 -0.011943761259317398
-2.803907632827759 6.436254501342773 1.111936330795288 65.0 12 -0.0119414571672678
-0.9843290448188782 2.2594869136810303 -0.21562331914901733 1.0 5 -0.0119391530752182
-2.794205904006958 6.417043209075928 1.3604681491851807 100.0 13 -0.011936848983168602
-0.9588446617126465 2.2030882835388184 -0.12592032551765442 1.0 6 -0.011934545822441578
-2.791536569595337 6.417031288146973 1.6155985593795776 100.0 14 -0.01193224173039198
-0.9281466007232666 2.1345908641815186 -0.040629200637340546 1.0 7 -0.01192993763834238
-2.786684274673462 6.411993980407715 1.8733323812484741 46.0 15 -0.011927633546292782
-1.3314517736434937 3.0738580226898193 -0.8975844979286194 5.0 0 -0.011906897649168968
-0.9057248830795288 2.09200382232666 0.03979148715734482 1.0 8 -0.01190459355711937
-1.5122755765914917 3.4946610927581787 -0.8791087865829468 4.0 1 -0.01190228946506977
-0.8824838399887085 2.040275812149048 0.11649984866380692 3.0 9 -0.011899985373020172
-0.9344863295555115 2.160504102706909 -0.4575599730014801 1.0 2 -0.011897681280970573
-0.8942084908485413 2.068373441696167 0.19714628159999847 1.0 10 -0.011895377188920975
-1.0068845748901367 2.330118179321289 -0.4020366370677948 2.0 3 -0.011893073096871376
-2.7769012451171875 6.429347515106201 0.8599101305007935 61.0 11 -0.011890769004821777
-0.9764007925987244 2.2617409229278564 -0.30247974395751953 1.0 4 -0.011888465844094753
-2.7751643657684326 6.431492328643799 1.1094334125518799 69.0 12 -0.011886161752045155
-0.981172502040863 2.2738845348358154 -0.21666917204856873 1.0 5 -0.011883857659995556
-2.7717905044555664 6.426756858825684 1.3604681491851807 100.0 13 -0.011881553567945957
-0.9543116092681885 2.2137577533721924 -0.12633900344371796 1.0 6 -0.011879249475896358
-2.7644948959350586 6.4159979820251465 1.6128991842269897 100.0 14 -0.01187694538384676
-0.9380917549133301 2.178223133087158 -0.041397109627723694 1.0 7 -0.011874641291797161
-2.7612311840057373 6.414584159851074 1.8712618350982666 46.0 15 -0.011872337199747562
-1.3191897869110107 3.074936628341675 -0.8965492248535156 5.0 0 -0.011851601302623749
-0.9062981605529785 2.1135311126708984 0.040140535682439804 1.0 8 -0.01184929721057415
-1.5077452659606934 3.5178298950195312 -0.883607804775238 5.0 1 -0.011846993118524551
-0.8792884945869446 2.052523612976074 0.11702320724725723 2.0 9 -0.011844689026474953
-0.9176614880561829 2.1420977115631104 -0.45298057794570923 1.0 2 -0.011842385865747929
-0.8791401386260986 2.0531671047210693 0.19540317356586456 1.0 10 -0.01184008177369833
-0.9730954766273499 2.2736895084381104 -0.391711950302124 2.0 3 -0.011837777681648731
-2.749755620956421 6.428051948547363 0.8584477305412292 67.0 11 -0.011835473589599133
-0.9684992432594299 2.2651355266571045 -0.30247974395751953 1.0 4 -0.011833169497549534
-2.7480380535125732 6.43024206161499 1.1075561046600342 69.0 12 -0.011830865405499935
-0.9732286334037781 2.2772960662841797 -0.21666917204856873 1.0 5 -0.011828561313450336
-2.7493386268615723 6.436394214630127 1.3604681491851807 100.0 13 -0.011826257221400738
-0.9512832164764404 2.2280969619750977 -0.12696704268455505 1.0 6 -0.011823953129351139
-2.739785671234131 6.420232772827148 1.6115494966506958 100.0 14 -0.01182164903730154
-2.6941611766815186 6.316372871398926 -0.1198631301522255 1.0 7 -0.011819345876574516
-2.732760429382324 6.409967422485352 1.867120623588562 47.0 15 -0.011817041784524918
-1.3107151985168457 3.0848565101623535 -0.8981021642684937 5.0 0 -0.01179630495607853
-0.886407732963562 2.0872323513031006 0.039582058787345886 2.0 8 -0.011794001795351505
-1.496217131614685 3.5248656272888184 -0.8840577006340027 3.0 1 -0.011791697703301907
-0.8650982975959778 2.0390326976776123 0.11608116328716278 2.0 9 -0.011789393611252308
-0.9209140539169312 2.1705901622772217 -0.45832324028015137 1.0 2 -0.01178708951920271
-0.8704125285148621 2.0525546073913574 0.1950545459985733 1.0 10 -0.01178478542715311
-0.9744040369987488 2.2988970279693604 -0.3954663872718811 2.0 3 -0.011782481335103512
-2.7242045402526855 6.430299282073975 0.8574727773666382 67.0 11 -0.011780177243053913
-0.9435581564903259 2.2282872200012207 -0.2971175014972687 1.0 4 -0.011777873151004314
-2.726346492767334 6.441613674163818 1.107869029045105 67.0 12 -0.011775569058954716
-0.9559550881385803 2.2586612701416016 -0.21457743644714355 1.0 5 -0.011773264966905117
-2.7207367420196533 6.431486129760742 1.3574153184890747 100.0 13 -0.011770961806178093
-0.9341665506362915 2.209329128265381 -0.12571097910404205 1.0 6 -0.011768657714128494
-2.7158422470092773 6.426166534423828 1.6106497049331665 100.0 14 -0.011766353622078896
-2.664316415786743 6.307316780090332 -0.1195140853524208 1.0 7 -0.011764049530029297
-2.7043590545654297 6.405229091644287 1.862979531288147 47.0 15 -0.011761745437979698
-1.3051843643188477 3.101876974105835 -0.9017255902290344 5.0 0 -0.011741009540855885
-0.8775665760040283 2.0866270065307617 0.03951225057244301 2.0 8 -0.011738705448806286
-1.4755961894989014 3.5103061199188232 -0.8791087865829468 3.0 1 -0.011736401356756687
-0.8633914589881897 2.054929256439209 0.11681386828422546 2.0 9 -0.011734097264707088
-0.9087693095207214 2.162931442260742 -0.45603352785110474 2.0 2 -0.01173179317265749
-0.863241970539093 2.0555806159973145 0.1950545459985733 1.0 10 -0.011729489080607891
-0.9587274789810181 2.2840704917907715 -0.3923376798629761 2.0 3 -0.011727184988558292
-2.6971356868743896 6.428785800933838 0.8560103178024292 63.0 11 -0.011724881827831268
-0.9373089075088501 2.2352287769317627 -0.2976049780845642 1.0 4 -0.01172257773578167
-2.7030794620513916 6.449270725250244 1.1075561046600342 69.0 12 -0.011720273643732071
-0.9727095365524292 2.3207852840423584 -0.22015538811683655 1.0 5 -0.011717969551682472
-2.6937198638916016 6.430078506469727 1.3551255464553833 100.0 13 -0.011715665459632874
-2.5787813663482666 6.1587371826171875 -0.3499182462692261 1.0 6 -0.011713361367583275
-2.6926400661468506 6.433810234069824 1.6101998090744019 100.0 14 -0.011711057275533676
-2.642284870147705 6.316577911376953 -0.1195140853524208 1.0 7 -0.011708753183484077
-2.6804919242858887 6.411066055297852 1.861944317817688 47.0 15 -0.011706449091434479
-1.2936049699783325 3.104631185531616 -0.9012079238891602 5.0 0 -0.011685713194310665
-0.8748896718025208 2.1007537841796875 0.03972167521715164 2.0 8 -0.011683409102261066
-1.4678280353546143 3.5262296199798584 -0.8818081617355347 1.0 1 -0.011681105010211468
-0.8531438112258911 2.0505547523498535 0.11639518290758133 2.0 9 -0.011678801849484444
-0.9012131690979004 2.166090726852417 -0.45603352785110474 2.0 2 -0.011676497757434845
-0.8591219186782837 2.0659399032592773 0.19575178623199463 1.0 10 -0.011674193665385246
-0.962121844291687 2.3147640228271484 -0.39703071117401123 2.0 3 -0.011671889573335648
-2.6731536388397217 6.434495449066162 0.855522871017456 67.0 11 -0.011669585481286049
-0.9279787540435791 2.2348201274871826 -0.2971175014972687 1.0 4 -0.01166728138923645
-2.679037570953369 6.45501708984375 1.1069303750991821 69.0 12 -0.011664977297186852
-0.9443486332893372 2.276486396789551 -0.21562331914901733 1.0 5 -0.011662673205137253
-2.668247699737549 6.43218994140625 1.3535990715026855 100.0 13 -0.011660369113087654
-2.551149368286133 6.152941703796387 -0.3490808606147766 1.0 6 -0.011658065021038055
-2.6649444103240967 6.430568218231201 1.6070505380630493 100.0 14 -0.011655761860311031
-2.62634015083313 6.340543746948242 -0.11979331821203232 1.0 7 -0.011653457768261433
-2.658097982406616 6.420382976531982 1.861944317817688 47.0 15 -0.011651153676211834
-1.2814815044403076 3.1075656414031982 -0.9006903171539307 6.0 0 -0.01163041777908802
-0.8637401461601257 2.0945515632629395 0.0395471528172493 2.0 8 -0.011628113687038422
-1.4673926830291748 3.5601589679718018 -0.8890066146850586 1.0 1 -0.011625809594988823
-0.8444586992263794 2.0498268604278564 0.11618582904338837 2.0 9 -0.011623505502939224
-0.8932684659957886 2.1693789958953857 -0.45603352785110474 4.0 2 -0.011621201410889626
-0.845478355884552 2.054334878921509 0.19435729086399078 1.0 10 -0.011618897318840027
-0.9573880434036255 2.327409267425537 -0.39859506487846375 2.0 3 -0.011616593226790428
-2.6491646766662598 6.4401164054870605 0.8550353646278381 67.0 11 -0.01161428913474083
-0.9171531200408936 2.2307016849517822 -0.2961425185203552 1.0 4 -0.01161198504269123
-2.649732828140259 6.447885036468506 1.1041146516799927 67.0 12 -0.011609680950641632
-0.9242839217185974 2.2502810955047607 -0.21283432841300964 1.0 5 -0.011607377789914608
-2.6461472511291504 6.445558071136475 1.3543623685836792 100.0 13 -0.01160507369786501
-0.910592794418335 2.219149112701416 -0.12571097910404205 1.0 6 -0.01160276960581541
-2.636918783187866 6.429474830627441 1.6043510437011719 100.0 14 -0.011600465513765812
-0.8893095850944519 2.1683616638183594 -0.040908440947532654 1.0 7 -0.011598161421716213
-2.634206771850586 6.426047325134277 1.860909104347229 47.0 15 -0.011595857329666615
-1.2698951959609985 3.110231399536133 -0.9001726508140564 5.0 0 -0.011575121432542801
-0.8537901043891907 2.092148780822754 0.03944243863224983 2.0 8 -0.011572817340493202
-1.4521253108978271 3.5601003170013428 -0.8876569271087646 3.0 1 -0.011570513248443604
-0.8342815041542053 2.0453646183013916 0.11576715111732483 2.0 9 -0.011568209156394005
-0.8782782554626465 2.1543045043945312 -0.45221734046936035 4.0 2 -0.011565905064344406
-0.8443164229393005 2.0720348358154297 0.19575178623199463 1.0 10 -0.011563600972294807
-0.94925856590271 2.3307368755340576 -0.39859506487846375 2.0 3 -0.011561297811567783
-2.6262924671173096 6.451620578765869 0.8552790880203247 69.0 11 -0.011558993719518185
-0.9134592413902283 2.2450809478759766 -0.2976049780845642 1.0 4 -0.011556689627468586
-2.6234853267669678 6.447946548461914 1.1025502681732178 65.0 12 -0.011554385535418987
-0.9164237976074219 2.2534937858581543 -0.21283432841300964 1.0 5 -0.011552081443369389
-2.6221516132354736 6.451118469238281 1.3535990715026855 97.0 13 -0.01154977735131979
-2.5175788402557373 6.196944713592529 -0.350546270608902 1.0 6 -0.011547473259270191
-2.615194082260132 6.4404449462890625 1.6048009395599365 100.0 14 -0.011545169167220592
-2.5684688091278076 6.325374126434326 -0.11916503310203552 1.0 7 -0.011542865075170994
-2.607398509979248 6.424463272094727 1.857803225517273 47.0 15 -0.011540560983121395
-0.8363561034202576 2.0690131187438965 0.03895376995205879 2.0 8 -0.011517520993947983
-1.438122272491455 3.5594756603240967 -0.8863072395324707 3.0 1 -0.011515217833220959
-0.8465816378593445 2.0964150428771973 0.1184886172413826 1.0 9 -0.01151291374117136
-0.8788363337516785 2.177382707595825 -0.4564151465892792 4.0 2 -0.011510609649121761
-0.8281342387199402 2.0527968406677246 0.19366006553173065 1.0 10 -0.011508305557072163
-0.9356126189231873 2.31921648979187 -0.39609211683273315 2.0 3 -0.011506001465022564
-2.6078543663024902 6.467658042907715 0.8562541007995605 78.0 11 -0.011503697372972965
-0.8941373229026794 2.2186381816864014 -0.29370513558387756 1.0 4 -0.011501393280923367
-2.6009631156921387 6.457064628601074 1.1025502681732178 69.0 12 -0.011499089188873768
-0.9085525274276733 2.256678581237793 -0.21283432841300964 1.0 5 -0.01149678509682417
-2.5948801040649414 6.445208549499512 1.3505462408065796 100.0 13 -0.01149448100477457
-0.8865180611610413 2.203061580657959 -0.12445490807294846 1.0 6 -0.011492177844047546
-2.5938239097595215 6.4490814208984375 1.6048009395599365 100.0 14 -0.011489873751997948
-2.532949447631836 6.300903797149658 -0.11853674799203873 1.0 7 -0.011487569659948349
-2.5777530670166016 6.415600299835205 1.8526268005371094 47.0 15 -0.01148526556789875
-0.8343299031257629 2.0849156379699707 0.03919810429215431 3.0 8 -0.011462225578725338
-0.8333268761634827 2.0845212936401367 0.11765124648809433 1.0 9 -0.01145761739462614
-0.8708816766738892 2.178462505340576 -0.45603352785110474 5.0 2 -0.011455313302576542
-0.8272358179092407 2.0703330039978027 0.1950545459985733 1.0 10 -0.011453009210526943
-0.9253128170967102 2.316965103149414 -0.3951534926891327 2.0 3 -0.011450705118477345
-2.576429605484009 6.454598903656006 0.8533292412757874 76.0 11 -0.011448401026427746
-0.8952138423919678 2.2438714504241943 -0.29662999510765076 1.0 4 -0.011446097865700722
-2.5747478008270264 6.456930160522461 1.1009858846664429 67.0 12 -0.011443793773651123
-0.9010635018348694 2.2596793174743652 -0.21283432841300964 1.0 5 -0.011441489681601524
-2.566549777984619 6.439637660980225 1.3474931716918945 95.0 13 -0.011439185589551926
-0.8862142562866211 2.2246971130371094 -0.1255016326904297 1.0 6 -0.011436881497502327
-2.566969633102417 6.4472336769104 1.602101445198059 100.0 14 -0.011434577405452728
-2.51833176612854 6.328287124633789 -0.11888579279184341 1.0 7 -0.01143227331340313
-2.5553441047668457 6.424559116363525 1.8526268005371094 48.0 15 -0.011429969221353531
-0.9658979773521423 2.4370932579040527 -0.7024349570274353 1.0 0 -0.011409233324229717
-0.8241006731987 2.080379009246826 0.039058487862348557 3.0 8 -0.011406929232180119
-0.8172269463539124 2.065131664276123 0.11639518290758133 1.0 9 -0.011402321048080921
-0.8625501990318298 2.1796634197235107 -0.4556518793106079 5.0 2 -0.011400017887353897
-0.8170731663703918 2.0657968521118164 0.19435729086399078 1.0 10 -0.011397713795304298
-0.9063266515731812 2.2926251888275146 -0.39046046137809753 2.0 3 -0.0113954097032547
-2.5495076179504395 6.452475070953369 0.8518667817115784 82.0 11 -0.011393105611205101
-0.880084753036499 2.2285189628601074 -0.2941926121711731 2.0 4 -0.011390801519155502
-2.552194356918335 6.465878009796143 1.1009858846664429 67.0 12 -0.011388497427105904
-2.45859694480896 6.228752613067627 -0.5858608484268188 1.0 5 -0.011386193335056305
-2.5440568923950195 6.448556900024414 1.3474931716918945 100.0 13 -0.011383889243006706
-0.879909098148346 2.2314932346343994 -0.12571097910404205 1.0 6 -0.011381585150957108
-2.5430214405059814 6.452528476715088 1.6012017726898193 100.0 14 -0.011379281058907509
-2.497690439224243 6.340761184692383 -0.11895560473203659 1.0 7 -0.01137697696685791
-2.53361177444458 6.43523645401001 1.8531444072723389 47.0 15 -0.011374673806130886
-0.9517403244972229 2.426063060760498 -0.6982938051223755 22.0 0 -0.011353936977684498
-0.8153733015060425 2.0795199871063232 0.03898867964744568 3.0 8 -0.011351633816957474
-0.9478306174278259 2.4185760021209717 -0.5997195243835449 11.0 1 -0.011349329724907875
-0.8060020804405212 2.0566728115081787 0.11576715111732483 2.0 9 -0.011347025632858276
-0.8527878522872925 2.1771771907806396 -0.45450708270072937 6.0 2 -0.011344721540808678
-0.8069514632225037 2.06121563911438 0.19366006553173065 1.0 10 -0.011342417448759079
-0.9076762795448303 2.3196887969970703 -0.39452776312828064 1.0 3 -0.01134011335670948
-2.5255210399627686 6.457638740539551 0.8513793349266052 88.0 11 -0.011337809264659882
-0.8737452626228333 2.2352757453918457 -0.294680118560791 2.0 4 -0.011335505172610283
-2.5249836444854736 6.459588050842285 1.0984829664230347 67.0 12 -0.011333201080560684
-2.436840772628784 6.237296104431152 -0.5858608484268188 1.0 5 -0.011330896988511086
-2.5215299129486084 6.457398414611816 1.3474931716918945 100.0 13 -0.011328593827784061
-0.867756724357605 2.2233877182006836 -0.12508295476436615 1.0 6 -0.011326289735734463
-2.513401746749878 6.443210124969482 1.5967026948928833 100.0 14 -0.011323985643684864
-2.4810147285461426 6.360185146331787 -0.11916503310203552 1.0 7 -0.011321681551635265
-2.510852336883545 6.440003871917725 1.8521090745925903 48.0 15 -0.011319377459585667
-0.9558526873588562 2.4617857933044434 -0.7076113224029541 1.0 0 -0.011298641562461853
-0.8128159642219543 2.0933966636657715 0.03919810429215431 4.0 8 -0.011296337470412254
-0.9412144422531128 2.425339698791504 -0.6006193161010742 3.0 1 -0.011294033378362656
-0.798095166683197 2.0576117038726807 0.11566247045993805 2.0 9 -0.011291729286313057
-0.8451833724975586 2.180140733718872 -0.45450708270072937 8.0 2 -0.011289425194263458
-0.8019115328788757 2.0695931911468506 0.19418299198150635 2.0 10 -0.01128712110221386
-0.9156798124313354 2.3632090091705322 -0.40141090750694275 2.0 3 -0.01128481701016426
-2.5055277347564697 6.469679832458496 0.8518667817115784 88.0 11 -0.011282512918114662
-0.8605959415435791 2.2233505249023438 -0.2927301824092865 2.0 4 -0.011280209757387638
-2.499570846557617 6.46099328994751 1.0972315073013306 67.0 12 -0.01127790566533804
-0.8888484835624695 2.2987241744995117 -0.21562331914901733 1.0 5 -0.01127560157328844
-2.498687982559204 6.462062358856201 1.3467299938201904 100.0 13 -0.011273297481238842
-0.8517396450042725 2.20389723777771 -0.12382689118385315 1.0 6 -0.011270993389189243
-2.4920196533203125 6.451510429382324 1.5967026948928833 100.0 14 -0.011268689297139645
-2.4285480976104736 6.290456771850586 -0.117699034512043 1.0 7 -0.011266385205090046
-2.4841859340667725 6.437915325164795 1.8490034341812134 48.0 15 -0.011264081113040447
-0.9407505989074707 2.4469106197357178 -0.7024349570274353 1.0 0 -0.011243345215916634
-0.8119598031044006 2.113020896911621 0.03951225057244301 7.0 8 -0.011241041123867035
-0.797349214553833 2.07716703414917 0.1166045218706131 2.0 9 -0.011236432939767838
-0.8344306349754333 2.173767566680908 -0.4525989890098572 9.0 2 -0.011234129779040813
-0.7957581281661987 2.074100971221924 0.19435729086399078 1.0 10 -0.011231825686991215
-0.908132791519165 2.3682351112365723 -0.4017237424850464 2.0 3 -0.011229521594941616
-2.4786651134490967 6.4672651290893555 0.8504043221473694 84.0 11 -0.011227217502892017
-0.8613514304161072 2.2485857009887695 -0.2956550419330597 3.0 4 -0.011224913410842419
-2.477003812789917 6.4696784019470215 1.0972315073013306 67.0 12 -0.01122260931879282
-0.8812211751937866 2.301658868789673 -0.21562331914901733 1.0 5 -0.011220305226743221
-2.4705007076263428 6.456076622009277 1.343677043914795 100.0 13 -0.011218001134693623
-0.8583113551139832 2.244166374206543 -0.12592032551765442 1.0 6 -0.011215697042644024
-2.469482660293579 6.460170745849609 1.5967026948928833 100.0 14 -0.011213393881917
-2.4051461219787598 6.295159816741943 -0.11762922257184982 1.0 7 -0.011211089789867401
-2.457561731338501 6.4357194900512695 1.8458975553512573 48.0 15 -0.011208785697817802
-1.202179193496704 3.1597743034362793 -0.9058667421340942 4.0 0 -0.011188049800693989
-0.8003138899803162 2.104627847671509 0.03930281847715378 8.0 8 -0.01118574570864439
-0.7886756658554077 2.0762031078338623 0.11639518290758133 2.0 9 -0.011181137524545193
-0.8289295434951782 2.1821722984313965 -0.4537437856197357 11.0 2 -0.011178833432495594
-0.7856841087341309 2.069415807723999 0.19366006553173065 1.0 10 -0.011176529340445995
-0.8942533731460571 2.3566160202026367 -0.3992207944393158 2.0 3 -0.011174225248396397
-2.4504446983337402 6.461029052734375 0.848454475402832 82.0 11 -0.011171921156346798
-0.8534965515136719 2.2515790462493896 -0.2956550419330597 3.0 4 -0.0111696170642972
-2.4544036388397217 6.478286266326904 1.0972315073013306 67.0 12 -0.011167313903570175
-0.8774161338806152 2.3158998489379883 -0.21666917204856873 1.0 5 -0.011165009811520576
-2.4451704025268555 6.4573163986206055 1.3421505689620972 97.0 13 -0.011162705719470978
-0.844816267490387 2.232205390930176 -0.12508295476436615 1.0 6 -0.011160401627421379
-2.4462294578552246 6.466928005218506 1.5962527990341187 100.0 14 -0.01115809753537178
-0.8231444358825684 2.1772384643554688 -0.040629200637340546 1.0 7 -0.011155793443322182
-2.4337174892425537 6.440643787384033 1.8448622226715088 47.0 15 -0.011153489351272583
-1.193184733390808 3.169374942779541 -0.9074196219444275 5.0 0 -0.01113275345414877
-0.7957797646522522 2.114894390106201 0.03944243863224983 8.0 8 -0.01113044936209917
-1.3554702997207642 3.604257583618164 -0.8890066146850586 1.0 1 -0.011128145270049572
-0.7793157696723938 2.0733346939086914 0.11608116328716278 2.0 9 -0.011125841177999973
-0.8240708708763123 2.192403554916382 -0.45527029037475586 14.0 2 -0.011123537085950375
-0.7784561514854431 2.072145462036133 0.19366006553173065 1.0 10 -0.011121232993900776
-0.8756065964698792 2.3319830894470215 -0.39452776312828064 1.0 3 -0.011118929833173752
-2.4250881671905518 6.462108612060547 0.847479522228241 86.0 11 -0.011116625741124153
-0.8428438305854797 2.247109889984131 -0.294680118560791 3.0 4 -0.011114321649074554
-2.428999900817871 6.4794158935546875 1.0959800481796265 67.0 12 -0.011112017557024956
-0.8539398908615112 2.277905225753784 -0.21283432841300964 1.0 5 -0.011109713464975357
-2.421238660812378 6.462134838104248 1.3413872718811035 100.0 13 -0.011107409372925758
-0.8230100274085999 2.19773268699646 -0.12298951297998428 1.0 6 -0.01110510528087616
-2.4181742668151855 6.460827827453613 1.5926536321640015 100.0 14 -0.011102801188826561
-0.8015272617340088 2.142639636993408 -0.03993110731244087 1.0 7 -0.011100497096776962
