# .PCD v0.7 - Point Cloud Data file format
VERSION 0.7
FIELDS x y z intensity ring time
SIZE 4 4 4 4 4 4
TYPE F F F F F F
COUNT 1 1 1 1 1 1
WIDTH 537
HEIGHT 1
VIEWPOINT 0 0 0 1 0 0 0
POINTS 537
DATA ascii
1.8176624774932861 0.11818046867847443 0.09546079486608505 88.0 9 -0.03821998089551926
3.1169917583465576 0.2021137923002243 -0.6071542501449585 92.0 2 -0.03821767866611481
1.8271894454956055 0.1181594505906105 0.16019225120544434 95.0 10 -0.03821537271142006
1.7780959606170654 0.11467309296131134 -0.28220781683921814 100.0 3 -0.03821307048201561
3.607358932495117 0.23264604806900024 0.443848192691803 93.0 11 -0.03821076452732086
1.78488028049469 0.11479783803224564 -0.21960857510566711 99.0 4 -0.03820846229791641
3.6055548191070557 0.23126600682735443 0.5722373723983765 100.0 12 -0.03820616006851196
1.785516619682312 0.11421298235654831 -0.15653172135353088 91.0 5 -0.038203854113817215
3.626612663269043 0.23134392499923706 0.7063749432563782 99.0 13 -0.038201551884412766
1.813839077949524 0.11538897454738617 -0.09525144845247269 100.0 6 -0.03819924592971802
3.642667531967163 0.23109321296215057 0.842666745185852 100.0 14 -0.03819694370031357
1.7921239137649536 0.11369351297616959 -0.031344521790742874 100.0 7 -0.03819463774561882
3.6188507080078125 0.22894643247127533 0.9716067314147949 122.0 15 -0.03819233551621437
3.1120593547821045 0.19252227246761322 -0.8354679346084595 49.0 0 -0.03817159682512283
1.7903236150741577 0.11044169217348099 0.031309615820646286 97.0 8 -0.038169294595718384
3.1023764610290527 0.1908377707004547 -0.7175939083099365 74.0 1 -0.038166988641023636
1.828050971031189 0.11212854087352753 0.09598415344953537 92.0 9 -0.038164686411619186
3.1235573291778564 0.19159197807312012 -0.6082991361618042 84.0 2 -0.03816238045692444
1.8275907039642334 0.11178015917539597 0.16019225120544434 95.0 10 -0.03816007822751999
1.7686266899108887 0.10786480456590652 -0.2806434631347656 100.0 3 -0.03815777599811554
3.596299171447754 0.21869897842407227 0.442385733127594 93.0 11 -0.03815547004342079
1.7872705459594727 0.10837484896183014 -0.21985231339931488 100.0 4 -0.03815316781401634
3.6103219985961914 0.21828866004943848 0.5728631019592285 100.0 12 -0.038150861859321594
1.793859601020813 0.10846102237701416 -0.1572289615869522 91.0 5 -0.038148559629917145
3.6195595264434814 0.21821145713329315 0.7048484683036804 100.0 13 -0.0381462536752224
1.8062561750411987 0.1085769385099411 -0.09483276307582855 100.0 6 -0.03814395144581795
3.6531782150268555 0.218960240483284 0.8449162244796753 97.0 14 -0.0381416454911232
1.7925286293029785 0.10712382197380066 -0.031344521790742874 100.0 7 -0.03813934326171875
3.625450849533081 0.2160266488790512 0.973159670829773 121.0 15 -0.038137037307024
1.7986834049224854 0.1046566292643547 0.03144923597574234 97.0 8 -0.038113996386528015
3.10691499710083 0.1802321970462799 -0.7184937596321106 68.0 1 -0.038111694157123566
1.8144736289978027 0.10493992269039154 0.09525144845247269 88.0 9 -0.038109391927719116
3.1183269023895264 0.18034815788269043 -0.6071542501449585 87.0 2 -0.03810708597302437
1.8299587965011597 0.10551506280899048 0.16036656498908997 100.0 10 -0.03810478374361992
1.778853178024292 0.10225684940814972 -0.28220781683921814 100.0 3 -0.03810247778892517
3.593076705932617 0.2059178203344345 0.44189828634262085 96.0 11 -0.03810017555952072
1.77772855758667 0.10156966000795364 -0.21863360702991486 99.0 4 -0.038097869604825974
3.6110618114471436 0.20568399131298065 0.5728631019592285 100.0 12 -0.038095567375421524
1.7942272424697876 0.10219814628362656 -0.1572289615869522 93.0 5 -0.038093261420726776
3.6202991008758545 0.20557627081871033 0.7048484683036804 100.0 13 -0.03809095919132233
1.8006421327590942 0.10193300247192383 -0.0945187509059906 96.0 6 -0.03808865323662758
3.6422462463378906 0.20554715394973755 0.8422167897224426 100.0 14 -0.03808635100722313
1.800877571105957 0.10131574422121048 -0.03148414194583893 100.0 7 -0.03808404505252838
3.6377553939819336 0.2040199637413025 0.9762654304504395 122.0 15 -0.03808174282312393
2.328244209289551 0.12772423028945923 -0.6247891783714294 1.0 0 -0.03806100785732269
1.7990378141403198 0.09837692975997925 0.03144923597574234 99.0 8 -0.038058701902627945
1.8108232021331787 0.09870442003011703 0.09504210948944092 82.0 9 -0.03805409371852875
3.113056182861328 0.1691431701183319 -0.6060094237327576 79.0 2 -0.0380517914891243
1.8422528505325317 0.09977266937494278 0.16141243278980255 100.0 10 -0.03804948553442955
1.7831443548202515 0.09625935554504395 -0.2828335464000702 100.0 3 -0.0380471833050251
3.59377384185791 0.1933751404285431 0.44189828634262085 93.0 11 -0.03804487735033035
1.772109031677246 0.09535431861877441 -0.21790240705013275 100.0 4 -0.0380425751209259
3.6038341522216797 0.19328399002552032 0.5716116428375244 100.0 12 -0.038040269166231155
1.7945730686187744 0.09593402594327927 -0.1572289615869522 96.0 5 -0.038037966936826706
3.6366782188415527 0.1937742680311203 0.7079014182090759 99.0 13 -0.03803566098213196
1.8129535913467407 0.0962820053100586 -0.0951467752456665 100.0 6 -0.03803335875272751
3.6448540687561035 0.19357024133205414 0.842666745185852 100.0 14 -0.03803105279803276
1.7932162284851074 0.09491996467113495 -0.031344521790742874 100.0 7 -0.03802875056862831
3.64227032661438 0.19215989112854004 0.977300763130188 121.0 15 -0.03802644461393356
2.297786235809326 0.11841139942407608 -0.6165069937705994 1.0 0 -0.038005709648132324
1.8153308629989624 0.0932314470410347 0.03172847628593445 97.0 8 -0.038003407418727875
2.3393235206604004 0.11973436921834946 -0.5407823324203491 3.0 1 -0.03800110146403313
1.8191190958023071 0.09310857206583023 0.09546079486608505 84.0 9 -0.03799879923462868
1.828644871711731 0.09295531362295151 0.16019225120544434 95.0 10 -0.03799419105052948
1.7873992919921875 0.09054594486951828 -0.28345927596092224 100.0 3 -0.03799188509583473
3.606290578842163 0.18205620348453522 0.44336071610450745 93.0 11 -0.03798958286643028
1.7783631086349487 0.08977703005075455 -0.21863360702991486 99.0 4 -0.037987276911735535
3.6044552326202393 0.18133290112018585 0.5716116428375244 100.0 12 -0.037984974682331085
1.7869216203689575 0.08958379924297333 -0.15653172135353088 93.0 5 -0.03798266872763634
3.6333792209625244 0.1815166026353836 0.707138180732727 99.0 13 -0.03798036649823189
1.8092734813690186 0.09007126092910767 -0.09493743628263474 95.0 6 -0.03797806054353714
3.641583204269409 0.18128933012485504 0.841766893863678 100.0 14 -0.03797575831413269
1.7895265817642212 0.08877512067556381 -0.031274713575839996 100.0 7 -0.03797345608472824
3.6313109397888184 0.17950735986232758 0.9741949439048767 121.0 15 -0.03797115013003349
2.294306993484497 0.11060542613267899 -0.6154717206954956 1.0 0 -0.037950415164232254
1.7996506690979004 0.08644305169582367 0.03144923597574234 99.0 8 -0.037948109209537506
2.3436009883880615 0.11216191202402115 -0.5416821837425232 3.0 1 -0.03794580698013306
1.8194329738616943 0.0867576077580452 0.09546079486608505 90.0 9 -0.03794350102543831
2.3493094444274902 0.11202416568994522 -0.45717838406562805 2.0 2 -0.03794119879603386
1.8269529342651367 0.08679574728012085 0.1600179374217987 100.0 10 -0.03793889284133911
1.7778240442276 0.08415158838033676 -0.2818949222564697 100.0 3 -0.03793659061193466
3.610840082168579 0.17028406262397766 0.443848192691803 97.0 11 -0.037934284657239914
1.7826316356658936 0.08375470340251923 -0.21912109851837158 99.0 4 -0.037931982427835464
3.6129589080810547 0.16912011802196503 0.5728631019592285 100.0 12 -0.03792967647314072
1.787208914756775 0.08365801721811295 -0.15653172135353088 91.0 5 -0.03792737424373627
3.6300387382507324 0.16928470134735107 0.7063749432563782 99.0 13 -0.03792507201433182
1.827518105506897 0.08490471541881561 -0.09587948024272919 100.0 6 -0.03792276605963707
3.6499805450439453 0.16893617808818817 0.8435665369033813 94.0 14 -0.03792046383023262
1.7958182096481323 0.08280466496944427 -0.03137942776083946 100.0 7 -0.03791815787553787
3.6261258125305176 0.1665637195110321 0.9726420044898987 120.0 15 -0.03791585564613342
2.3081886768341064 0.10319952666759491 -0.6190952062606812 3.0 0 -0.037895116955041885
1.7919505834579468 0.07980592548847198 0.031309615820646286 94.0 8 -0.037892814725637436
2.301147937774658 0.10207993537187576 -0.5317842960357666 17.0 1 -0.03789050877094269
1.825710654258728 0.0806700736284256 0.095774807035923 95.0 9 -0.03788820654153824
2.33203387260437 0.10304225981235504 -0.4537437856197357 4.0 2 -0.03788590058684349
1.8312256336212158 0.08059442043304443 0.16036656498908997 100.0 10 -0.03788359835743904
1.778106927871704 0.07794483751058578 -0.2818949222564697 100.0 3 -0.03788129240274429
3.6074461936950684 0.15750470757484436 0.44336071610450745 93.0 11 -0.037878990173339844
1.7908458709716797 0.07787783443927765 -0.22009605169296265 99.0 4 -0.037876687943935394
3.6095800399780273 0.15633557736873627 0.5722373723983765 100.0 12 -0.037874381989240646
1.791471004486084 0.0775909274816513 -0.15688033401966095 93.0 5 -0.0378720797598362
3.6227622032165527 0.15627308189868927 0.7048484683036804 99.0 13 -0.03786977380514145
1.8018628358840942 0.07741177082061768 -0.0945187509059906 95.0 6 -0.037867471575737
3.656388998031616 0.15644501149654388 0.8449162244796753 97.0 14 -0.03786516562104225
1.800092101097107 0.07670537382364273 -0.03144923597574234 100.0 7 -0.0378628633916378
3.6344058513641357 0.15423528850078583 0.974712610244751 120.0 15 -0.037860557436943054
2.316255807876587 0.09546050429344177 -0.6211657524108887 51.0 0 -0.037839822471141815
1.8042064905166626 0.07404185831546783 0.031519047915935516 94.0 8 -0.03783751651644707
2.2722835540771484 0.09285271912813187 -0.5250357985496521 32.0 1 -0.03783521428704262
1.819994330406189 0.07405345141887665 0.09546079486608505 88.0 9 -0.03783290833234787
2.2735304832458496 0.09250731021165848 -0.44229528307914734 26.0 2 -0.03783060610294342
1.83945894241333 0.07452388852834702 0.1610638052225113 98.0 10 -0.03782830387353897
1.786263346672058 0.07205561548471451 -0.2831464111804962 100.0 3 -0.03782599791884422
3.6040070056915283 0.14475283026695251 0.4428732097148895 96.0 11 -0.037823695689439774
1.7811893224716187 0.07122907787561417 -0.21887736022472382 94.0 4 -0.037821389734745026
3.6179990768432617 0.14404822885990143 0.5734888315200806 100.0 12 -0.037819087505340576
1.7997066974639893 0.0713404044508934 -0.15757757425308228 93.0 5 -0.03781678155064583
3.6291704177856445 0.1438603699207306 0.7059933543205261 96.0 13 -0.03781447932124138
1.8041177988052368 0.07119990885257721 -0.09462341666221619 100.0 6 -0.03781217336654663
3.6452291011810303 0.14322087168693542 0.8422167897224426 97.0 14 -0.03780987113714218
1.8003488779067993 0.07042179256677628 -0.03144923597574234 97.0 7 -0.037807565182447433
3.6349220275878906 0.14154693484306335 0.974712610244751 120.0 15 -0.037805262953042984
2.308868169784546 0.0866798684000969 -0.6190952062606812 58.0 0 -0.037784527987241745
1.800457239151001 0.0675930306315422 0.03144923597574234 94.0 8 -0.037782222032547
2.2609095573425293 0.08448534458875656 -0.5223363637924194 46.0 1 -0.03777991980314255
1.812258243560791 0.06740262359380722 0.09504210948944092 82.0 9 -0.0377776138484478
2.2444257736206055 0.08308382332324982 -0.43657100200653076 27.0 2 -0.03777531161904335
1.8397196531295776 0.06778184324502945 0.1610638052225113 98.0 10 -0.0377730056643486
1.7904635667800903 0.06565331667661667 -0.28377217054367065 100.0 3 -0.03777070343494415
3.604490280151367 0.1321706622838974 0.4428732097148895 96.0 11 -0.037768397480249405
1.7715083360671997 0.06464868038892746 -0.21765866875648499 99.0 4 -0.037766095250844955
3.614531993865967 0.13127727806568146 0.5728631019592285 100.0 12 -0.03776378929615021
1.7959626913070679 0.06491340696811676 -0.1572289615869522 93.0 5 -0.03776148706674576
3.627711296081543 0.13048632442951202 0.7056117057800293 99.0 13 -0.03775918111205101
1.8003747463226318 0.06444451212882996 -0.09441407769918442 85.0 6 -0.03775687888264656
3.6457297801971436 0.1298602819442749 0.8422167897224426 100.0 14 -0.03775457292795181
1.7905915975570679 0.06378057599067688 -0.031274713575839996 94.0 7 -0.03775227069854736
3.646977663040161 0.12926743924617767 0.9778183698654175 120.0 15 -0.037749964743852615
2.2628188133239746 0.07704269886016846 -0.6066718697547913 35.0 0 -0.037729229778051376
1.8046901226043701 0.061129361391067505 0.031519047915935516 99.0 8 -0.03772692754864693
2.231989622116089 0.07521308213472366 -0.5155878663063049 48.0 1 -0.03772462159395218
1.812482476234436 0.061076633632183075 0.09504210948944092 82.0 9 -0.03772231936454773
2.219193935394287 0.07439417392015457 -0.43160995841026306 30.0 2 -0.03772001340985298
1.8319798707962036 0.061093494296073914 0.16036656498908997 100.0 10 -0.03771771118044853
1.7926560640335083 0.05946804955601692 -0.2840850353240967 100.0 3 -0.037715405225753784
3.6089186668395996 0.11909038573503494 0.44336071610450745 100.0 11 -0.037713102996349335
1.7796694040298462 0.058416228741407394 -0.21863360702991486 99.0 4 -0.03771079704165459
3.6031222343444824 0.11826961487531662 0.5709858536720276 100.0 12 -0.03770849481225014
1.7882130146026611 0.05838339403271675 -0.15653172135353088 93.0 5 -0.03770618885755539
3.639918327331543 0.11820556968450546 0.7079014182090759 99.0 13 -0.03770388662815094
1.8025848865509033 0.05822363495826721 -0.0945187509059906 88.0 6 -0.03770158067345619
3.6520040035247803 0.11732025444507599 0.8435665369033813 100.0 14 -0.03769927844405174
1.7848074436187744 0.057336751371622086 -0.03116999939084053 90.0 7 -0.037696972489356995
3.639683246612549 0.11629033088684082 0.97574782371521 115.0 15 -0.037694670259952545
2.147217273712158 0.06560318171977997 -0.5756136178970337 24.0 0 -0.037673935294151306
1.7908915281295776 0.05471649020910263 0.031274713575839996 100.0 8 -0.03767162933945656
2.2283308506011963 0.06769323348999023 -0.5146880745887756 71.0 1 -0.03766932711005211
1.824662685394287 0.055111680179834366 0.09567013382911682 80.0 9 -0.03766702115535736
2.2037413120269775 0.06617528200149536 -0.42855700850486755 58.0 2 -0.03766471892595291
1.8242161273956299 0.054460883140563965 0.15966932475566864 100.0 10 -0.03766241297125816
1.780996322631836 0.0531705841422081 -0.28220781683921814 100.0 3 -0.037660110741853714
3.6271514892578125 0.10765287280082703 0.44555434584617615 52.0 11 -0.037657804787158966
1.7937428951263428 0.052923623472452164 -0.2203397899866104 94.0 4 -0.03765550255775452
3.619309186935425 0.10615570843219757 0.5734888315200806 100.0 12 -0.03765319660305977
1.7804397344589233 0.051909975707530975 -0.15583446621894836 93.0 5 -0.03765089437365532
3.6363651752471924 0.10602079331874847 0.707138180732727 100.0 13 -0.03764858841896057
1.818739414215088 0.05270808935165405 -0.09535612165927887 96.0 6 -0.03764628618955612
3.656268835067749 0.10532208532094955 0.8444663286209106 94.0 14 -0.03764398396015167
1.8069841861724854 0.05173703655600548 -0.031553950160741806 100.0 7 -0.037641678005456924
3.636204957962036 0.10347388684749603 0.974712610244751 117.0 15 -0.037639375776052475
2.135836124420166 0.058167263865470886 -0.5725077390670776 40.0 0 -0.03761863708496094
1.7890725135803223 0.048411063849925995 0.031239807605743408 94.0 8 -0.03761633485555649
2.2110214233398438 0.05944255366921425 -0.510638952255249 64.0 1 -0.03761402890086174
1.8248440027236938 0.048741597682237625 0.09567013382911682 80.0 9 -0.03761172667145729
2.201986312866211 0.05881507322192192 -0.4281754195690155 79.0 2 -0.03760942071676254
1.824386715888977 0.04841076582670212 0.15966932475566864 98.0 10 -0.03760711848735809
1.7851204872131348 0.04705705866217613 -0.2828335464000702 100.0 3 -0.037604812532663345
3.5977392196655273 0.0942106768488884 0.44189828634262085 9.0 11 -0.037602510303258896
1.7899478673934937 0.046559110283851624 -0.21985231339931488 96.0 4 -0.03760020434856415
3.6236071586608887 0.09362239390611649 0.5741145610809326 100.0 12 -0.0375979021191597
1.7885769605636597 0.045898742973804474 -0.15653172135353088 93.0 5 -0.03759559988975525
3.6249375343322754 0.09302371740341187 0.7048484683036804 99.0 13 -0.0375932939350605
1.7989461421966553 0.04585067555308342 -0.09430939704179764 90.0 6 -0.03759099170565605
3.6644065380096436 0.09275670349597931 0.8462659120559692 100.0 14 -0.037588685750961304
1.8151500225067139 0.045629698783159256 -0.03169357031583786 100.0 7 -0.037586383521556854
3.640406370162964 0.0908777192234993 0.97574782371521 115.0 15 -0.037584077566862106
2.12058424949646 0.04997500404715538 -0.5683666467666626 40.0 0 -0.03756334260106087
1.7932288646697998 0.042260341346263885 0.031309615820646286 97.0 8 -0.03756103664636612
2.1878368854522705 0.05117683485150337 -0.5052400827407837 49.0 1 -0.03755873441696167
1.8210095167160034 0.04227907583117485 0.09546079486608505 78.0 9 -0.03755642846226692
2.2061123847961426 0.050834931433200836 -0.4289386570453644 89.0 2 -0.03755412623286247
1.836503028869629 0.041996557265520096 0.16071519255638123 98.0 10 -0.03755182400345802
1.7852810621261597 0.04051434248685837 -0.2828335464000702 100.0 3 -0.037549518048763275
3.592092275619507 0.0815172865986824 0.44116705656051636 9.0 11 -0.037547215819358826
1.7841458320617676 0.04017705097794533 -0.21912109851837158 99.0 4 -0.03754490986466408
3.6318116188049316 0.08114862442016602 0.5753660202026367 100.0 12 -0.03754260763525963
1.7927100658416748 0.03974385932087898 -0.15688033401966095 93.0 5 -0.03754030168056488
3.6331050395965576 0.079910509288311 0.7063749432563782 99.0 13 -0.03753799945116043
1.7951085567474365 0.039169300347566605 -0.09410005807876587 90.0 6 -0.03753569349646568
3.6510839462280273 0.07903096079826355 0.8431165814399719 97.0 14 -0.037533391267061234
1.7993043661117554 0.03894754499197006 -0.03141433000564575 91.0 7 -0.037531085312366486
3.6484270095825195 0.07833468168973923 0.9778183698654175 117.0 15 -0.037528783082962036
2.128471851348877 0.04272700101137161 -0.5704371929168701 44.0 0 -0.0375080443918705
1.7933717966079712 0.03568708524107933 0.031309615820646286 97.0 8 -0.03750574216246605
2.1607327461242676 0.04262011870741844 -0.49894148111343384 74.0 1 -0.0375034399330616
1.821146011352539 0.03592182323336601 0.09546079486608505 78.0 9 -0.03750113397836685
2.190573215484619 0.04282626509666443 -0.42588570713996887 75.0 2 -0.0374988317489624
1.8366385698318481 0.035586096346378326 0.16071519255638123 98.0 10 -0.037496525794267654
1.7873865365982056 0.03431975096464157 -0.2831464111804962 100.0 3 -0.037494223564863205
3.6003060340881348 0.06850119680166245 0.4421420395374298 8.0 11 -0.03749191761016846
1.7783209085464478 0.03383520990610123 -0.21838988363742828 96.0 4 -0.03748961538076401
3.616272449493408 0.06817363202571869 0.5728631019592285 100.0 12 -0.03748730942606926
1.7968220710754395 0.03355982527136803 -0.1572289615869522 91.0 5 -0.03748500719666481
3.6392507553100586 0.06733611971139908 0.7075197696685791 96.0 13 -0.03748270124197006
1.805219054222107 0.03308634087443352 -0.09462341666221619 85.0 6 -0.03748039901256561
3.6552226543426514 0.06699350476264954 0.8440163731575012 97.0 14 -0.037478093057870865
1.7994294166564941 0.03266608342528343 -0.03141433000564575 98.0 7 -0.037475790828466415
3.652541160583496 0.06566903740167618 0.9788536429405212 117.0 15 -0.03747348487377167
2.1073544025421143 0.03531288355588913 -0.5647432208061218 39.0 0 -0.03745274990797043
1.8134746551513672 0.030071767047047615 0.03165866807103157 92.0 8 -0.03745044767856598
2.1589136123657227 0.035423096269369125 -0.4984915554523468 70.0 1 -0.03744814172387123
1.8212552070617676 0.029882851988077164 0.09546079486608505 76.0 9 -0.03744583949446678
2.202481508255005 0.035753462463617325 -0.4281754195690155 71.0 2 -0.037443533539772034
1.8307698965072632 0.029399778693914413 0.16019225120544434 95.0 10 -0.037441231310367584
1.7894656658172607 0.028424104675650597 -0.28345927596092224 100.0 3 -0.037438925355672836
3.612422227859497 0.05674785375595093 0.443604439496994 8.0 11 -0.03743662312626839
1.7804081439971924 0.02796858549118042 -0.21863360702991486 99.0 4 -0.03743431717157364
3.616478681564331 0.05618198961019516 0.5728631019592285 100.0 12 -0.03743201494216919
1.7889548540115356 0.02747827023267746 -0.15653172135353088 98.0 5 -0.03742970898747444
3.647305965423584 0.055385783314704895 0.7090462446212769 93.0 13 -0.03742740675806999
1.8033218383789062 0.027070222422480583 -0.0945187509059906 82.0 6 -0.037425100803375244
3.6573734283447266 0.05490196496248245 0.8444663286209106 94.0 14 -0.037422798573970795
1.8015273809432983 0.02672794833779335 -0.03144923597574234 100.0 7 -0.03742049261927605
3.645012378692627 0.05344211682677269 0.9767830967903137 117.0 15 -0.0374181903898716
2.0939383506774902 0.02814313769340515 -0.5611197352409363 35.0 0 -0.03739745542407036
1.7895699739456177 0.023739110678434372 0.031239807605743408 99.0 8 -0.03739514946937561
2.16876220703125 0.028390629217028618 -0.5007410645484924 64.0 1 -0.03739284723997116
1.8173542022705078 0.02347409352660179 0.09525144845247269 74.0 9 -0.03739054128527641
2.224181652069092 0.02872893586754799 -0.43237319588661194 93.0 2 -0.037388239055871964
1.8228884935379028 0.023226521909236908 0.15949499607086182 92.0 10 -0.037385933101177216
1.7915253639221191 0.02251419425010681 -0.28377217054367065 100.0 3 -0.037383630871772766
3.612590789794922 0.04477076604962349 0.443604439496994 8.0 11 -0.03738132491707802
1.7943896055221558 0.021923771128058434 -0.2203397899866104 88.0 4 -0.03737902268767357
3.6245534420013428 0.043651971966028214 0.5741145610809326 98.0 12 -0.03737671673297882
1.7810707092285156 0.02114012837409973 -0.15583446621894836 100.0 5 -0.03737441450357437
3.6396172046661377 0.04319984093308449 0.7075197696685791 93.0 13 -0.03737210854887962
1.8113901615142822 0.021182963624596596 -0.09493743628263474 80.0 6 -0.037369806319475174
3.6555941104888916 0.0421115905046463 0.8440163731575012 97.0 14 -0.037367500364780426
1.7896122932434082 0.020303547382354736 -0.031239807605743408 90.0 7 -0.03736519813537598
3.641313314437866 0.04067593440413475 0.97574782371521 115.0 15 -0.03736289590597153
2.0863001346588135 0.020392216742038727 -0.559049129486084 35.0 0 -0.03734215721487999
1.7896419763565063 0.01749257743358612 0.031239807605743408 84.0 8 -0.03733985498547554
2.1688480377197266 0.02082051895558834 -0.5007410645484924 66.0 1 -0.03733754903078079
1.8314052820205688 0.017261482775211334 0.09598415344953537 47.0 9 -0.03733524680137634
2.230161666870117 0.020629560574889183 -0.43351805210113525 100.0 2 -0.037332940846681595
1.8269460201263428 0.016581714153289795 0.15984363853931427 90.0 10 -0.037330638617277145
2.2459144592285156 0.01999235898256302 -0.3557320237159729 100.0 3 -0.0373283326625824
3.602799892425537 0.032070886343717575 0.442385733127594 9.0 11 -0.03732603043317795
2.237114191055298 0.019522497430443764 -0.2746935188770294 67.0 4 -0.0373237244784832
3.6207330226898193 0.03096662648022175 0.5734888315200806 100.0 12 -0.03732142224907875
2.2154595851898193 0.01856123097240925 -0.19383437931537628 93.0 5 -0.037319116294384
3.62797212600708 0.029760394245386124 0.7052300572395325 96.0 13 -0.03731681406497955
1.8973350524902344 0.015233669430017471 -0.09943832457065582 52.0 6 -0.037314511835575104
3.6713132858276367 0.028836142271757126 0.8476155996322632 100.0 14 -0.037312205880880356
1.8436623811721802 0.014480951242148876 -0.0321822389960289 45.0 7 -0.037309903651475906
3.6530237197875977 0.028053170070052147 0.9788536429405212 120.0 15 -0.03730759769678116
2.0882904529571533 0.013122123666107655 -0.5595667958259583 33.0 0 -0.03728686273097992
3.593385696411133 0.021950777620077133 0.06272394955158234 76.0 8 -0.03728455677628517
2.17085862159729 0.012882163748145103 -0.5011910200119019 72.0 1 -0.03728225454688072
3.6109845638275146 0.02079956606030464 0.18924683332443237 91.0 9 -0.037279948592185974
2.2380728721618652 0.012891482561826706 -0.4350445568561554 100.0 2 -0.037277646362781525
3.6041765213012695 0.020129602402448654 0.31532949209213257 27.0 10 -0.03727534040808678
2.2459704875946045 0.012151934206485748 -0.3557320237159729 89.0 3 -0.03727303817868233
3.6088483333587646 0.018897730857133865 0.4431169629096985 9.0 11 -0.03727073594927788
2.2590062618255615 0.011433947831392288 -0.27737462520599365 97.0 4 -0.03726842999458313
3.6326746940612793 0.017752766609191895 0.5753660202026367 100.0 12 -0.03726612776517868
2.293214797973633 0.010807734914124012 -0.2006325125694275 61.0 5 -0.03726382181048393
3.635906934738159 0.017135731875896454 0.706756591796875 96.0 13 -0.03726151958107948
1.9213435649871826 0.00871889479458332 -0.10069439560174942 47.0 6 -0.037259213626384735
3.6616480350494385 0.015977198258042336 0.8453661203384399 94.0 14 -0.037256911396980286
1.9176912307739258 0.008033862337470055 -0.03347371518611908 15.0 7 -0.03725460544228554
3.6492385864257812 0.014649278484284878 0.9778183698654175 115.0 15 -0.03725230321288109
2.0941202640533447 0.005481709726154804 -0.5611197352409363 32.0 0 -0.03723156452178955
3.597440242767334 0.00941690057516098 0.06279376149177551 81.0 8 -0.0372292622923851
2.174787759780884 0.005314355716109276 -0.5020908117294312 77.0 1 -0.03722696006298065
3.6070406436920166 0.008184725418686867 0.1890375018119812 88.0 9 -0.037224654108285904
2.226325511932373 0.004662141669541597 -0.4327548146247864 100.0 2 -0.037222351878881454
3.6281347274780273 0.006966202985495329 0.31742119789123535 40.0 10 -0.03722004592418671
2.2519261837005615 0.003930799663066864 -0.35667064785957336 75.0 3 -0.03721774369478226
3.616832733154297 0.006313282065093517 0.44409194588661194 9.0 11 -0.03721543774008751
2.2550621032714844 0.003541638609021902 -0.2768871784210205 88.0 4 -0.03721313551068306
3.6248130798339844 0.005061986390501261 0.5741145610809326 100.0 12 -0.03721082955598831
2.285269260406494 0.0027925060130655766 -0.19993527233600616 56.0 5 -0.03720852732658386
3.6496880054473877 0.003821076825261116 0.7094278931617737 99.0 13 -0.037206221371889114
1.929351568222046 0.0016841583419591188 -0.10111307352781296 45.0 6 -0.037203919142484665
3.661681890487671 0.002557288156822324 0.8453661203384399 100.0 14 -0.03720161318778992
1.919707179069519 0.0013407075311988592 -0.03350862115621567 0.0 7 -0.03719931095838547
3.664722204208374 0.001918087829835713 0.9819594621658325 115.0 15 -0.03719700500369072
2.078672409057617 -0.0010883903596550226 -0.5569786429405212 35.0 0 -0.03717627003788948
3.6014506816864014 -0.0025142873637378216 0.06286356598138809 81.0 8 -0.03717396780848503
2.1825883388519287 -0.0019046678207814693 -0.5038903951644897 74.0 1 -0.03717166185379028
3.615036964416504 -0.003785658860579133 0.18945617973804474 85.0 9 -0.037169359624385834
2.2125866413116455 -0.002317016012966633 -0.4300835132598877 86.0 2 -0.037167053669691086
3.622161388397217 -0.004425307270139456 0.31689828634262085 35.0 10 -0.037164751440286636
2.2657551765441895 -0.003163592889904976 -0.35886070132255554 69.0 3 -0.03716244548559189
3.6307294368743896 -0.005703140515834093 0.4457980990409851 12.0 11 -0.03716014325618744
2.2590315341949463 -0.003942757844924927 -0.27737462520599365 78.0 4 -0.03715783730149269
3.624809741973877 -0.006959143560379744 0.5741145610809326 100.0 12 -0.03715553507208824
2.2573723793029785 -0.004727836232632399 -0.19749490916728973 27.0 5 -0.037153229117393494
3.655571699142456 -0.0076562222093343735 0.7105727195739746 93.0 13 -0.037150926887989044
1.935339093208313 -0.004391152411699295 -0.1014270931482315 44.0 6 -0.037148620933294296
3.665569305419922 -0.008956694044172764 0.8462659120559692 94.0 14 -0.03714631870388985
3.59544038772583 -0.009412861429154873 -0.06275885552167892 82.0 7 -0.0371440127491951
3.6569812297821045 -0.010212243534624577 0.9798889756202698 113.0 15 -0.03714171051979065
2.0786545276641846 -0.008707097731530666 -0.5569786429405212 35.0 0 -0.03712097555398941
3.5974209308624268 -0.015068928711116314 0.06279376149177551 50.0 8 -0.03711866959929466
2.1884143352508545 -0.009548819623887539 -0.5052400827407837 56.0 1 -0.03711636736989021
3.615001678466797 -0.016404468566179276 0.18945617973804474 88.0 9 -0.037114061415195465
2.2125632762908936 -0.010426536202430725 -0.4300835132598877 72.0 2 -0.037111759185791016
3.612159013748169 -0.01765247993171215 0.3160267174243927 36.0 10 -0.03710945323109627
2.2420239448547363 -0.011348000727593899 -0.35510629415512085 69.0 3 -0.03710715100169182
3.6207621097564697 -0.01832647994160652 0.44457942247390747 17.0 11 -0.03710484504699707
2.262974500656128 -0.011849014088511467 -0.2778621315956116 78.0 4 -0.03710254281759262
3.624763250350952 -0.01961204782128334 0.5741145610809326 100.0 12 -0.03710023686289787
1.9863814115524292 -0.011094162240624428 -0.17378854751586914 27.0 5 -0.03709793463349342
3.6496293544769287 -0.021020587533712387 0.7094278931617737 100.0 13 -0.037095628678798676
1.9413018226623535 -0.011520052328705788 -0.10174111276865005 43.0 6 -0.037093326449394226
3.671358108520508 -0.022427327930927277 0.8476155996322632 97.0 14 -0.03709102049469948
3.6213810443878174 -0.022122031077742577 -0.06321261823177338 100.0 7 -0.03708871826529503
3.653059482574463 -0.022953148931264877 0.9788536429405212 117.0 15 -0.03708641231060028
2.0708868503570557 -0.015542121604084969 -0.554908037185669 32.0 0 -0.03711891174316406
2.1805732250213623 -0.017126532271504402 -0.5034404993057251 54.0 1 -0.037114303559064865
3.6309051513671875 -0.028517644852399826 0.190293550491333 41.0 9 -0.037112001329660416
2.2184059619903564 -0.0178108848631382 -0.4312283396720886 64.0 2 -0.03710969537496567
3.628019332885742 -0.029761482030153275 0.31742119789123535 38.0 10 -0.03710739314556122
2.2360482215881348 -0.018733112141489983 -0.3541676700115204 74.0 3 -0.03710508719086647
3.6186909675598145 -0.030948206782341003 0.4443356692790985 27.0 11 -0.03710278496146202
2.258949041366577 -0.019713548943400383 -0.27737462520599365 78.0 4 -0.03710047900676727
3.6365301609039307 -0.03173551708459854 0.5759917497634888 100.0 12 -0.037098176777362823
1.9365259408950806 -0.017237819731235504 -0.16943076252937317 37.0 5 -0.037095870822668076
3.6416871547698975 -0.033051807433366776 0.7079014182090759 100.0 13 -0.037093568593263626
1.9352612495422363 -0.017902148887515068 -0.1014270931482315 44.0 6 -0.03709126263856888
3.6751606464385986 -0.034638598561286926 0.8485153913497925 97.0 14 -0.03708896040916443
3.6052908897399902 -0.03398007154464722 -0.06293337792158127 98.0 7 -0.03708665445446968
3.6568267345428467 -0.03510409966111183 0.9798889756202698 115.0 15 -0.03708435222506523
2.07468318939209 -0.022813253104686737 -0.5559433102607727 31.0 0 -0.03706361725926399
2.3415017127990723 -0.02574719488620758 0.040873534977436066 2.0 8 -0.037061311304569244
2.1707613468170166 -0.024248644709587097 -0.5011910200119019 55.0 1 -0.037059009075164795
2.2124409675598145 -0.025486616417765617 -0.4300835132598877 59.0 2 -0.0370544008910656
3.635862112045288 -0.04251863807439804 0.31811845302581787 40.0 10 -0.03705209493637085
2.235973834991455 -0.026148010045289993 -0.3541676700115204 74.0 3 -0.0370497927069664
3.606658697128296 -0.04280669987201691 0.4428732097148895 33.0 11 -0.03704748675227165
2.2390217781066895 -0.02696533128619194 -0.274937242269516 83.0 4 -0.0370451845228672
3.6442980766296387 -0.044525716453790665 0.5772432088851929 100.0 12 -0.037042878568172455
1.9284850358963013 -0.023898694664239883 -0.16873352229595184 45.0 5 -0.037040576338768005
3.6435205936431885 -0.045152224600315094 0.708283007144928 96.0 13 -0.03703827038407326
1.9291999340057373 -0.024244315922260284 -0.10111307352781296 42.0 6 -0.03703596815466881
3.667231321334839 -0.04672636836767197 0.8467158079147339 91.0 14 -0.03703366219997406
3.6051504611968994 -0.046564675867557526 -0.06293337792158127 96.0 7 -0.03703135997056961
3.656682014465332 -0.04786859080195427 0.9798889756202698 115.0 15 -0.03702905401587486
2.0765278339385986 -0.029720671474933624 -0.556460976600647 19.0 0 -0.037008319050073624
2.3114054203033447 -0.03348589688539505 0.040349964052438736 2.0 8 -0.037006016820669174
2.168714761734009 -0.031797297298908234 -0.5007410645484924 52.0 1 -0.037003710865974426
2.3385331630706787 -0.03469537943601608 0.12257081270217896 2.0 9 -0.03700140863656998
2.1868250370025635 -0.032444581389427185 -0.42512246966362 57.0 2 -0.03699910268187523
3.6416776180267334 -0.05466507002711296 0.31864139437675476 46.0 10 -0.03699680045247078
2.2358689308166504 -0.033952854573726654 -0.3541676700115204 71.0 3 -0.03699449449777603
3.6283209323883057 -0.0557313896715641 0.44555434584617615 38.0 11 -0.03699219226837158
2.2349443435668945 -0.03471914306282997 -0.27444979548454285 88.0 4 -0.036989886313676834
3.6362199783325195 -0.057122305035591125 0.5759917497634888 100.0 12 -0.036987584084272385
1.92839515209198 -0.030293649062514305 -0.16873352229595184 49.0 5 -0.03698527812957764
3.6590447425842285 -0.05811965465545654 0.7113359570503235 96.0 13 -0.03698297590017319
1.9390887022018433 -0.031138677150011063 -0.10163643956184387 41.0 6 -0.03698066994547844
3.66509747505188 -0.059495482593774796 0.8462659120559692 94.0 14 -0.03697836771607399
3.604965925216675 -0.05914871767163277 -0.06293337792158127 75.0 7 -0.03697606548666954
3.6680819988250732 -0.0608246773481369 0.9829947352409363 115.0 15 -0.03697375953197479
2.0551645755767822 -0.036590639501810074 -0.5507669448852539 11.0 0 -0.03695302456617355
2.283283233642578 -0.041050758212804794 0.039861299097537994 3.0 8 -0.036950718611478806
2.166642427444458 -0.039331961423158646 -0.5002912282943726 55.0 1 -0.036948416382074356
2.30245304107666 -0.042199376970529556 0.12068671733140945 2.0 9 -0.03694611042737961
2.1768836975097656 -0.039897941052913666 -0.4232143759727478 66.0 2 -0.03694380819797516
3.631504535675049 -0.06719227135181427 0.3177698254585266 48.0 10 -0.03694150224328041
2.2396867275238037 -0.04183105751872063 -0.35479339957237244 74.0 3 -0.03693920001387596
3.6320738792419434 -0.06847108900547028 0.4460418224334717 39.0 11 -0.03693689405918121
2.238778829574585 -0.04259587079286575 -0.274937242269516 73.0 4 -0.036934591829776764
3.635998487472534 -0.06981474161148071 0.5759917497634888 100.0 12 -0.036932289600372314
1.9242935180664062 -0.03694832697510719 -0.16838489472866058 57.0 5 -0.036929983645677567
3.6588196754455566 -0.07089174538850784 0.7113359570503235 96.0 13 -0.03692768141627312
1.9409650564193726 -0.03794621303677559 -0.10174111276865005 32.0 6 -0.03692537546157837
3.6765575408935547 -0.07251928001642227 0.8489653468132019 100.0 14 -0.03692307323217392
3.663984537124634 -0.0735507607460022 0.9819594621658325 115.0 15 -0.03691846504807472
2.0627498626708984 -0.043928809463977814 -0.5528374910354614 9.0 0 -0.036897726356983185
2.285125255584717 -0.04906357824802399 0.039896201342344284 7.0 8 -0.036895424127578735
2.1509056091308594 -0.04655734822154045 -0.4966919720172882 57.0 1 -0.03689311817288399
2.2982981204986572 -0.05014904588460922 0.12047737836837769 5.0 9 -0.03689081594347954
2.1786937713623047 -0.04753926396369934 -0.42359596490859985 71.0 2 -0.03688850998878479
3.6232802867889404 -0.07969294488430023 0.3170726001262665 47.0 10 -0.03688620775938034
2.2257027626037598 -0.04934230074286461 -0.35260334610939026 78.0 3 -0.03688390552997589
3.6377663612365723 -0.08128199726343155 0.44677305221557617 50.0 11 -0.03688159957528114
2.244570255279541 -0.05054447427392006 -0.2756684720516205 60.0 4 -0.036879297345876694
3.635732650756836 -0.08250631392002106 0.5759917497634888 100.0 12 -0.036876991391181946
1.9261448383331299 -0.043710339814424515 -0.1685592085123062 62.0 5 -0.036874689161777496
3.6565868854522705 -0.08361809700727463 0.7109543085098267 99.0 13 -0.03687238320708275
1.948807716369629 -0.044905249029397964 -0.10215979814529419 17.0 6 -0.0368700809776783
3.6762821674346924 -0.08535242080688477 0.8489653468132019 100.0 14 -0.03686777502298355
2.3230109214782715 -0.05433911085128784 -0.04055939242243767 15.0 7 -0.0368654727935791
3.6598429679870605 -0.0862489864230156 0.9809242486953735 117.0 15 -0.036863166838884354
2.060652732849121 -0.05108100548386574 -0.5523198843002319 13.0 0 -0.036842431873083115
2.274944543838501 -0.05679033324122429 0.03972167521715164 18.0 8 -0.03684012591838837
2.140989303588867 -0.05382026359438896 -0.4944424629211426 64.0 1 -0.03683782368898392
2.310089111328125 -0.05847453698515892 0.12110541760921478 2.0 9 -0.03683552145957947
2.1785144805908203 -0.055144038051366806 -0.42359596490859985 75.0 2 -0.03683321550488472
3.6309468746185303 -0.0925431177020073 0.3177698254585266 48.0 10 -0.03683091327548027
2.2156436443328857 -0.05685777962207794 -0.35103899240493774 71.0 3 -0.03682860732078552
3.6334915161132812 -0.09387713670730591 0.44628557562828064 60.0 11 -0.03682630509138107
2.2285048961639404 -0.05796624347567558 -0.27371856570243835 55.0 4 -0.036823999136686325
3.6433212757110596 -0.09540373086929321 0.5772432088851929 100.0 12 -0.036821696907281876
1.925980567932129 -0.050433579832315445 -0.1685592085123062 62.0 5 -0.03681939095258713
3.654310464859009 -0.0963297188282013 0.7105727195739746 93.0 13 -0.03681708872318268
1.948639154434204 -0.05170758441090584 -0.10215979814529419 12.0 6 -0.03681478276848793
3.6837539672851562 -0.09839264303445816 0.8507649302482605 100.0 14 -0.03681248053908348
2.278829574584961 -0.06126530095934868 -0.03979148715734482 47.0 7 -0.03681017458438873
3.663381814956665 -0.09912819415330887 0.9819594621658325 115.0 15 -0.03680787235498428
2.0623929500579834 -0.058328330516815186 -0.5528374910354614 16.0 0 -0.036787137389183044
2.272733688354492 -0.06467414647340775 0.03968677297234535 23.0 8 -0.036784831434488297
2.1407885551452637 -0.06129338592290878 -0.4944424629211426 63.0 1 -0.03678252920508385
2.2599599361419678 -0.06510017067193985 0.1184886172413826 2.0 9 -0.0367802232503891
2.1783087253570557 -0.06274813413619995 -0.42359596490859985 75.0 2 -0.03677792102098465
3.634584903717041 -0.10533235967159271 0.31811845302581787 47.0 10 -0.0367756150662899
2.2213549613952637 -0.06476416438817978 -0.3519775867462158 82.0 3 -0.03677331283688545
3.6252048015594482 -0.10632702708244324 0.4453106224536896 66.0 11 -0.036771006882190704
2.2124152183532715 -0.06527646631002426 -0.2717686593532562 50.0 4 -0.036768704652786255
3.654813051223755 -0.1084723174571991 0.5791204571723938 100.0 12 -0.03676639869809151
1.9337587356567383 -0.05739261955022812 -0.16925644874572754 62.0 5 -0.03676409646868706
3.6657259464263916 -0.10943655669689178 0.7128624320030212 93.0 13 -0.03676179051399231
3.6736488342285156 -0.1109565943479538 0.8485153913497925 97.0 14 -0.03675718232989311
2.296590566635132 -0.06976598501205444 -0.040105629712343216 64.0 7 -0.03675488010048866
3.6707375049591064 -0.11215117573738098 0.9840300679206848 113.0 15 -0.036752574145793915
2.0602457523345947 -0.06546571105718613 -0.5523198843002319 23.0 0 -0.036731839179992676
2.2545061111450195 -0.07203234732151031 0.039372626692056656 27.0 8 -0.036729536950588226
2.1444568634033203 -0.06889088451862335 -0.4953422546386719 64.0 1 -0.03672723099589348
2.2677037715911865 -0.07324640452861786 0.11890730261802673 2.0 9 -0.03672492876648903
2.1682653427124023 -0.07003457099199295 -0.42168790102005005 78.0 2 -0.03672262281179428
3.6441516876220703 -0.11834212392568588 0.31898999214172363 41.0 10 -0.03672032058238983
2.2072951793670654 -0.072066530585289 -0.34978750348091125 81.0 3 -0.036718014627695084
3.640683650970459 -0.11950169503688812 0.4472605288028717 72.0 11 -0.036715712398290634
2.1963016986846924 -0.07247508317232132 -0.2698187232017517 50.0 4 -0.036713406443595886
3.638617992401123 -0.12070539593696594 0.5766174793243408 98.0 12 -0.03671110421419144
1.93752920627594 -0.06427446752786636 -0.1696050763130188 75.0 5 -0.03670879825949669
3.6613972187042236 -0.12210079282522202 0.7120991945266724 93.0 13 -0.03670649603009224
2.2855780124664307 -0.07661913335323334 -0.11984935402870178 24.0 6 -0.03670419007539749
3.6712915897369385 -0.12371370941400528 0.8480655550956726 100.0 14 -0.03670188784599304
2.2643563747406006 -0.07669903337955475 -0.0395471528172493 56.0 7 -0.03669958561658859
3.678046226501465 -0.1252266764640808 0.9861006140708923 113.0 15 -0.036697279661893845
2.060004711151123 -0.07265692204236984 -0.5523198843002319 22.0 0 -0.036676544696092606
2.264233112335205 -0.08025577664375305 0.0395471528172493 37.0 8 -0.03667423874139786
2.1519932746887207 -0.07665350288152695 -0.49714183807373047 64.0 1 -0.03667193651199341
2.2754323482513428 -0.08105038106441498 0.11932599544525146 2.0 9 -0.03666963055729866
2.166045904159546 -0.0775325819849968 -0.421306312084198 75.0 2 -0.03666732832789421
3.635751962661743 -0.13077539205551147 0.3182927668094635 46.0 10 -0.03666502237319946
2.2129523754119873 -0.07998504489660263 -0.35072609782218933 87.0 3 -0.03666272014379501
3.650163173675537 -0.1325695514678955 0.44847920536994934 78.0 11 -0.036660414189100266
2.0492491722106934 -0.07442627847194672 -0.25178205966949463 47.0 4 -0.036658111959695816
3.6460938453674316 -0.13305898010730743 0.5778689980506897 100.0 12 -0.03665580600500107
1.9293287992477417 -0.07074527442455292 -0.16890782117843628 75.0 5 -0.03665350377559662
3.6707584857940674 -0.13524213433265686 0.7140072584152222 89.0 13 -0.03665120154619217
2.317230701446533 -0.08577895164489746 -0.12152409553527832 21.0 6 -0.03664889559149742
3.6786506175994873 -0.13617581129074097 0.8498651385307312 94.0 14 -0.03664659336209297
2.2461047172546387 -0.08353858441114426 -0.0392330102622509 45.0 7 -0.036644287407398224
3.666027545928955 -0.1369899958372116 0.9829947352409363 115.0 15 -0.036641985177993774
2.055891752243042 -0.07933875918388367 -0.5512846112251282 30.0 0 -0.03662124648690224
2.239976167678833 -0.08683426678180695 0.039128296077251434 44.0 8 -0.03661894425749779
2.161463499069214 -0.08416847884654999 -0.4993913471698761 70.0 1 -0.03661663830280304
2.2691638469696045 -0.08836238086223602 0.11901197582483292 3.0 9 -0.03661433607339859
2.161853075027466 -0.0845615491271019 -0.42054301500320435 75.0 2 -0.03661203011870384
3.6293258666992188 -0.14259660243988037 0.3177698254585266 52.0 10 -0.03660972788929939
2.1968841552734375 -0.08669983595609665 -0.34822314977645874 85.0 3 -0.036607421934604645
3.655654191970825 -0.1449090987443924 0.44921043515205383 84.0 11 -0.036605119705200195
1.9894851446151733 -0.07886262983083725 -0.24446991086006165 50.0 4 -0.036602817475795746
3.649580240249634 -0.1453063040971756 0.5784947276115417 100.0 12 -0.036600511521101
1.9290835857391357 -0.07714277505874634 -0.16890782117843628 79.0 5 -0.03659820929169655
3.668328285217285 -0.14733527600765228 0.7136256694793701 93.0 13 -0.0365959033370018
2.3149378299713135 -0.09338218718767166 -0.12141943722963333 26.0 6 -0.03659360110759735
3.68986177444458 -0.14884519577026367 0.8525645732879639 100.0 14 -0.0365912951529026
2.2498116493225098 -0.09114837646484375 -0.03930281847715378 43.0 7 -0.036588992923498154
3.6694140434265137 -0.14930331707000732 0.9840300679206848 111.0 15 -0.036586686968803406
2.0594778060913086 -0.08631768077611923 -0.5523198843002319 48.0 0 -0.03656595200300217
2.237677812576294 -0.0941777229309082 0.039093390107154846 48.0 8 -0.03656364604830742
2.1494905948638916 -0.09084198623895645 -0.4966919720172882 72.0 1 -0.03656134381890297
2.2808144092559814 -0.09679079055786133 0.11964000016450882 3.0 9 -0.03655903786420822
2.173313617706299 -0.09260880202054977 -0.42283275723457336 75.0 2 -0.03655673563480377
3.6387858390808105 -0.1550552099943161 0.31864139437675476 41.0 10 -0.03655443340539932
2.2005317211151123 -0.09415337443351746 -0.3488488793373108 83.0 3 -0.036552127450704575
3.6392874717712402 -0.15634924173355103 0.4472605288028717 99.0 11 -0.036549825221300125
1.977298378944397 -0.08529344946146011 -0.24300749599933624 43.0 4 -0.03654751926660538
3.656944751739502 -0.1583867371082306 0.5797461867332458 100.0 12 -0.03654521703720093
1.9367645978927612 -0.08422230184078217 -0.1696050763130188 75.0 5 -0.03654291108250618
3.6599459648132324 -0.15979668498039246 0.7120991945266724 90.0 13 -0.03654060885310173
2.3046212196350098 -0.10102494060993195 -0.12089607119560242 43.0 6 -0.03653830289840698
3.69321346282959 -0.1618950068950653 0.8534643650054932 94.0 14 -0.03653600066900253
2.2514774799346924 -0.09908905625343323 -0.039337724447250366 47.0 7 -0.036533694714307785
3.668870449066162 -0.1621110737323761 0.9840300679206848 115.0 15 -0.036531392484903336
2.059147357940674 -0.09386546164751053 -0.5523198843002319 49.0 0 -0.0365106575191021
2.2433104515075684 -0.10265282541513443 0.03919810429215431 52.0 8 -0.03650835156440735
2.145249605178833 -0.09854079782962799 -0.49579212069511414 72.0 1 -0.0365060493350029
2.2624881267547607 -0.10432179272174835 0.11869796365499496 3.0 9 -0.03650374338030815
2.1749207973480225 -0.10066454112529755 -0.4232143759727478 78.0 2 -0.0365014411509037
3.650134801864624 -0.16894368827342987 0.31968727707862854 46.0 10 -0.036499135196208954
2.1843860149383545 -0.10148469358682632 -0.3463459312915802 60.0 3 -0.036496832966804504
3.6406731605529785 -0.16977933049201965 0.4475042521953583 93.0 11 -0.036494527012109756
1.9611090421676636 -0.09179747849702835 -0.24105757474899292 50.0 4 -0.03649222478270531
3.6642327308654785 -0.17215989530086517 0.5809977054595947 96.0 12 -0.03648991882801056
1.9424134492874146 -0.0916019007563591 -0.1701280176639557 59.0 5 -0.03648761659860611
3.6711020469665527 -0.17376695573329926 0.714388906955719 92.0 13 -0.03648531064391136
2.298250198364258 -0.10918677598237991 -0.12058205902576447 49.0 6 -0.03648300841450691
3.677022933959961 -0.17469041049480438 0.8498651385307312 88.0 14 -0.036480702459812164
2.2650809288024902 -0.10800717025995255 -0.039582058787345886 62.0 7 -0.036478400230407715
3.6798293590545654 -0.1761111617088318 0.9871358871459961 113.0 15 -0.03647609427571297
2.0626485347747803 -0.10160206258296967 -0.5533550977706909 48.0 0 -0.03645535930991173
2.2429192066192627 -0.11087427288293839 0.03919810429215431 55.0 8 -0.03645305708050728
2.146820545196533 -0.10649944096803665 -0.49624204635620117 79.0 1 -0.03645075112581253
2.2641048431396484 -0.11231767386198044 0.11880263686180115 3.0 9 -0.03644844889640808
2.166712999343872 -0.1078653559088707 -0.42168790102005005 78.0 2 -0.03644614294171333
3.64949107170105 -0.1823209673166275 0.31968727707862854 50.0 10 -0.036443840712308884
2.1682162284851074 -0.10869893431663513 -0.343843013048172 64.0 3 -0.036441534757614136
3.6459741592407227 -0.18342114984989166 0.44823548197746277 100.0 11 -0.036439232528209686
1.950846552848816 -0.09848426282405853 -0.2398388832807541 59.0 4 -0.03643692657351494
3.6616363525390625 -0.1848497837781906 0.5806847810745239 98.0 12 -0.03643462434411049
1.9520310163497925 -0.09888563305139542 -0.17099957168102264 72.0 5 -0.03643231838941574
3.674394369125366 -0.18677972257137299 0.7151521444320679 93.0 13 -0.03643001616001129
2.29984974861145 -0.11731023341417313 -0.12068671733140945 43.0 6 -0.036427710205316544
3.684142827987671 -0.18856462836265564 0.8516647815704346 94.0 14 -0.036425407975912094
2.234734058380127 -0.1143798753619194 -0.039058487862348557 68.0 7 -0.036423102021217346
3.6869096755981445 -0.1893514096736908 0.9892064332962036 111.0 15 -0.0364207997918129
2.0468482971191406 -0.10798722505569458 -0.5492140650749207 42.0 0 -0.03640006482601166
2.254520893096924 -0.11894357949495316 0.03940753638744354 54.0 8 -0.03639775887131691
2.1484017372131348 -0.11372098326683044 -0.4966919720172882 77.0 1 -0.03639545664191246
