# .PCD v0.7 - Point Cloud Data file format
VERSION 0.7
FIELDS x y z intensity ring time
SIZE 4 4 4 4 4 4
TYPE F F F F F F
COUNT 1 1 1 1 1 1
WIDTH 548
HEIGHT 1
VIEWPOINT 0 0 0 1 0 0 0
POINTS 548
DATA ascii
-1.996817708015442 0.9078983068466187 -0.26933127641677856 2.0 4 -0.08218854665756226
-1.9671082496643066 0.8948045372962952 0.3422786593437195 3.0 12 -0.0821862444281578
-1.9786089658737183 0.9000360369682312 -0.19017383456230164 9.0 5 -0.08218394219875336
-2.071030378341675 0.9425138235092163 0.44229528307914734 1.0 13 -0.08218163996934891
-1.944957971572876 0.8855481743812561 -0.11199896037578583 10.0 6 -0.08217933028936386
-3.066241979598999 1.396720051765442 0.7778807878494263 75.0 14 -0.08217702805995941
-1.930643916130066 0.8798453211784363 -0.03703400865197182 11.0 7 -0.08217472583055496
-3.067309856414795 1.3984993696212769 0.9032785296440125 76.0 15 -0.08217242360115051
-2.208285093307495 1.0100994110107422 -0.650671124458313 1.0 0 -0.08215168863534927
-1.8347058296203613 0.8396064639091492 0.03521895781159401 2.0 8 -0.08214937895536423
-2.179394006729126 0.9978043437004089 -0.5533795952796936 3.0 1 -0.08214707672595978
-1.9611018896102905 0.8982764482498169 0.11304567754268646 55.0 9 -0.08214477449655533
-1.9741207361221313 0.9042397141456604 -0.4220695197582245 3.0 2 -0.08214247226715088
-2.0449159145355225 0.9370989799499512 0.1967976689338684 42.0 10 -0.08214016258716583
-2.0237011909484863 0.9278045296669006 -0.35260334610939026 9.0 3 -0.08213786035776138
-1.9956005811691284 0.9153428077697754 0.26957499980926514 6.0 11 -0.08213555812835693
-2.011678457260132 0.9231423735618591 -0.2717686593532562 1.0 4 -0.08213325589895248
-1.9442251920700073 0.8925994634628296 0.3388370871543884 4.0 12 -0.08213094621896744
-1.9718339443206787 0.9052746891975403 -0.18982520699501038 10.0 5 -0.08212864398956299
-2.067728042602539 0.9497368931770325 0.44229528307914734 1.0 13 -0.08212634176015854
-1.9563734531402588 0.8990036845207214 -0.1128363311290741 11.0 6 -0.08212403953075409
-3.075512170791626 1.4139275550842285 0.7814800143241882 74.0 14 -0.08212173730134964
-1.9330111742019653 0.8890854120254517 -0.037138719111680984 14.0 7 -0.0821194276213646
-3.0606541633605957 1.4083902835845947 0.9027608633041382 72.0 15 -0.08211712539196014
-1.849918007850647 0.8543902635574341 0.035568006336688995 2.0 8 -0.08209408819675446
-3.1559364795684814 1.4582463502883911 -0.8026254177093506 10.0 1 -0.08209177851676941
-1.9615801572799683 0.9067926406860352 0.11325501650571823 55.0 9 -0.08208947628736496
-1.990554928779602 0.9201869964599609 -0.4262673258781433 4.0 2 -0.08208717405796051
-2.0452489852905273 0.9459040760993958 0.19714628159999847 45.0 10 -0.08208487182855606
-2.0186574459075928 0.9340334534645081 -0.35229045152664185 10.0 3 -0.08208256214857101
-1.9923933744430542 0.9223032593727112 0.26957499980926514 5.0 11 -0.08208025991916656
-1.9904307126998901 0.9218166470527649 -0.26933127641677856 1.0 4 -0.08207795768976212
-1.957228660583496 0.9068547487258911 0.34165289998054504 3.0 12 -0.08207565546035767
-1.97046959400177 0.9129897356033325 -0.1899995058774948 8.0 5 -0.08207335323095322
-2.0644001960754395 0.9569488763809204 0.44229528307914734 1.0 13 -0.08207104355096817
-1.9532233476638794 0.9058272242546082 -0.1128363311290741 10.0 6 -0.08206874132156372
-3.081164598464966 1.429574966430664 0.7841793894767761 75.0 14 -0.08206643909215927
-1.924454689025879 0.8933018445968628 -0.03703400865197182 12.0 7 -0.08206413686275482
-3.057471513748169 1.4198791980743408 0.9032785296440125 74.0 15 -0.08206182718276978
-2.8000681400299072 1.3045035600662231 -0.8277033567428589 1.0 0 -0.08204109221696854
-1.8469244241714478 0.8608421087265015 0.035568006336688995 2.0 8 -0.08203878998756409
-3.13669753074646 1.4626661539077759 -0.7990262508392334 19.0 1 -0.08203648775815964
-1.9656429290771484 0.9170120358467102 0.11367370933294296 53.0 9 -0.08203417807817459
-1.9908889532089233 0.9287898540496826 -0.4270305633544922 4.0 2 -0.08203187584877014
-2.0347132682800293 0.9496665596961975 0.19644904136657715 47.0 10 -0.08202957361936569
-2.0064353942871094 0.9368954300880432 -0.35072609782218933 9.0 3 -0.08202727138996124
-1.9855647087097168 0.9275720715522766 0.269087553024292 6.0 11 -0.0820249691605568
-1.9979914426803589 0.9338015913963318 -0.27079370617866516 2.0 4 -0.08202265948057175
-1.9683667421340942 0.9203749895095825 0.34415584802627563 2.0 12 -0.0820203572511673
-1.9672706127166748 0.9198625087738037 -0.1899995058774948 8.0 5 -0.08201805502176285
-2.061047077178955 0.9641491770744324 0.44229528307914734 1.0 13 -0.0820157527923584
-1.9410046339035034 0.9084067940711975 -0.11231297254562378 13.0 6 -0.08201344311237335
-3.0902745723724365 1.446932315826416 0.7877786159515381 70.0 14 -0.0820111408829689
-1.9195137023925781 0.8991656303405762 -0.03699910268187523 9.0 7 -0.08200883865356445
-3.0629918575286865 1.4354627132415771 0.906384289264679 76.0 15 -0.08200653642416
-2.846198081970215 1.3381052017211914 -0.8427148461341858 7.0 0 -0.08198579400777817
-1.8348605632781982 0.8630288243293762 0.03539348021149635 2.0 8 -0.08198349177837372
-3.0980703830718994 1.457841396331787 -0.7904780507087708 30.0 1 -0.08198118954896927
-1.964236855506897 0.9247179627418518 0.11377837508916855 58.0 9 -0.08197888731956482
-1.9911874532699585 0.9374056458473206 -0.42779380083084106 5.0 2 -0.08197658509016037
-2.0331878662109375 0.9576126933097839 0.19662334024906158 49.0 10 -0.08197427541017532
-2.0228092670440674 0.9531556963920593 -0.3541676700115204 11.0 3 -0.08197197318077087
-1.9661544561386108 0.9268785715103149 0.2668938934803009 3.0 11 -0.08196967095136642
-1.9947195053100586 0.94077068567276 -0.27079370617866516 1.0 4 -0.08196736872196198
-1.9669283628463745 0.9280832409858704 0.34446874260902405 1.0 12 -0.08196505904197693
-1.9586420059204102 0.9241733551025391 -0.18947657942771912 9.0 5 -0.08196275681257248
-2.0221614837646484 0.9545756578445435 0.43466290831565857 1.0 13 -0.08196045458316803
-1.9324039220809937 0.9126179814338684 -0.11199896037578583 11.0 6 -0.08195815235376358
-3.072871208190918 1.4518831968307495 0.7846293449401855 72.0 14 -0.08195584267377853
-1.9254027605056763 0.9101330041885376 -0.03717362508177757 9.0 7 -0.08195354044437408
-3.0719339847564697 1.4527522325515747 0.9105254411697388 78.0 15 -0.08195123821496964
-2.8432552814483643 1.3488601446151733 -0.8432324528694153 6.0 0 -0.0819305032491684
-1.8499022722244263 0.8780027031898499 0.03574252873659134 2.0 8 -0.08192820101976395
-3.0841612815856934 1.4644666910171509 -0.7882285714149475 30.0 1 -0.0819258913397789
-1.9537808895111084 0.9281408786773682 0.11335969716310501 62.0 9 -0.08192358911037445
-1.9932230710983276 0.9468777775764465 -0.4289386570453644 5.0 2 -0.08192128688097
-2.0262339115142822 0.9629936218261719 0.19627472758293152 49.0 10 -0.08191898465156555
-2.014117956161499 0.9576656222343445 -0.3532290756702423 9.0 3 -0.0819166749715805
-1.9826258420944214 0.9431167840957642 0.26957499980926514 5.0 11 -0.08191437274217606
-1.9842534065246582 0.9443157315254211 -0.2698187232017517 1.0 4 -0.0819120705127716
-1.9529757499694824 0.9298479557037354 0.3425915241241455 1.0 12 -0.08190976828336716
-1.9661977291107178 0.9361432194709778 -0.1905224472284317 9.0 5 -0.08190745860338211
-2.0046372413635254 0.9548748135566711 0.43160995841026306 1.0 13 -0.08190515637397766
-1.9346154928207397 0.9219353795051575 -0.11231297254562378 9.0 6 -0.08190285414457321
-3.081857204437256 1.4693092107772827 0.7882285714149475 71.0 14 -0.08190055191516876
-1.9131896495819092 0.9125444889068604 -0.03699910268187523 10.0 7 -0.08189824223518372
-3.0738184452056885 1.466794490814209 0.9125959873199463 76.0 15 -0.08189594000577927
-2.8280739784240723 1.353772759437561 -0.840126633644104 6.0 0 -0.08187520503997803
-1.8432191610336304 0.8827268481254578 0.03567272052168846 2.0 8 -0.08187290281057358
-3.057941198348999 1.4651193618774414 -0.782829761505127 31.0 1 -0.08187060058116913
-1.9577330350875854 0.9384088516235352 0.11377837508916855 64.0 9 -0.08186829090118408
-1.9934462308883667 0.9555273652076721 -0.42970186471939087 5.0 2 -0.08186598867177963
-2.015674591064453 0.966614305973053 0.1955774873495102 51.0 10 -0.08186368644237518
-2.0178866386413574 0.9681082963943481 -0.3544805347919464 9.0 3 -0.08186138421297073
-1.98111093044281 0.9508905410766602 0.2698187232017517 4.0 11 -0.08185907453298569
-2.0024192333221436 0.9615474343299866 -0.2727436125278473 1.0 4 -0.08185677230358124
-1.9408153295516968 0.9323825836181641 0.341027170419693 1.0 12 -0.08185447007417679
-1.952142596244812 0.9378243088722229 -0.18947657942771912 11.0 5 -0.08185216784477234
-2.004830837249756 0.9635674357414246 0.43237319588661194 1.0 13 -0.08184985816478729
-1.9367858171463013 0.9312790036201477 -0.11262699216604233 10.0 6 -0.08184755593538284
-3.0907580852508545 1.4868171215057373 0.7918277978897095 71.0 14 -0.0818452537059784
-1.9099925756454468 0.9192172884941101 -0.03699910268187523 9.0 7 -0.08184295147657394
-3.0721607208251953 1.4791914224624634 0.91363126039505 76.0 15 -0.0818406492471695
-2.823331594467163 1.363635778427124 -0.840126633644104 6.0 0 -0.08181990683078766
-1.8437278270721436 0.8908956050872803 0.03574252873659134 2.0 8 -0.08181760460138321
-3.0440359115600586 1.4715439081192017 -0.7805802226066589 33.0 1 -0.08181530237197876
-1.9653996229171753 0.9501110315322876 0.11440641433000565 66.0 9 -0.08181300014257431
-1.99363374710083 0.9641891717910767 -0.43046510219573975 5.0 2 -0.08181069046258926
-2.0087008476257324 0.971908688545227 0.19522884488105774 48.0 10 -0.08180838823318481
-2.003826856613159 0.9699825644493103 -0.35260334610939026 9.0 3 -0.08180608600378036
-1.972420334815979 0.9552041888237 0.269087553024292 4.0 11 -0.08180378377437592
-1.9490294456481934 0.9442963600158691 -0.26591894030570984 1.0 4 -0.08180147409439087
-1.9448235034942627 0.9422586560249329 0.3422786593437195 1.0 12 -0.08179917186498642
-1.9434783458709717 0.9420263767242432 -0.18895365297794342 13.0 5 -0.08179686963558197
-1.9873234033584595 0.9637062549591064 0.42932024598121643 1.0 13 -0.08179456740617752
-1.937117099761963 0.9397775530815125 -0.1128363311290741 10.0 6 -0.08179226517677307
-3.0943150520324707 1.5018513202667236 0.7940772771835327 68.0 14 -0.08178995549678802
-1.9069337844848633 0.9255460500717163 -0.03699910268187523 9.0 7 -0.08178765326738358
-3.0672385692596436 1.4893710613250732 0.91363126039505 76.0 15 -0.08178535103797913
-2.8150811195373535 1.3717902898788452 -0.8390913605690002 6.0 0 -0.08176461607217789
-1.8407633304595947 0.8970047831535339 0.03574252873659134 1.0 8 -0.08176230639219284
-3.0181193351745605 1.471382737159729 -0.7751813530921936 32.0 1 -0.08176000416278839
-1.9656615257263184 0.9587169289588928 0.11461575329303741 68.0 9 -0.08175770193338394
-2.018486499786377 0.9849175214767456 -0.43657100200653076 6.0 2 -0.08175539970397949
-2.012458086013794 0.9824107885360718 0.19592611491680145 49.0 10 -0.08175309002399445
-2.0041496753692627 0.9783549904823303 -0.3532290756702423 9.0 3 -0.08175078779459
-1.9728093147277832 0.9634820818901062 0.26957499980926514 6.0 11 -0.08174848556518555
-1.981558918952942 0.9681835770606995 -0.27079370617866516 1.0 4 -0.0817461833357811
-1.957494854927063 0.9568491578102112 0.3450944721698761 1.0 12 -0.08174388110637665
-1.9419682025909424 0.949679434299469 -0.18912795186042786 12.0 5 -0.0817415714263916
-1.9770621061325073 0.966841459274292 0.42779380083084106 1.0 13 -0.08173926919698715
-1.9304019212722778 0.9444407224655151 -0.11262699216604233 11.0 6 -0.0817369669675827
-3.0963189601898193 1.5155311822891235 0.7958768606185913 70.0 14 -0.08173466473817825
-1.903691291809082 0.9321969151496887 -0.03699910268187523 10.0 7 -0.0817323550581932
-3.072430372238159 1.5051673650741577 0.9167370796203613 76.0 15 -0.08173005282878876
-2.8295884132385254 1.390490174293518 -0.8447853922843933 7.0 0 -0.08170931786298752
-1.8160864114761353 0.8928378224372864 0.035323671996593475 1.0 8 -0.08170701563358307
-2.9832372665405273 1.4672877788543701 -0.7675330638885498 30.0 1 -0.08170470595359802
-1.9587187767028809 0.9638089537620544 0.11440641433000565 68.0 9 -0.08170240372419357
-1.979978322982788 0.9742699265480042 -0.4289386570453644 4.0 2 -0.08170010149478912
-2.019914150238037 0.9943586587905884 0.19697196781635284 49.0 10 -0.08169779926538467
-2.0042665004730225 0.9870902895927429 -0.35385480523109436 9.0 3 -0.08169549703598022
-1.969434142112732 0.970362663269043 0.26957499980926514 5.0 11 -0.08169318735599518
-2.006655693054199 0.9891375303268433 -0.2746935188770294 1.0 4 -0.08169088512659073
-1.966544270515442 0.9697925448417664 0.34728455543518066 3.0 12 -0.08168858289718628
-1.9495295286178589 0.9614018201828003 -0.19017383456230164 10.0 5 -0.08168628066778183
-1.97015380859375 0.9719995856285095 0.4270305633544922 1.0 13 -0.08168397098779678
-1.9235113859176636 0.949405312538147 -0.11241763830184937 11.0 6 -0.08168166875839233
-3.092757225036621 1.5271929502487183 0.7963268160820007 71.0 14 -0.08167936652898788
-1.92014741897583 0.9485786557197571 -0.0373830571770668 12.0 7 -0.08167706429958344
-3.081012725830078 1.5227307081222534 0.9208781719207764 80.0 15 -0.08167475461959839
-2.822986602783203 1.399500846862793 -0.844267725944519 7.0 0 -0.08165401965379715
-1.820124626159668 0.902725338935852 0.03546328842639923 1.0 8 -0.0816517174243927
-2.9606406688690186 1.469030737876892 -0.7630340456962585 31.0 1 -0.08164941519498825
-1.9571316242218018 0.9715285301208496 0.11451108753681183 70.0 9 -0.0816471129655838
-1.9748066663742065 0.9803025126457214 -0.42855700850486755 4.0 2 -0.08164480328559875
-2.0146467685699463 1.0005168914794922 0.1967976689338684 47.0 10 -0.0816425010561943
-2.011422872543335 0.9993541240692139 -0.3557320237159729 9.0 3 -0.08164019882678986
-1.964257001876831 0.9763476848602295 0.26933127641677856 4.0 11 -0.0816378965973854
-1.9436928033828735 0.966972291469574 0.343843013048172 2.0 12 -0.08163328468799591
-1.9586488008499146 0.9744127988815308 -0.19139400124549866 9.0 5 -0.08163098245859146
-1.9737790822982788 0.9823697805404663 0.42855700850486755 2.0 13 -0.08162868022918701
-1.9201853275299072 0.9561144113540649 -0.11241763830184937 11.0 6 -0.08162637054920197
-3.0926406383514404 1.5405855178833008 0.7976765036582947 70.0 14 -0.08162406831979752
-1.9060858488082886 0.9499236941337585 -0.03717362508177757 13.0 7 -0.08162176609039307
-3.0791361331939697 1.5352009534835815 0.9219135046005249 80.0 15 -0.08161946386098862
-2.816356897354126 1.4084818363189697 -0.8437501192092896 9.0 0 -0.08159872889518738
-1.838422417640686 0.9198108315467834 0.035882145166397095 1.0 8 -0.08159641921520233
-2.952009677886963 1.4776118993759155 -0.7621342539787292 30.0 1 -0.08159411698579788
-1.9573004245758057 0.98014235496521 0.1147204264998436 70.0 9 -0.08159181475639343
-1.9696179628372192 0.9863105416297913 -0.4281754195690155 6.0 2 -0.08158951252698898
-2.0093603134155273 1.0066512823104858 0.19662334024906158 44.0 10 -0.08158720284700394
-2.0061564445495605 1.0054842233657837 -0.3554191291332245 9.0 3 -0.08158490061759949
-1.9785823822021484 0.9920956492424011 0.2717686593532562 3.0 11 -0.08158259838819504
-1.9456019401550293 0.9764092564582825 0.3447815775871277 3.0 12 -0.08157798647880554
-1.9426003694534302 0.9753267765045166 -0.19017383456230164 9.0 5 -0.08157568424940109
-1.9685839414596558 0.9883724451065063 0.4281754195690155 2.0 13 -0.08157338201999664
-1.92576003074646 0.9672930836677551 -0.11294099688529968 11.0 6 -0.0815710797905922
-3.097691535949707 1.5566215515136719 0.8003758788108826 68.0 14 -0.08156877011060715
-1.9027581214904785 0.9565718770027161 -0.03717362508177757 13.0 7 -0.0815664678812027
-3.0772104263305664 1.5476751327514648 0.9229487776756287 78.0 15 -0.08156416565179825
-2.804276466369629 1.4153136014938354 -0.841679573059082 7.0 0 -0.08154343068599701
-1.835200309753418 0.926222562789917 0.035882145166397095 1.0 8 -0.08154112845659256
-2.929438352584839 1.4791233539581299 -0.757635235786438 31.0 1 -0.08153881877660751
-1.9592151641845703 0.9896702170372009 0.11503444612026215 68.0 9 -0.08153651654720306
-1.9747503995895386 0.9979508519172668 -0.4300835132598877 6.0 2 -0.08153421431779861
-2.0038795471191406 1.0131099224090576 0.19644904136657715 38.0 10 -0.08153191208839417
-2.0077457427978516 1.0155051946640015 -0.35635775327682495 9.0 3 -0.08152960240840912
-1.996363878250122 1.0097483396530151 0.2746935188770294 4.0 11 -0.08152730017900467
-1.9439444541931152 0.9840865135192871 0.3450944721698761 3.0 12 -0.08152269572019577
-1.9391838312149048 0.9821023344993591 -0.19017383456230164 9.0 5 -0.08152038604021072
-1.9631966352462769 0.994694173336029 0.42779380083084106 3.0 13 -0.08151808381080627
-1.9311094284057617 0.978860080242157 -0.1134643703699112 11.0 6 -0.08151578158140182
-3.0954415798187256 1.5697275400161743 0.8012757301330566 70.0 14 -0.08151347935199738
-1.8994076251983643 0.963207483291626 -0.03717362508177757 11.0 7 -0.08151117712259293
-3.071789264678955 1.5584073066711426 0.9229487776756287 80.0 15 -0.08150886744260788
-2.806205987930298 1.4285991191864014 -0.8437501192092896 9.0 0 -0.08148813247680664
-1.8317934274673462 0.932942271232605 0.035882145166397095 1.0 8 -0.08148583024740219
-2.9066336154937744 1.4810038805007935 -0.753136157989502 31.0 1 -0.08148352801799774
-1.9628666639328003 1.0001306533813477 0.11545313149690628 68.0 9 -0.0814812183380127
-1.980000615119934 1.0092954635620117 -0.4319916069507599 5.0 2 -0.08147891610860825
-2.018079996109009 1.029150128364563 0.19819216430187225 29.0 10 -0.0814766138792038
-1.9971504211425781 1.0189166069030762 -0.35510629415512085 11.0 3 -0.08147431164979935
-1.9820408821105957 1.011643886566162 0.2732310891151428 3.0 11 -0.0814720019698143
-1.9492939710617065 0.9953579306602478 0.3466588258743286 3.0 12 -0.0814673975110054
-1.9410666227340698 0.9915845394134521 -0.19069677591323853 10.0 5 -0.08146509528160095
-1.9562159776687622 0.9997540712356567 0.4270305633544922 3.0 13 -0.0814627930521965
-1.918789029121399 0.9810488224029541 -0.11294099688529968 12.0 6 -0.08146048337221146
-3.107292890548706 1.5893975496292114 0.8057747483253479 68.0 14 -0.081458181142807
-1.906715989112854 0.9752957820892334 -0.0373830571770668 9.0 7 -0.08145587891340256
-3.0835282802581787 1.577920913696289 0.9281251430511475 80.0 15 -0.08145357668399811
-2.794327735900879 1.4348560571670532 -0.841679573059082 9.0 0 -0.08143283426761627
-1.8393629789352417 0.9444922804832458 0.036091577261686325 1.0 8 -0.08143053203821182
-2.8895723819732666 1.4844013452529907 -0.7499868273735046 33.0 1 -0.08142822980880737
-1.9558110237121582 1.0051498413085938 0.11524379253387451 68.0 9 -0.08142592757940292
-1.95900559425354 1.0072239637374878 -0.4281754195690155 3.0 2 -0.08142362534999847
-2.021561861038208 1.0398340225219727 0.19888940453529358 21.0 10 -0.08142131567001343
-2.0095701217651367 1.0336657762527466 -0.35792210698127747 13.0 3 -0.08141901344060898
-1.9963260889053345 1.0272940397262573 0.2756684720516205 2.0 11 -0.08141671121120453
-1.9493194818496704 1.0039656162261963 0.34728455543518066 4.0 12 -0.08141209930181503
-1.9446779489517212 1.0020043849945068 -0.19139400124549866 9.0 5 -0.08140979707241058
-1.9843038320541382 1.0224218368530273 0.4338997006416321 2.0 13 -0.08140749484300613
-1.917300820350647 0.9883211851119995 -0.11304567754268646 14.0 6 -0.08140519261360168
-3.0950767993927 1.5961203575134277 0.8039751052856445 66.0 14 -0.08140288293361664
-1.9068540334701538 0.98377925157547 -0.03745286539196968 8.0 7 -0.08140058070421219
-3.0848681926727295 1.5922181606292725 0.930195689201355 78.0 15 -0.08139827847480774
-2.796416759490967 1.4476672410964966 -0.8437501192092896 9.0 0 -0.0813775435090065
-1.8467090129852295 0.9564250111579895 0.03630100563168526 1.0 8 -0.08137524127960205
-2.8670706748962402 1.4855138063430786 -0.7454878091812134 32.0 1 -0.081372931599617
-1.9487440586090088 1.0101326704025269 0.11503444612026215 66.0 9 -0.08137062937021255
-1.950425624847412 1.0110042095184326 -0.4270305633544922 2.0 2 -0.0813683271408081
-2.023408889770508 1.0492832660675049 0.19941233098506927 8.0 10 -0.08136602491140366
-2.0112099647521973 1.0434032678604126 -0.35886070132255554 11.0 3 -0.08136371523141861
-2.005061626434326 1.0406570434570312 0.27737462520599365 1.0 11 -0.08136141300201416
-1.9633328914642334 1.0198699235916138 0.3504132330417633 4.0 12 -0.08135680854320526
-1.9448806047439575 1.010284662246704 -0.19174262881278992 9.0 5 -0.08135449886322021
-3.0921578407287598 1.6069318056106567 0.6773719787597656 59.0 13 -0.08135219663381577
-1.9049785137176514 0.9904016852378845 -0.11252231895923615 13.0 6 -0.08134989440441132
-3.098130941390991 1.6114106178283691 0.8062246441841125 67.0 14 -0.08134759217500687
-1.8998608589172363 0.988582968711853 -0.0373830571770668 8.0 7 -0.08134528249502182
-3.0895726680755615 1.6083297729492188 0.9333015084266663 78.0 15 -0.08134298026561737
-2.787921190261841 1.4556314945220947 -0.8427148461341858 10.0 0 -0.08132224529981613
-1.8610836267471313 0.9721243381500244 0.03665005415678024 1.0 8 -0.08131994307041168
-2.854959487915039 1.4919019937515259 -0.7436882257461548 33.0 1 -0.08131764084100723
-1.9522860050201416 1.020630121231079 0.11545313149690628 64.0 9 -0.08131533116102219
-1.9190471172332764 1.0032533407211304 -0.42092466354370117 1.0 2 -0.08131302893161774
-1.991485595703125 1.0415663719177246 0.19662334024906158 8.0 10 -0.08131072670221329
-2.018057346343994 1.0559115409851074 -0.3607378900051117 9.0 3 -0.08130842447280884
-3.130511522293091 1.638679027557373 0.4338549077510834 37.0 11 -0.08130611479282379
-1.9510122537612915 1.0221331119537354 0.3488488793373108 3.0 12 -0.08130151033401489
-1.9378126859664917 1.0152177810668945 -0.19139400124549866 10.0 5 -0.08129920810461044
-3.100440502166748 1.625006914138794 0.6804249286651611 64.0 13 -0.0812968984246254
-1.9156605005264282 1.0044652223587036 -0.11335969716310501 13.0 6 -0.08129459619522095
-3.1080191135406494 1.6303620338439941 0.8102737665176392 70.0 14 -0.0812922939658165
-1.898168921470642 0.9961383938789368 -0.03741795942187309 9.0 7 -0.08128999173641205
-3.083939790725708 1.6191046237945557 0.9333015084266663 78.0 15 -0.081287682056427
-2.769148588180542 1.4581530094146729 -0.8385737538337708 9.0 0 -0.08126694709062576
-1.7869102954864502 0.9413337707519531 0.0352538600564003 1.0 8 -0.08126464486122131
-2.839390516281128 1.4964072704315186 -0.7409887909889221 36.0 1 -0.08126234263181686
-1.9594920873641968 1.0326857566833496 0.11608116328716278 66.0 9 -0.08126004040241241
-1.9155336618423462 1.0099455118179321 -0.42092466354370117 1.0 2 -0.08125773072242737
-1.9878379106521606 1.048511266708374 0.19662334024906158 10.0 10 -0.08125542849302292
-1.9986357688903809 1.0546525716781616 -0.35792210698127747 8.0 3 -0.08125312626361847
-3.142326831817627 1.6588647365570068 0.43629229068756104 63.0 11 -0.08125082403421402
-1.9511055946350098 1.0304423570632935 0.34947463870048523 1.0 12 -0.08124621212482452
-1.9342570304870605 1.0219758749008179 -0.19139400124549866 9.0 5 -0.08124390989542007
-3.1034274101257324 1.6404075622558594 0.6823329925537109 70.0 13 -0.08124160766601562
-1.9227365255355835 1.0167474746704102 -0.11398772895336151 13.0 6 -0.08123929798603058
-3.111208915710449 1.645214557647705 0.8125232458114624 72.0 14 -0.08123699575662613
-1.900158166885376 1.0052324533462524 -0.03752267360687256 9.0 7 -0.08123469352722168
-3.0819685459136963 1.6311299800872803 0.93433678150177 80.0 15 -0.08123239129781723
-2.7779488563537598 1.4745739698410034 -0.8427148461341858 10.0 0 -0.08121165633201599
-1.8402947187423706 0.9772663116455078 0.036370813846588135 1.0 8 -0.08120934665203094
-2.8051562309265137 1.4902721643447876 -0.7333405017852783 37.0 1 -0.0812070444226265
-1.9560567140579224 1.0391781330108643 0.11608116328716278 63.0 9 -0.08120474219322205
-1.9572478532791138 1.0402482748031616 -0.4308467507362366 1.0 2 -0.0812024399638176
-2.042402982711792 1.0859646797180176 0.2023756206035614 1.0 10 -0.08120013028383255
-2.000359296798706 1.0640575885772705 -0.35886070132255554 7.0 3 -0.0811978280544281
-3.142066240310669 1.6720730066299438 0.4370235204696655 67.0 11 -0.08119552582502365
-3.105473756790161 1.6532955169677734 0.5572196245193481 70.0 12 -0.08119091391563416
-1.9308574199676514 1.0283845663070679 -0.19139400124549866 10.0 5 -0.0811886116862297
-3.097970724105835 1.6506893634796143 0.6823329925537109 70.0 13 -0.08118630945682526
-1.9070167541503906 1.0165414810180664 -0.11325501650571823 13.0 6 -0.0811840072274208
-3.1022965908050537 1.6536893844604492 0.8116234540939331 66.0 14 -0.08118170499801636
-1.9074010848999023 1.0171738862991333 -0.03773210570216179 11.0 7 -0.08117939531803131
-3.0867695808410645 1.6467972993850708 0.9374426603317261 80.0 15 -0.08117709308862686
-2.769636869430542 1.4819550514221191 -0.841679573059082 11.0 0 -0.08115635812282562
-1.865251898765564 0.9984627962112427 0.03692929446697235 1.0 8 -0.08115405589342117
-2.7864556312561035 1.4922065734863281 -0.7297412753105164 24.0 1 -0.08115174621343613
-1.9524174928665161 1.0459997653961182 0.11608116328716278 66.0 9 -0.08114944398403168
-1.9537872076034546 1.0467336177825928 -0.4308467507362366 1.0 2 -0.08114714175462723
-3.148622989654541 1.687569260597229 0.3125405013561249 32.0 10 -0.08114483952522278
-2.007265090942383 1.0762859582901 -0.3607378900051117 6.0 3 -0.08114252984523773
-3.1365039348602295 1.6824833154678345 0.4370235204696655 67.0 11 -0.08114022761583328
-3.1170878410339355 1.6734694242477417 0.5603483319282532 76.0 12 -0.08113562315702438
-1.9412976503372192 1.042660117149353 -0.1927884966135025 11.0 5 -0.08113332092761993
-3.106316328048706 1.6683851480484009 0.6853859424591064 67.0 13 -0.08113101124763489
-1.9001165628433228 1.020969271659851 -0.11304567754268646 11.0 6 -0.08112870901823044
-3.1136701107025146 1.6737351417541504 0.8161224722862244 72.0 14 -0.08112640678882599
-1.9144055843353271 1.029508352279663 -0.03794153034687042 11.0 7 -0.08112410455942154
-3.0946125984191895 1.6648836135864258 0.9415837526321411 78.0 15 -0.08112179487943649
-2.7675862312316895 1.4939323663711548 -0.8427148461341858 10.0 0 -0.08110105991363525
-1.8441581726074219 0.9954694509506226 0.036580245941877365 1.0 8 -0.0810987576842308
-2.7743709087371826 1.4982200860977173 -0.727941632270813 10.0 1 -0.08109645545482635
-1.9452399015426636 1.050909399986267 0.11587180942296982 64.0 9 -0.0810941532254219
-1.9706631898880005 1.0650891065597534 -0.43542614579200745 1.0 2 -0.08109184354543686
-3.151179552078247 1.703836441040039 0.31341204047203064 35.0 10 -0.08108954131603241
-2.0241568088531494 1.0949134826660156 -0.36449235677719116 7.0 3 -0.08108723908662796
-3.1410884857177734 1.6990877389907837 0.4384859502315521 67.0 11 -0.08108493685722351
-3.102541446685791 1.6796377897262573 0.558784008026123 63.0 12 -0.08108032494783401
-1.944654107093811 1.0532256364822388 -0.19348573684692383 9.0 5 -0.08107802271842957
-3.11398983001709 1.6872414350509644 0.688438892364502 66.0 13 -0.08107572048902512
-1.910408854484558 1.0355409383773804 -0.11388305574655533 12.0 6 -0.08107341080904007
-3.0886707305908203 1.6749175786972046 0.8111735582351685 66.0 14 -0.08107110857963562
-1.905526876449585 1.0333250761032104 -0.037836819887161255 10.0 7 -0.08106880635023117
-3.098970651626587 1.681203007698059 0.9446895122528076 76.0 15 -0.08106650412082672
-2.7555675506591797 1.4998897314071655 -0.8406442999839783 12.0 0 -0.08104576915502548
-1.8931834697723389 1.0309110879898071 0.037627387791872025 1.0 8 -0.08104345947504044
-2.7568821907043457 1.5018528699874878 -0.7247923612594604 9.0 1 -0.08104115724563599
-1.9483898878097534 1.0618555545806885 0.11629050970077515 61.0 9 -0.08103885501623154
-1.966933250427246 1.071961522102356 -0.43542614579200745 1.0 2 -0.08103655278682709
-3.150460958480835 1.7176861763000488 0.31393498182296753 31.0 10 -0.08103424310684204
-2.020322322845459 1.1019729375839233 -0.36449235677719116 7.0 3 -0.08103194087743759
-3.1470372676849365 1.7172456979751587 0.4401921033859253 64.0 11 -0.08102963864803314
-3.098098039627075 1.6919447183609009 0.5590968132019043 61.0 12 -0.08102502673864365
-1.932038426399231 1.0555696487426758 -0.19261418282985687 9.0 5 -0.0810227245092392
-3.1166956424713135 1.7028075456619263 0.6903470158576965 66.0 13 -0.08102042227983475
-1.910287857055664 1.0441186428070068 -0.1140923947095871 11.0 6 -0.0810181200504303
-3.1118721961975098 1.7015827894210815 0.8188218474388123 72.0 14 -0.08101581037044525
-1.8947092294692993 1.0364633798599243 -0.0376971997320652 9.0 7 -0.0810135081410408
-3.092787742614746 1.6925499439239502 0.9446895122528076 76.0 15 -0.08101120591163635
-2.7466654777526855 1.5081192255020142 -0.8396090269088745 12.0 0 -0.08099047094583511
-1.889573335647583 1.037513256072998 0.037627387791872025 1.0 8 -0.08098816871643066
-2.7294185161590576 1.4992703199386597 -0.7189435958862305 24.0 1 -0.08098585903644562
-1.958674669265747 1.0763449668884277 0.11712788045406342 61.0 9 -0.08098355680704117
-1.9629913568496704 1.0791630744934082 -0.43542614579200745 1.0 2 -0.08098125457763672
-3.14414381980896 1.7292225360870361 0.31393498182296753 30.0 10 -0.08097895234823227
-2.0145392417907715 1.1084176301956177 -0.36417946219444275 4.0 3 -0.08097664266824722
-3.153198719024658 1.7349183559417725 0.44189828634262085 66.0 11 -0.08097434043884277
-3.104285478591919 1.709418773651123 0.5612869262695312 63.0 12 -0.08096973598003387
-1.9335776567459106 1.0651911497116089 -0.19313712418079376 9.0 5 -0.08096742630004883
-3.106994867324829 1.7123241424560547 0.6895837187767029 66.0 13 -0.08096512407064438
-1.9221891164779663 1.0597925186157227 -0.11503444612026215 11.0 6 -0.08096282184123993
-3.1141467094421387 1.7176822423934937 0.8210713863372803 70.0 14 -0.08096051961183548
-1.896332859992981 1.0459678173065186 -0.03780191391706467 8.0 7 -0.08095821738243103
-3.0902438163757324 1.705202341079712 0.9457248449325562 74.0 15 -0.08095590770244598
-2.7382686138153076 1.5153485536575317 -0.8385737538337708 11.0 0 -0.08088326454162598
-1.8859399557113647 1.0441032648086548 0.037627387791872025 1.0 8 -0.08088096231222153
-2.703711986541748 1.4974579811096191 -0.7135447859764099 36.0 1 -0.08087866008281708
-1.9585888385772705 1.084769606590271 0.11733722686767578 58.0 9 -0.08087635040283203
-1.9594018459320068 1.0856667757034302 -0.43542614579200745 1.0 2 -0.08087404817342758
-3.1471052169799805 1.744469165802002 0.3148065507411957 30.0 10 -0.08087174594402313
-2.0143072605133057 1.1170079708099365 -0.3648051917552948 6.0 3 -0.08086944371461868
-3.1488592624664307 1.7468775510787964 0.4421420395374298 64.0 11 -0.08086713403463364
-3.112417697906494 1.727372407913208 0.5637898445129395 63.0 12 -0.08086252957582474
-1.9439698457717896 1.0793344974517822 -0.1945316195487976 9.0 5 -0.08086022734642029
-3.10129976272583 1.722617268562317 0.6895837187767029 64.0 13 -0.08085791766643524
-1.9134267568588257 1.0632506608963013 -0.1147204264998436 12.0 6 -0.08085561543703079
-3.1254658699035645 1.7374682426452637 0.8255704045295715 76.0 14 -0.08085331320762634
-1.8998448848724365 1.056136965751648 -0.03794153034687042 8.0 7 -0.0808510109782219
-3.0930137634277344 1.7201354503631592 0.9483130574226379 72.0 15 -0.08084870129823685
-2.732962131500244 1.5248976945877075 -0.8385737538337708 11.0 0 -0.08082796633243561
-1.8824673891067505 1.0503512620925903 0.037627387791872025 1.0 8 -0.08082566410303116
-2.693626642227173 1.5035662651062012 -0.712195098400116 34.0 1 -0.08082336187362671
-1.9443275928497314 1.0857571363449097 0.11670918762683868 58.0 9 -0.08082105964422226
-1.9556000232696533 1.0925003290176392 -0.43542614579200745 1.0 2 -0.08081874996423721
-3.1549105644226074 1.7632193565368652 0.31620103120803833 30.0 10 -0.08081644773483276
-2.0330088138580322 1.1362098455429077 -0.3688724935054779 6.0 3 -0.08081414550542831
-3.146514415740967 1.7592476606369019 0.44262948632240295 63.0 11 -0.08081184327602386
-3.1167123317718506 1.7440131902694702 0.5656670928001404 65.0 12 -0.08080723136663437
-1.9488831758499146 1.090979814529419 -0.19540317356586456 7.0 5 -0.08080492913722992
-3.1092751026153564 1.740564227104187 0.6926366686820984 61.0 13 -0.08080262690782547
-1.9064052104949951 1.0676382780075073 -0.11451108753681183 12.0 6 -0.08080031722784042
-3.112886905670166 1.7440134286880493 0.8237708210945129 66.0 14 -0.08079801499843597
-1.8944026231765747 1.0617848634719849 -0.03790662810206413 7.0 7 -0.08079571276903152
-3.100470542907715 1.7384803295135498 0.9524540901184082 70.0 15 -0.08079341053962708
-2.7278902530670166 1.533952236175537 -0.8385737538337708 11.0 0 -0.08077267557382584
-1.8787894248962402 1.0569158792495728 0.037627387791872025 1.0 8 -0.08077036589384079
-1.940525770187378 1.092537522315979 0.11670918762683868 62.0 9 -0.08076576143503189
-3.159461736679077 1.7795385122299194 0.3172468841075897 27.0 10 -0.0807611495256424
-2.0324723720550537 1.145238995552063 -0.36949828267097473 5.0 3 -0.08075884729623795
-3.154188394546509 1.7780187129974365 0.44457942247390747 63.0 11 -0.0807565450668335
-3.110605478286743 1.7548820972442627 0.5656670928001404 63.0 12 -0.080751933157444
-1.9537383317947388 1.1026729345321655 -0.19627472758293152 7.0 5 -0.08074963092803955
-3.113438367843628 1.757197618484497 0.694926381111145 64.0 13 -0.0807473286986351
-1.9131020307540894 1.0801777839660645 -0.11513911187648773 11.0 6 -0.08074502646923065
-3.111870527267456 1.7577441930770874 0.8251205086708069 73.0 14 -0.0807427242398262
-1.887202501296997 1.0664238929748535 -0.037836819887161255 7.0 7 -0.08074041455984116
-3.1044740676879883 1.7549959421157837 0.9555599689483643 70.0 15 -0.0807381123304367
-2.68023943901062 1.5201138257980347 -0.8256327509880066 21.0 0 -0.08071737736463547
-1.8750885725021362 1.0634676218032837 0.037627387791872025 1.0 8 -0.08071507513523102
-2.2067904472351074 1.2521034479141235 -0.5857725739479065 1.0 1 -0.08071276545524597
-1.943648099899292 1.1032484769821167 0.11712788045406342 54.0 9 -0.08071046322584152
-1.9479254484176636 1.106125831604004 -0.43542614579200745 1.0 2 -0.08070816099643707
-3.151185989379883 1.7901225090026855 0.3170726001262665 27.0 10 -0.08070585876703262
-2.057457208633423 1.1692731380462646 -0.37481701374053955 4.0 3 -0.08070354908704758
-3.1583175659179688 1.794903039932251 0.4460418224334717 60.0 11 -0.08070124685764313
-3.1113290786743164 1.7696360349655151 0.5669185519218445 65.0 12 -0.08069664239883423
-1.9498775005340576 1.1094856262207031 -0.19627472758293152 6.0 5 -0.08069434016942978
-3.120626926422119 1.7763662338256836 0.6979793310165405 63.0 13 -0.08069203048944473
-1.9195435047149658 1.093112587928772 -0.11576715111732483 10.0 6 -0.08068972826004028
-3.118952989578247 1.7768551111221313 0.8287197351455688 73.0 14 -0.08068742603063583
-1.883468747138977 1.0730046033859253 -0.037836819887161255 7.0 7 -0.08068512380123138
-3.1000077724456787 1.766778588294983 0.9560776352882385 74.0 15 -0.08068281412124634
-2.646406888961792 1.5131590366363525 -0.816832959651947 32.0 0 -0.0806620791554451
-1.8711785078048706 1.070332646369934 0.037627387791872025 1.0 8 -0.08065977692604065
-2.1632845401763916 1.2379220724105835 -0.57542484998703 3.0 1 -0.0806574746966362
-1.9432520866394043 1.1120102405548096 0.11733722686767578 51.0 9 -0.08065516501665115
-1.9440524578094482 1.112918734550476 -0.43542614579200745 1.0 2 -0.0806528627872467
-3.1535630226135254 1.8060613870620728 0.31794413924217224 26.0 10 -0.08065056055784225
-1.9968012571334839 1.144041657447815 -0.36449235677719116 2.0 3 -0.0806482583284378
-3.1603291034698486 1.811402440071106 0.4472605288028717 66.0 11 -0.08064595609903336
-3.115414619445801 1.786381483078003 0.5687958002090454 65.0 12 -0.08064134418964386
-1.9459928274154663 1.1162852048873901 -0.19627472758293152 7.0 5 -0.08063904196023941
-3.1144073009490967 1.7872484922409058 0.6979793310165405 61.0 13 -0.08063673973083496
-1.9174480438232422 1.100800633430481 -0.11587180942296982 10.0 6 -0.08063443005084991
-3.1296300888061523 1.7974368333816528 0.8332187533378601 73.0 14 -0.08063212782144547
-1.8935840129852295 1.0875399112701416 -0.038116052746772766 7.0 7 -0.08062982559204102
-3.1005215644836426 1.7814384698867798 0.9581481218338013 76.0 15 -0.08062752336263657
-2.6310670375823975 1.5165983438491821 -0.813727080821991 36.0 0 -0.08060678094625473
-2.1574795246124268 1.2441157102584839 -0.5749749541282654 4.0 1 -0.08060217648744583
-1.9531989097595215 1.126771092414856 0.11817460507154465 50.0 9 -0.08059987425804138
-2.0251760482788086 1.1687641143798828 -0.45450708270072937 1.0 2 -0.08059757202863693
-3.1575915813446045 1.8230363130569458 0.31898999214172363 25.0 10 -0.08059526234865189
-1.974178433418274 1.1397923231124878 -0.3610507845878601 2.0 3 -0.08059296011924744
-3.157742738723755 1.823858380317688 0.44774800539016724 64.0 11 -0.08059065788984299
-1.9783320426940918 1.143110752105713 -0.2805432379245758 1.0 4 -0.08058835566043854
-3.1262621879577637 1.8071315288543701 0.5719244480133057 63.0 12 -0.08058604598045349
-1.9507081508636475 1.1280583143234253 -0.19714628159999847 5.0 5 -0.08058374375104904
-3.1084635257720947 1.7975666522979736 0.6979793310165405 60.0 13 -0.08058144152164459
-1.9189739227294922 1.110153317451477 -0.11618582904338837 10.0 6 -0.08057913929224014
-3.1320855617523193 1.8126858472824097 0.8354682922363281 72.0 14 -0.0805768296122551
-1.8984291553497314 1.0991530418395996 -0.03829057887196541 6.0 7 -0.08057452738285065
-3.0976271629333496 1.7941879034042358 0.959183394908905 76.0 15 -0.0805722251534462
-2.6226823329925537 1.5233745574951172 -0.8126918077468872 34.0 0 -0.08055149018764496
-2.358664035797119 1.3711225986480713 -0.6298630237579346 2.0 1 -0.08054687827825546
-1.949254035949707 1.1335816383361816 0.11817460507154465 45.0 9 -0.08054457604885101
-3.163583993911743 1.8405108451843262 0.32021018862724304 24.0 10 -0.08053997159004211
-1.9684803485870361 1.14568293094635 -0.3607378900051117 2.0 3 -0.08053766191005707
-3.151357650756836 1.834869146347046 0.44774800539016724 63.0 11 -0.08053535968065262
-1.9606068134307861 1.1420167684555054 -0.2785933315753937 3.0 4 -0.08053305745124817
-3.1318821907043457 1.8249949216842651 0.5741145610809326 67.0 12 -0.08053075522184372
-1.9658925533294678 1.1455551385879517 -0.1990637183189392 4.0 5 -0.08052844554185867
-3.115738868713379 1.8163154125213623 0.701032280921936 61.0 13 -0.08052614331245422
-1.9150866270065308 1.1168453693389893 -0.11618582904338837 9.0 6 -0.08052384108304977
-3.122372627258301 1.8216439485549927 0.8345685005187988 72.0 14 -0.08052153885364532
-1.9101245403289795 1.1148446798324585 -0.038604725152254105 5.0 7 -0.08051922917366028
-3.104691982269287 1.8127816915512085 0.9633244872093201 80.0 15 -0.08051692694425583
-2.6040120124816895 1.5247111320495605 -0.8085507154464722 34.0 0 -0.08049619197845459
-2.5825250148773193 1.5133405923843384 -0.6910496354103088 36.0 1 -0.08049158751964569
-1.9504543542861938 1.143409252166748 0.1184886172413826 33.0 9 -0.08048927783966064
-3.172607660293579 1.8606139421463013 0.3217789828777313 24.0 10 -0.08048467338085175
-1.9780998229980469 1.1605437994003296 -0.3632408678531647 1.0 3 -0.0804823711514473
-3.1586291790008545 1.853896975517273 0.44969791173934937 63.0 11 -0.08048006147146225
-1.973726749420166 1.158905029296875 -0.28103071451187134 1.0 4 -0.0804777592420578
-3.118680238723755 1.8319135904312134 0.5728631019592285 61.0 12 -0.08047545701265335
-1.9996767044067383 1.1746106147766113 -0.2028985619544983 1.0 5 -0.0804731547832489
-3.122920513153076 1.8351383209228516 0.7040852308273315 63.0 13 -0.08047084510326385
-1.9215072393417358 1.1295967102050781 -0.11681386828422546 9.0 6 -0.0804685428738594
-3.124394178390503 1.8374708890914917 0.8368179798126221 73.0 14 -0.08046624064445496
-1.9113916158676147 1.1245479583740234 -0.03870943933725357 3.0 7 -0.0804639384150505
-3.111664295196533 1.8314474821090698 0.9674656391143799 80.0 15 -0.08046163618564606
-2.5853641033172607 1.5259360074996948 -0.8044096231460571 34.0 0 -0.08044089376926422
-2.5822603702545166 1.5253194570541382 -0.6923993825912476 41.0 1 -0.08043628931045532
-1.9655680656433105 1.1610445976257324 0.11964000016450882 21.0 9 -0.08043398708105087
-3.164379119873047 1.8706624507904053 0.3216046690940857 22.0 10 -0.08042937517166138
-1.98763906955719 1.1754859685897827 -0.36574381589889526 1.0 3 -0.08042707294225693
-3.155555248260498 1.8669339418411255 0.4501853883266449 63.0 11 -0.08042477071285248
-2.0004189014434814 1.1839865446090698 -0.28541800379753113 1.0 4 -0.08042246103286743
-3.1193881034851074 1.846269965171814 0.5741145610809326 67.0 12 -0.08042015880346298
-3.1232521533966064 1.850030541419983 0.7056117057800293 64.0 13 -0.08041555434465408
-1.9312987327575684 1.1444422006607056 -0.11765124648809433 8.0 6 -0.08041325211524963
-3.124666452407837 1.852340817451477 0.8386175632476807 73.0 14 -0.08041094243526459
-1.9007714986801147 1.126800775527954 -0.038569819182157516 3.0 7 -0.08040864020586014
-3.105573892593384 1.8417561054229736 0.9674656391143799 84.0 15 -0.08040633797645569
-2.5600991249084473 1.5230984687805176 -0.7981979846954346 18.0 0 -0.08038560301065445
-2.5621166229248047 1.5249043703079224 -0.688350260257721 14.0 1 -0.08038099110126495
-1.9889609813690186 1.1842472553253174 0.12131475657224655 20.0 9 -0.0803786888718605
-3.154406785964966 1.8796570301055908 0.32125604152679443 19.0 10 -0.08037407696247101
-1.9565787315368652 1.1658917665481567 -0.3607378900051117 1.0 3 -0.08037177473306656
-3.1595778465270996 1.8834859132766724 0.4516478180885315 63.0 11 -0.08036947250366211
-1.9862520694732666 1.1845134496688843 -0.2839556038379669 1.0 4 -0.08036717027425766
-3.1281919479370117 1.8662562370300293 0.5769304037094116 65.0 12 -0.08036486804485321
-3.123843193054199 1.864402174949646 0.707138180732727 61.0 13 -0.08036025613546371
-1.936066746711731 1.155960202217102 -0.11817460507154465 5.0 6 -0.08035795390605927
-3.133563756942749 1.871686339378357 0.842666745185852 67.0 14 -0.08035565167665482
-1.9002594947814941 1.1354809999465942 -0.038639627397060394 2.0 7 -0.08035334199666977
-3.1024422645568848 1.8545680046081543 0.9685009121894836 80.0 15 -0.08035103976726532
-2.551720142364502 1.5295934677124023 -0.7971627116203308 12.0 0 -0.08033030480146408
-2.5551071166992188 1.5328360795974731 -0.6879003643989563 12.0 1 -0.08032569289207458
-2.0156404972076416 1.209682822227478 0.12319885194301605 16.0 9 -0.08032339066267014
-3.168654203414917 1.902414083480835 0.323347806930542 19.0 10 -0.08031878620386124
-1.942336916923523 1.1666120290756226 -0.35886070132255554 1.0 3 -0.08031648397445679
-3.1563870906829834 1.8965481519699097 0.4521353244781494 64.0 11 -0.08031417429447174
-3.1318159103393555 1.8832722902297974 0.5788075923919678 65.0 12 -0.08030956983566284
-3.117316246032715 1.8752951622009277 0.707138180732727 63.0 13 -0.08030495792627335
-1.9594006538391113 1.179188847541809 -0.11984935402870178 1.0 6 -0.0803026556968689
-3.1336891651153564 1.8866336345672607 0.8444663286209106 67.0 14 -0.08030035346746445
-1.9613782167434692 1.1813124418258667 -0.03996601328253746 2.0 7 -0.08029805123806
-3.1058785915374756 1.8713674545288086 0.9716067314147949 80.0 15 -0.08029574155807495
-2.6356537342071533 1.5924384593963623 -0.8251151442527771 10.0 0 -0.08027500659227371
-2.7031590938568115 1.6345120668411255 -0.7292913794517517 46.0 1 -0.08027040213346481
-2.47623348236084 1.4978885650634766 0.15166962146759033 10.0 9 -0.08026809990406036
-3.175630569458008 1.9217151403427124 0.32474228739738464 20.0 10 -0.08026348799467087
-3.1463518142700195 1.9054980278015137 0.4516478180885315 63.0 11 -0.08025888353586197
-3.142115354537964 1.904432773590088 0.5819362998008728 65.0 12 -0.08025427162647247
-2.7210617065429688 1.6492326259613037 -0.27837544679641724 3.0 5 -0.08025196939706802
-3.1241815090179443 1.8943077325820923 0.7101911306381226 63.0 13 -0.08024966716766357
-1.9552725553512573 1.186021327972412 -0.11984935402870178 1.0 6 -0.08024735748767853
-3.132081985473633 1.9005943536758423 0.8458160161972046 66.0 14 -0.08024505525827408
-1.9674992561340332 1.1943773031234741 -0.040175437927246094 2.0 7 -0.08024275302886963
-3.112536907196045 1.8902199268341064 0.97574782371521 84.0 15 -0.08024045079946518
-2.6927783489227295 1.6398108005523682 -0.8447853922843933 7.0 0 -0.08021971583366394
-2.73404598236084 1.6662499904632568 -0.7391892075538635 54.0 1 -0.08021510392427444
-3.163344144821167 1.9286404848098755 0.1941664218902588 2.0 9 -0.08021280169487
-3.1808106899261475 1.9400502443313599 0.32596248388290405 12.0 10 -0.0802081897854805
-3.154930591583252 1.9257774353027344 0.4538414776325226 12.0 11 -0.0802035853266716
-3.132077217102051 1.9133286476135254 0.581310510635376 63.0 12 -0.0801989734172821
-2.706787586212158 1.653527021408081 -0.2775038778781891 48.0 5 -0.08019667118787766
-3.1343023777008057 1.915439248085022 0.7140072584152222 64.0 13 -0.0801943689584732
-3.125429153442383 1.911515235900879 0.8458160161972046 66.0 14 -0.08018975704908371
-1.9172629117965698 1.1730595827102661 -0.0392330102622509 1.0 7 -0.08018745481967926
-3.11910080909729 1.9091421365737915 0.9798889756202698 80.0 15 -0.08018515259027481
-2.690331220626831 1.6512209177017212 -0.8458206653594971 7.0 0 -0.08016441762447357
-2.731534004211426 1.6778234243392944 -0.7400889992713928 56.0 1 -0.08015980571508408
-2.9711110591888428 1.8256950378417969 0.182757169008255 1.0 9 -0.08015750348567963
-2.6980574131011963 1.657908320426941 -0.6155498623847961 1.0 2 -0.08015520125627518
-2.6939423084259033 1.656676173210144 -0.5009031891822815 29.0 3 -0.08015058934688568
-3.0061657428741455 1.8494044542312622 0.43336743116378784 1.0 11 -0.08014828711748123
-2.760709524154663 1.699063777923584 -0.3980253338813782 7.0 4 -0.08014598488807678
-3.1253793239593506 1.9242500066757202 0.581310510635376 65.0 12 -0.08014368265867233
-2.6874260902404785 1.6546087265014648 -0.27610939741134644 48.0 5 -0.08014137297868729
-3.144313097000122 1.9366644620895386 0.7178234457969666 61.0 13 -0.08013907074928284
-2.674710988998413 1.6480680704116821 -0.16464893519878387 2.0 6 -0.08013676851987839
-3.130349636077881 1.929571270942688 0.8489653468132019 63.0 14 -0.08013446629047394
-3.1157066822052 1.9220463037490845 0.9809242486953735 76.0 15 -0.08012985438108444
-2.682907819747925 1.6595855951309204 -0.8453030586242676 7.0 0 -0.0801091194152832
-2.7405734062194824 1.696579098701477 -0.7441381216049194 55.0 1 -0.0801045149564743
-2.9800024032592773 1.8455194234848022 0.18369922041893005 6.0 9 -0.08010220527648926
-2.7256360054016113 1.6879899501800537 -0.6231822371482849 45.0 2 -0.08009990304708481
-2.9588654041290283 1.8331447839736938 0.30452215671539307 5.0 10 -0.08009760081768036
-2.693180561065674 1.6691911220550537 -0.5018418431282043 58.0 3 -0.08009529858827591
-2.97775936126709 1.8462880849838257 0.4301988184452057 4.0 11 -0.08009298890829086
-2.73451828956604 1.6961338520050049 -0.3951004445552826 10.0 4 -0.08009068667888641
-3.1354284286499023 1.945563554763794 0.584439218044281 63.0 12 -0.08008838444948196
-2.688405752182007 1.6681815385818481 -0.27680662274360657 46.0 5 -0.08008608222007751
-3.1375339031219482 1.9476282596588135 0.7178234457969666 63.0 13 -0.08008377999067307
-2.696089267730713 1.674252986907959 -0.1663236916065216 12.0 6 -0.08008147031068802
