# .PCD v0.7 - Point Cloud Data file format
VERSION 0.7
FIELDS x y z intensity ring time
SIZE 4 4 4 4 4 4
TYPE F F F F F F
COUNT 1 1 1 1 1 1
WIDTH 541
HEIGHT 1
VIEWPOINT 0 0 0 1 0 0 0
POINTS 541
DATA ascii
-1.8552823066711426 0.08522077649831772 -0.3610106408596039 30.0 2 -0.05916455760598183
-1.7156307697296143 0.07880600541830063 0.15025649964809418 45.0 10 -0.05916225165128708
-1.8568568229675293 0.0856182873249054 -0.29440969228744507 33.0 3 -0.05915994942188263
-1.7232004404067993 0.07975687086582184 0.2118089348077774 45.0 11 -0.05915764346718788
-1.8223341703414917 0.08466391265392303 -0.2239958643913269 31.0 4 -0.05915534123778343
-3.074296236038208 0.14336659014225006 0.48744985461235046 7.0 12 -0.059153035283088684
-1.7852187156677246 0.08356404304504395 -0.15635739266872406 34.0 5 -0.059150733053684235
-3.0671465396881104 0.14410680532455444 0.596850574016571 7.0 13 -0.05914842709898949
-1.7895524501800537 0.08439291268587112 -0.0938907116651535 41.0 6 -0.05914612486958504
-3.0541791915893555 0.14403103291988373 0.7058964967727661 7.0 14 -0.05914381891489029
-1.7537691593170166 0.0830121785402298 -0.030646424740552902 47.0 7 -0.05914151668548584
-3.037308931350708 0.1442987024784088 0.8147624135017395 8.0 15 -0.05913921073079109
-1.7256593704223633 0.08470071107149124 0.03015775792300701 50.0 8 -0.0591161735355854
-1.87241792678833 0.09223165363073349 -0.4328058660030365 34.0 1 -0.059113867580890656
-1.7534648180007935 0.0863722488284111 0.0920066237449646 46.0 9 -0.059111565351486206
-1.8608561754226685 0.09198769181966782 -0.3621554970741272 32.0 2 -0.05910925939679146
-1.7312499284744263 0.08588375151157379 0.15165099501609802 47.0 10 -0.05910695716738701
-1.8565305471420288 0.0924234688282013 -0.29440969228744507 36.0 3 -0.05910465121269226
-1.7169487476348877 0.08577507734298706 0.2110777199268341 42.0 11 -0.05910234898328781
-1.8418537378311157 0.09201506525278091 -0.22643324732780457 33.0 4 -0.05910004302859306
-3.069831132888794 0.15389926731586456 0.4868241250514984 7.0 12 -0.059097740799188614
-1.7968554496765137 0.09039580076932907 -0.15740327537059784 34.0 5 -0.059095434844493866
-3.050938606262207 0.15401975810527802 0.5937976241111755 6.0 13 -0.059093132615089417
-1.7872523069381714 0.09053811430931091 -0.09378603845834732 43.0 6 -0.05909082666039467
-3.071173906326294 0.1555786430835724 0.709945559501648 7.0 14 -0.05908852443099022
-1.773439884185791 0.09014870971441269 -0.030995475128293037 45.0 7 -0.05908621847629547
-3.0522212982177734 0.1556866466999054 0.8189034461975098 8.0 15 -0.05908391624689102
-1.7433415651321411 0.09136471152305603 0.03047190047800541 50.0 8 -0.059060875326395035
-1.8857240676879883 0.09915667772293091 -0.4359551668167114 39.0 1 -0.059058573096990585
-1.749179720878601 0.09197679162025452 0.09179727733135223 47.0 9 -0.05905626714229584
-1.872304081916809 0.09877823293209076 -0.36444520950317383 32.0 2 -0.05905396491289139
-1.7349348068237305 0.09183501452207565 0.1519996076822281 47.0 10 -0.05905165895819664
-1.864104151725769 0.0989985540509224 -0.29566118121147156 33.0 3 -0.05904935672879219
-1.7245841026306152 0.09189076721668243 0.21205268800258636 43.0 11 -0.05904705077409744
-1.8375740051269531 0.09791119396686554 -0.22594578564167023 33.0 4 -0.05904474854469299
-3.081139326095581 0.16471116244792938 0.48870131373405457 7.0 12 -0.059042442589998245
-1.8144514560699463 0.09731429815292358 -0.15897206962108612 36.0 5 -0.059040140360593796
-3.0739362239837646 0.1654021292924881 0.5983770489692688 7.0 13 -0.05903783440589905
-1.7909311056137085 0.09667975455522537 -0.09399539232254028 42.0 6 -0.0590355321764946
-3.0609116554260254 0.16523705422878265 0.7076960802078247 5.0 14 -0.05903322994709015
-1.7811181545257568 0.09646177291870117 -0.031135093420743942 45.0 7 -0.0590309239923954
-3.0574753284454346 0.16612188518047333 0.8204563856124878 9.0 15 -0.05902862176299095
-1.7470223903656006 0.09736796468496323 0.030541712418198586 48.0 8 -0.059005580842494965
-1.8873305320739746 0.10551826655864716 -0.4364050626754761 48.0 1 -0.05900327488780022
-1.7568244934082031 0.09852898120880127 0.09221596270799637 46.0 9 -0.05900097265839577
-1.8739265203475952 0.1050964817404747 -0.3648267984390259 57.0 2 -0.05899866670370102
-1.7505346536636353 0.0984831228852272 0.15339410305023193 45.0 10 -0.05899636447429657
-1.8815158605575562 0.10618138313293457 -0.2984769940376282 41.0 3 -0.05899405851960182
-1.7361613512039185 0.09828200936317444 0.21351510286331177 43.0 11 -0.05899175629019737
-1.8491125106811523 0.10500022768974304 -0.22740821540355682 34.0 4 -0.058989450335502625
-3.0706844329833984 0.1749037504196167 0.48713696002960205 11.0 12 -0.058987148106098175
-1.8300138711929321 0.1045561134815216 -0.16036656498908997 36.0 5 -0.058984845876693726
-3.071410655975342 0.1754821538925171 0.597995400428772 8.0 13 -0.05898253992199898
-1.8105404376983643 0.1037609651684761 -0.09504210948944092 43.0 6 -0.05898023769259453
-3.0311334133148193 0.17424313724040985 0.7009475231170654 8.0 14 -0.05897793173789978
-1.7767778635025024 0.10244828462600708 -0.031065283343195915 44.0 7 -0.05897562950849533
-3.047233819961548 0.17623582482337952 0.817868173122406 9.0 15 -0.05897332355380058
-1.762641429901123 0.10441163927316666 0.030820949003100395 51.0 8 -0.058950282633304596
-1.9083492755889893 0.11337654292583466 -0.44135400652885437 25.0 1 -0.058947980403900146
-1.7724195718765259 0.10561127960681915 0.09305334091186523 46.0 9 -0.0589456744492054
-1.9029251337051392 0.11372130364179611 -0.37055110931396484 29.0 2 -0.05894337221980095
-1.7461843490600586 0.10465969890356064 0.15304547548294067 45.0 10 -0.0589410699903965
-1.8929446935653687 0.11378797143697739 -0.3003542125225067 49.0 3 -0.05893876403570175
-1.7536412477493286 0.10541421175003052 0.21570876240730286 45.0 11 -0.0589364618062973
-1.8784571886062622 0.11324611306190491 -0.2310643047094345 48.0 4 -0.058934155851602554
-3.0700552463531494 0.1856207251548767 0.48713696002960205 8.0 12 -0.058931853622198105
-1.823671579360962 0.1105821430683136 -0.15984363853931427 34.0 5 -0.05892954766750336
-3.0589892864227295 0.1860240399837494 0.5957057476043701 7.0 13 -0.05892724543809891
-1.8161287307739258 0.11076057702302933 -0.09535612165927887 44.0 6 -0.05892493948340416
-3.0168585777282715 0.18451891839504242 0.6977982521057129 8.0 14 -0.05892263725399971
-1.784393310546875 0.1091381385922432 -0.03120490349829197 44.0 7 -0.05892033129930496
-3.0003225803375244 0.1840331256389618 0.8054448962211609 24.0 15 -0.05891802906990051
-1.76224684715271 0.11087094992399216 0.030820949003100395 48.0 8 -0.058894988149404526
-2.001274824142456 0.1262604296207428 -0.46294930577278137 1.0 1 -0.058892685920000076
-1.774013876914978 0.11223294585943222 0.09315801411867142 45.0 9 -0.05889037996530533
-2.03379225730896 0.12866781651973724 -0.39611950516700745 7.0 2 -0.05888807773590088
-1.753761887550354 0.11125899851322174 0.1537427306175232 45.0 10 -0.05888577178120613
-1.8787363767623901 0.11951706558465958 -0.29816412925720215 17.0 3 -0.05888346955180168
-1.7611675262451172 0.11234603077173233 0.21668371558189392 45.0 11 -0.058881163597106934
-1.8760483264923096 0.1200030967593193 -0.23082055151462555 38.0 4 -0.058878861367702484
-3.043727159500122 0.19522881507873535 0.48306965827941895 36.0 12 -0.058876555413007736
-1.8332159519195557 0.11758498102426529 -0.16071519255638123 30.0 5 -0.05887425318360329
-3.0269739627838135 0.1946839839220047 0.5895998477935791 41.0 13 -0.05887194722890854
-1.82768976688385 0.11787110567092896 -0.09598415344953537 45.0 6 -0.05886964499950409
-2.9967494010925293 0.19379112124443054 0.6932992339134216 56.0 14 -0.05886733904480934
-1.7959543466567993 0.11645349115133286 -0.03141433000564575 44.0 7 -0.05886503681540489
-2.957216501235962 0.1922711879014969 0.7940568327903748 61.0 15 -0.058862730860710144
-2.9049336910247803 0.19243599474430084 -0.7800806164741516 1.0 0 -0.058841995894908905
-1.769830346107483 0.1175522431731224 0.03096056915819645 47.0 8 -0.058839693665504456
-2.9963719844818115 0.199543759226799 -0.6932992339134216 14.0 1 -0.05883738771080971
-1.783575415611267 0.11909008771181107 0.09368137270212173 46.0 9 -0.05883508548140526
-2.9951469898223877 0.19998721778392792 -0.5834939479827881 54.0 2 -0.05883277952671051
-1.7613146305084229 0.1179128959774971 0.15443997085094452 45.0 10 -0.05883047729730606
-1.909842848777771 0.12819062173366547 -0.30317002534866333 0.0 3 -0.05882817134261131
-1.7607645988464355 0.11849300563335419 0.21668371558189392 47.0 11 -0.05882586911320686
-3.015434741973877 0.2039850503206253 0.4786895215511322 78.0 12 -0.058821260929107666
-1.856648564338684 0.12559665739536285 -0.1628069132566452 49.0 5 -0.05881895497441292
-3.000811815261841 0.2035219669342041 0.584638774394989 80.0 13 -0.05881665274500847
-1.8292596340179443 0.1243857592344284 -0.09608882665634155 43.0 6 -0.05881434679031372
-3.013552665710449 0.20544280111789703 0.6973482966423035 81.0 14 -0.05881204456090927
-1.8015220165252686 0.12313095480203629 -0.031519047915935516 43.0 7 -0.05880973860621452
-2.9719460010528564 0.20364925265312195 0.7981979846954346 24.0 15 -0.058807436376810074
-2.95627760887146 0.20620441436767578 -0.7940568327903748 16.0 0 -0.058786701411008835
-1.7853678464889526 0.12484495341777802 0.031239807605743408 50.0 8 -0.05878439545631409
-2.9859368801116943 0.20932051539421082 -0.6910496354103088 101.0 1 -0.05878209322690964
-1.7871334552764893 0.12559527158737183 0.0938907116651535 45.0 9 -0.05877978727221489
-2.990513563156128 0.2101658135652542 -0.5827307105064392 106.0 2 -0.05877748504281044
-1.7728171348571777 0.12490008771419525 0.1554858386516571 45.0 10 -0.05877517908811569
-1.7643004655838013 0.12491937726736069 0.21717119216918945 46.0 11 -0.058770570904016495
-3.0077881813049316 0.21349002420902252 -0.3702390789985657 123.0 4 -0.058768268674612045
-3.0304675102233887 0.21563135087490082 0.4811924695968628 93.0 12 -0.0587659627199173
-1.8780597448349 0.1336323767900467 -0.16472434997558594 17.0 5 -0.05876366049051285
-2.998124837875366 0.21385660767555237 0.5842571258544922 73.0 13 -0.0587613545358181
-1.8547128438949585 0.13262179493904114 -0.09744956344366074 65.0 6 -0.05875905230641365
-2.991436004638672 0.21442826092243195 0.6923993825912476 60.0 14 -0.0587567463517189
-1.8150430917739868 0.1304224133491516 -0.03176337853074074 45.0 7 -0.05875444412231445
-2.980851411819458 0.2147153913974762 0.8007861375808716 6.0 15 -0.058752141892910004
-2.9439799785614014 0.2156756967306137 -0.7909510731697083 10.0 0 -0.058731403201818466
-1.7849210500717163 0.13107633590698242 0.031239807605743408 50.0 8 -0.05872910097241402
-3.0046231746673584 0.22117282450199127 -0.6955487132072449 79.0 1 -0.05872679501771927
-1.784692406654358 0.13168585300445557 0.09378603845834732 45.0 9 -0.05872449278831482
-2.9838879108428955 0.2201700508594513 -0.5815858244895935 69.0 2 -0.05872218683362007
-1.780318260192871 0.13167551159858704 0.15618307888507843 47.0 10 -0.05871988460421562
-2.9608654975891113 0.21951045095920563 -0.47024205327033997 2.0 3 -0.058717578649520874
-1.7757314443588257 0.1319594830274582 0.21863360702991486 52.0 11 -0.058715276420116425
-2.9773306846618652 0.221776083111763 -0.3665830194950104 41.0 4 -0.05871297046542168
-3.0040879249572754 0.22429639101028442 0.4771251976490021 85.0 12 -0.05871066823601723
-2.962407112121582 0.22118434309959412 -0.25989842414855957 26.0 5 -0.05870836228132248
-2.9954028129577637 0.22417360544204712 0.5838755369186401 75.0 13 -0.05870606005191803
-1.8462717533111572 0.13849756121635437 -0.097030870616436 31.0 6 -0.05870375782251358
-3.002328634262085 0.2257465124130249 0.6950988173484802 70.0 14 -0.05870145186781883
-1.8265411853790283 0.13765864074230194 -0.03197281062602997 60.0 7 -0.05869914963841438
-2.974304676055908 0.22468271851539612 0.7992331981658936 50.0 15 -0.058696843683719635
-2.877718687057495 0.22092315554618835 -0.7733513712882996 8.0 0 -0.058676108717918396
-1.800403118133545 0.13853345811367035 0.031519047915935516 48.0 8 -0.05867380276322365
-2.9941179752349854 0.23090972006320953 -0.6932992339134216 27.0 1 -0.0586715005338192
-1.8001524209976196 0.13914622366428375 0.09462341666221619 61.0 9 -0.05866919457912445
-2.9615697860717773 0.22892020642757416 -0.5773880481719971 21.0 2 -0.05866689234972
-1.7917664051055908 0.1388125866651535 0.1572289615869522 60.0 10 -0.05866458639502525
-2.9522035121917725 0.22923284769058228 -0.46899059414863586 11.0 3 -0.058662284165620804
-1.7851555347442627 0.13892729580402374 0.21985231339931488 47.0 11 -0.058659981936216354
-2.9409146308898926 0.229389026761055 -0.3621957302093506 22.0 4 -0.058657675981521606
-3.0151026248931885 0.23570504784584045 0.4790023863315582 93.0 12 -0.05865537375211716
-2.9357945919036865 0.22950515151023865 -0.25763237476348877 18.0 5 -0.05865306779742241
-3.0083024501800537 0.23570166528224945 0.5865468978881836 73.0 13 -0.05865076556801796
-2.3933377265930176 0.18793919682502747 -0.12581564486026764 41.0 6 -0.05864845961332321
-2.9976370334625244 0.2359188050031662 0.6941990256309509 83.0 14 -0.05864615738391876
-1.8220624923706055 0.1437191665172577 -0.03190299868583679 30.0 7 -0.058643851429224014
-2.965798854827881 0.23445473611354828 0.7971627116203308 80.0 15 -0.058641549199819565
-2.8287885189056396 0.2271021008491516 -0.7604104280471802 28.0 0 -0.05862081050872803
-1.8019018173217773 0.1449771672487259 0.031553950160741806 40.0 8 -0.05861850827932358
-2.958329677581787 0.23854126036167145 -0.6852009892463684 15.0 1 -0.05861620604991913
-1.8354896306991577 0.1483248472213745 0.09650751203298569 29.0 9 -0.05861390009522438
-2.917701244354248 0.23577773571014404 -0.5689924359321594 15.0 2 -0.05861159786581993
-1.7972285747528076 0.1455482691526413 0.1577518880367279 49.0 10 -0.05860929191112518
-2.915945053100586 0.23666030168533325 -0.46335893869400024 13.0 3 -0.058606989681720734
-2.8985469341278076 0.23626597225666046 -0.3570772111415863 13.0 4 -0.058602381497621536
-3.004417657852173 0.24542424082756042 0.4774380326271057 82.0 12 -0.05860007554292679
-2.8773880004882812 0.23504747450351715 -0.2525773346424103 13.0 5 -0.05859777331352234
-3.005504608154297 0.24604105949401855 0.5861652493476868 75.0 13 -0.05859546735882759
-2.4125726222991943 0.19792604446411133 -0.12686236202716827 37.0 6 -0.05859316512942314
-2.998737335205078 0.24654079973697662 0.6946488618850708 76.0 14 -0.058590859174728394
-1.9211968183517456 0.15828850865364075 -0.03364824131131172 13.0 7 -0.058588556945323944
-2.9765143394470215 0.2457604557275772 0.8002685308456421 60.0 15 -0.058586250990629196
-2.8299038410186768 0.23713575303554535 -0.7609279751777649 29.0 0 -0.05856551602482796
-2.9069902896881104 0.24461783468723297 -0.6735035181045532 12.0 1 -0.05856090784072876
-2.8796908855438232 0.24282608926296234 -0.5617417097091675 14.0 2 -0.05855629965662956
-2.863924503326416 0.2425040602684021 -0.45522433519363403 13.0 3 -0.058551691472530365
-3.0164268016815186 0.2559467852115631 0.37170153856277466 61.0 11 -0.058549389243125916
-2.8581454753875732 0.24301955103874207 -0.3522024154663086 12.0 4 -0.05854708328843117
-3.0271615982055664 0.25792258977890015 0.4811924695968628 47.0 12 -0.05854478105902672
-2.8328757286071777 0.24136890470981598 -0.24874247610569 12.0 5 -0.05854247510433197
-3.0183205604553223 0.25769922137260437 0.5888366103172302 31.0 13 -0.05854017287492752
-2.423807144165039 0.20736730098724365 -0.12749040126800537 37.0 6 -0.05853786692023277
-3.0328075885772705 0.26000311970710754 0.702747106552124 28.0 14 -0.05853556469082832
-2.514355182647705 0.21599754691123962 -0.04404987394809723 16.0 7 -0.058533258736133575
-3.002584457397461 0.2584678530693054 0.8075154423713684 34.0 15 -0.058530956506729126
-2.8425307273864746 0.24818885326385498 -0.7645515203475952 12.0 0 -0.05851022154092789
-2.6076407432556152 0.22813917696475983 0.045690398663282394 74.0 8 -0.05850791558623314
-2.8459384441375732 0.24948737025260925 -0.6595565676689148 11.0 1 -0.05850561335682869
-3.0182201862335205 0.26512113213539124 0.1587873101234436 3.0 9 -0.05850330740213394
-2.8397107124328613 0.24944081902503967 -0.5541093349456787 13.0 2 -0.05850100517272949
-2.8560073375701904 0.251375287771225 0.25083422660827637 1.0 10 -0.058498699218034744
-2.8237059116363525 0.24902819097042084 -0.44896697998046875 13.0 3 -0.058496396988630295
-3.049130439758301 0.26944583654403687 0.3758450746536255 28.0 11 -0.05849409103393555
-2.8078458309173584 0.24861785769462585 -0.34610897302627563 11.0 4 -0.0584917888045311
-3.0518224239349365 0.2707565724849701 0.4852597713470459 31.0 12 -0.05848948284983635
-2.7982778549194336 0.2482621967792511 -0.24577918648719788 11.0 5 -0.0584871806204319
-3.0330469608306885 0.26962506771087646 0.5918895602226257 26.0 13 -0.05848487466573715
-2.425058126449585 0.21600398421287537 -0.12759508192539215 32.0 6 -0.0584825724363327
-3.033822774887085 0.2707606256008148 0.7031970620155334 28.0 14 -0.058480266481637955
-2.4837095737457275 0.22210201621055603 -0.0435263030230999 17.0 7 -0.058477964252233505
-3.0151331424713135 0.2701541781425476 0.811138927936554 28.0 15 -0.05847565829753876
-2.7877769470214844 0.25321727991104126 -0.7500576376914978 6.0 0 -0.058451175689697266
-2.5908968448638916 0.2357897162437439 0.045411162078380585 53.0 8 -0.058448873460292816
-2.786829710006714 0.2541113793849945 -0.646059513092041 11.0 1 -0.05844656750559807
-3.0133466720581055 0.27476587891578674 0.15857796370983124 3.0 9 -0.05844426527619362
-2.7684388160705566 0.25292229652404785 -0.5403710603713989 12.0 2 -0.05844195932149887
-2.7241618633270264 0.24935594201087952 0.23932965099811554 1.0 10 -0.05843965709209442
-2.773641347885132 0.254373162984848 -0.44114524126052856 12.0 3 -0.05843735113739967
-3.048171281814575 0.28008773922920227 0.3758450746536255 26.0 11 -0.058435048907995224
-2.7476589679718018 0.25295746326446533 -0.33879682421684265 11.0 4 -0.058432742953300476
-3.050907611846924 0.28087541460990906 0.4852597713470459 25.0 12 -0.05843044072389603
-2.751763343811035 0.25381961464881897 -0.24177002906799316 12.0 5 -0.05842813476920128
-3.0320873260498047 0.28021082282066345 0.5918895602226257 20.0 13 -0.05842583253979683
-2.4382104873657227 0.22575616836547852 -0.12832777202129364 45.0 6 -0.05842352658510208
-3.028978109359741 0.28098979592323303 0.7022972702980042 12.0 14 -0.05842122435569763
-2.445127487182617 0.22682759165763855 -0.042863111943006516 15.0 7 -0.058418918401002884
-3.0257620811462402 0.2812240421772003 0.8142447471618652 8.0 15 -0.058416616171598434
-2.731099843978882 0.25768375396728516 -0.7350461483001709 9.0 0 -0.058395881205797195
-2.5980641841888428 0.24513159692287445 0.04555078223347664 64.0 8 -0.05839357525110245
-2.7394094467163086 0.2589501142501831 -0.6352618336677551 10.0 1 -0.058391273021698
-3.022310733795166 0.2862243354320526 0.15910132229328156 3.0 9 -0.05838896706700325
-2.714768409729004 0.25757691264152527 -0.5300674438476562 11.0 2 -0.0583866648375988
-2.6756725311279297 0.25433871150016785 0.2351461946964264 1.0 10 -0.05838435888290405
-2.7157535552978516 0.2581486403942108 -0.4320720434188843 11.0 3 -0.0583820566534996
-3.061058759689331 0.29151174426078796 0.37755125761032104 8.0 11 -0.058379750698804855
-2.6835691928863525 0.2560344934463501 -0.33099716901779175 12.0 4 -0.058377448469400406
-2.6814444065093994 0.25677692890167236 -0.23566913604736328 12.0 5 -0.05837284028530121
-3.097588062286377 0.29662713408470154 0.6048645377159119 1.0 13 -0.05837053433060646
-2.441424608230591 0.23422245681285858 -0.128537118434906 34.0 6 -0.05836823210120201
-2.4423305988311768 0.23516973853111267 -0.042828209698200226 17.0 7 -0.058363623917102814
-9.603090286254883 0.9263641834259033 2.585084915161133 0.0 15 -0.058361317962408066
-2.6802403926849365 0.2618551552295685 -0.7215875387191772 9.0 0 -0.05834058299660683
-2.6927216053009033 0.26354897022247314 0.04722621291875839 16.0 8 -0.05833828076720238
-2.6919422149658203 0.2639470100402832 -0.6244641542434692 10.0 1 -0.05833597481250763
-3.0371947288513184 0.2983344793319702 0.15993870794773102 2.0 9 -0.05833367258310318
-2.667006731033325 0.26197201013565063 -0.520908534526825 11.0 2 -0.05833136662840843
-2.6153297424316406 0.25735676288604736 0.22991684079170227 1.0 10 -0.05832906439900398
-2.655860662460327 0.2618131637573242 -0.42268598079681396 11.0 3 -0.058326758444309235
-2.6589536666870117 0.2630552053451538 -0.32807230949401855 10.0 4 -0.05832215026021004
-2.629028558731079 0.26055797934532166 -0.23113703727722168 11.0 5 -0.05831754207611084
-2.4664292335510254 0.24531245231628418 -0.1298978626728058 23.0 6 -0.05831293389201164
-2.4952194690704346 0.2490561455488205 -0.04377063736319542 26.0 7 -0.058308329433202744
-9.64977741241455 0.9648749232292175 2.598543405532837 0.0 15 -0.058306023478507996
-2.6293370723724365 0.26615098118782043 -0.7081289291381836 9.0 0 -0.05828528851270676
-2.994188070297241 0.3036104440689087 0.05253174528479576 6.0 8 -0.05828298255801201
-2.6328415870666504 0.26743414998054504 -0.6109670996665955 10.0 1 -0.05828068032860756
-3.0401089191436768 0.30933886766433716 0.1601480394601822 2.0 9 -0.05827837437391281
-2.607480764389038 0.2653178572654724 -0.5094600319862366 11.0 2 -0.05827607214450836
-2.5985589027404785 0.26486822962760925 0.22852236032485962 1.0 10 -0.058273766189813614
-2.6018712520599365 0.26566532254219055 -0.4142385423183441 12.0 3 -0.058271463960409164
-2.614574909210205 0.26788392663002014 -0.3227100670337677 11.0 4 -0.05826685577630997
-2.588463306427002 0.2656657099723816 -0.22765080630779266 10.0 5 -0.05826224759221077
-2.477478265762329 0.25514811277389526 -0.1305258870124817 29.0 6 -0.05825763940811157
-9.75235366821289 1.0060882568359375 2.2634575366973877 1.0 14 -0.05825533717870712
-2.5659425258636475 0.26516395807266235 -0.04502721130847931 23.0 7 -0.058253031224012375
-9.596389770507812 0.9933815002441406 2.585084915161133 0.0 15 -0.058250728994607925
-2.5938079357147217 0.2717047929763794 -0.698811411857605 10.0 0 -0.05822999030351639
-2.8499181270599365 0.29903483390808105 0.05001859739422798 6.0 8 -0.05822768807411194
-2.585378646850586 0.27173417806625366 -0.6001694798469543 11.0 1 -0.05822538211941719
-3.0330517292022705 0.3193216919898987 0.15983402729034424 2.0 9 -0.05822307989001274
-2.5752992630004883 0.27112922072410583 -0.5033541321754456 11.0 2 -0.05822077393531799
-2.5461020469665527 0.26850399374961853 0.22399026155471802 1.0 10 -0.058218471705913544
-2.565568208694458 0.271010160446167 -0.4086068868637085 12.0 3 -0.058216169476509094
-2.5504543781280518 0.27031445503234863 -0.3149104118347168 11.0 4 -0.0582115612924099
-2.5557727813720703 0.2717796266078949 -0.22486181557178497 12.0 5 -0.0582069531083107
-2.45274019241333 0.26125672459602356 -0.1292698234319687 27.0 6 -0.0582023449242115
-2.5590362548828125 0.27348172664642334 -0.044922493398189545 17.0 7 -0.058197736740112305
-9.669698715209961 1.0351005792617798 2.605790376663208 0.0 15 -0.05819543078541756
-2.5620651245117188 0.27787694334983826 -0.6905292868614197 9.0 0 -0.05817469581961632
-2.7434909343719482 0.29755404591560364 0.048168644309043884 3.0 8 -0.05817238986492157
-2.549542188644409 0.27696892619132996 -0.5920712351799011 10.0 1 -0.05817008763551712
-3.0120632648468018 0.3277459442615509 0.1587873101234436 2.0 9 -0.05816778540611267
-2.5196409225463867 0.2746104896068573 -0.49266883730888367 11.0 2 -0.05816547945141792
-2.5292558670043945 0.27610504627227783 0.22259576618671417 1.0 10 -0.058163177222013474
-2.5213565826416016 0.27568742632865906 -0.4017237424850464 12.0 3 -0.058160871267318726
-2.51200270652771 0.27510887384414673 -0.31027936935424805 13.0 4 -0.05815626308321953
-2.5211403369903564 0.27700021862983704 -0.22189851105213165 12.0 5 -0.05815165489912033
-2.4517662525177 0.27024415135383606 -0.1292698234319687 27.0 6 -0.05814704671502113
-9.744903564453125 1.0758486986160278 2.2634575366973877 1.0 14 -0.058144744485616684
-2.4984374046325684 0.27583038806915283 -0.043875351548194885 18.0 7 -0.058142438530921936
-9.66602611541748 1.0688457489013672 2.605790376663208 0.0 15 -0.05814013630151749
-2.507323741912842 0.28079840540885925 -0.6760354042053223 9.0 0 -0.05811940133571625
-2.615199089050293 0.2933410406112671 0.04593473672866821 6.0 8 -0.0581170953810215
-2.5136520862579346 0.2823949158191681 -0.5839729905128479 11.0 1 -0.05811479315161705
-3.0029029846191406 0.33789101243019104 0.15836863219738007 2.0 9 -0.0581124871969223
-2.4855010509490967 0.27967220544815063 -0.4861813485622406 12.0 2 -0.05811018496751785
-2.4688808917999268 0.27823781967163086 0.21736642718315125 1.0 10 -0.058107879012823105
-2.494860887527466 0.2816072404384613 -0.3976564407348633 11.0 3 -0.058105576783418655
-2.4735004901885986 0.28007057309150696 -0.3056483268737793 11.0 4 -0.05810096859931946
-26.56839942932129 3.0129945278167725 4.234994411468506 2.0 12 -0.05809866264462471
-2.4607670307159424 0.27906376123428345 -0.21666917204856873 13.0 5 -0.05809636041522026
-2.450807809829712 0.2788008451461792 -0.1292698234319687 21.0 6 -0.05809175223112106
-9.741089820861816 1.109856128692627 2.2634575366973877 1.0 14 -0.058089446276426315
-2.4556868076324463 0.28022411465644836 -0.043142348527908325 16.0 7 -0.058087144047021866
-9.608301162719727 1.0981242656707764 2.5912961959838867 0.0 15 -0.05808483809232712
-2.464108467102051 0.2846708297729492 -0.6646473407745361 9.0 0 -0.05806410312652588
-2.582376003265381 0.2987906336784363 0.045376256108284 2.0 8 -0.05806180089712143
-2.473935127258301 0.28668174147605896 -0.5749749541282654 11.0 1 -0.05805949494242668
-2.9719457626342773 0.34491729736328125 0.15679854154586792 1.0 9 -0.05805719271302223
-2.441606283187866 0.2833672761917114 -0.47778576612472534 12.0 2 -0.058054886758327484
-2.396648406982422 0.2785729169845581 0.21109120547771454 1.0 10 -0.058052584528923035
-2.4389231204986572 0.28391870856285095 -0.388896107673645 13.0 3 -0.05805027857422829
-2.44293212890625 0.28524908423423767 -0.301992267370224 13.0 4 -0.05804567039012909
-2.4320733547210693 0.2844119966030121 -0.2142288237810135 13.0 5 -0.05804106220602989
-2.429983139038086 0.2850273549556732 -0.12822310626506805 19.0 6 -0.058036454021930695
-9.73715591430664 1.1438524723052979 2.2634575366973877 1.0 14 -0.058034151792526245
-2.41298770904541 0.28388771414756775 -0.042409345507621765 13.0 7 -0.058031849563121796
-9.658130645751953 1.1379868984222412 2.605790376663208 0.0 15 -0.05802954360842705
-2.4324069023132324 0.28961601853370667 -0.6563650965690613 10.0 0 -0.05800880864262581
-2.382754325866699 0.2841264605522156 0.041885774582624435 2.0 8 -0.05800650268793106
-2.4187393188476562 0.2888455390930176 -0.5623776316642761 12.0 1 -0.05800420045852661
-2.3778185844421387 0.2839587926864624 0.1255016326904297 9.0 9 -0.05800189450383186
-2.413311004638672 0.2886238694190979 -0.4724431037902832 12.0 2 -0.057999592274427414
-2.358074188232422 0.2824357748031616 0.20777928829193115 6.0 10 -0.057997286319732666
-2.402613639831543 0.28819575905799866 -0.3832644820213318 13.0 3 -0.05799498409032822
-2.4143292903900146 0.2904559373855591 -0.2985799014568329 13.0 4 -0.05799037590622902
-2.399416446685791 0.2890866696834564 -0.2114398330450058 13.0 5 -0.05798576772212982
-2.3912997245788574 0.28895556926727295 -0.12623433768749237 24.0 6 -0.057981159538030624
-9.73310375213623 1.1778347492218018 2.2634575366973877 1.0 14 -0.057978857308626175
-2.392180919647217 0.2894856631755829 -0.04206030070781708 22.0 7 -0.05797655135393143
-9.673480987548828 1.1723302602767944 2.610966682434082 0.0 15 -0.05797424912452698
-2.406453847885132 0.2950487732887268 -0.6496358513832092 26.0 0 -0.05795351043343544
-2.3559963703155518 0.28886231780052185 0.041432011872529984 55.0 8 -0.05795120820403099
-2.398426055908203 0.29448994994163513 -0.5578786134719849 34.0 1 -0.05794890224933624
-2.3589718341827393 0.29006293416023254 0.12455958873033524 69.0 9 -0.05794660001993179
-2.398648977279663 0.29536664485931396 -0.46977177262306213 43.0 2 -0.057944294065237045
-2.3550968170166016 0.2904215157032013 0.20760498940944672 68.0 10 -0.057941991835832596
-2.3938026428222656 0.2951945662498474 -0.3820130228996277 46.0 3 -0.05793968588113785
-2.3838014602661133 0.29480603337287903 -0.2949238419532776 64.0 4 -0.05793508142232895
-2.384552001953125 0.29574334621429443 -0.21021965146064758 79.0 5 -0.05793047323822975
-2.3705079555511475 0.2944221794605255 -0.12518762052059174 78.0 6 -0.057925865054130554
-2.369328022003174 0.29511481523513794 -0.041676346212625504 68.0 7 -0.05792125687003136
-9.669329643249512 1.2060924768447876 2.610966682434082 0.0 15 -0.05791895091533661
-2.4169623851776123 0.3044760525226593 -0.6527416706085205 30.0 0 -0.05789821594953537
-2.3490214347839355 0.29633423686027527 0.04132729768753052 70.0 8 -0.05789590999484062
-2.4051172733306885 0.3038367033004761 -0.5596782565116882 43.0 1 -0.05789360776543617
-2.355963706970215 0.29804491996765137 0.12445490807294846 70.0 9 -0.057891301810741425
-2.393760919570923 0.30282652378082275 -0.46900853514671326 55.0 2 -0.057888999581336975
-2.3560969829559326 0.29848015308380127 0.20777928829193115 82.0 10 -0.057886697351932526
-2.4045157432556152 0.30503982305526733 -0.3838902413845062 56.0 3 -0.05788439139723778
-2.3729116916656494 0.30187270045280457 -0.29370513558387756 58.0 4 -0.05787978321313858
-2.3815817832946777 0.3033974766731262 -0.21004533767700195 56.0 5 -0.05787517502903938
-2.387296199798584 0.3049728572368622 -0.12612967193126678 81.0 6 -0.057870566844940186
-9.724861145019531 1.2440564632415771 2.2634575366973877 1.0 14 -0.057868264615535736
-2.368283271789551 0.3033841848373413 -0.041676346212625504 100.0 7 -0.05786595866084099
-9.680389404296875 1.2418041229248047 2.615107536315918 0.0 15 -0.05786365643143654
-2.507845401763916 0.3248213827610016 -0.6775882840156555 63.0 0 -0.0578429214656353
-2.3618545532226562 0.3063320517539978 0.041571635752916336 54.0 8 -0.05784061551094055
-2.516127347946167 0.32678771018981934 -0.5857725739479065 60.0 1 -0.0578383132815361
-2.8421316146850586 0.36963194608688354 0.15020421147346497 27.0 9 -0.057836007326841354
-2.5114479064941406 0.3266250491142273 -0.4922872483730316 80.0 2 -0.057833705097436905
-2.3728225231170654 0.3090178966522217 0.20934809744358063 40.0 10 -0.05783139914274216
-2.477870464324951 0.3231383264064789 -0.39577925205230713 62.0 3 -0.05782909691333771
-2.50175404548645 0.32714104652404785 -0.3097918927669525 60.0 4 -0.05782448872923851
-2.4832355976104736 0.32516029477119446 -0.21910953521728516 16.0 5 -0.05781988054513931
-2.3941383361816406 0.31434378027915955 -0.12654836475849152 25.0 6 -0.057815272361040115
-2.9639687538146973 0.39021411538124084 -0.052182696759700775 58.0 7 -0.05781066417694092
-9.675996780395508 1.2755852937698364 2.615107536315918 0.0 15 -0.05780835822224617
-2.5737204551696777 0.3424932062625885 -0.6957056522369385 70.0 0 -0.05778762325644493
-3.028764009475708 0.403585284948349 0.0533345565199852 46.0 8 -0.05778532102704048
-2.5748515129089355 0.3435584306716919 -0.5997195243835449 74.0 1 -0.057783015072345734
-3.044729709625244 0.40679436922073364 0.16098542511463165 34.0 9 -0.057780712842941284
-2.555049419403076 0.3413701057434082 -0.5010644793510437 82.0 2 -0.057778406888246536
-2.5667901039123535 0.343850702047348 -0.410171240568161 82.0 3 -0.05777379870414734
-2.5517497062683105 0.34274256229400635 -0.31612908840179443 57.0 4 -0.05776919052004814
-2.744708776473999 0.3691478669643402 -0.24229297041893005 10.0 5 -0.057764582335948944
-2.4088611602783203 0.32483428716659546 -0.1273857206106186 19.0 6 -0.05775997415184975
-9.715938568115234 1.3119207620620728 2.2634575366973877 1.0 14 -0.0577576719224453
-2.996277093887329 0.405112087726593 -0.05277607962489128 72.0 7 -0.05775536596775055
-9.721258163452148 1.3160918951034546 2.628566265106201 0.0 15 -0.0577530637383461
-2.580165386199951 0.3525211811065674 -0.6977761387825012 73.0 0 -0.05773232877254486
-3.031299352645874 0.4146973490715027 0.05340436473488808 45.0 8 -0.05773002281785011
-2.563983201980591 0.3512219786643982 -0.5974700450897217 72.0 1 -0.05772772058844566
-3.049227476119995 0.41823428869247437 0.1612994372844696 31.0 9 -0.057725414633750916
-2.563567638397217 0.3516208231449127 -0.5029725432395935 86.0 2 -0.057723112404346466
-2.9884259700775146 0.4104261100292206 0.2639075815677643 3.0 10 -0.05772080644965172
-2.5440475940704346 0.349848210811615 -0.40672966837882996 79.0 3 -0.05771850422024727
-2.5485708713531494 0.3513766825199127 -0.31588536500930786 63.0 4 -0.05771389603614807
-2.7552452087402344 0.38036128878593445 -0.24333882331848145 9.0 5 -0.057709287852048874
-2.39188551902771 0.3310503363609314 -0.12654836475849152 22.0 6 -0.057704679667949677
-9.71130084991455 1.3458255529403687 2.2634575366973877 1.0 14 -0.05770237743854523
-2.9968254566192627 0.41584351658821106 -0.05281098559498787 69.0 7 -0.05770007148385048
-9.701297760009766 1.347890853881836 2.624425172805786 0.0 15 -0.05769776925444603
-2.5808324813842773 0.3617938160896301 -0.6982938051223755 72.0 0 -0.05767703056335449
-3.0258729457855225 0.42471951246261597 0.0533345565199852 44.0 8 -0.05767472833395004
-2.5550224781036377 0.3590850532054901 -0.5956704616546631 46.0 1 -0.057672422379255295
-3.051779270172119 0.4288996756076813 0.16150878369808197 33.0 9 -0.057670120149850845
-2.5681567192077637 0.3613879680633545 -0.5041174292564392 82.0 2 -0.0576678141951561
-3.0007851123809814 0.42280030250549316 0.2651277482509613 2.0 10 -0.05766551196575165
-2.546722888946533 0.3592784106731415 -0.407355397939682 75.0 3 -0.0576632060110569
-2.537501335144043 0.3588808476924896 -0.31466665863990784 60.0 4 -0.0576585978269577
-2.7539005279541016 0.3899765908718109 -0.24333882331848145 10.0 5 -0.057653993368148804
-2.3926925659179688 0.3396783173084259 -0.1266530305147171 23.0 6 -0.057649385184049606
-9.70654296875 1.3797165155410767 2.2634575366973877 1.0 14 -0.05764707922935486
-3.0033490657806396 0.4269048273563385 -0.052950602024793625 69.0 7 -0.05764477699995041
-9.68529987335205 1.3784213066101074 2.62131929397583 0.0 15 -0.05764247104525566
-2.587202548980713 0.371899276971817 -0.700364351272583 72.0 0 -0.05762173607945442
-3.0422616004943848 0.4373120963573456 0.0536486990749836 34.0 8 -0.057619430124759674
-3.044332981109619 0.43869519233703613 0.16119475662708282 30.0 9 -0.05761482194066048
-2.5591070652008057 0.3692283630371094 -0.5025908946990967 78.0 2 -0.05761251971125603
-2.975627899169922 0.4298548996448517 0.26303601264953613 2.0 10 -0.05761021748185158
-2.5709335803985596 0.3713933229446411 -0.4114226996898651 82.0 3 -0.05760791152715683
-2.5343332290649414 0.3670085668563843 -0.31442293524742126 63.0 4 -0.05760330334305763
-9.741437911987305 1.4124411344528198 1.5590261220932007 0.0 12 -0.05760100111365318
-2.7604098320007324 0.40073224902153015 -0.24403607845306396 9.0 5 -0.057598695158958435
-9.75135612487793 1.4156168699264526 1.915340781211853 1.0 13 -0.057596392929553986
-2.3915529251098633 0.3476104140281677 -0.1266530305147171 21.0 6 -0.05759408697485924
-2.9978830814361572 0.43680933117866516 -0.05288079380989075 74.0 7 -0.05758947879076004
-9.70719051361084 1.4161252975463867 2.628566265106201 0.0 15 -0.05758717656135559
-2.5725760459899902 0.3785083591938019 -0.6967409253120422 67.0 0 -0.05756643787026405
-3.0347814559936523 0.4470546841621399 0.05354398116469383 35.0 8 -0.057564135640859604
-3.0467348098754883 0.44990211725234985 0.1614041030406952 29.0 9 -0.057559527456760406
-2.5539841651916504 0.377139151096344 -0.5018276572227478 82.0 2 -0.05755722522735596
-2.9860122203826904 0.44146791100502014 0.2640818953514099 4.0 10 -0.05755491927266121
-2.555943012237549 0.37834063172340393 -0.40923261642456055 79.0 3 -0.05755261704325676
-2.558562994003296 0.37964117527008057 -0.3175915479660034 67.0 4 -0.05754800885915756
-9.759895324707031 1.4499201774597168 1.562780499458313 0.0 12 -0.057545702904462814
-2.7472407817840576 0.4081273078918457 -0.24299021065235138 9.0 5 -0.057543400675058365
-2.392300605773926 0.35625123977661133 -0.1267576962709427 20.0 6 -0.05753879249095917
-2.9904067516326904 0.44638490676879883 -0.05277607962489128 72.0 7 -0.05753418430685997
-9.732759475708008 1.4545702934265137 2.6368486881256104 0.0 15 -0.05753187835216522
-2.5674188137054443 0.3869103491306305 -0.6957056522369385 63.0 0 -0.05751114338636398
-3.027270555496216 0.45675113797187805 0.053439266979694366 30.0 8 -0.057508841156959534
-3.056994676589966 0.4623265266418457 0.1620321422815323 28.0 9 -0.057504232972860336
-2.550710916519165 0.3857583999633789 -0.5014460682868958 41.0 2 -0.05750192701816559
-2.9765727519989014 0.45069602131843567 0.2633846402168274 4.0 10 -0.05749962478876114
-2.5467944145202637 0.3860754072666168 -0.40798112750053406 75.0 3 -0.05749731883406639
-2.5493719577789307 0.3873770833015442 -0.31661656498908997 69.0 4 -0.057492710649967194
-2.7379207611083984 0.4165152907371521 -0.24229297041893005 9.0 5 -0.057488102465867996
-2.4068379402160645 0.36700838804244995 -0.12759508192539215 20.0 6 -0.0574834942817688
-3.0006906986236572 0.45863425731658936 -0.05298550799489021 65.0 7 -0.0574788860976696
-9.727622032165527 1.4885352849960327 2.6368486881256104 0.0 15 -0.05747658386826515
-3.0138003826141357 0.46548348665237427 0.05322984233498573 32.0 8 -0.057453542947769165
-2.463165283203125 0.38087767362594604 -0.57542484998703 1.0 1 -0.057451240718364716
-3.0632569789886475 0.47421762347221375 0.16245082020759583 29.0 9 -0.05744893476366997
-2.9749815464019775 0.46108278632164 0.2633846402168274 4.0 10 -0.05744432657957077
-2.5629994869232178 0.3976891040802002 -0.41079697012901306 82.0 3 -0.05744202435016632
-2.5636966228485107 0.3987136483192444 -0.3185664713382721 67.0 4 -0.05743741616606712
-2.7443246841430664 0.42729607224464417 -0.24299021065235138 9.0 5 -0.057432807981967926
-2.3956754207611084 0.3738672435283661 -0.12707172334194183 18.0 6 -0.05742819979786873
-3.0089497566223145 0.4706510007381439 -0.05316003039479256 69.0 7 -0.05742359161376953
-9.722368240356445 1.5224800109863281 2.6368486881256104 0.0 15 -0.05742128938436508
-2.4711520671844482 0.39006567001342773 -0.6703413724899292 1.0 0 -0.057400550693273544
-3.0220329761505127 0.47756150364875793 0.05340436473488808 26.0 8 -0.057398248463869095
-3.0576376914978027 0.4842819571495056 0.16224147379398346 27.0 9 -0.0573936402797699
-2.4800877571105957 0.3928070664405823 -0.4880894422531128 1.0 2 -0.05739133432507515
-2.987128973007202 0.47364887595176697 0.2646048367023468 3.0 10 -0.0573890320956707
-2.540135383605957 0.4032265543937683 -0.407355397939682 33.0 3 -0.05738672614097595
-2.5505266189575195 0.4057888686656952 -0.3171040713787079 69.0 4 -0.057382117956876755
-2.754622220993042 0.43875405192375183 -0.24403607845306396 9.0 5 -0.05737750977277756
-2.3983001708984375 0.38285720348358154 -0.127281054854393 21.0 6 -0.05737290531396866
-3.0171616077423096 0.48273035883903503 -0.0533345565199852 72.0 7 -0.05736829712986946
-2.4240033626556396 0.3913004398345947 -0.6579180359840393 1.0 0 -0.057345256209373474
-3.016399621963501 0.48746955394744873 0.0533345565199852 26.0 8 -0.057342950254678726
-2.43351411819458 0.3937073051929474 -0.5691262483596802 2.0 1 -0.05734064802527428
-3.051985502243042 0.4943135976791382 0.1620321422815323 27.0 9 -0.05733834207057953
-2.405057430267334 0.3895341753959656 -0.4735879600048065 1.0 2 -0.05733603984117508
-2.987423896789551 0.4843919575214386 0.26477915048599243 2.0 10 -0.05733373388648033
-2.5490946769714355 0.41468948125839233 -0.3171040713787079 67.0 4 -0.057326823472976685
-2.7511074542999268 0.4480459988117218 -0.24386176466941833 8.0 5 -0.05732221528887749
-2.402862787246704 0.3921917974948883 -0.12759508192539215 19.0 6 -0.05731760710477829
-3.0016438961029053 0.49099963903427124 -0.05309021845459938 69.0 7 -0.05731299892067909
-2.4645564556121826 0.4066789746284485 -0.6693060994148254 1.0 0 -0.057289958000183105
-3.0127065181732178 0.49766919016838074 0.05329965054988861 27.0 8 -0.057287655770778656
-2.4205892086029053 0.4002918601036072 -0.5664268136024475 1.0 1 -0.05728535354137421
-3.0640344619750977 0.5072475671768188 0.16276483237743378 25.0 9 -0.05728304758667946
-2.4036831855773926 0.39792710542678833 -0.4735879600048065 1.0 2 -0.05728074535727501
-2.9837496280670166 0.49449074268341064 0.2646048367023468 3.0 10 -0.05727843940258026
-2.4807448387145996 0.41157424449920654 -0.39828217029571533 1.0 3 -0.05727613717317581
-2.559380531311035 0.42553848028182983 -0.3185664713382721 66.0 4 -0.057271528989076614
-2.735769033432007 0.4553565979003906 -0.24264158308506012 9.0 5 -0.05726692080497742
-2.397538900375366 0.39992034435272217 -0.1273857206106186 16.0 6 -0.05726231262087822
-2.9920222759246826 0.5001556277275085 -0.052950602024793625 69.0 7 -0.05725770443677902
-2.383113145828247 0.4017895460128784 -0.6475652456283569 1.0 0 -0.057234663516283035
-3.0188381671905518 0.5095144510269165 0.053439266979694366 25.0 8 -0.057232361286878586
-2.455686092376709 0.4149073660373688 -0.5749749541282654 1.0 1 -0.05723005533218384
-3.0661838054656982 0.5186054110527039 0.16297417879104614 25.0 9 -0.05722775310277939
-2.425508737564087 0.4102434813976288 -0.4781673550605774 1.0 2 -0.05722544714808464
-2.985934019088745 0.5055689811706543 0.26495346426963806 3.0 10 -0.05722314491868019
-2.4130747318267822 0.4090074300765991 -0.3876446485519409 1.0 3 -0.05722083896398544
-2.5657076835632324 0.4357995390892029 -0.31954145431518555 67.0 4 -0.057216230779886246
-2.7302346229553223 0.4642355740070343 -0.24229297041893005 9.0 5 -0.05721162259578705
-2.400066375732422 0.4089573621749878 -0.12759508192539215 17.0 6 -0.05720701441168785
-3.0119411945343018 0.5142999291419983 -0.0533345565199852 72.0 7 -0.057202406227588654
-2.4502341747283936 0.42190736532211304 -0.6662002205848694 1.0 0 -0.057179369032382965
-3.0131001472473145 0.5193698406219482 0.05336945876479149 21.0 8 -0.05717706307768822
-2.3658862113952637 0.40823376178741455 -0.5542794466018677 2.0 1 -0.05717476084828377
-3.078131675720215 0.5316857695579529 0.16370689868927002 22.0 9 -0.05717245489358902
-2.9841508865356445 0.515988826751709 0.26495346426963806 3.0 10 -0.05716784670948982
-2.5719945430755615 0.4461098909378052 -0.3205164074897766 64.0 4 -0.057160936295986176
-2.7266345024108887 0.4734216034412384 -0.24211864173412323 8.0 5 -0.05715632811188698
-2.3986241817474365 0.4173327684402466 -0.12759508192539215 20.0 6 -0.05715171992778778
-3.0061874389648438 0.5241228938102722 -0.05326474457979202 60.0 7 -0.05714711174368858
-3.0191469192504883 0.5312699675559998 0.05350907891988754 20.0 8 -0.057121120393276215
-2.3567698001861572 0.41513755917549133 -0.5524798035621643 2.0 1 -0.05711881443858147
-3.064455270767212 0.5403463244438171 0.16307885944843292 22.0 9 -0.05711651220917702
-2.9901797771453857 0.527786910533905 0.2656506896018982 3.0 10 -0.05711190402507782
-2.507422685623169 0.4430282711982727 -0.4032880961894989 1.0 3 -0.05710959807038307
-2.562602996826172 0.45370030403137207 -0.31954145431518555 63.0 4 -0.057104989886283875
-2.7249653339385986 0.48293718695640564 -0.24211864173412323 8.0 5 -0.05710038170218468
-2.3932197093963623 0.4250045418739319 -0.1273857206106186 17.0 6 -0.05709577351808548
-3.0181212425231934 0.5370656847953796 -0.05350907891988754 56.0 7 -0.05709116533398628
-2.390184164047241 0.4287697970867157 -0.650671124458313 1.0 0 -0.057068128138780594
-3.025146484375 0.543219268321991 0.0536486990749836 16.0 8 -0.057065822184085846
-2.4512064456939697 0.4406002163887024 -0.5749749541282654 1.0 1 -0.057063519954681396
-3.0605850219726562 0.5506856441497803 0.16297417879104614 21.0 9 -0.05706121399998665
-2.397892951965332 0.43144863843917847 -0.4735879600048065 1.0 2 -0.0570589117705822
-2.9824366569519043 0.5371619462966919 0.2651277482509613 2.0 10 -0.05705660581588745
-2.564910650253296 0.4633485674858093 -0.3200289309024811 63.0 4 -0.057049695402383804
-2.7271838188171387 0.49315527081489563 -0.2424672693014145 8.0 5 -0.05704508721828461
-2.4074437618255615 0.43620404601097107 -0.12822310626506805 20.0 6 -0.05704047903418541
-2.9985198974609375 0.5443827509880066 -0.053194932639598846 55.0 7 -0.05703587085008621
-3.546743631362915 0.64455246925354 0.9659126996994019 1.0 15 -0.057033564895391464
-2.3886728286743164 0.4371105432510376 -0.650671124458313 1.0 0 -0.057012829929590225
-3.0232319831848145 0.5537757277488708 0.0536486990749836 14.0 8 -0.057010527700185776
-2.4113175868988037 0.44212427735328674 -0.5659768581390381 1.0 1 -0.05700822174549103
-3.062572956085205 0.5620868802070618 0.1631835252046585 21.0 9 -0.05700591951608658
-2.3963723182678223 0.43981629610061646 -0.4735879600048065 1.0 2 -0.05700361356139183
-2.9844629764556885 0.5482894778251648 0.26547640562057495 2.0 10 -0.05700131133198738
-3.584408760070801 0.659801721572876 0.4475042521953583 1.0 11 -0.056996703147888184
-2.5710861682891846 0.473738431930542 -0.32100388407707214 58.0 4 -0.056994397193193436
-3.541382312774658 0.6531605124473572 0.5703601241111755 1.0 12 -0.056992094963788986
-2.709771156311035 0.49978095293045044 -0.24107277393341064 8.0 5 -0.05698978900909424
-3.5311203002929688 0.6519042253494263 0.6979793310165405 1.0 13 -0.05698748677968979
-2.413762331008911 0.44605737924575806 -0.12864179909229279 25.0 6 -0.05698518082499504
-3.5009562969207764 0.6476000547409058 0.8219712376594543 1.0 14 -0.05698287859559059
-3.515979290008545 0.651648223400116 0.9581481218338013 4.0 15 -0.056978270411491394
-3.0134177207946777 0.562856912612915 0.05350907891988754 12.0 8 -0.05695522949099541
-2.448070764541626 0.45770153403282166 -0.5749749541282654 1.0 1 -0.05695292726159096
-3.0762977600097656 0.5757130980491638 0.16402089595794678 22.0 9 -0.05695062130689621
-2.4179794788360596 0.45251229405403137 -0.4781673550605774 1.0 2 -0.05694831907749176
-3.006030321121216 0.5631067156791687 0.2675681412220001 6.0 10 -0.05694601312279701
-3.502091646194458 0.6572962403297424 0.43751096725463867 2.0 11 -0.056941404938697815
-2.553809404373169 0.4797782599925995 -0.3190539479255676 51.0 4 -0.056939102709293365
-3.523550033569336 0.6625969409942627 0.5678571462631226 2.0 12 -0.056936800479888916
-2.7158427238464355 0.5107091069221497 -0.24177002906799316 8.0 5 -0.05693449452519417
-3.4883065223693848 0.6565998792648315 0.6899653673171997 2.0 13 -0.05693219229578972
-2.418078899383545 0.4555897116661072 -0.12895581126213074 24.0 6 -0.05692988634109497
-3.471864700317383 0.65475994348526 0.8156725764274597 1.0 14 -0.05692758411169052
-3.0656933784484863 0.5792689323425293 0.8359856009483337 7.0 15 -0.056922975927591324
-2.4235196113586426 0.4609954059123993 -0.6610238552093506 1.0 0 -0.056902237236499786
-3.001612663269043 0.5715022087097168 0.0533345565199852 11.0 8 -0.05689993500709534
-2.446458101272583 0.4662442207336426 -0.5749749541282654 1.0 1 -0.05689762905240059
-3.0821168422698975 0.5879457592964172 0.1644395887851715 21.0 9 -0.05689532682299614
-2.4318130016326904 0.4638935625553131 -0.4812203049659729 1.0 2 -0.05689302086830139
-3.0118749141693115 0.5750904083251953 0.26826536655426025 6.0 10 -0.05689071863889694
-3.4607813358306885 0.6620579957962036 0.43263620138168335 2.0 11 -0.056886110454797745
-2.563817024230957 0.49092918634414673 -0.3205164074897766 51.0 4 -0.056883808225393295
-3.069180727005005 0.5882534384727478 0.49495869874954224 3.0 12 -0.05688150227069855
