# .PCD v0.7 - Point Cloud Data file format
VERSION 0.7
FIELDS x y z intensity ring time
SIZE 4 4 4 4 4 4
TYPE F F F F F F
COUNT 1 1 1 1 1 1
WIDTH 542
HEIGHT 1
VIEWPOINT 0 0 0 1 0 0 0
POINTS 542
DATA ascii
-3.0256805419921875 0.29293888807296753 0.15931066870689392 2.0 9 -0.02033870853483677
-2.6830029487609863 0.2597616910934448 -0.5239615440368652 10.0 2 -0.02033640444278717
-2.6355175971984863 0.2556285560131073 0.23165996372699738 1.0 10 -0.02033410035073757
-2.6778507232666016 0.2602063715457916 -0.426127552986145 12.0 3 -0.020331796258687973
-3.1572532653808594 0.30734604597091675 0.3894944489002228 1.0 11 -0.020329492166638374
-2.6632697582244873 0.25972792506217957 -0.3285597860813141 11.0 4 -0.020327188074588776
-2.6531851291656494 0.2592118978500366 -0.23322875797748566 12.0 5 -0.020322579890489578
-2.4548428058624268 0.24069923162460327 -0.1292698234319687 24.0 6 -0.02031797170639038
-2.483624219894409 0.24439653754234314 -0.04356120526790619 23.0 7 -0.020313365384936333
-9.670339584350586 0.9532963037490845 2.603719711303711 0.0 15 -0.020311061292886734
-2.6604628562927246 0.2655496299266815 -0.7164111733436584 9.0 0 -0.020290324464440346
-2.6622979640960693 0.2666713297367096 -0.61771559715271 10.0 1 -0.02028571628034115
-3.0365631580352783 0.3046952188014984 0.15993870794773102 2.0 9 -0.02028341218829155
-2.623476266860962 0.26324519515037537 -0.5125129818916321 12.0 2 -0.02028110809624195
-2.598926305770874 0.26123932003974915 0.22852236032485962 1.0 10 -0.020278804004192352
-2.6336865425109863 0.2651982605457306 -0.4192444086074829 11.0 3 -0.020276499912142754
-2.6228461265563965 0.2650308907032013 -0.3236849904060364 11.0 4 -0.020271891728043556
-2.6066720485687256 0.2638567388057709 -0.22921960055828094 12.0 5 -0.020267285406589508
-2.4818062782287598 0.25209254026412964 -0.13073523342609406 28.0 6 -0.02026267722249031
-2.5285117626190186 0.2577284276485443 -0.04436401650309563 24.0 7 -0.020258069038391113
-9.647734642028809 0.9850865602493286 2.598543405532837 0.0 15 -0.020255764946341515
-2.603792905807495 0.2690753936767578 -0.7013996243476868 9.0 0 -0.020235028117895126
-2.937851905822754 0.3041151762008667 0.05155441164970398 6.0 8 -0.020232724025845528
-2.614830732345581 0.27113914489746094 -0.6069179773330688 11.0 1 -0.02023041993379593
-3.023561716079712 0.3140542507171631 0.15931066870689392 2.0 9 -0.02022811584174633
-2.5756754875183105 0.2675327658653259 -0.5033541321754456 12.0 2 -0.02022581174969673
-2.566291093826294 0.2670113444328308 0.22573336958885193 1.0 10 -0.020223507657647133
-2.5836265087127686 0.26927080750465393 -0.4114226996898651 12.0 3 -0.020221205428242683
-2.58241868019104 0.2700561285018921 -0.31881022453308105 11.0 4 -0.020216597244143486
-2.5720489025115967 0.26942551136016846 -0.22625631093978882 12.0 5 -0.02021198906004429
-2.474951982498169 0.26012787222862244 -0.1304212212562561 26.0 6 -0.02020738087594509
-2.5514609813690186 0.2690691351890564 -0.04478287696838379 17.0 7 -0.020202772691845894
-9.644237518310547 1.0187554359436035 2.598543405532837 0.0 15 -0.020200468599796295
-2.552894115447998 0.27282533049583435 -0.6879410743713379 9.0 0 -0.020179731771349907
-2.785658597946167 0.2981930375099182 0.048901643604040146 4.0 8 -0.020177427679300308
-2.5518639087677 0.27361616492271423 -0.5925211310386658 10.0 1 -0.02017512544989586
-3.0462770462036133 0.3271659314632416 0.16056673228740692 2.0 9 -0.02017282135784626
-2.5395898818969727 0.2727484107017517 -0.49648505449295044 11.0 2 -0.02017051726579666
-2.5098767280578613 0.27000096440315247 0.22085265815258026 1.0 10 -0.020168213173747063
-2.5374984741210938 0.2734197676181793 -0.404226690530777 11.0 3 -0.020165909081697464
-2.5400147438049316 0.274588406085968 -0.3136917054653168 12.0 4 -0.020161300897598267
-2.525534152984619 0.2734682857990265 -0.2222471386194229 12.0 5 -0.02015669271349907
-2.4561588764190674 0.26682424545288086 -0.12947916984558105 27.0 6 -0.020152084529399872
-9.744645118713379 1.0603256225585938 2.263007640838623 1.0 14 -0.020149780437350273
-2.526650905609131 0.27537447214126587 -0.04436401650309563 17.0 7 -0.020147476345300674
-9.613736152648926 1.0494790077209473 2.5912961959838867 0.0 15 -0.020145172253251076
-2.5212032794952393 0.2783437669277191 -0.679658830165863 9.0 0 -0.020124437287449837
-2.62161922454834 0.2898922860622406 0.04603944718837738 3.0 8 -0.020122133195400238
-2.512155294418335 0.2782318592071533 -0.5835230946540833 11.0 1 -0.02011982910335064
-3.025265693664551 0.3355961740016937 0.1595200151205063 2.0 9 -0.02011752501130104
-2.503450632095337 0.27815231680870056 -0.48961591720581055 11.0 2 -0.020115220919251442
-2.4693150520324707 0.2743595838546753 0.21736642718315125 1.0 10 -0.020112916827201843
-2.501189947128296 0.2783430516719818 -0.39859506487846375 12.0 3 -0.020110612735152245
-2.495638608932495 0.27860718965530396 -0.3083294630050659 12.0 4 -0.020106004551053047
-2.484914541244507 0.2782887816429138 -0.2187609225511551 13.0 5 -0.02010139636695385
-2.435316801071167 0.2735944092273712 -0.12843245267868042 23.0 6 -0.020096788182854652
-9.740884780883789 1.094334602355957 2.263007640838623 1.0 14 -0.020094484090805054
-2.477982759475708 0.2788262367248535 -0.0435263030230999 17.0 7 -0.020092179998755455
-9.65224838256836 1.087788462638855 2.602684497833252 0.0 15 -0.020089875906705856
-2.48561692237854 0.283639520406723 -0.6703413724899292 9.0 0 -0.020069140940904617
-2.580803871154785 0.29495781660079956 0.04534135013818741 5.0 8 -0.02006683684885502
-2.4723968505859375 0.2830051779747009 -0.5745250582695007 11.0 1 -0.02006453275680542
-2.9882986545562744 0.3425867557525635 0.1576359122991562 2.0 9 -0.02006222866475582
-2.45365309715271 0.28172793984413147 -0.4800754487514496 12.0 2 -0.020059924572706223
-2.432663679122925 0.2793179452419281 0.2142288237810135 1.0 10 -0.020057620480656624
-2.458941698074341 0.28276941180229187 -0.39202481508255005 13.0 3 -0.020055316388607025
-2.451215982437134 0.2827484905719757 -0.30296722054481506 12.0 4 -0.020050708204507828
-2.456169366836548 0.28418803215026855 -0.21632054448127747 13.0 5 -0.02004610002040863
-2.4303295612335205 0.2820585370063782 -0.12822310626506805 20.0 6 -0.020041491836309433
-9.736807823181152 1.1300318241119385 2.263007640838623 1.0 14 -0.020039187744259834
-2.429272413253784 0.28236496448516846 -0.04268858581781387 15.0 7 -0.020036883652210236
-9.652032852172852 1.1236076354980469 2.603719711303711 0.0 15 -0.020034581422805786
-2.442351818084717 0.28777456283569336 -0.6589533090591431 10.0 0 -0.020013844594359398
-2.5141701698303223 0.29668158292770386 0.04418949410319328 1.0 8 -0.0200115405023098
-2.4365079402923584 0.2879483103752136 -0.5664268136024475 11.0 1 -0.0200092364102602
-2.3880810737609863 0.2822251617908478 0.1260250061750412 2.0 9 -0.020006932318210602
-2.4214603900909424 0.2865985035896301 -0.47396957874298096 12.0 2 -0.020004628226161003
-2.372267484664917 0.28119590878486633 0.20899945497512817 1.0 10 -0.020002324134111404
-2.4323880672454834 0.2887527644634247 -0.38795751333236694 13.0 3 -0.020000020042061806
-2.414682388305664 0.2875056564807892 -0.2985799014568329 12.0 4 -0.01999541185796261
-2.4096596240997314 0.28733471035957336 -0.21231138706207275 11.0 5 -0.01999080367386341
-2.411482095718384 0.288405179977417 -0.127281054854393 21.0 6 -0.019986197352409363
-9.732600212097168 1.1657116413116455 2.263007640838623 1.0 14 -0.019983893260359764
-2.390547513961792 0.28632521629333496 -0.04202539846301079 15.0 7 -0.019981589168310165
-9.674905776977539 1.1605141162872314 2.610966682434082 0.0 15 -0.019979285076260567
-2.391470432281494 0.2902466356754303 -0.6454947590827942 17.0 0 -0.01995854824781418
-2.342451810836792 0.284297376871109 0.04118768125772476 17.0 8 -0.01995624415576458
-2.406522274017334 0.2924996316432953 -0.5596782565116882 21.0 1 -0.01995394006371498
-2.371220350265503 0.28862884640693665 0.12518762052059174 66.0 9 -0.019951635971665382
-2.387315034866333 0.2910107374191284 -0.4674820601940155 26.0 2 -0.019949331879615784
-2.3416059017181396 0.2858535945415497 0.2063847929239273 28.0 10 -0.019947027787566185
-2.3941617012023926 0.29226937890052795 -0.3820130228996277 30.0 3 -0.019944723695516586
-2.390071153640747 0.29261675477027893 -0.2956550419330597 43.0 4 -0.019940117374062538
-2.37502384185791 0.2916165292263031 -0.20934809744358063 51.0 5 -0.01993550918996334
-2.384742259979248 0.293231725692749 -0.12592032551765442 75.0 6 -0.019930901005864143
-9.728681564331055 1.1979777812957764 2.263007640838623 1.0 14 -0.019928596913814545
-2.361747980117798 0.29124170541763306 -0.04153672605752945 66.0 7 -0.019926292821764946
-9.640119552612305 1.190488338470459 2.602684497833252 0.0 15 -0.019923988729715347
-2.4058306217193604 0.30008846521377563 -0.6496358513832092 31.0 0 -0.01990325190126896
-2.3454134464263916 0.29296809434890747 0.04125748947262764 74.0 8 -0.01990094780921936
-2.411287784576416 0.30162331461906433 -0.561028003692627 41.0 1 -0.01989864371716976
-2.372231960296631 0.296737939119339 0.12529228627681732 78.0 9 -0.019896339625120163
-2.3960771560668945 0.3001459538936615 -0.4693901240825653 51.0 2 -0.019894037395715714
-2.350529432296753 0.29485708475112915 0.20725634694099426 95.0 10 -0.019891733303666115
-2.3911666870117188 0.30037805438041687 -0.3817001283168793 60.0 3 -0.019889429211616516
-2.381157159805298 0.299965500831604 -0.294680118560791 54.0 4 -0.01988482102751732
-2.3661367893218994 0.2984933853149414 -0.2086508423089981 61.0 5 -0.01988021284341812
-2.3797414302825928 0.3010529577732086 -0.12571097910404205 86.0 6 -0.019875604659318924
-9.724440574645996 1.231932520866394 2.263007640838623 1.0 14 -0.019873300567269325
-2.3766400814056396 0.30108264088630676 -0.04181596636772156 96.0 7 -0.019870996475219727
-9.697447776794434 1.2302302122116089 2.619248867034912 0.0 15 -0.019868692383170128
-2.4335107803344727 0.31217169761657715 -0.6574004292488098 37.0 0 -0.01984795741736889
-2.35434627532959 0.3020164370536804 0.041432011872529984 90.0 8 -0.01984565332531929
-2.4276697635650635 0.31185248494148254 -0.5650770664215088 50.0 1 -0.01984334923326969
-2.365238666534424 0.3042529225349426 0.12497827410697937 43.0 9 -0.019841045141220093
-2.433958053588867 0.313524454832077 -0.4770224988460541 61.0 2 -0.019838741049170494
-2.3573899269104004 0.30407920479774475 0.20795360207557678 62.0 10 -0.019836436957120895
-2.4156265258789062 0.31159111857414246 -0.3857674300670624 57.0 3 -0.019834132865071297
-2.425429344177246 0.3137168884277344 -0.30028611421585083 66.0 4 -0.0198295246809721
-2.4006454944610596 0.31136322021484375 -0.21178844571113586 46.0 5 -0.019824916496872902
-2.3826911449432373 0.30945736169815063 -0.12592032551765442 45.0 6 -0.019820308312773705
-9.72030258178711 1.2641688585281372 2.263007640838623 1.0 14 -0.019818004220724106
-2.4786877632141113 0.3228049874305725 -0.04363101348280907 48.0 7 -0.019815700128674507
-9.662443161010742 1.2600762844085693 2.610966682434082 0.0 15 -0.01981339603662491
-2.578026533126831 0.33940383791923523 -0.6967409253120422 67.0 0 -0.01979266107082367
-3.029324769973755 0.3993554711341858 0.0533345565199852 44.0 8 -0.01979035697877407
-2.5540771484375 0.33715716004371643 -0.594770610332489 78.0 1 -0.019788052886724472
-3.037374496459961 0.4014960527420044 0.16056673228740692 34.0 9 -0.019785748794674873
-2.5613627433776855 0.3385743498802185 -0.5022093057632446 89.0 2 -0.019783444702625275
-2.5653092861175537 0.34000709652900696 -0.4098583459854126 86.0 3 -0.019778836518526077
-2.548290252685547 0.338655948638916 -0.3156416416168213 55.0 4 -0.01977422833442688
-2.7353463172912598 0.3640012741088867 -0.2414214164018631 12.0 5 -0.019769620150327682
-2.395454168319702 0.3196217119693756 -0.1266530305147171 19.0 6 -0.019765011966228485
-2.998821973800659 0.4011935293674469 -0.05281098559498787 83.0 7 -0.019760403782129288
-9.669473648071289 1.2953358888626099 2.614072322845459 0.0 15 -0.01975809969007969
-2.5749118328094482 0.3481413722038269 -0.696223258972168 73.0 0 -0.01973736472427845
-3.0358386039733887 0.4110005497932434 0.053474172949790955 47.0 8 -0.01973506063222885
-2.56253981590271 0.3473800718784332 -0.597020149230957 74.0 1 -0.019732756540179253
-3.0498085021972656 0.41397592425346375 0.1612994372844696 31.0 9 -0.019730452448129654
-2.5543289184570312 0.3467203378677368 -0.5010644793510437 82.0 2 -0.019728148356080055
-2.9791247844696045 0.4049109220504761 0.26303601264953613 2.0 10 -0.019725844264030457
-2.5523626804351807 0.34736141562461853 -0.40798112750053406 81.0 3 -0.019723540171980858
-2.5392251014709473 0.34647560119628906 -0.31466665863990784 60.0 4 -0.01971893198788166
-2.7518253326416016 0.3759746849536896 -0.24299021065235138 9.0 5 -0.019714323803782463
-2.3963029384613037 0.3282526433467865 -0.1267576962709427 20.0 6 -0.019709717482328415
-9.7112398147583 1.3320008516311646 2.263007640838623 1.0 14 -0.019707413390278816
-2.993440866470337 0.4111148715019226 -0.052741169929504395 69.0 7 -0.019705109298229218
-9.71082592010498 1.335397720336914 2.626495838165283 0.0 15 -0.01970280520617962
-2.5679402351379395 0.3563308119773865 -0.6946703195571899 72.0 0 -0.01968206837773323
-3.0284435749053955 0.420769602060318 0.05336945876479149 47.0 8 -0.019679764285683632
-2.5593817234039307 0.35605382919311523 -0.5965702533721924 66.0 1 -0.019677460193634033
-3.054279088973999 0.42544591426849365 0.16161344945430756 34.0 9 -0.019675156101584435
-2.5569920539855957 0.3561762869358063 -0.5018276572227478 82.0 2 -0.019672852009534836
-2.9776930809020996 0.4153083264827728 0.26303601264953613 2.0 10 -0.019670547917485237
-2.5452656745910645 0.35544919967651367 -0.407042533159256 73.0 3 -0.01966824382543564
-2.5419318675994873 0.3558882176876068 -0.31515416502952576 60.0 4 -0.01966363564133644
-2.756415605545044 0.38640791177749634 -0.24351313710212708 9.0 5 -0.019659029319882393
-2.4070091247558594 0.33828312158584595 -0.1273857206106186 21.0 6 -0.019654421135783195
-2.995948076248169 0.42211875319480896 -0.05281098559498787 74.0 7 -0.019649812951683998
-9.679325103759766 1.365508794784546 2.619248867034912 0.0 15 -0.0196475088596344
-2.5705063343048096 0.3658369481563568 -0.6957056522369385 72.0 0 -0.01962677203118801
-3.02695631980896 0.4313383400440216 0.05336945876479149 43.0 8 -0.019624467939138412
-3.0547525882720947 0.436387300491333 0.16171811521053314 31.0 9 -0.019619859755039215
-2.5596201419830322 0.3656550347805023 -0.5025908946990967 78.0 2 -0.019617557525634766
-2.986086845397949 0.42711055278778076 0.2639075815677643 2.0 10 -0.019615251570940018
-2.565519094467163 0.3674115538597107 -0.41048407554626465 86.0 3 -0.019612949341535568
-2.5446040630340576 0.3653233051300049 -0.3156416416168213 60.0 4 -0.01960834115743637
-9.764664649963379 1.4036288261413574 1.5624676942825317 0.0 12 -0.019606037065386772
-2.751105785369873 0.39545968174934387 -0.243164524435997 9.0 5 -0.019603732973337173
-9.725872993469238 1.399787425994873 1.9099980592727661 1.0 13 -0.019601428881287575
-2.3939528465270996 0.34497395157814026 -0.1267576962709427 20.0 6 -0.019599124789237976
-3.0023727416992188 0.43371841311454773 -0.052950602024793625 69.0 7 -0.01959451660513878
-9.716562271118164 1.4053717851638794 2.6306369304656982 0.0 15 -0.01959221251308918
-2.5806174278259277 0.37693119049072266 -0.698811411857605 72.0 0 -0.019570589065551758
-3.025355100631714 0.4424298405647278 0.05336945876479149 35.0 8 -0.01956828497350216
-3.051234245300293 0.4467591345310211 0.16161344945430756 30.0 9 -0.01956367678940296
-2.566032648086548 0.37617313861846924 -0.5041174292564392 78.0 2 -0.019561372697353363
-2.9785873889923096 0.43718352913856506 0.2633846402168274 2.0 10 -0.019559068605303764
-2.5485198497772217 0.374515175819397 -0.40798112750053406 77.0 3 -0.019556764513254166
-2.539320230484009 0.37406814098358154 -0.31515416502952576 60.0 4 -0.019552156329154968
-9.779248237609863 1.440584421157837 1.565596342086792 0.0 12 -0.01954985223710537
-2.7496378421783447 0.4055410623550415 -0.243164524435997 9.0 5 -0.01954754814505577
-9.817788124084473 1.4497630596160889 1.9290790557861328 1.0 13 -0.01954524591565132
-2.3808176517486572 0.35199272632598877 -0.12612967193126678 20.0 6 -0.019542941823601723
-3.0087528228759766 0.44536733627319336 -0.05309021845459938 76.0 7 -0.019538333639502525
-9.734529495239258 1.4426769018173218 2.6368486881256104 0.0 15 -0.019536029547452927
-2.5773754119873047 0.3856511116027832 -0.6982938051223755 67.0 0 -0.01951529271900654
-3.0238711833953857 0.45245999097824097 0.05336945876479149 36.0 8 -0.01951298862695694
-3.045706033706665 0.45681408047676086 0.1614041030406952 28.0 9 -0.019508380442857742
-2.5608208179473877 0.3845449388027191 -0.5033541321754456 68.0 2 -0.019506076350808144
-2.9888648986816406 0.44935616850852966 0.26443052291870117 3.0 10 -0.019503772258758545
-2.568751811981201 0.38619494438171387 -0.4114226996898651 78.0 3 -0.019501468166708946
-2.53413987159729 0.3818952143192291 -0.31466665863990784 60.0 4 -0.019496861845254898
-9.852291107177734 1.4865024089813232 1.5781110525131226 0.0 12 -0.0194945577532053
-2.7600257396698 0.41692155599594116 -0.2442103773355484 9.0 5 -0.0194922536611557
-2.3875367641448975 0.3610806465148926 -0.12654836475849152 16.0 6 -0.019487645477056503
-2.9972944259643555 0.4543679356575012 -0.05291569605469704 65.0 7 -0.019483037292957306
-9.779093742370605 1.484184980392456 2.6503071784973145 0.0 15 -0.019480733200907707
-2.5799014568328857 0.39478036761283875 -0.6993290781974792 15.0 0 -0.01945999637246132
-3.032156467437744 0.4645259380340576 0.05354398116469383 32.0 8 -0.01945769228041172
-3.044092893600464 0.46744289994239807 0.1614041030406952 27.0 9 -0.019453085958957672
-2.9794814586639404 0.4580536186695099 0.26373329758644104 3.0 10 -0.019448477774858475
-2.5791025161743164 0.39696168899536133 -0.41329991817474365 78.0 3 -0.019446173682808876
-2.544562816619873 0.39255475997924805 -0.31612908840179443 60.0 4 -0.01944156549870968
-2.7467398643493652 0.4247266352176666 -0.243164524435997 9.0 5 -0.01943695731461048
-2.398103952407837 0.37124642729759216 -0.12717638909816742 20.0 6 -0.019432349130511284
-3.0016181468963623 0.465747594833374 -0.0530204102396965 74.0 7 -0.019427740946412086
-9.724220275878906 1.5106037855148315 2.6368486881256104 0.0 15 -0.019425436854362488
-2.587980031967163 0.4057290554046631 -0.701917290687561 1.0 0 -0.01940470188856125
-3.018663167953491 0.4732491672039032 0.0533345565199852 29.0 8 -0.01940239779651165
-3.0621731281280518 0.481166273355484 0.16245082020759583 28.0 9 -0.019397789612412453
-2.4455885887145996 0.38471829891204834 -0.4812203049659729 1.0 2 -0.019395485520362854
-2.9659736156463623 0.46711108088493347 0.26268741488456726 3.0 10 -0.019393181428313255
-2.5425071716308594 0.40087416768074036 -0.40766826272010803 58.0 3 -0.019390877336263657
-2.5431771278381348 0.40143463015556335 -0.31612908840179443 58.0 4 -0.01938626915216446
-2.741304636001587 0.4336893558502197 -0.24281588196754456 9.0 5 -0.019381660968065262
-2.4046177864074707 0.38128402829170227 -0.12759508192539215 19.0 6 -0.019377052783966064
-3.0039243698120117 0.47684943675994873 -0.05309021845459938 74.0 7 -0.019372444599866867
-2.4263193607330322 0.3890678286552429 -0.6584357023239136 1.0 0 -0.01934940554201603
-3.024806022644043 0.4855785071849823 0.053474172949790955 29.0 8 -0.01934710144996643
-2.439697265625 0.3920859396457672 -0.5704758763313293 1.0 1 -0.019344797357916832
-3.0722203254699707 0.4942900836467743 0.16307885944843292 27.0 9 -0.019342493265867233
-2.9820284843444824 0.4803129732608795 0.26425620913505554 2.0 10 -0.019337885081768036
-2.549527406692505 0.4120199978351593 -0.3171040713787079 60.0 4 -0.01933097280561924
-2.7338736057281494 0.4423011243343353 -0.24229297041893005 8.0 5 -0.019326364621520042
-2.39735746383667 0.3887164294719696 -0.127281054854393 18.0 6 -0.019321756437420845
-3.010051727294922 0.48913925886154175 -0.05322984233498573 69.0 7 -0.019317148253321648
-3.0250661373138428 0.4964573085308075 0.05350907891988754 28.0 8 -0.01929180510342121
-2.3960087299346924 0.3936498463153839 -0.5605780482292175 2.0 1 -0.019289501011371613
-3.0685057640075684 0.5046870708465576 0.16297417879104614 25.0 9 -0.019287196919322014
-2.500959873199463 0.41134098172187805 -0.49266883730888367 1.0 2 -0.019284892827272415
-2.9901633262634277 0.49233710765838623 0.2651277482509613 2.0 10 -0.019282588735222816
-2.46947979927063 0.40704870223999023 -0.3964049816131592 1.0 3 -0.019280284643173218
-2.5402393341064453 0.4196223020553589 -0.31612908840179443 60.0 4 -0.01927567645907402
-2.740175724029541 0.4531417489051819 -0.24299021065235138 9.0 5 -0.019271068274974823
-2.3940157890319824 0.3967553675174713 -0.12717638909816742 19.0 6 -0.019266461953520775
-3.018188953399658 0.5012814998626709 -0.05340436473488808 72.0 7 -0.019261853769421577
-2.4425971508026123 0.40918850898742676 -0.6636120676994324 1.0 0 -0.01923881284892559
-3.033175230026245 0.5086674690246582 0.053683605045080185 23.0 8 -0.019236508756875992
-3.062875747680664 0.5141986012458801 0.16276483237743378 24.0 9 -0.019231900572776794
-2.4259369373321533 0.4077034294605255 -0.4781673550605774 1.0 2 -0.019229596480727196
-2.9884262084960938 0.5027725100517273 0.2651277482509613 2.0 10 -0.019227292388677597
-2.4875235557556152 0.41894713044166565 -0.3995336890220642 1.0 3 -0.019224988296628
-2.546663999557495 0.4293639659881592 -0.3171040713787079 55.0 4 -0.01922038197517395
-2.742506265640259 0.46336790919303894 -0.24333882331848145 8.0 5 -0.019215773791074753
-2.394585371017456 0.4054436683654785 -0.127281054854393 18.0 6 -0.019211165606975555
-3.004680871963501 0.5092825293540955 -0.053194932639598846 67.0 7 -0.019206557422876358
-2.403141975402832 0.4107763171195984 -0.6532593369483948 1.0 0 -0.01918351650238037
-3.027529716491699 0.5180485844612122 0.05361378937959671 22.0 8 -0.019181212410330772
-2.4047982692718506 0.41192397475242615 -0.5632774829864502 1.0 1 -0.019178908318281174
-3.0749337673187256 0.5267131924629211 0.16349753737449646 22.0 9 -0.019176604226231575
-2.9788882732391357 0.5113309025764465 0.26443052291870117 2.0 10 -0.019171997904777527
-2.5094826221466064 0.43120816349983215 -0.4032880961894989 1.0 3 -0.019169693812727928
-2.5413131713867188 0.43713366985321045 -0.31661656498908997 58.0 4 -0.01916508562862873
-2.725247383117676 0.4697524607181549 -0.2419443279504776 8.0 5 -0.019160477444529533
-2.399132251739502 0.41440215706825256 -0.12759508192539215 17.0 6 -0.019155869260430336
-2.991152763366699 0.5171995162963867 -0.05298550799489021 60.0 7 -0.01915126107633114
-2.4855048656463623 0.4333428740501404 -0.6760354042053223 1.0 0 -0.01912822015583515
-3.0179154872894287 0.5267103314399719 0.053474172949790955 23.0 8 -0.019125917926430702
-2.3919010162353516 0.4178835451602936 -0.5605780482292175 2.0 1 -0.019123613834381104
-3.0770113468170166 0.5381309986114502 0.16370689868927002 22.0 9 -0.019121309742331505
-2.9771761894226074 0.5212065577507019 0.26443052291870117 2.0 10 -0.019116701558232307
-2.5515029430389404 0.448062002658844 -0.31807902455329895 58.0 4 -0.01910978928208351
-2.7314400672912598 0.480643093585968 -0.24264158308506012 8.0 5 -0.019105181097984314
-2.4134063720703125 0.425548791885376 -0.12843245267868042 19.0 6 -0.019100572913885117
-2.999175548553467 0.5293747186660767 -0.05316003039479256 56.0 7 -0.01909596472978592
-3.0159647464752197 0.5377680659294128 0.053474172949790955 19.0 8 -0.019070621579885483
-2.413374423980713 0.43075647950172424 -0.5659768581390381 1.0 1 -0.019068317487835884
-3.082882881164551 0.5508103370666504 0.16412557661533356 22.0 9 -0.019066013395786285
-2.9772071838378906 0.5324657559394836 0.2646048367023468 2.0 10 -0.019061405211687088
-2.5615668296813965 0.45951375365257263 -0.31954145431518555 55.0 4 -0.019054492935538292
-2.721815824508667 0.4892418384552002 -0.2419443279504776 8.0 5 -0.019049884751439095
-2.398070812225342 0.43191275000572205 -0.12769974768161774 18.0 6 -0.019045276567339897
-3.005086660385132 0.5417836308479309 -0.05329965054988861 58.0 7 -0.0190406683832407
-3.602661609649658 0.6501680016517639 0.9809242486953735 1.0 15 -0.0190383642911911
-3.0238101482391357 0.5506097078323364 0.0536486990749836 14.0 8 -0.019015325233340263
-2.450122594833374 0.4465879797935486 -0.5749749541282654 1.0 1 -0.019013021141290665
-3.0770115852355957 0.5608521103858948 0.1639162302017212 22.0 9 -0.019010717049241066
-2.396831512451172 0.4373067319393158 -0.4735879600048065 1.0 2 -0.019008412957191467
-2.996795177459717 0.5473117232322693 0.26652225852012634 2.0 10 -0.01900610886514187
-2.548231363296509 0.4663086533546448 -0.31807902455329895 54.0 4 -0.018999196588993073
-3.5324623584747314 0.6470532417297363 0.5687958002090454 1.0 12 -0.018996892496943474
-2.716172218322754 0.4980204999446869 -0.24159571528434753 8.0 5 -0.018994588404893875
-3.5472490787506104 0.651041567325592 0.701032280921936 1.0 13 -0.018992284312844276
-2.4063706398010254 0.44208547472953796 -0.12822310626506805 20.0 6 -0.018989980220794678
-3.549661636352539 0.6521247625350952 0.8332187533378601 1.0 14 -0.01898767799139023
-3.0051441192626953 0.552631139755249 -0.0533345565199852 24.0 7 -0.01898537389934063
-3.53957200050354 0.6515483856201172 0.9643597602844238 3.0 15 -0.01898306980729103
-3.018035411834717 0.5599046349525452 0.05357888713479042 13.0 8 -0.018960028886795044
-2.4486284255981445 0.4547099471092224 -0.5749749541282654 1.0 1 -0.018957724794745445
-3.065316677093506 0.5692288875579834 0.16339287161827087 20.0 9 -0.018955420702695847
-2.3953683376312256 0.44525259733200073 -0.4735879600048065 1.0 2 -0.018953116610646248
-3.010633707046509 0.5601621866226196 0.267916738986969 4.0 10 -0.01895081251859665
-3.4677655696868896 0.6464690566062927 0.4331236779689789 2.0 11 -0.018946204334497452
-2.546670913696289 0.4747564196586609 -0.31807902455329895 53.0 4 -0.018943900242447853
-3.487576723098755 0.650792121887207 0.5619126558303833 2.0 12 -0.018941596150398254
-2.7184228897094727 0.5077567100524902 -0.2419443279504776 8.0 5 -0.018939293920993805
-3.4948952198028564 0.6534202098846436 0.6911102533340454 2.0 13 -0.018936989828944206
-2.4048912525177 0.45006290078163147 -0.12822310626506805 21.0 6 -0.018934685736894608
-3.474691152572632 0.650270402431488 0.8161224722862244 1.0 14 -0.01893238164484501
-3.396883726119995 0.6369364261627197 0.9260545372962952 5.0 15 -0.01892777346074581
-2.384295701980591 0.4500865042209625 -0.6501534581184387 1.0 0 -0.018907036632299423
-3.0141968727111816 0.5695385336875916 0.05354398116469383 11.0 8 -0.018904732540249825
-2.4471068382263184 0.4628274440765381 -0.5749749541282654 1.0 1 -0.018902428448200226
-3.075085163116455 0.5821552276611328 0.16402089595794678 20.0 9 -0.018900124356150627
-2.4247424602508545 0.45903655886650085 -0.47969385981559753 1.0 2 -0.01889782026410103
-2.998971939086914 0.5682880878448486 0.26704519987106323 3.0 10 -0.01889551617205143
-3.531911611557007 0.6705542802810669 0.4414108097553253 2.0 11 -0.01889090985059738
-2.5605995655059814 0.48660796880722046 -0.3200289309024811 50.0 4 -0.018888605758547783
-3.1825530529022217 0.605376660823822 0.5131050944328308 2.0 12 -0.018886301666498184
-2.718681573867798 0.5171403288841248 -0.24211864173412323 8.0 5 -0.018883997574448586
-3.1359167098999023 0.5970735549926758 0.6205108761787415 2.0 13 -0.018881693482398987
-2.4073097705841064 0.4587833285331726 -0.12843245267868042 21.0 6 -0.018879389390349388
-3.053184986114502 0.5824267268180847 0.7175939083099365 2.0 14 -0.01887708529829979
-3.0322160720825195 0.5795229077339172 0.8271856904029846 17.0 15 -0.018872477114200592
-2.3827102184295654 0.45840656757354736 -0.6501534581184387 1.0 0 -0.018851740285754204
-3.00826358795166 0.5792996883392334 0.053474172949790955 11.0 8 -0.018849436193704605
-2.4454762935638428 0.4713667035102844 -0.5749749541282654 1.0 1 -0.018847133964300156
-3.080878734588623 0.5943992733955383 0.1644395887851715 20.0 9 -0.018844829872250557
-2.4886672496795654 0.48014286160469055 -0.49266883730888367 1.0 2 -0.018842525780200958
-3.0204451084136963 0.5832856893539429 0.2691369354724884 9.0 10 -0.01884022168815136
-3.0637500286102295 0.5927585363388062 0.38315722346305847 22.0 11 -0.018835613504052162
-2.566680908203125 0.49705228209495544 -0.32100388407707214 47.0 4 -0.018833309412002563
-3.0601847171783447 0.5931769609451294 0.49370723962783813 38.0 12 -0.018831005319952965
-2.7051236629486084 0.5243529677391052 -0.24107277393341064 7.0 5 -0.018828701227903366
-3.050938844680786 0.5919371843338013 0.604101300239563 41.0 13 -0.018826397135853767
-2.4233391284942627 0.47060978412628174 -0.12937450408935547 26.0 6 -0.01882409304380417
-3.053046464920044 0.593451976776123 0.7180438041687012 40.0 14 -0.01882178895175457
-3.015004873275757 0.5871488451957703 0.8230445981025696 34.0 15 -0.018817180767655373
-2.9964115619659424 0.5878721475601196 0.05329965054988861 10.0 8 -0.018794141709804535
-3.0866241455078125 0.6066900491714478 0.16485828161239624 19.0 9 -0.018789533525705338
-2.3905744552612305 0.47031158208847046 -0.4735879600048065 1.0 2 -0.01878722943365574
-3.0555338859558105 0.6011329293251038 0.2724488377571106 27.0 10 -0.01878492534160614
-3.057767152786255 0.602681040763855 0.3826697766780853 45.0 11 -0.018780317157506943
-2.5688252449035645 0.5067771077156067 -0.3214913308620453 50.0 4 -0.018778013065457344
-3.0580954551696777 0.6038554906845093 0.49370723962783813 45.0 12 -0.018775708973407745
-2.7070930004119873 0.5350362658500671 -0.2414214164018631 7.0 5 -0.018773404881358147
-3.042970895767212 0.6019725203514099 0.6029564738273621 45.0 13 -0.018771100789308548
-2.4039652347564697 0.47599783539772034 -0.12843245267868042 28.0 6 -0.01876879669725895
-3.0452215671539307 0.6029700040817261 0.7166941165924072 35.0 14 -0.01876649260520935
-2.6912381649017334 0.5333669185638428 -0.047889403998851776 1.0 7 -0.018764188513159752
-3.012936592102051 0.5976704359054565 0.8230445981025696 35.0 15 -0.018761884421110153
-2.379369020462036 0.47544512152671814 -0.6501534581184387 1.0 0 -0.018741149455308914
-3.002079963684082 0.600419282913208 0.053439266979694366 10.0 8 -0.018738845363259315
-3.0843796730041504 0.617999792098999 0.16485828161239624 20.0 9 -0.018734237179160118
-2.411933660507202 0.4837028384208679 -0.4781673550605774 1.0 2 -0.01873193308711052
-3.0650312900543213 0.6146787405014038 0.2734947204589844 27.0 10 -0.01872962899506092
-3.053591251373291 0.6134939789772034 0.38242605328559875 40.0 11 -0.018725020810961723
-2.563058376312256 0.5154063105583191 -0.32100388407707214 47.0 4 -0.018722716718912125
-3.0481157302856445 0.61350017786026 0.49245578050613403 30.0 12 -0.018720412626862526
-2.7051138877868652 0.5449553728103638 -0.2414214164018631 7.0 5 -0.018718108534812927
-3.0311214923858643 0.611181378364563 0.6010483503341675 32.0 13 -0.01871580444276333
-2.3982887268066406 0.4840148389339447 -0.12822310626506805 24.0 6 -0.01871350035071373
-3.012427568435669 0.6079583168029785 0.7094956636428833 30.0 14 -0.01871119625866413
-2.7167065143585205 0.5487710237503052 -0.04837806895375252 34.0 7 -0.018708892166614532
-2.9993648529052734 0.606412410736084 0.8199387788772583 33.0 15 -0.018706589937210083
-3.011615753173828 0.613814651966095 0.0536486990749836 9.0 8 -0.018683549016714096
-2.440232515335083 0.4978013336658478 -0.5749749541282654 1.0 1 -0.018681244924664497
-3.0782899856567383 0.6279634237289429 0.16464893519878387 19.0 9 -0.0186789408326149
-3.0510451793670654 0.6235156655311584 0.2724488377571106 45.0 10 -0.0186743326485157
-3.0279853343963623 0.6199035048484802 0.3795011639595032 46.0 11 -0.018669724464416504
-2.561243772506714 0.5243499279022217 -0.32100388407707214 45.0 4 -0.018667420372366905
-3.032409429550171 0.6213613748550415 0.4902656674385071 41.0 12 -0.018665116280317307
-2.699291229248047 0.5535941123962402 -0.24107277393341064 7.0 5 -0.018662812188267708
-3.030893087387085 0.6221523880958557 0.6014299988746643 37.0 13 -0.01866050995886326
-2.4044101238250732 0.4939919412136078 -0.12864179909229279 24.0 6 -0.01865820586681366
-3.023648977279663 0.6212160587310791 0.7126449942588806 27.0 14 -0.01865590177476406
-3.0275049209594727 0.6231089234352112 0.8282209634780884 35.0 15 -0.018651293590664864
-3.0134799480438232 0.6246100068092346 0.053718507289886475 9.0 8 -0.018628252670168877
-2.438568353652954 0.5058907866477966 -0.5749749541282654 1.0 1 -0.018625948578119278
-3.0879242420196533 0.6406022906303406 0.16527697443962097 18.0 9 -0.01862364448606968
-3.0567638874053955 0.6352508664131165 0.2731460928916931 29.0 10 -0.018619036301970482
-3.062838077545166 0.6376285552978516 0.3841322064399719 42.0 11 -0.018614429980516434
-2.5711514949798584 0.5352681279182434 -0.32246631383895874 45.0 4 -0.018612125888466835
-3.0554723739624023 0.6366515159606934 0.4943329691886902 40.0 12 -0.018609821796417236
-2.69353985786438 0.561728835105896 -0.24072414636611938 7.0 5 -0.018607517704367638
-3.080703020095825 0.6430307030677795 0.6117336750030518 41.0 13 -0.01860521361231804
-2.410578727722168 0.503596305847168 -0.12906047701835632 25.0 6 -0.01860290952026844
-3.088336706161499 0.6451873779296875 0.7283915877342224 42.0 14 -0.01860060542821884
-3.0575671195983887 0.6398724317550659 0.8370208144187927 38.0 15 -0.018595997244119644
-3.011392116546631 0.6345997452735901 0.053718507289886475 9.0 8 -0.018572956323623657
-3.0934860706329346 0.6530274748802185 0.1656956523656845 20.0 9 -0.01856834813952446
-3.085829973220825 0.6519738435745239 0.2759350836277008 34.0 10 -0.01856374181807041
-3.105374574661255 0.6572355628013611 0.38973820209503174 53.0 11 -0.018559133633971214
-2.584803342819214 0.5475308895111084 -0.32441622018814087 43.0 4 -0.018556829541921616
-3.109271287918091 0.659195065498352 0.5034061670303345 51.0 12 -0.018554525449872017
-2.6955602169036865 0.571484386920929 -0.24107277393341064 6.0 5 -0.018552221357822418
-3.0919971466064453 0.6560959219932556 0.6144050359725952 46.0 13 -0.01854991726577282
-2.4206180572509766 0.5140763521194458 -0.12968851625919342 24.0 6 -0.01854761317372322
-3.0994088649749756 0.6588000059127808 0.731540858745575 48.0 14 -0.018545309081673622
-3.0553150177001953 0.6505414843559265 0.8370208144187927 38.0 15 -0.018540700897574425
-3.0052480697631836 0.6442685723304749 0.0536486990749836 9.0 8 -0.018517661839723587
-3.098998785018921 0.6654992699623108 0.16611434519290924 20.0 9 -0.01851305365562439
-3.09132719039917 0.6644154191017151 0.2766323387622833 34.0 10 -0.018508445471525192
-3.099180221557617 0.6672358512878418 0.3892507255077362 53.0 11 -0.018503837287425995
-2.5809359550476074 0.5561314225196838 -0.3241724669933319 40.0 4 -0.018501533195376396
-3.105020761489868 0.6696273684501648 0.5030933022499084 41.0 12 -0.018499229103326797
-2.693549156188965 0.5808896422386169 -0.24107277393341064 6.0 5 -0.0184969250112772
-3.080092430114746 0.6648139357566833 0.6124969124794006 38.0 13 -0.0184946209192276
-2.407095193862915 0.5199929475784302 -0.12906047701835632 23.0 6 -0.018492316827178
-3.0837574005126953 0.666731595993042 0.7283915877342224 38.0 14 -0.018490012735128403
-3.053025484085083 0.6612033843994141 0.8370208144187927 37.0 15 -0.018485404551029205
-3.010796070098877 0.6564597487449646 0.05378831923007965 9.0 8 -0.018462365493178368
-3.0888519287109375 0.6746073961257935 0.1656956523656845 21.0 9 -0.01845775730907917
-3.104560375213623 0.6786066293716431 0.278026819229126 34.0 10 -0.018453149124979973
-3.096832275390625 0.6780492663383484 0.3892507255077362 53.0 11 -0.018448540940880775
-2.5654051303863525 0.5621635317802429 -0.32246631383895874 39.0 4 -0.018446236848831177
-3.089157819747925 0.6774997711181641 0.5009031891822815 41.0 12 -0.018443932756781578
-2.7012360095977783 0.5924225449562073 -0.2419443279504776 7.0 5 -0.01844162866473198
-3.075835704803467 0.6751406192779541 0.6121153235435486 36.0 13 -0.01843932457268238
-2.4130685329437256 0.5301058292388916 -0.12947916984558105 23.0 6 -0.018437020480632782
-3.056668519973755 0.6720519065856934 0.7225428223609924 41.0 14 -0.018434716388583183
-3.0280590057373047 0.6668697595596313 0.8308091163635254 40.0 15 -0.018430108204483986
-2.2633585929870605 0.5013596415519714 -0.6211657524108887 1.0 0 -0.018409373238682747
-3.014343023300171 0.6682639122009277 0.05389302968978882 8.0 8 -0.018407069146633148
-3.0864782333374023 0.6853854656219482 0.1656956523656845 22.0 9 -0.01840246096253395
-3.0788333415985107 0.6842525005340576 0.2759350836277008 36.0 10 -0.018397852778434753
-3.0692567825317383 0.6832484006881714 0.38608211278915405 46.0 11 -0.018393244594335556
-2.5653650760650635 0.5715468525886536 -0.3227100670337677 40.0 4 -0.018390940502285957
-3.065565586090088 0.6835498809814453 0.4974616467952728 37.0 12 -0.01838863641023636
-2.697206974029541 0.6014144420623779 -0.24177002906799316 6.0 5 -0.01838633231818676
-3.065795660018921 0.6841627955436707 0.610588788986206 36.0 13 -0.01838402822613716
-2.4131524562835693 0.5389611721038818 -0.12958383560180664 23.0 6 -0.018381725996732712
-3.0390896797180176 0.6793168187141418 0.7189435958862305 36.0 14 -0.018379421904683113
-3.0370237827301025 0.6799681782722473 0.8339149951934814 40.0 15 -0.018374813720583916
-2.2352094650268555 0.5033164620399475 -0.6139188408851624 2.0 0 -0.018354076892137527
-3.0158936977386475 0.6796604990959167 0.053962841629981995 8.0 8 -0.01835177280008793
-3.086015224456787 0.6965957880020142 0.1658003330230713 22.0 9 -0.01834716461598873
-3.0725393295288086 0.6941174864768982 0.27558645606040955 34.0 10 -0.018342556431889534
-2.676248550415039 0.6050816178321838 -0.43457499146461487 1.0 3 -0.018340252339839935
-3.06878924369812 0.6943961381912231 0.3863258361816406 48.0 11 -0.018337948247790337
-2.5730345249176025 0.582690417766571 -0.32392874360084534 39.0 4 -0.018335644155740738
-3.059307813644409 0.6933726072311401 0.4968359172344208 37.0 12 -0.01833334192633629
-2.66400146484375 0.6037788987159729 -0.23898103833198547 5.0 5 -0.01833103783428669
-3.0653035640716553 0.6952946782112122 0.6109704375267029 38.0 13 -0.01832873374223709
-2.417099714279175 0.548707902431488 -0.1298978626728058 21.0 6 -0.018326429650187492
-3.053802728652954 0.6938068866729736 0.7229927778244019 40.0 14 -0.018324125558137894
-3.019562005996704 0.6871359944343567 0.8297739028930664 44.0 15 -0.018319517374038696
-2.3012330532073975 0.5266296863555908 -0.63255375623703 1.0 0 -0.018298780545592308
-3.0212998390197754 0.6919695734977722 0.05410246178507805 7.0 8 -0.01829647645354271
-3.0932981967926025 0.7095966339111328 0.1663236916065216 25.0 9 -0.018291868269443512
-3.0681560039520264 0.7043919563293457 0.2754121422767639 38.0 10 -0.018287260085344315
-2.5855600833892822 0.5940725207328796 -0.4201830327510834 1.0 3 -0.018284957855939865
-3.0663464069366455 0.7051041126251221 0.3863258361816406 53.0 11 -0.018282653763890266
-2.5748541355133057 0.5925582647323608 -0.32441622018814087 37.0 4 -0.018280349671840668
-3.0587940216064453 0.7044915556907654 0.4971488118171692 45.0 12 -0.01827804557979107
-2.6715853214263916 0.6153109669685364 -0.23985259234905243 4.0 5 -0.01827574148774147
-3.0571181774139404 0.7046675086021423 0.6098255515098572 45.0 13 -0.01827343739569187
-2.4287924766540527 0.560283899307251 -0.13063055276870728 7.0 6 -0.018271133303642273
-3.070350170135498 0.7088461518287659 0.7274917960166931 56.0 14 -0.018268829211592674
-2.6186025142669678 0.6050333976745605 -0.046912070363759995 1.0 7 -0.018266525119543076
-3.013381004333496 0.6968010067939758 0.8287386298179626 54.0 15 -0.018264221027493477
-3.011075496673584 0.7006988525390625 0.053962841629981995 7.0 8 -0.018266519531607628
-3.0985829830169678 0.7222026586532593 0.16674236953258514 25.0 9 -0.01826191134750843
-3.065678358078003 0.7150976061820984 0.2754121422767639 40.0 10 -0.018257303163409233
-2.5892415046691895 0.6044414043426514 -0.42112162709236145 30.0 3 -0.018254999071359634
-3.0696656703948975 0.7171574831008911 0.3870570659637451 58.0 11 -0.018252694979310036
-2.5843677520751953 0.6042543053627014 -0.32587864995002747 36.0 4 -0.018250390887260437
-3.0659332275390625 0.717414915561676 0.4987131357192993 48.0 12 -0.01824808679521084
-2.6654326915740967 0.6241894960403442 -0.23950397968292236 4.0 5 -0.01824578270316124
-3.046994209289551 0.7135433554649353 0.6082991361618042 46.0 13 -0.01824348047375679
-2.4268219470977783 0.5687591433525085 -0.13063055276870728 25.0 6 -0.01824117638170719
-3.0526790618896484 0.7159994840621948 0.7238925695419312 55.0 14 -0.018238872289657593
-3.025975227355957 0.7108505964279175 0.8328797221183777 54.0 15 -0.018234264105558395
-2.2222039699554443 0.5253071188926697 -0.6118482351303101 1.0 0 -0.018213527277112007
-3.020287275314331 0.7139661312103271 0.054172269999980927 8.0 8 -0.01821122318506241
-3.0863254070281982 0.7307137250900269 0.16621901094913483 28.0 9 -0.01820661500096321
-3.0746686458587646 0.7290873527526855 0.2764580249786377 38.0 10 -0.018202006816864014
-2.5927751064300537 0.6152952313423157 -0.4220602512359619 25.0 3 -0.018199702724814415
-3.0632808208465576 0.7269516587257385 0.3865695893764496 57.0 11 -0.018197400495409966
-2.5725855827331543 0.6109789609909058 -0.32465994358062744 31.0 4 -0.018195096403360367
-3.0787851810455322 0.7317662835121155 0.5012161135673523 53.0 12 -0.018192792311310768
-3.0558173656463623 0.7274349927902222 0.610588788986206 45.0 13 -0.01818818412721157
-2.4305498600006104 0.579038143157959 -0.13094457983970642 32.0 6 -0.018185880035161972
-3.053825616836548 0.728086531162262 0.7247923612594604 55.0 14 -0.018183575943112373
-3.027233839035034 0.7223057150840759 0.8339149951934814 54.0 15 -0.018178967759013176
-2.2222354412078857 0.5335114002227783 -0.6123659014701843 3.0 0 -0.018158230930566788
-3.0293166637420654 0.7278335690498352 0.05438169836997986 8.0 8 -0.01815592683851719
-3.0836267471313477 0.742020845413208 0.16621901094913483 29.0 9 -0.01815132051706314
-3.0759787559509277 0.7407484650611877 0.27680662274360657 40.0 10 -0.018146712332963943
-2.590611457824707 0.624342679977417 -0.4220602512359619 22.0 3 -0.018144408240914345
-3.068314790725708 0.7400360107421875 0.38754454255104065 56.0 11 -0.018142104148864746
-2.5992743968963623 0.6273898482322693 -0.3283160626888275 7.0 4 -0.018139800056815147
-3.0780022144317627 0.7435102462768555 0.5015289187431335 46.0 12 -0.01813749596476555
-2.6629464626312256 0.6432510018348694 -0.239678293466568 3.0 5 -0.01813519187271595
-3.0608928203582764 0.7399419546127319 0.6121153235435486 46.0 13 -0.01813288778066635
-2.422689914703369 0.58610999584198 -0.13063055276870728 29.0 6 -0.018130583688616753
-3.043689489364624 0.7369085550308228 0.7229927778244019 51.0 14 -0.018128279596567154
-3.0283212661743164 0.7343059778213501 0.8349502682685852 54.0 15 -0.018123671412467957
-2.357372283935547 0.574665367603302 -0.6501534581184387 1.0 0 -0.018102936446666718
-3.0267574787139893 0.7384034991264343 0.05438169836997986 8.0 8 -0.01810063235461712
-2.4194276332855225 0.5906875729560852 -0.5749749541282654 1.0 1 -0.01809832826256752
-3.084897994995117 0.7537283301353455 0.1664283573627472 28.0 9 -0.01809602417051792
-3.0733745098114014 0.7514811754226685 0.27680662274360657 38.0 10 -0.018091415986418724
-2.599928617477417 0.6361982822418213 -0.42393743991851807 39.0 3 -0.018089111894369125
-3.0753536224365234 0.7531028389930725 0.3887632191181183 55.0 11 -0.018086807802319527
-2.587428092956543 0.6340967416763306 -0.3270973265171051 29.0 4 -0.018084503710269928
-3.06003999710083 0.7504850625991821 0.49902600049972534 45.0 12 -0.01808219961822033
-2.658750057220459 0.6520673632621765 -0.23950397968292236 4.0 5 -0.01807989552617073
-3.0697314739227295 0.7534299492835999 0.6144050359725952 45.0 13 -0.018077591434121132
-2.434206485748291 0.5978987216949463 -0.13136327266693115 34.0 6 -0.018075287342071533
-3.0448834896087646 0.7484581470489502 0.7238925695419312 51.0 14 -0.018072983250021935
-2.609787702560425 0.6419909596443176 -0.046912070363759995 1.0 7 -0.018070679157972336
-3.0219876766204834 0.7439495921134949 0.8339149951934814 56.0 15 -0.018068375065922737
-3.028043508529663 0.7499251365661621 0.054451506584882736 8.0 8 -0.0180453360080719
-3.0900025367736816 0.7664154171943665 0.16684705018997192 29.0 9 -0.018040727823972702
-3.0746002197265625 0.763164758682251 0.2771552503108978 40.0 10 -0.018036119639873505
-2.5919411182403564 0.6438413262367249 -0.4229988753795624 42.0 3 -0.018033815547823906
-3.0842647552490234 0.766706645488739 0.39022567868232727 51.0 11 -0.018031511455774307
-2.6083157062530518 0.6488755345344543 -0.3300222158432007 39.0 4 -0.01802920736372471
-3.0689032077789307 0.7640255093574524 0.5009031891822815 45.0 12 -0.01802690327167511
-2.652590751647949 0.660381555557251 -0.2391553521156311 4.0 5 -0.01802459917962551
-3.0613677501678467 0.7627168297767639 0.6132601499557495 48.0 13 -0.018022295087575912
-2.4321048259735107 0.6063916087150574 -0.13136327266693115 34.0 6 -0.018019990995526314
-3.0592691898345947 0.7633282542228699 0.727941632270813 52.0 14 -0.018017686903476715
-3.0156240463256836 0.7535564303398132 0.8328797221183777 56.0 15 -0.018013078719377518
-3.0137710571289062 0.7575662732124329 0.054242078214883804 7.0 8 -0.01799003966152668
-3.1047396659851074 0.7815843224525452 0.16778908669948578 36.0 9 -0.017985431477427483
-3.0757815837860107 0.7748660445213318 0.2775038778781891 37.0 10 -0.017980823293328285
-2.5820157527923584 0.6509534120559692 -0.4217473566532135 40.0 3 -0.017978519201278687
-3.0777204036712646 0.7764962911605835 0.38973820209503174 52.0 11 -0.017976215109229088
-2.5964112281799316 0.6555466055870056 -0.32880350947380066 36.0 4 -0.01797391101717949
-3.0777087211608887 0.7776368260383606 0.5027804374694824 51.0 12 -0.01797160692512989
-2.65799617767334 0.6715891361236572 -0.23985259234905243 5.0 5 -0.017969302833080292
-3.0567829608917236 0.7729172110557556 0.6128785014152527 46.0 13 -0.017966998741030693
-2.435781717300415 0.6163473129272461 -0.1316772699356079 36.0 6 -0.017964696511626244
-3.0603644847869873 0.7749593257904053 0.7288414835929871 56.0 14 -0.017962392419576645
-2.6052422523498535 0.6601950526237488 -0.046912070363759995 1.0 7 -0.017960088327527046
-3.0242106914520264 0.7669277191162109 0.8359856009483337 55.0 15 -0.017957784235477448
-3.0266096591949463 0.7720358371734619 0.05452131852507591 7.0 8 -0.01793474331498146
-3.094251871109009 0.7904406785964966 0.16737040877342224 31.0 9 -0.017930135130882263
-3.082709550857544 0.7880651950836182 0.27837544679641724 36.0 10 -0.017925526946783066
-2.5931241512298584 0.6633889079093933 -0.42393743991851807 37.0 3 -0.017923222854733467
-3.065375566482544 0.7847739458084106 0.3885194957256317 50.0 11 -0.01792091876268387
-2.590261220932007 0.6636205315589905 -0.3283160626888275 34.0 4 -0.01791861653327942
-3.0788023471832275 0.7893558144569397 0.5034061670303345 46.0 12 -0.01791631244122982
-2.703885078430176 0.6932329535484314 -0.2442103773355484 5.0 5 -0.01791400834918022
-3.0578699111938477 0.7845585346221924 0.6136417388916016 46.0 13 -0.017911704257130623
-2.429746389389038 0.6238527297973633 -0.13146793842315674 36.0 6 -0.017909400165081024
-3.053865671157837 0.7846666574478149 0.727941632270813 60.0 14 -0.017907096073031425
-3.030869722366333 0.7798866629600525 0.8385737538337708 58.0 15 -0.017902487888932228
-3.031639814376831 0.7845993638038635 0.05466093868017197 7.0 8 -0.01787944696843624
