# .PCD v0.7 - Point Cloud Data file format
VERSION 0.7
FIELDS x y z intensity ring time
SIZE 4 4 4 4 4 4
TYPE F F F F F F
COUNT 1 1 1 1 1 1
WIDTH 548
HEIGHT 1
VIEWPOINT 0 0 0 1 0 0 0
POINTS 548
DATA ascii
-3.6496291160583496 5.879374980926514 0.8496730923652649 24.0 11 -0.01324089802801609
-3.128422975540161 5.041695594787598 -0.728534996509552 2.0 4 -0.013238593935966492
-3.6411635875701904 5.868016719818115 1.09378981590271 31.0 12 -0.013236289843916893
-3.1831483840942383 5.131888389587402 -0.5283380746841431 41.0 5 -0.013233985751867294
-3.6229875087738037 5.8432817459106445 1.3364262580871582 35.0 13 -0.013231681659817696
-2.80824613571167 4.530999183654785 -0.2793693542480469 56.0 6 -0.013229377567768097
-3.5982837677001953 5.807964324951172 1.5773569345474243 51.0 14 -0.013227073475718498
-2.8624825477600098 4.6203131675720215 -0.09487128257751465 26.0 7 -0.0132247693836689
-3.5783002376556396 5.777961254119873 1.8210508823394775 26.0 15 -0.0132224652916193
-1.7323429584503174 2.805997610092163 -0.8836082816123962 5.0 0 -0.013201729394495487
-2.799546241760254 4.534621715545654 0.09302133321762085 58.0 8 -0.013199425302445889
-1.9639601707458496 3.1824066638946533 -0.8633622527122498 3.0 1 -0.013197122141718864
-2.8417418003082275 4.606564998626709 0.283660888671875 1.0 9 -0.013194818049669266
-2.2330245971679688 3.6212267875671387 -0.8269662261009216 1.0 2 -0.013192513957619667
-3.6810808181762695 5.971827507019043 0.613750696182251 34.0 10 -0.013190209865570068
-2.621403455734253 4.252709865570068 -0.7912455797195435 1.0 3 -0.01318790577352047
-3.6623947620391846 5.943835258483887 0.8572290539741516 20.0 11 -0.013185601681470871
-3.1116857528686523 5.0520429611206055 -0.728534996509552 1.0 4 -0.013183297589421272
-3.645512580871582 5.92106294631958 1.1012988090515137 29.0 12 -0.013180993497371674
-2.998128652572632 4.8714823722839355 -0.5004482269287109 12.0 5 -0.013178689405322075
-3.632404088973999 5.902078628540039 1.3471115827560425 37.0 13 -0.013176385313272476
-2.746109962463379 4.4637370109558105 -0.274659126996994 81.0 6 -0.013174082152545452
-3.6106503009796143 5.871323108673096 1.591303825378418 56.0 14 -0.013171778060495853
-2.8222522735595703 4.591094493865967 -0.09406847506761551 35.0 7 -0.013169473968446255
-3.5833957195281982 5.831564903259277 1.8339918851852417 23.0 15 -0.013167169876396656
-1.7230288982391357 2.8117263317108154 -0.8836082816123962 5.0 0 -0.013146433979272842
-2.7784786224365234 4.535839557647705 0.09284680336713791 64.0 8 -0.013144129887223244
-1.9528403282165527 3.189242362976074 -0.8633622527122498 3.0 1 -0.013141825795173645
-2.8246026039123535 4.614752292633057 0.2835562229156494 1.0 9 -0.013139521703124046
-2.2240793704986572 3.6336350440979004 -0.8281110525131226 2.0 2 -0.013137217611074448
-3.6872544288635254 6.026488780975342 0.6181085109710693 37.0 10 -0.013134913519024849
-2.6209731101989746 4.285426616668701 -0.7956258058547974 1.0 3 -0.01313260942697525
-3.6675119400024414 5.9989237785339355 0.8633224964141846 22.0 11 -0.013130305334925652
-3.65468430519104 5.982639312744141 1.1103719472885132 31.0 12 -0.013125698082149029
-2.9676060676574707 4.859813690185547 -0.4981822073459625 28.0 5 -0.01312339399009943
-3.6332645416259766 5.949909687042236 1.3551255464553833 38.0 13 -0.013121089898049831
-2.724269151687622 4.463066101074219 -0.2740310728549957 77.0 6 -0.013118785806000233
-3.6205825805664062 5.933797359466553 1.6048009395599365 52.0 14 -0.013116481713950634
-2.798919200897217 4.588968276977539 -0.09382414072751999 50.0 7 -0.013114177621901035
-3.5811212062835693 5.873727321624756 1.8433092832565308 24.0 15 -0.013111873529851437
-1.7117078304290771 2.8163721561431885 -0.883090615272522 6.0 0 -0.013091137632727623
-2.762627601623535 4.545511245727539 0.09284680336713791 63.0 8 -0.013088833540678024
-1.938659429550171 3.1910436153411865 -0.862012505531311 3.0 1 -0.013086529448628426
-2.7981085777282715 4.607513427734375 0.2825095057487488 4.0 9 -0.013084225356578827
-2.211764335632324 3.6434409618377686 -0.8284926414489746 1.0 2 -0.013081922195851803
-3.693047046661377 6.085953235626221 0.622814953327179 36.0 10 -0.013079618103802204
-2.5827090740203857 4.257847785949707 -0.7887426614761353 1.0 3 -0.013077314011752605
-3.672286033630371 6.054121971130371 0.8694159388542175 24.0 11 -0.013075009919703007
-2.767573833465576 4.564411640167236 -0.6554133892059326 1.0 4 -0.013072705827653408
-3.6614246368408203 6.040970325469971 1.1188194751739502 30.0 12 -0.01307040173560381
-2.9444308280944824 4.859918594360352 -0.49713635444641113 19.0 5 -0.01306809764355421
-3.6348257064819336 6.001809597015381 1.3639028072357178 42.0 13 -0.013065793551504612
-2.703754425048828 4.466187477111816 -0.2736124098300934 77.0 6 -0.013063489459455013
-3.6250431537628174 5.99037504196167 1.616498351097107 52.0 14 -0.013061185367405415
-2.774601936340332 4.585022926330566 -0.09354490041732788 48.0 7 -0.01305888220667839
-3.5895912647247314 5.934128284454346 1.8583208322525024 26.0 15 -0.013056578114628792
-1.702864646911621 2.823984146118164 -0.8836082816123962 5.0 0 -0.013035841286182404
-2.744917631149292 4.553893089294434 0.09281189739704132 59.0 8 -0.01303353812545538
-1.9289628267288208 3.201465606689453 -0.8629122972488403 3.0 1 -0.01303123403340578
-2.784071207046509 4.620673656463623 0.28271886706352234 1.0 9 -0.013028929941356182
-2.2030856609344482 3.6578664779663086 -0.8300192356109619 2.0 2 -0.013026625849306583
-3.702611207962036 6.1500139236450195 0.6280442476272583 36.0 10 -0.013024321757256985
-2.578016996383667 4.283761501312256 -0.7918713688850403 1.0 3 -0.013022017665207386
-3.674628973007202 6.1083664894104 0.8752656579017639 24.0 11 -0.013019713573157787
-2.7774245738983154 4.618755340576172 -0.6617506146430969 1.0 4 -0.013017409481108189
-3.667802572250366 6.099421501159668 1.1272668838500977 28.0 12 -0.01301510538905859
-3.021883249282837 5.027267932891846 -0.5131730437278748 19.0 5 -0.013012801297008991
-3.644186019897461 6.064947128295898 1.3753513097763062 37.0 13 -0.013010498136281967
-2.6871209144592285 4.473886013031006 -0.2735077440738678 71.0 6 -0.013008194044232368
-3.630192756652832 6.046431064605713 1.628195881843567 56.0 14 -0.01300588995218277
-2.7565228939056396 4.591250896453857 -0.0934750959277153 57.0 7 -0.013003585860133171
-3.6026532649993896 6.002942085266113 1.8759204149246216 25.0 15 -0.013001281768083572
-1.6969629526138306 2.8365426063537598 -0.8856788277626038 5.0 0 -0.012980545870959759
-2.7318527698516846 4.566402912139893 0.0928817018866539 43.0 8 -0.01297824177891016
-1.920335292816162 3.2111902236938477 -0.8638120889663696 3.0 1 -0.012975937686860561
-2.7669007778167725 4.62864875793457 0.28261417150497437 1.0 9 -0.012973633594810963
-2.190302848815918 3.665534734725952 -0.8300192356109619 2.0 2 -0.012971329502761364
-3.7066619396209717 6.20566463470459 0.6324020624160767 38.0 10 -0.012969025410711765
-2.557718515396118 4.2821125984191895 -0.7899941205978394 1.0 3 -0.012966721318662167
-3.6828510761260986 6.168238639831543 0.8820903897285461 21.0 11 -0.012964418157935143
-3.669764995574951 6.151205539703369 1.134462833404541 30.0 12 -0.012959809973835945
-3.0706491470336914 5.149013042449951 -0.524503231048584 41.0 5 -0.012957505881786346
-3.6512084007263184 6.122522830963135 1.3856550455093384 41.0 13 -0.012955201789736748
-2.672268867492676 4.4827728271484375 -0.2735077440738678 73.0 6 -0.012952897697687149
-3.634061098098755 6.09861421585083 1.638993501663208 56.0 14 -0.01295059360563755
-2.736384868621826 4.593973159790039 -0.09333546459674835 53.0 7 -0.012948289513587952
-3.606386661529541 6.056978225708008 1.8888614177703857 22.0 15 -0.012945985421538353
-1.6826163530349731 2.833848237991333 -0.883090615272522 6.0 0 -0.01292524952441454
-2.7169182300567627 4.577630519866943 0.09291661530733109 13.0 8 -0.01292294543236494
-1.91110360622406 3.2212252616882324 -0.8647118806838989 3.0 1 -0.012920641340315342
-2.7476694583892822 4.6331257820129395 0.2823001742362976 3.0 9 -0.012918338179588318
-2.1791374683380127 3.674466133117676 -0.830400824546814 2.0 2 -0.01291603408753872
-3.7206082344055176 6.276192665100098 0.6383286714553833 41.0 10 -0.01291372999548912
-2.5548408031463623 4.311407089233398 -0.7937486171722412 1.0 3 -0.012911425903439522
-3.69771671295166 6.242544174194336 0.8908649682998657 22.0 11 -0.012909121811389923
-3.6734261512756348 6.206475734710693 1.142284631729126 30.0 12 -0.012904513627290726
-3.0445399284362793 5.1459832191467285 -0.5231087803840637 41.0 5 -0.012902209535241127
-3.6608028411865234 6.1876115798950195 1.3974851369857788 45.0 13 -0.012899905443191528
-2.660672426223755 4.49894905090332 -0.27392640709877014 71.0 6 -0.01289760135114193
-3.6415114402770996 6.159910202026367 1.6520406007766724 55.0 14 -0.012895298190414906
-2.7111775875091553 4.588002681732178 -0.09302133321762085 55.0 7 -0.012892994098365307
-3.6097865104675293 6.11111307144165 1.90180242061615 23.0 15 -0.012890690006315708
-1.6751598119735718 2.8449904918670654 -0.8846435546875 6.0 0 -0.012869954109191895
-2.703967809677124 4.592255592346191 0.09302133321762085 4.0 8 -0.012867650017142296
-1.8998485803604126 3.2278764247894287 -0.8647118806838989 3.0 1 -0.012865345925092697
-2.735530376434326 4.649575233459473 0.28271886706352234 4.0 9 -0.012863041833043098
-2.162670373916626 3.6773509979248047 -0.8292559385299683 1.0 2 -0.0128607377409935
-3.718784809112549 6.325855731964111 0.6419891715049744 100.0 10 -0.012858433648943901
-2.5250091552734375 4.29689884185791 -0.7893683910369873 1.0 3 -0.012856129556894302
-3.706073522567749 6.306758403778076 0.8981771469116211 54.0 11 -0.012853825464844704
-3.685743808746338 6.2771782875061035 1.1529221534729004 30.0 12 -0.012849217280745506
-2.906543731689453 4.952104091644287 -0.5023657083511353 4.0 5 -0.012846914120018482
-3.6629347801208496 6.243321895599365 1.407025694847107 41.0 13 -0.012844610027968884
-2.6562883853912354 4.529345512390137 -0.27518248558044434 73.0 6 -0.012842305935919285
-3.65143084526062 6.228694915771484 1.6668874025344849 60.0 14 -0.012840001843869686
-2.686042547225952 4.581912994384766 -0.09270718693733215 52.0 7 -0.012837697751820087
-3.6148018836975098 6.168679714202881 1.915778636932373 24.0 15 -0.012835393659770489
-1.6652179956436157 2.850820779800415 -0.8846435546875 6.0 0 -0.012814657762646675
-2.686108350753784 4.600408554077148 0.09298641979694366 11.0 8 -0.012812353670597076
-1.8830925226211548 3.22640323638916 -0.8624624013900757 3.0 1 -0.012810049578547478
-2.7365875244140625 4.690622329711914 0.28460296988487244 2.0 9 -0.012807745486497879
-2.1498196125030518 3.68487811088562 -0.8292559385299683 1.0 2 -0.01280544139444828
-3.6916606426239014 6.330193519592285 0.6411176323890686 81.0 10 -0.012803137302398682
-2.509995698928833 4.3056864738464355 -0.7893683910369873 1.0 3 -0.012800834141671658
-3.6889309883117676 6.330589294433594 0.8996396064758301 78.0 11 -0.012798530049622059
-3.010409116744995 5.168248653411865 -0.7343847751617432 1.0 4 -0.01279622595757246
-3.6875624656677246 6.333322048187256 1.1607439517974854 73.0 12 -0.012793921865522861
-2.974454402923584 5.108572006225586 -0.5171821713447571 12.0 5 -0.012791617773473263
-3.6697592735290527 6.305275917053223 1.4180924892425537 100.0 13 -0.012789313681423664
-2.6625585556030273 4.576569080352783 -0.2774852514266968 72.0 6 -0.012787009589374065
-3.6619973182678223 6.296993732452393 1.6817342042922974 66.0 14 -0.012784705497324467
-2.5797884464263916 4.437861919403076 -0.08960065990686417 50.0 7 -0.012782401405274868
-3.62905216217041 6.245358467102051 1.9354488849639893 24.0 15 -0.01278009731322527
-1.6610684394836426 2.866644859313965 -0.8877493143081665 6.0 0 -0.012759361416101456
-2.673039197921753 4.614948749542236 0.09309113770723343 9.0 8 -0.012757057324051857
-1.8796310424804688 3.246448040008545 -0.8660616278648376 3.0 1 -0.012754754163324833
-2.975311279296875 5.140945911407471 0.3112943172454834 1.0 9 -0.012752450071275234
-2.1467788219451904 3.7093513011932373 -0.8330721259117126 1.0 2 -0.012750145979225636
-3.6675446033477783 6.339593410491943 0.6407690048217773 81.0 10 -0.012747841887176037
-2.500885248184204 4.324681758880615 -0.7912455797195435 1.0 3 -0.012745537795126438
-3.656874418258667 6.326242446899414 0.89720219373703 75.0 11 -0.01274323370307684
-3.0022804737091064 5.195914268493652 -0.7368221282958984 3.0 4 -0.01274092961102724
-3.657529830932617 6.332469940185547 1.1582409143447876 61.0 12 -0.012738625518977642
-2.9765353202819824 5.153428554534912 -0.5206683874130249 44.0 5 -0.012736321426928043
-3.6467442512512207 6.316348075866699 1.4177109003067017 97.0 13 -0.012734017334878445
-2.6665327548980713 4.620433330535889 -0.27957871556282043 57.0 6 -0.01273171417415142
-3.5952014923095703 6.232089042663574 1.6610386371612549 41.0 14 -0.012729410082101822
-2.565279722213745 4.448573112487793 -0.08963555842638016 53.0 7 -0.012727105990052223
-3.630382537841797 6.298158168792725 1.947872281074524 29.0 15 -0.012724801898002625
-1.6510511636734009 2.8724260330200195 -0.8877493143081665 5.0 0 -0.012704066000878811
-2.671858072280884 4.650259017944336 0.09361471235752106 6.0 8 -0.012701761908829212
-1.8692570924758911 3.2546799182891846 -0.8665115237236023 3.0 1 -0.012699457816779613
-2.9662957191467285 5.1668901443481445 0.31223633885383606 4.0 9 -0.012697153724730015
-2.122087001800537 3.6963915824890137 -0.8284926414489746 1.0 2 -0.012694849632680416
-3.6453940868377686 6.352355480194092 0.6407690048217773 78.0 10 -0.012692545540630817
-2.4857728481292725 4.333385944366455 -0.7912455797195435 1.0 3 -0.012690241448581219
-3.6318085193634033 6.333801746368408 0.8964709639549255 70.0 11 -0.01268793735653162
-2.976228952407837 5.1925835609436035 -0.7348722219467163 3.0 4 -0.012685634195804596
-3.6255815029144287 6.328059673309326 1.1551122665405273 55.0 12 -0.012683330103754997
-2.970412254333496 5.184532642364502 -0.5227601528167725 13.0 5 -0.012681026011705399
-3.6246752738952637 6.329038619995117 1.4177109003067017 92.0 13 -0.0126787219196558
-3.5869741439819336 6.268280982971191 1.6673372983932495 63.0 14 -0.012674113735556602
-2.5547008514404297 4.466178894042969 -0.0898100882768631 55.0 7 -0.012671809643507004
-3.6074178218841553 6.309114456176758 1.9473545551300049 30.0 15 -0.012669505551457405
-1.643885612487793 2.8832058906555176 -0.8893022537231445 5.0 0 -0.012648769654333591
-2.6704626083374023 4.685616493225098 0.09413827955722809 5.0 8 -0.012646465562283993
-1.8578839302062988 3.261185646057129 -0.8665115237236023 3.0 1 -0.012644161470234394
-2.931441068649292 5.147707462310791 0.31045693159103394 30.0 9 -0.012641857378184795
-2.1150012016296387 3.714012384414673 -0.830782413482666 1.0 2 -0.012639554217457771
-3.6133432388305664 6.347726345062256 0.639025866985321 78.0 10 -0.012637250125408173
-2.484307289123535 4.3660736083984375 -0.7956258058547974 1.0 3 -0.012634946033358574
-3.605753183364868 6.339538097381592 0.8954960107803345 64.0 11 -0.012632641941308975
-2.981632947921753 5.244356632232666 -0.7407218813896179 1.0 4 -0.012630337849259377
-3.5976123809814453 6.330373287200928 1.1532349586486816 56.0 12 -0.012628033757209778
-3.062551259994507 5.388876914978027 -0.5422829985618591 18.0 5 -0.01262572966516018
-3.5986833572387695 6.3348236083984375 1.416184425354004 90.0 13 -0.01262342557311058
-2.578984260559082 4.541675567626953 -0.27371707558631897 1.0 6 -0.012621121481060982
-3.5948915481567383 6.333302021026611 1.6812843084335327 100.0 14 -0.012618817389011383
-2.546004295349121 4.48724365234375 -0.09005442261695862 70.0 7 -0.012616513296961784
-3.5739378929138184 6.301502704620361 1.9411429166793823 45.0 15 -0.01261421013623476
-1.6300067901611328 2.8822011947631836 -0.887231707572937 5.0 0 -0.012593473307788372
-2.668850898742676 4.721022605895996 0.09466185420751572 2.0 8 -0.012591170147061348
-1.8484070301055908 3.2710437774658203 -0.8674113154411316 3.0 1 -0.01258886605501175
-2.102023124694824 3.7213730812072754 -0.830782413482666 1.0 2 -0.012584257870912552
-3.583325147628784 6.346421718597412 0.6376314163208008 90.0 10 -0.012581953778862953
-2.46905255317688 4.37471866607666 -0.7956258058547974 1.0 3 -0.012579649686813354
-3.584575653076172 6.35381555557251 0.895739734172821 64.0 11 -0.012577345594763756
-3.568704605102539 6.330845832824707 1.1510449647903442 60.0 12 -0.012572737410664558
-3.067203998565674 5.441189289093018 -0.5464665293693542 20.0 5 -0.01257043331861496
-3.571727991104126 6.338795185089111 1.414276361465454 83.0 13 -0.012568130157887936
-2.5591933727264404 4.543690204620361 -0.27329838275909424 1.0 6 -0.012565826065838337
-3.560335159301758 6.323736190795898 1.6754355430603027 100.0 14 -0.012563521973788738
-2.5401318073272705 4.51353120803833 -0.0904034674167633 67.0 7 -0.01256121788173914
-3.5481293201446533 6.307206153869629 1.9390723705291748 45.0 15 -0.01255891378968954
-1.618991494178772 2.88618803024292 -0.8867141008377075 5.0 0 -0.012538177892565727
-2.6543121337890625 4.733797550201416 0.09473166614770889 8.0 8 -0.012535873800516129
-1.8388839960098267 3.2808752059936523 -0.8683111071586609 3.0 1 -0.01253356970846653
-3.558277130126953 6.3511576652526855 0.38152915239334106 5.0 9 -0.012531265616416931
-2.090940475463867 3.7321128845214844 -0.8315456509590149 1.0 2 -0.012528961524367332
-3.5582308769226074 6.353675365447998 0.6371084451675415 88.0 10 -0.012526657432317734
-2.465346574783325 4.403993606567383 -0.7993801832199097 1.0 3 -0.012524353340268135
-3.5468664169311523 6.338571548461914 0.8918399214744568 57.0 11 -0.012522049248218536
-3.548513650894165 6.346712589263916 1.1516706943511963 60.0 12 -0.012517441995441914
-3.080279588699341 5.509250164031982 -0.5522187948226929 26.0 5 -0.012515137903392315
-3.5400030612945557 6.334085941314697 1.410460114479065 87.0 13 -0.012512833811342716
-2.5627999305725098 4.587467193603516 -0.2753918170928955 1.0 6 -0.012510529719293118
-3.537290573120117 6.334423065185547 1.6749857664108276 100.0 14 -0.012508225627243519
-2.5272839069366455 4.527609348297119 -0.09050818532705307 65.0 7 -0.01250592153519392
-3.5223276615142822 6.312803745269775 1.9370018243789673 45.0 15 -0.012503617443144321
-1.610785961151123 2.895197629928589 -0.8877493143081665 5.0 0 -0.012482881546020508
-2.528916358947754 4.547301769256592 0.09082232415676117 1.0 8 -0.012480577453970909
-1.8188978433609009 3.2719454765319824 -0.864262044429779 3.0 1 -0.01247827336192131
-3.510864019393921 6.318147659301758 0.3788076937198639 4.0 9 -0.012475969269871712
-2.0740866661071777 3.7325241565704346 -0.8300192356109619 1.0 2 -0.012473666109144688
-3.5321593284606934 6.359091758728027 0.6364112496376038 88.0 10 -0.012471362017095089
-2.442286491394043 4.398756980895996 -0.7968772649765015 1.0 3 -0.01246905792504549
-3.518937587738037 6.340500354766846 0.8903774619102478 64.0 11 -0.012466753832995892
-2.685800552368164 4.841326713562012 -0.6797872185707092 1.0 4 -0.012464449740946293
-3.5225040912628174 6.352151393890381 1.1504192352294922 60.0 12 -0.012462145648896694
-3.0890491008758545 5.570499420166016 -0.557273805141449 20.0 5 -0.012459841556847095
-3.513110876083374 6.337820053100586 1.4085520505905151 92.0 13 -0.012457537464797497
-2.591297149658203 4.676748752593994 -0.28020673990249634 1.0 6 -0.012455233372747898
-3.500993490219116 6.321162223815918 1.6682370901107788 100.0 14 -0.012452930212020874
-2.5124335289001465 4.53815221786499 -0.09054308384656906 60.0 7 -0.012450626119971275
-3.4983980655670166 6.321681022644043 1.9359666109085083 30.0 15 -0.012448322027921677
-1.6044026613235474 2.907569169998169 -0.8898199200630188 5.0 0 -0.012427586130797863
-2.549729585647583 4.622639179229736 0.09214870631694794 1.0 8 -0.012425282038748264
-1.8121707439422607 3.286807060241699 -0.8665115237236023 3.0 1 -0.012422977946698666
-3.492642402648926 6.3373613357543945 0.3792263865470886 5.0 9 -0.012420673854649067
-2.062939167022705 3.743180513381958 -0.830782413482666 1.0 2 -0.012418369762599468
-3.508018970489502 6.36789083480835 0.6360626220703125 86.0 10 -0.01241606567054987
-2.428823709487915 4.410715579986572 -0.7975029945373535 1.0 3 -0.01241376157850027
-3.4919989109039307 6.344049453735352 0.8891588449478149 59.0 11 -0.012411457486450672
-3.491743326187134 6.348829746246338 1.1476033926010132 61.0 12 -0.01240685023367405
-3.078228235244751 5.596959590911865 -0.5588425993919373 8.0 5 -0.01240454614162445
-3.4900217056274414 6.348322868347168 1.408170461654663 87.0 13 -0.012402242049574852
-2.5903477668762207 4.713770866394043 -0.2818814814090729 1.0 6 -0.012399937957525253
-3.471402883529663 6.3196797370910645 1.6646379232406616 100.0 14 -0.012397633865475655
-2.4965779781341553 4.546894073486328 -0.09054308384656906 53.0 7 -0.012395329773426056
-3.454932928085327 6.294902324676514 1.9240609407424927 30.0 15 -0.012393025681376457
-1.5942429304122925 2.9131522178649902 -0.8898199200630188 5.0 0 -0.012372289784252644
-2.5211029052734375 4.608704090118408 0.09169494360685349 4.0 8 -0.012369985692203045
-1.8062951564788818 3.3033719062805176 -0.8692108988761902 3.0 1 -0.012367681600153446
-3.4657084941864014 6.340753078460693 0.3787030279636383 5.0 9 -0.012365377508103848
-2.055508852005005 3.760695457458496 -0.8330721259117126 2.0 2 -0.012363073416054249
-3.4762182235717773 6.362612724304199 0.6343194842338562 82.0 10 -0.01236076932400465
-2.4209859371185303 4.433037281036377 -0.8000059723854065 1.0 3 -0.012358466163277626
-3.4698309898376465 6.356201171875 0.8891588449478149 63.0 11 -0.012356162071228027
-2.5948874950408936 4.755405426025391 -0.6651629209518433 1.0 4 -0.012353857979178429
-3.462937593460083 6.348841667175293 1.1454132795333862 63.0 12 -0.01235155388712883
-3.056762933731079 5.60417366027832 -0.5584940314292908 6.0 5 -0.012349249795079231
-3.465019702911377 6.355297088623047 1.407025694847107 90.0 13 -0.012346945703029633
-2.587259292602539 4.747335910797119 -0.28334689140319824 1.0 6 -0.012344641610980034
-3.4521167278289795 6.336893081665039 1.6659876108169556 100.0 14 -0.012342337518930435
-2.4864280223846436 4.5661187171936035 -0.090752512216568 57.0 7 -0.012340033426880836
-3.434786796569824 6.310316562652588 1.9250961542129517 28.0 15 -0.012337729334831238
-1.580378770828247 2.911907196044922 -0.8877493143081665 5.0 0 -0.012316993437707424
-2.506906270980835 4.620992660522461 0.09176475554704666 3.0 8 -0.012314689345657825
-1.7910382747650146 3.302804470062256 -0.8674113154411316 3.0 1 -0.012312386184930801
-3.4387965202331543 6.344031810760498 0.378179669380188 4.0 9 -0.012310082092881203
-2.0404984951019287 3.764394998550415 -0.832308828830719 1.0 2 -0.012307778000831604
-3.4511382579803467 6.369453430175781 0.6337965726852417 90.0 10 -0.012305473908782005
-2.396090507507324 4.424090385437012 -0.7968772649765015 1.0 3 -0.012303169816732407
-3.4438438415527344 6.36129093170166 0.8881838917732239 57.0 11 -0.012300865724682808
-2.57827091217041 4.764435291290283 -0.6651629209518433 1.0 4 -0.01229856163263321
-3.4360568523406982 6.352202415466309 1.1438488960266113 65.0 12 -0.01229625754058361
-3.043818712234497 5.627075672149658 -0.5597141981124878 7.0 5 -0.012293953448534012
-3.4334781169891357 6.350082874298096 1.4032094478607178 92.0 13 -0.012291649356484413
-2.604858160018921 4.8195929527282715 -0.28711506724357605 1.0 6 -0.012289345264434814
-3.4216411113739014 6.333473205566406 1.6619385480880737 100.0 14 -0.01228704210370779
-2.4790267944335938 4.590606212615967 -0.09106665849685669 61.0 7 -0.012284738011658192
-3.407231092453003 6.312067985534668 1.9219902753829956 32.0 15 -0.012282433919608593
-1.5720365047454834 2.9208080768585205 -0.888784646987915 6.0 0 -0.01226169802248478
-2.5021281242370605 4.650847434997559 0.09218360483646393 4.0 8 -0.01225939393043518
-1.7794990539550781 3.3090357780456543 -0.8674113154411316 3.0 1 -0.012257089838385582
-3.4071755409240723 6.338404178619385 0.37713292241096497 5.0 9 -0.012254785746335983
-2.034783363342285 3.7853288650512695 -0.8353618383407593 1.0 2 -0.012252481654286385
-3.4203944206237793 6.365666389465332 0.6322277188301086 84.0 10 -0.012250177562236786
-2.3881113529205322 4.446349143981934 -0.7993801832199097 1.0 3 -0.012247873470187187
-3.414107084274292 6.359280586242676 0.886233925819397 63.0 11 -0.012245569378137589
-2.9220712184906006 5.445076942443848 -0.7587586045265198 1.0 4 -0.01224326528608799
-3.4101288318634033 6.357193946838379 1.1425974369049072 61.0 12 -0.012240962125360966
-3.0251009464263916 5.639421463012695 -0.559888482093811 6.0 5 -0.012238658033311367
-3.4001598358154297 6.34126615524292 1.3986300230026245 95.0 13 -0.012236353941261768
-2.588017463684082 4.828657150268555 -0.28711506724357605 1.0 6 -0.01223404984921217
-3.3995134830474854 6.3453779220581055 1.6619385480880737 100.0 14 -0.012231745757162571
-2.476202964782715 4.623911380767822 -0.09155532717704773 61.0 7 -0.012229441665112972
-3.381528615951538 6.317111492156982 1.919919729232788 43.0 15 -0.012227137573063374
-1.5636498928070068 2.9296867847442627 -0.8898199200630188 5.0 0 -0.01220640167593956
-2.4971747398376465 4.680724620819092 0.09260246902704239 5.0 8 -0.012204097583889961
-1.7679367065429688 3.315227746963501 -0.8674113154411316 3.0 1 -0.012201793491840363
-3.3793909549713135 6.33968448638916 0.37650489807128906 4.0 9 -0.012199489399790764
-2.028944492340088 3.8062684535980225 -0.83841472864151 2.0 2 -0.012197185307741165
-3.4000284671783447 6.381083011627197 0.6325763463973999 86.0 10 -0.012194882147014141
-2.372574806213379 4.454658508300781 -0.7993801832199097 1.0 3 -0.012192578054964542
-3.3844237327575684 6.357142448425293 0.8842840790748596 57.0 11 -0.012190273962914944
-2.8470945358276367 5.350099086761475 -0.7441343069076538 1.0 4 -0.012187969870865345
-3.3851325511932373 6.363827705383301 1.141658902168274 63.0 12 -0.012185665778815746
-2.997910499572754 5.635875225067139 -0.5584940314292908 6.0 5 -0.012183361686766148
-3.3761587142944336 6.349629878997803 1.3978667259216309 95.0 13 -0.012181057594716549
-2.5711474418640137 4.837660789489746 -0.28711506724357605 1.0 6 -0.01217875350266695
-3.3700273036956787 6.343438625335693 1.658339262008667 100.0 14 -0.012176449410617352
-2.468489170074463 4.648421764373779 -0.09186947345733643 70.0 7 -0.012174146249890327
-3.3603644371032715 6.330582618713379 1.9204374551773071 45.0 15 -0.012171842157840729
-1.5525107383728027 2.9334189891815186 -0.8893022537231445 5.0 0 -0.01215110532939434
-2.449028491973877 4.629314422607422 0.09141571074724197 24.0 8 -0.012148801237344742
-1.7581762075424194 3.3248238563537598 -0.8683111071586609 3.0 1 -0.012146498076617718
-3.344174861907959 6.326720714569092 0.3750394880771637 5.0 9 -0.012144193984568119
-2.0138120651245117 3.8098561763763428 -0.8376515507698059 1.0 2 -0.01214188989251852
-3.375873327255249 6.389388561248779 0.6322277188301086 86.0 10 -0.012139585800468922
-2.3551666736602783 4.459419250488281 -0.7987545132637024 1.0 3 -0.012137281708419323
-3.3566536903381348 6.358384132385254 0.8828216195106506 57.0 11 -0.012134977616369724
-3.3564484119415283 6.36337423324585 1.139468789100647 65.0 12 -0.012130369432270527
-2.9717135429382324 5.633968830108643 -0.557273805141449 3.0 5 -0.012128065340220928
-3.355806589126587 6.364849090576172 1.3986300230026245 95.0 13 -0.012125762179493904
-2.5616958141326904 4.860741138458252 -0.2879524528980255 1.0 6 -0.012123458087444305
-3.3405961990356445 6.341371536254883 1.6547400951385498 100.0 14 -0.012121153995394707
-2.4457249641418457 4.644624710083008 -0.0916251391172409 62.0 7 -0.012118849903345108
-3.3427462577819824 6.350820541381836 1.9230256080627441 39.0 15 -0.01211654581129551
-1.5413633584976196 2.937110662460327 -0.888784646987915 5.0 0 -0.012095809914171696
-2.4356398582458496 4.643147945404053 0.09152042120695114 69.0 8 -0.012093505822122097
-1.7492737770080566 3.3361189365386963 -0.8696608543395996 3.0 1 -0.012091201730072498
-3.319287061691284 6.333049297332764 0.37472549080848694 5.0 9 -0.0120888976380229
-2.000499725341797 3.8168630599975586 -0.8376515507698059 1.0 2 -0.012086593545973301
-3.3433775901794434 6.381721019744873 0.6303102970123291 81.0 10 -0.012084289453923702
-2.3395848274230957 4.46761417388916 -0.7987545132637024 1.0 3 -0.012081985361874104
-3.336277484893799 6.373579978942871 0.8833090662956238 57.0 11 -0.01207968220114708
-2.853848457336426 5.454270839691162 -0.7558336853981018 1.0 4 -0.01207737810909748
-3.326889753341675 6.361048698425293 1.1369657516479492 65.0 12 -0.012075074017047882
-2.969571828842163 5.677853107452393 -0.5605857372283936 6.0 5 -0.012072769924998283
-3.3299286365509033 6.369565963745117 1.3971035480499268 95.0 13 -0.012070465832948685
-2.5835623741149902 4.944000244140625 -0.2923486828804016 1.0 6 -0.012068161740899086
-3.318441867828369 6.352993488311768 1.6547400951385498 100.0 14 -0.012065857648849487
-2.4489340782165527 4.6903581619262695 -0.09235813468694687 100.0 7 -0.012063553556799889
-3.3062546253204346 6.335048675537109 1.9147433042526245 21.0 15 -0.01206124946475029
-1.5328856706619263 2.9459002017974854 -0.8898199200630188 6.0 0 -0.012040513567626476
-2.425877571105957 4.664039611816406 0.09176475554704666 43.0 8 -0.012038209475576878
-1.734022855758667 3.3352882862091064 -0.867861270904541 3.0 1 -0.012035905383527279
-3.2953197956085205 6.341052532196045 0.3745161294937134 5.0 9 -0.012033602222800255
-3.313734769821167 6.379208087921143 0.6289158463478088 81.0 10 -0.012028994038701057
-2.338541269302368 4.50380277633667 -0.8037603497505188 1.0 3 -0.012026689946651459
-3.306694746017456 6.371090888977051 0.8813591599464417 57.0 11 -0.01202438585460186
-2.849417209625244 5.492393493652344 -0.7597335577011108 1.0 4 -0.012022081762552261
-3.3010292053222656 6.365607738494873 1.1357142925262451 61.0 12 -0.012019777670502663
-2.981837749481201 5.750088691711426 -0.5666866302490234 2.0 5 -0.012017473578453064
-3.300447702407837 6.367205619812012 1.3940505981445312 92.0 13 -0.012015169486403465
-3.294454336166382 6.361076354980469 1.653840184211731 100.0 14 -0.012010561302304268
-2.4270317554473877 4.688222408294678 -0.09214870631694794 66.0 7 -0.012008258141577244
-3.277904510498047 6.334542274475098 1.9111199378967285 24.0 15 -0.012005954049527645
-1.5261366367340088 2.958099603652954 -0.8918904662132263 5.0 0 -0.011985218152403831
-2.4251620769500732 4.702693462371826 0.09235813468694687 53.0 8 -0.011982914060354233
-1.7259405851364136 3.348249673843384 -0.8696608543395996 3.0 1 -0.011980609968304634
-3.265848398208618 6.33831262588501 0.3736787736415863 5.0 9 -0.011978305876255035
-3.2877960205078125 6.383651256561279 0.6282185912132263 78.0 10 -0.011973697692155838
-3.278987169265747 6.372003555297852 0.8798967003822327 59.0 11 -0.01196908950805664
-3.2760775089263916 6.371822357177734 1.1347757577896118 63.0 12 -0.011964481323957443
-3.2692294120788574 6.361225128173828 1.390234351158142 95.0 13 -0.01195987407118082
-3.2535362243652344 6.333415508270264 -0.3731553852558136 1.0 6 -0.011957569979131222
-3.2668874263763428 6.3621368408203125 1.651140809059143 100.0 14 -0.011955265887081623
-2.405172109603882 4.685992240905762 -0.091939277946949 58.0 7 -0.011952961795032024
-3.254892349243164 6.344225883483887 1.910602331161499 30.0 15 -0.011950657702982426
-1.5145580768585205 2.959705352783203 -0.8908551931381226 5.0 0 -0.011953592300415039
-2.4159293174743652 4.723171710968018 0.09260246902704239 61.0 8 -0.01195128820836544
-1.715715765953064 3.355689764022827 -0.8701107501983643 3.0 1 -0.011948984116315842
-3.2386443614959717 6.334315776824951 0.37284138798713684 5.0 9 -0.011946680024266243
-3.2647974491119385 6.390970230102539 0.6278699636459351 78.0 10 -0.011942071840167046
-3.2524220943450928 6.372234344482422 0.8784343004226685 59.0 11 -0.011937464587390423
-3.2542498111724854 6.37856388092041 1.1341500282287598 63.0 12 -0.011932856403291225
-3.2463319301605225 6.368534088134766 1.389471173286438 95.0 13 -0.011928248219192028
-3.243398427963257 6.365524768829346 -0.3744114637374878 76.0 6 -0.01192594412714243
-3.240466833114624 6.362515926361084 1.6484414339065552 100.0 14 -0.01192364003509283
-2.3831794261932373 4.679269790649414 -0.0916600376367569 52.0 7 -0.011921335943043232
-3.2331936359405518 6.35097599029541 1.9095669984817505 33.0 15 -0.011919031850993633
-1.5085883140563965 2.973587989807129 -0.8934433460235596 5.0 0 -0.01189829595386982
-2.4102063179016113 4.750772953033447 0.09298641979694366 52.0 8 -0.011895991861820221
-1.7081029415130615 3.3683133125305176 -0.8719103336334229 3.0 1 -0.011893688701093197
-3.2119998931884766 6.336673736572266 0.3723180294036865 5.0 9 -0.011891384609043598
-3.2406668663024902 6.398773670196533 0.6275213360786438 76.0 10 -0.0118867764249444
-3.2276883125305176 6.375899791717529 0.8774593472480774 67.0 11 -0.011882168240845203
-3.2230470180511475 6.372257709503174 1.1310213804244995 63.0 12 -0.011877560056746006
-3.223421573638916 6.375761032104492 1.3887079954147339 95.0 13 -0.011872951872646809
-3.216867685317993 6.365549087524414 -0.3737834393978119 10.0 6 -0.011870648711919785
-3.2149548530578613 6.364530086517334 1.646191954612732 100.0 14 -0.011868344619870186
-2.3542118072509766 4.662569999694824 -0.09117137640714645 27.0 7 -0.011866040527820587
-3.2083919048309326 6.35705041885376 1.9080140590667725 34.0 15 -0.011863736435770988
-1.4978501796722412 2.976848840713501 -0.8929257392883301 5.0 0 -0.011843000538647175
-1.6919591426849365 3.365549325942993 -0.8696608543395996 3.0 1 -0.011838392354547977
-3.188065767288208 6.344278812408447 0.37210866808891296 6.0 9 -0.011836088262498379
-1.1098277568817139 2.208566904067993 -0.480457067489624 4.0 2 -0.01183378417044878
-3.208699941635132 6.388118743896484 0.6254295706748962 78.0 10 -0.011831480078399181
-3.2018494606018066 6.380032062530518 0.8764843940734863 67.0 11 -0.011826871894299984
-3.1972434520721436 6.376405239105225 1.1297698020935059 63.0 12 -0.011822264641523361
-3.1993885040283203 6.383462905883789 1.3879446983337402 95.0 13 -0.011817656457424164
-3.1909751892089844 6.372227668762207 1.645292043685913 100.0 14 -0.011813048273324966
-3.1766750812530518 6.34920597076416 1.9023200273513794 39.0 15 -0.011808440089225769
-1.4826200008392334 2.9736740589141846 -0.8903375267982483 4.0 0 -0.011787704192101955
-1.683678388595581 3.378411054611206 -0.8714604377746582 3.0 1 -0.011783096008002758
-3.16412091255188 6.351792335510254 0.3718993365764618 6.0 9 -0.01178079191595316
-1.1034750938415527 2.216135025024414 -0.4812203049659729 73.0 2 -0.011778488755226135
-3.1817150115966797 6.392701625823975 0.6247323155403137 76.0 10 -0.011776184663176537
-3.1804447174072266 6.392945766448975 0.8767281174659729 73.0 11 -0.01177157647907734
-3.1688129901885986 6.375143527984619 1.127579689025879 58.0 12 -0.011766968294978142
-3.168982982635498 6.3810811042785645 1.3848917484283447 95.0 13 -0.011762360110878944
-3.1632659435272217 6.375153541564941 1.6430425643920898 100.0 14 -0.011757751926779747
-3.1476242542266846 6.34641170501709 1.8981789350509644 42.0 15 -0.011753144674003124
-1.4739420413970947 2.982295513153076 -0.8913728594779968 4.0 0 -0.011732407845556736
-1.6730093955993652 3.388054370880127 -0.8723602890968323 3.0 1 -0.011727800592780113
-3.139049530029297 6.359766006469727 0.3716900050640106 9.0 9 -0.011725496500730515
-1.0948641300201416 2.218212842941284 -0.48083871603012085 85.0 2 -0.011723192408680916
-3.15408992767334 6.393048286437988 0.6236864924430847 78.0 10 -0.011720888316631317
-1.0720137357711792 2.1738288402557373 -0.3838902413845062 1.0 3 -0.011718584224581718
-3.1490914821624756 6.388535976409912 0.8745344281196594 73.0 11 -0.01171628013253212
-3.1454238891601562 6.386716365814209 1.127579689025879 61.0 12 -0.011711671948432922
-3.139754056930542 6.378011703491211 1.3818389177322388 95.0 13 -0.0117070646956563
-3.1392743587493896 6.382658004760742 1.6421427726745605 100.0 14 -0.011702456511557102
-3.1243438720703125 6.357904434204102 1.8981789350509644 43.0 15 -0.011697848327457905
-1.4703227281570435 3.001300811767578 -0.8955139517784119 4.0 0 -0.011677112430334091
-1.6551764011383057 3.3816211223602295 -0.8692108988761902 3.0 1 -0.011672504246234894
-3.1080548763275146 6.352743148803711 0.37064328789711 9.0 9 -0.011670200154185295
-1.0871150493621826 2.2220208644866943 -0.48083871603012085 71.0 2 -0.011667896062135696
-3.1300058364868164 6.400439262390137 0.6233378648757935 81.0 10 -0.011665591970086098
-1.0973845720291138 2.2449960708618164 -0.39577925205230713 1.0 3 -0.011663287878036499
-3.1198019981384277 6.385220050811768 0.8725845813751221 75.0 11 -0.011660984717309475
-1.0880550146102905 2.2278833389282227 -0.30442965030670166 1.0 4 -0.011658680625259876
-3.1222457885742188 6.395881175994873 1.1272668838500977 61.0 12 -0.011656376533210278
-3.1140289306640625 6.381874084472656 1.3803123235702515 92.0 13 -0.01165176834911108
-3.11099910736084 6.381315231323242 1.638993501663208 100.0 14 -0.011647160165011883
-3.1021299362182617 6.368772983551025 1.8981789350509644 45.0 15 -0.011642551980912685
-1.4589940309524536 3.004676580429077 -0.8949962854385376 5.0 0 -0.011621816083788872
-1.6484650373458862 3.3978984355926514 -0.8719103336334229 3.0 1 -0.011617207899689674
-3.0849905014038086 6.361755847930908 0.3705386221408844 12.0 9 -0.01161490473896265
-1.0724995136260986 2.211669683456421 -0.47778576612472534 75.0 2 -0.011612600646913052
-3.1076431274414062 6.411326885223389 0.6233378648757935 81.0 10 -0.011610296554863453
-1.1067665815353394 2.284367561340332 -0.4020366370677948 1.0 3 -0.011607992462813854
-3.095762014389038 6.39249849319458 0.8720970749855042 69.0 11 -0.011605688370764256
-1.0802719593048096 2.2316672801971436 -0.30442965030670166 1.0 4 -0.011603384278714657
-3.093876600265503 6.394294261932373 1.1250767707824707 60.0 12 -0.011601080186665058
-3.090022087097168 6.389171600341797 1.3795491456985474 92.0 13 -0.01159647200256586
-1.0648548603057861 2.2027580738067627 -0.12822310626506805 1.0 6 -0.011594167910516262
-3.082768678665161 6.379854679107666 1.635844111442566 100.0 14 -0.011591864749789238
-1.0384232997894287 2.149996519088745 -0.041676346212625504 1.0 7 -0.01158956065773964
-3.077361583709717 6.374342441558838 1.8966261148452759 46.0 15 -0.01158725656569004
-1.445982813835144 3.0045294761657715 -0.8934433460235596 4.0 0 -0.011566520668566227
-1.6365947723388672 3.4036316871643066 -0.8719103336334229 3.0 1 -0.01156191248446703
-3.059302806854248 6.365285873413086 0.37011992931365967 35.0 9 -0.011559608392417431
-1.0605199337005615 2.206552505493164 -0.47587767243385315 78.0 2 -0.011557304300367832
-3.079206705093384 6.4095635414123535 0.6221176981925964 85.0 10 -0.011555000208318233
-1.098786473274231 2.2882165908813477 -0.4020366370677948 2.0 3 -0.011552696116268635
-3.0742897987365723 6.405055046081543 0.8723408579826355 73.0 11 -0.011550392024219036
-1.0604546070098877 2.2103676795959473 -0.30101728439331055 1.0 4 -0.011548087932169437
-3.062997341156006 6.387242794036865 1.1219481229782104 60.0 12 -0.011545784771442413
-1.0880879163742065 2.2689805030822754 -0.22015538811683655 1.0 5 -0.011543480679392815
-3.067702293395996 6.399918556213379 1.3795491456985474 100.0 13 -0.011541176587343216
-1.0450780391693115 2.1812448501586914 -0.1267576962709427 1.0 6 -0.011538872495293617
-3.0554308891296387 6.380029678344727 1.633144736289978 100.0 14 -0.011536568403244019
-3.070288896560669 6.413928031921387 -0.1241215169429779 1.0 7 -0.01153426431119442
-3.0484228134155273 6.3711042404174805 1.8924849033355713 46.0 15 -0.011531960219144821
-1.4313271045684814 3.000840663909912 -0.8908551931381226 5.0 0 -0.011511224322021008
-1.6347646713256836 3.430433511734009 -0.8773091435432434 3.0 1 -0.01150661613792181
-3.063955545425415 6.429485321044922 0.3732600808143616 40.0 9 -0.011504312045872211
-1.0519661903381348 2.2084689140319824 -0.4754960536956787 71.0 2 -0.011502007953822613
-3.053386688232422 6.413078308105469 0.6214204430580139 85.0 10 -0.011499703861773014
-1.0789086818695068 2.267066240310669 -0.3976564407348633 2.0 3 -0.01149740070104599
-3.0485005378723145 6.408577919006348 0.8713659048080444 78.0 11 -0.011495096608996391
-1.065056562423706 2.238968849182129 -0.30442965030670166 1.0 4 -0.011492792516946793
-3.040949821472168 6.39558219909668 1.1216353178024292 58.0 12 -0.011490488424897194
-2.9052295684814453 6.1128926277160645 -0.5921360850334167 1.0 5 -0.011488184332847595
-3.038602352142334 6.396401405334473 1.3764961957931519 92.0 13 -0.011485880240797997
-1.066584587097168 2.2462222576141357 -0.13031654059886932 1.0 6 -0.011483576148748398
-3.033419609069824 6.388367652893066 1.6326948404312134 100.0 14 -0.0114812720566988
-3.043856143951416 6.413235187530518 -0.12391208857297897 1.0 7 -0.0114789679646492
-3.022308826446533 6.370706558227539 1.8893790245056152 46.0 15 -0.011476663872599602
-1.427149772644043 3.0177950859069824 -0.8944786190986633 6.0 0 -0.011455927975475788
-1.006701946258545 2.1296942234039307 0.041117873042821884 1.0 8 -0.01145362388342619
-1.6217141151428223 3.432312250137329 -0.8764093518257141 3.0 1 -0.011451320722699165
-3.0400562286376953 6.4341936111450195 0.3729460537433624 45.0 9 -0.011449016630649567
-1.0463141202926636 2.2154953479766846 -0.4762592613697052 55.0 2 -0.011446712538599968
-3.0270016193389893 6.412357807159424 0.6203745603561401 91.0 10 -0.01144440844655037
-1.074756145477295 2.277777910232544 -0.39890795946121216 2.0 3 -0.01144210435450077
-3.017918586730957 6.398901462554932 0.8686847686767578 73.0 11 -0.011439800262451172
-1.0508521795272827 2.2281248569488525 -0.30247974395751953 2.0 4 -0.011437496170401573
-3.0205681324005127 6.407416820526123 1.1219481229782104 60.0 12 -0.011435192078351974
-2.9392967224121094 6.237841606140137 -0.6032920479774475 1.0 5 -0.011432887986302376
-3.0123565196990967 6.395784854888916 1.3742064237594604 90.0 13 -0.011430583894252777
-1.0370122194290161 2.2027642726898193 -0.12759508192539215 1.0 6 -0.011428280733525753
-3.0122196674346924 6.398391246795654 1.6326948404312134 100.0 14 -0.011425976641476154
-2.9544596672058105 6.278543949127197 -0.12111970782279968 1.0 7 -0.011423672549426556
-2.996234178543091 6.370204448699951 1.8862733840942383 47.0 15 -0.011421368457376957
-1.422876000404358 3.034754753112793 -0.8981021642684937 6.0 0 -0.011400632560253143
-0.9996335506439209 2.133021116256714 0.041117873042821884 1.0 8 -0.011398328468203545
-1.6103239059448242 3.4376707077026367 -0.8764093518257141 3.0 1 -0.011396024376153946
-3.012497901916504 6.43391227722168 0.3723180294036865 26.0 9 -0.011393720284104347
-1.0364644527435303 2.213618516921997 -0.4751144051551819 43.0 2 -0.011391416192054749
-3.002340793609619 6.41514253616333 0.6196773052215576 95.0 10 -0.01138911210000515
-1.0646862983703613 2.275961399078369 -0.3979693353176117 2.0 3 -0.011386808007955551
-2.995002508163452 6.405277729034424 0.8681973218917847 75.0 11 -0.011384503915905952
-1.0850927829742432 2.3216981887817383 -0.31466665863990784 1.0 4 -0.011382199823856354
-2.994004487991333 6.408972263336182 1.1203837394714355 61.0 12 -0.01137989666312933
-1.0646651983261108 2.2800650596618652 -0.22015538811683655 1.0 5 -0.011377592571079731
-2.987806558609009 6.398624897003174 1.3726799488067627 92.0 13 -0.011375288479030132
-2.8475167751312256 6.100959777832031 -0.3528490364551544 1.0 6 -0.011372984386980534
-2.9791576862335205 6.385908126831055 1.626846194267273 100.0 14 -0.011370680294930935
-1.0090585947036743 2.163933515548706 -0.041676346212625504 1.0 7 -0.011368376202881336
-2.973978042602539 6.380625247955322 1.8862733840942383 47.0 15 -0.011366072110831738
-1.4109289646148682 3.0381977558135986 -0.8975844979286194 6.0 0 -0.011345336213707924
-0.9921822547912598 2.1364972591400146 0.041117873042821884 1.0 8 -0.011343032121658325
-1.595031499862671 3.4362010955810547 -0.8746097683906555 3.0 1 -0.011340728029608727
-1.0209099054336548 2.20137357711792 -0.4716798663139343 22.0 2 -0.011336119845509529
-2.980485200881958 6.429718494415283 0.6200259327888489 93.0 10 -0.011333816684782505
-1.0472017526626587 2.2601330280303955 -0.39452776312828064 2.0 3 -0.011331512592732906
-2.969285726547241 6.408488750457764 0.8672223091125488 75.0 11 -0.011329208500683308
-2.9658043384552 6.406836986541748 1.1181936264038086 63.0 12 -0.01132460031658411
-2.862210512161255 6.1858811378479 -0.5963196158409119 1.0 5 -0.011322296224534512
-2.9659841060638428 6.4130964279174805 1.3734432458877563 90.0 13 -0.011319992132484913
-2.8083760738372803 6.075096607208252 -0.35075560212135315 1.0 6 -0.011317688040435314
-2.9549131393432617 6.395015716552734 1.6263962984085083 100.0 14 -0.011315383948385715
-1.0014992952346802 2.167442560195923 -0.041676346212625504 1.0 7 -0.011313080787658691
-2.948448657989502 6.383951187133789 1.8842027187347412 47.0 15 -0.011310776695609093
-1.3978931903839111 3.037839412689209 -0.8960315585136414 5.0 0 -0.011290039867162704
-0.9843454360961914 2.1401190757751465 0.041117873042821884 1.0 8 -0.01128773670643568
-1.5921952724456787 3.463270902633667 -0.8800085783004761 3.0 1 -0.011285432614386082
-1.0066618919372559 2.190652370452881 -0.4686269164085388 9.0 2 -0.011280824430286884
-2.9497053623199463 6.42197847366333 0.6182828545570374 93.0 10 -0.011278520338237286
-1.0475484132766724 2.281726598739624 -0.3976564407348633 2.0 3 -0.011276216246187687
-2.942466974258423 6.412111282348633 0.8662473559379578 69.0 11 -0.011273912154138088
-2.9390106201171875 6.410480976104736 1.1169421672821045 63.0 12 -0.01126930397003889
-2.825655221939087 6.163233757019043 -0.5931819677352905 1.0 5 -0.011266999877989292
-2.9419455528259277 6.419840335845947 1.3726799488067627 92.0 13 -0.011264696717262268
-2.808776617050171 6.132075309753418 -0.3534770905971527 1.0 6 -0.01126239262521267
-2.929328441619873 6.398202896118164 1.6245965957641602 100.0 14 -0.01126008853316307
-2.86914324760437 6.269637584686279 -0.12035179883241653 1.0 7 -0.011257784441113472
-2.9202072620391846 6.384174823760986 1.8810968399047852 47.0 15 -0.011255480349063873
-1.3856768608093262 3.039185047149658 -0.8949962854385376 5.0 0 -0.01123474445194006
-0.9768684506416321 2.143542528152466 0.041117873042821884 1.0 8 -0.011232440359890461
-1.5784800052642822 3.4652609825134277 -0.8791087865829468 3.0 1 -0.011230136267840862
-0.9716203808784485 2.134000301361084 0.1228848323225975 1.0 9 -0.011227832175791264
-0.9884324073791504 2.1709251403808594 -0.4636658728122711 1.0 2 -0.011225528083741665
-2.9231455326080322 6.423167705535889 0.6174112558364868 65.0 10 -0.011223223991692066
-1.0379408597946167 2.281773567199707 -0.39703071117401123 1.0 3 -0.011220919899642467
-2.919243574142456 6.420536994934082 0.8660036325454712 73.0 11 -0.011218616738915443
-1.0603141784667969 2.3331186771392822 -0.31466665863990784 1.0 4 -0.011216312646865845
-2.916614294052124 6.420701503753662 1.1169421672821045 63.0 12 -0.011214008554816246
-1.0407308340072632 2.291088581085205 -0.22015538811683655 1.0 5 -0.011211704462766647
-2.9130232334136963 6.415770053863525 1.3696271181106567 95.0 13 -0.011209400370717049
-2.7758004665374756 6.116379737854004 -0.35201168060302734 1.0 6 -0.01120709627866745
-2.903754949569702 6.401291370391846 1.6227970123291016 100.0 14 -0.011204792186617851
-2.8472390174865723 6.27961540222168 -0.12035179883241653 1.0 7 -0.011202488094568253
-2.8947160243988037 6.387290000915527 1.8790262937545776 47.0 15 -0.011200184002518654
