# .PCD v0.7 - Point Cloud Data file format
VERSION 0.7
FIELDS x y z intensity ring time
SIZE 4 4 4 4 4 4
TYPE F F F F F F
COUNT 1 1 1 1 1 1
WIDTH 549
HEIGHT 1
VIEWPOINT 0 0 0 1 0 0 0
POINTS 549
DATA ascii
1.2849501371383667 -2.105912446975708 0.6610238552093506 7.0 15 -0.08171014487743378
0.7388866543769836 -1.2147773504257202 -0.3809816539287567 8.0 0 -0.08168940991163254
1.2792284488677979 -2.1031341552734375 0.04296782612800598 7.0 8 -0.08168710768222809
0.8797824382781982 -1.4469877481460571 -0.39096495509147644 6.0 1 -0.08168480545282364
1.289384365081787 -2.1214985847473145 0.13010719418525696 6.0 9 -0.08168249577283859
1.1111053228378296 -1.8288846015930176 -0.41596361994743347 6.0 2 -0.08168019354343414
1.2937754392623901 -2.130398750305176 0.21806366741657257 6.0 10 -0.0816778913140297
1.3309202194213867 -2.191563129425049 -0.4061039388179779 111.0 3 -0.08167558908462524
1.2814557552337646 -2.1109426021575928 0.30321094393730164 4.0 11 -0.0816732794046402
1.328458547592163 -2.189232110977173 -0.31442293524742126 103.0 4 -0.08167097717523575
1.2928911447525024 -2.1314573287963867 0.39484065771102905 6.0 12 -0.0816686749458313
1.288658857345581 -2.1253163814544678 0.4831283986568451 4.0 13 -0.0816640630364418
1.28472101688385 -2.1196563243865967 -0.1298978626728058 12.0 6 -0.08166176080703735
1.2884933948516846 -2.1267175674438477 0.5740751028060913 6.0 14 -0.0816594585776329
1.2865831851959229 -2.124401330947876 -0.043351780623197556 7.0 7 -0.08165715634822845
1.2795921564102173 -2.113690137863159 0.6620591282844543 7.0 15 -0.08165484666824341
0.7328574061393738 -1.213913083076477 -0.37994638085365295 8.0 0 -0.08163411170244217
1.278078556060791 -2.117859363555908 0.04317725449800491 7.0 8 -0.08163180947303772
0.8767392635345459 -1.4533873796463013 -0.3918647766113281 6.0 1 -0.08162950724363327
1.2778457403182983 -2.119145154953003 0.12968851625919342 6.0 9 -0.08162720501422882
1.100979208946228 -1.8258343935012817 -0.4144371747970581 6.0 2 -0.08162489533424377
1.2805322408676147 -2.124438762664795 0.2170177847146988 6.0 10 -0.08162259310483932
1.3222426176071167 -2.1945033073425293 -0.4057910442352295 107.0 3 -0.08162029087543488
1.278176188468933 -2.1222047805786133 0.3041858971118927 4.0 11 -0.08161798864603043
1.3187609910964966 -2.1904544830322266 -0.31393545866012573 101.0 4 -0.08161567896604538
1.2722017765045166 -2.113954544067383 0.39077335596084595 6.0 12 -0.08161337673664093
1.2812323570251465 -2.1298015117645264 0.4831283986568451 5.0 13 -0.08160877227783203
1.2793725728988647 -2.1275510787963867 -0.13010719418525696 11.0 6 -0.08160646259784698
1.2730300426483154 -2.117840528488159 0.5704758763313293 6.0 14 -0.08160416036844254
1.2678306102752686 -2.1100244522094727 -0.04296782612800598 8.0 7 -0.08160185813903809
1.2741954326629639 -2.1214559078216553 0.6630944013595581 7.0 15 -0.08159955590963364
0.7224488258361816 -1.206646203994751 -0.3768405616283417 8.0 0 -0.0815788209438324
1.2727323770523071 -2.125739097595215 0.04324706271290779 7.0 8 -0.08157651126384735
0.871660590171814 -1.4564387798309326 -0.3918647766113281 6.0 1 -0.0815742090344429
1.2786438465118408 -2.1373043060302734 0.1305258870124817 6.0 9 -0.08157190680503845
1.0922645330429077 -1.8264875411987305 -0.41367393732070923 6.0 2 -0.081569604575634
1.2706927061080933 -2.125697612762451 0.21666917204856873 6.0 10 -0.08156729489564896
1.3121638298034668 -2.195943832397461 -0.40516531467437744 107.0 3 -0.0815649926662445
1.2707602977752686 -2.1266536712646484 0.3041858971118927 4.0 11 -0.08156269043684006
1.3090709447860718 -2.191635847091675 -0.3134479522705078 101.0 4 -0.08156038820743561
1.263802170753479 -2.1166863441467285 0.39046046137809753 6.0 12 -0.08155807852745056
1.2714056968688965 -2.1311113834381104 0.4823651611804962 4.0 13 -0.08155347406864166
1.2654285430908203 -2.121933698654175 -0.12947916984558105 12.0 6 -0.08155117183923721
1.2692508697509766 -2.12918758392334 0.5722755193710327 6.0 14 -0.08154886960983276
1.2584099769592285 -2.111001968383789 -0.042898017913103104 8.0 7 -0.08154655992984772
1.2568933963775635 -2.10929536819458 0.6579180359840393 7.0 15 -0.08154425770044327
0.714286208152771 -1.2025169134140015 -0.37476998567581177 8.0 0 -0.08152352273464203
1.250639796257019 -2.1063172817230225 0.04275839403271675 7.0 8 -0.08152122050523758
0.8722845315933228 -1.469678521156311 -0.3945641815662384 6.0 1 -0.08151891082525253
1.269136667251587 -2.138319253921509 0.13031654059886932 6.0 9 -0.08151660859584808
1.081875205039978 -1.8235353231430054 -0.4121474623680115 6.0 2 -0.08151430636644363
1.2612322568893433 -2.1266930103302 0.21632054448127747 6.0 10 -0.08151200413703918
1.299453854560852 -2.192014455795288 -0.4036009609699249 111.0 3 -0.08150969445705414
1.2568854093551636 -2.1210503578186035 0.3027234971523285 5.0 11 -0.08150739222764969
1.3030526638031006 -2.1998353004455566 -0.31393545866012573 103.0 4 -0.08150508999824524
1.2523788213729858 -2.1142868995666504 0.38920900225639343 6.0 12 -0.08150278776884079
1.2639591693878174 -2.1355364322662354 0.4823651611804962 5.0 13 -0.0814981758594513
1.2610647678375244 -2.1314945220947266 -0.129793182015419 11.0 6 -0.08149587363004684
1.2608188390731812 -2.131927728652954 0.5718256235122681 6.0 14 -0.0814935714006424
1.2510335445404053 -2.1153817176818848 -0.042898017913103104 8.0 7 -0.08149126917123795
1.2465734481811523 -2.1086809635162354 0.6563650965690613 7.0 15 -0.0814889594912529
0.7120458483695984 -1.20833158493042 -0.3758052587509155 8.0 0 -0.08146822452545166
1.2456786632537842 -2.113898754119873 0.042828209698200226 7.0 8 -0.08146592229604721
0.8594934940338135 -1.4591302871704102 -0.39096495509147644 6.0 1 -0.08146362006664276
1.2535576820373535 -2.1289680004119873 0.12947916984558105 6.0 9 -0.08146131783723831
1.0854614973068237 -1.8442199230194092 -0.41596361994743347 6.0 2 -0.08145900815725327
1.2497601509094238 -2.124213695526123 0.21562331914901733 6.0 10 -0.08145670592784882
1.289172887802124 -2.1912035942077637 -0.40266236662864685 107.0 3 -0.08145440369844437
1.2538702487945557 -2.1320509910583496 0.30369842052459717 5.0 11 -0.08145210146903992
1.2937384843826294 -2.200721502304077 -0.3134479522705078 103.0 4 -0.08144979178905487
1.2529973983764648 -2.132270336151123 0.391711950302124 6.0 12 -0.08144748955965042
1.2409605979919434 -2.11263108253479 0.4762592613697052 5.0 13 -0.08144288510084152
1.248932957649231 -2.1270532608032227 -0.1292698234319687 12.0 6 -0.08144057542085648
1.248809814453125 -2.1276938915252686 0.5695760846138 6.0 14 -0.08143827319145203
1.2395939826965332 -2.1128365993499756 -0.04275839403271675 8.0 7 -0.08143597096204758
1.240182876586914 -2.1146857738494873 0.6568827629089355 7.0 15 -0.08143366873264313
0.7080349326133728 -1.210686206817627 -0.3758052587509155 8.0 0 -0.08141293376684189
1.2403104305267334 -2.1216866970062256 0.042898017913103104 7.0 8 -0.08141062408685684
0.8484957814216614 -1.452026605606079 -0.38826555013656616 6.0 1 -0.08140832185745239
1.2424601316452026 -2.126215696334839 0.12906047701835632 6.0 9 -0.08140601962804794
1.0753792524337769 -1.8410285711288452 -0.4144371747970581 6.0 2 -0.0814037173986435
1.2447181940078735 -2.1317875385284424 0.2159719318151474 6.0 10 -0.08140140771865845
1.2795246839523315 -2.1922781467437744 -0.4020366370677948 107.0 3 -0.081399105489254
1.2364168167114258 -2.1192686557769775 0.3012610375881195 5.0 11 -0.08139680325984955
1.2800483703613281 -2.1949355602264404 -0.3119855523109436 103.0 4 -0.0813945010304451
1.2459195852279663 -2.136413812637329 0.391711950302124 6.0 12 -0.08139219135046005
1.2414860725402832 -2.1305201053619385 0.4793122112751007 5.0 13 -0.08138758689165115
1.2344636917114258 -2.119318962097168 -0.128537118434906 11.0 6 -0.0813852846622467
1.2452976703643799 -2.1387765407562256 0.5713757276535034 6.0 14 -0.08138297498226166
1.238618016242981 -2.1273043155670166 -0.04296782612800598 8.0 7 -0.08138067275285721
1.2331632375717163 -2.1187868118286133 0.6568827629089355 7.0 15 -0.08137837052345276
0.7076823115348816 -1.219834327697754 -0.37787580490112305 8.0 0 -0.08135763555765152
1.2352749109268188 -2.1292474269866943 0.04296782612800598 7.0 8 -0.08135533332824707
0.8495416641235352 -1.464946985244751 -0.39096495509147644 6.0 1 -0.08135302364826202
1.2350306510925293 -2.130539655685425 0.12906047701835632 6.0 9 -0.08135072141885757
1.0709147453308105 -1.8481684923171997 -0.415200412273407 6.0 2 -0.08134841918945312
1.244259238243103 -2.1481876373291016 0.21719209849834442 6.0 10 -0.08134611696004868
1.2771981954574585 -2.2050559520721436 -0.4036009609699249 118.0 3 -0.08134380728006363
1.231371521949768 -2.126793146133423 0.30174851417541504 5.0 11 -0.08134150505065918
1.2687854766845703 -2.192295789718628 -0.31101056933403015 103.0 4 -0.08133920282125473
1.2305412292480469 -2.127070665359497 0.38920900225639343 6.0 12 -0.08133690059185028
1.2304831743240356 -2.1278271675109863 0.47778576612472534 5.0 13 -0.08133228868246078
1.2324268817901611 -2.132046937942505 -0.12906047701835632 12.0 6 -0.08132998645305634
1.2264984846115112 -2.1226465702056885 0.5659768581390381 6.0 14 -0.08132768422365189
1.2231836318969727 -2.1177620887756348 -0.04268858581781387 8.0 7 -0.08132538199424744
1.2238279581069946 -2.119732618331909 0.6558474898338318 7.0 15 -0.08132307231426239
0.6955001354217529 -1.2090237140655518 -0.3737347424030304 8.0 0 -0.08132052421569824
1.2231029272079468 -2.1270408630371094 0.042828209698200226 7.0 8 -0.08131822198629379
0.8400260806083679 -1.461440086364746 -0.38916537165641785 6.0 1 -0.08131591975688934
1.2288308143615723 -2.1387295722961426 0.1292698234319687 6.0 9 -0.0813136100769043
1.0475066900253296 -1.8231425285339355 -0.40871289372444153 6.0 2 -0.08131130784749985
1.2195087671279907 -2.1233627796173096 0.2142288237810135 6.0 10 -0.0813090056180954
1.2657713890075684 -2.2048044204711914 -0.40266236662864685 107.0 3 -0.08130670338869095
1.227148413658142 -2.138392448425293 0.3027234971523285 5.0 11 -0.0813043937087059
1.260358214378357 -2.1971511840820312 -0.31101056933403015 103.0 4 -0.08130209147930145
1.2145037651062012 -2.1180708408355713 0.38670605421066284 6.0 12 -0.081299789249897
1.2242563962936401 -2.1359426975250244 0.4785490036010742 5.0 13 -0.08129517734050751
1.2242313623428345 -2.136763334274292 -0.12906047701835632 11.0 6 -0.08129287511110306
1.2202763557434082 -2.1307222843170166 0.5668767094612122 6.0 14 -0.08129057288169861
1.2090818881988525 -2.112030506134033 -0.04247915744781494 8.0 7 -0.08128827065229416
1.2118419408798218 -2.117708683013916 0.6537768840789795 7.0 15 -0.08128596097230911
0.6931906342506409 -1.2147997617721558 -0.37476998567581177 8.0 0 -0.08126522600650787
1.2077445983886719 -2.117401361465454 0.04254896938800812 7.0 8 -0.08126292377710342
0.8407108783721924 -1.4745208024978638 -0.3918647766113281 6.0 1 -0.08126062154769897
1.2213577032089233 -2.1430060863494873 0.1292698234319687 6.0 9 -0.08125831931829453
1.046968936920166 -1.837021827697754 -0.41100257635116577 6.0 2 -0.08125600963830948
1.2170207500457764 -2.1362624168395996 0.21510037779808044 6.0 10 -0.08125370740890503
1.2522022724151611 -2.1989099979400635 -0.4007851481437683 114.0 3 -0.08125140517950058
1.2157481908798218 -2.1357622146606445 0.30174851417541504 5.0 11 -0.08124910295009613
1.2516995668411255 -2.1998119354248047 -0.3107668459415436 106.0 4 -0.08124679327011108
1.2090561389923096 -2.1257312297821045 0.3873317837715149 6.0 12 -0.08124449104070663
1.2129117250442505 -2.133376359939575 0.4770224988460541 5.0 13 -0.08123988658189774
1.2138044834136963 -2.1358141899108887 -0.12874646484851837 11.0 6 -0.08123757690191269
1.2166814804077148 -2.1417465209960938 0.5686762928962708 6.0 14 -0.08123527467250824
1.2066394090652466 -2.1249325275421143 -0.042653679847717285 9.0 7 -0.08123297244310379
1.2006279230117798 -2.115206003189087 0.6517063975334167 7.0 15 -0.08123067021369934
0.6927522420883179 -1.223936915397644 -0.3768405616283417 8.0 0 -0.0812099352478981
1.2003459930419922 -2.1216042041778564 0.04254896938800812 7.0 8 -0.08120762556791306
0.8259655833244324 -1.4604839086532593 -0.38736575841903687 6.0 1 -0.0812053233385086
1.2142446041107178 -2.1470444202423096 0.1292698234319687 7.0 9 -0.08120302110910416
1.0386179685592651 -1.8372468948364258 -0.4102393686771393 6.0 2 -0.08120071887969971
1.204655408859253 -2.1318247318267822 0.2142288237810135 6.0 10 -0.08119840919971466
1.240633249282837 -2.196387767791748 -0.3995336890220642 107.0 3 -0.08119610697031021
1.2082858085632324 -2.1399929523468018 0.30174851417541504 5.0 11 -0.08119380474090576
1.2449887990951538 -2.2058963775634766 -0.31101056933403015 101.0 4 -0.08119150251150131
1.2020004987716675 -2.1297287940979004 0.3873317837715149 6.0 12 -0.08118919283151627
1.1958136558532715 -2.1204965114593506 0.4732063114643097 5.0 13 -0.08118458837270737
1.2024186849594116 -2.1330788135528564 -0.12832777202129364 11.0 6 -0.08118228614330292
1.21015465259552 -2.1476783752441406 0.5691262483596802 6.0 14 -0.08117998391389847
1.1936962604522705 -2.118469476699829 -0.04244425520300865 9.0 7 -0.08117767423391342
1.196451187133789 -2.124225378036499 0.6532593369483948 7.0 15 -0.08117537200450897
0.6884756684303284 -1.2263476848602295 -0.3768405616283417 8.0 0 -0.08115463703870773
1.1933038234710693 -2.12557315826416 0.04254896938800812 7.0 8 -0.08115233480930328
0.8153958916664124 -1.453018069267273 -0.3846663236618042 7.0 1 -0.08115002512931824
1.1989257335662842 -2.1373345851898193 0.12843245267868042 6.0 9 -0.08114772289991379
1.036039113998413 -1.8477109670639038 -0.41176581382751465 6.0 2 -0.08114542067050934
1.2030513286590576 -2.146444797515869 0.21527467668056488 6.0 10 -0.08114311844110489
1.237205982208252 -2.2073824405670166 -0.4007851481437683 114.0 3 -0.08114080876111984
1.1905099153518677 -2.1249382495880127 0.2990674078464508 6.0 11 -0.0811385065317154
1.2337870597839355 -2.20308518409729 -0.3100356459617615 101.0 4 -0.08113620430231094
1.2003484964370728 -2.144253969192505 0.38920900225639343 6.0 12 -0.0811339020729065
1.1964447498321533 -2.1381564140319824 0.4762592613697052 5.0 13 -0.081129290163517
1.1914386749267578 -2.13008189201355 -0.1279090791940689 12.0 6 -0.08112698793411255
1.186858892440796 -2.1227636337280273 0.5614778399467468 6.0 14 -0.0811246857047081
1.1892207860946655 -2.1278600692749023 -0.04254896938800812 8.0 7 -0.08112238347530365
1.1880866289138794 -2.126702308654785 0.6527416706085205 7.0 15 -0.0811200737953186
0.6825249791145325 -1.2252485752105713 -0.3758052587509155 8.0 0 -0.08109933882951736
1.1839309930801392 -2.1262309551239014 0.04247915744781494 7.0 8 -0.08109703660011292
0.8179008960723877 -1.469477653503418 -0.38826555013656616 7.0 1 -0.08109473437070847
1.185631513595581 -2.1310346126556396 0.12780441343784332 6.0 9 -0.08109242469072342
1.029906153678894 -1.8511364459991455 -0.41176581382751465 6.0 2 -0.08109012246131897
1.191084861755371 -2.141716241836548 0.21440312266349792 6.0 10 -0.08108782023191452
1.2275736331939697 -2.2082347869873047 -0.40015941858291626 114.0 3 -0.08108551800251007
1.1869419813156128 -2.136021614074707 0.30004236102104187 5.0 11 -0.08108321577310562
1.2203058004379272 -2.1969661712646484 -0.3085731863975525 103.0 4 -0.08108090609312057
1.1794317960739136 -2.1242525577545166 0.3848288059234619 6.0 12 -0.08107860386371613
1.1851633787155151 -2.135453462600708 0.47473281621932983 5.0 13 -0.08107399940490723
1.1849650144577026 -2.135974407196045 -0.1280137598514557 12.0 6 -0.08107168972492218
1.187002420425415 -2.1405274868011475 0.5650770664215088 6.0 14 -0.08106938749551773
1.1788774728775024 -2.12675142288208 -0.04244425520300865 9.0 7 -0.08106708526611328
1.1806559562683105 -2.130836248397827 0.6527416706085205 7.0 15 -0.08106478303670883
0.6763755083084106 -1.2242417335510254 -0.37476998567581177 8.0 0 -0.081044040620327
1.1784356832504272 -2.133852005004883 0.04254896938800812 7.0 8 -0.08104173839092255
0.808999240398407 -1.4654994010925293 -0.3864659368991852 7.0 1 -0.0810394361615181
1.183975338935852 -2.1456525325775146 0.12843245267868042 6.0 9 -0.08103713393211365
1.0101593732833862 -1.8306553363800049 -0.4064231812953949 6.0 2 -0.0810348317027092
1.1807150840759277 -2.140627145767212 0.21388019621372223 6.0 10 -0.08103252202272415
1.2189044952392578 -2.2107763290405273 -0.39984655380249023 111.0 3 -0.0810302197933197
1.1794785261154175 -2.1401519775390625 0.30004236102104187 6.0 11 -0.08102791756391525
1.2126294374465942 -2.2012126445770264 -0.3085731863975525 107.0 4 -0.0810256153345108
1.1739152669906616 -2.13181734085083 0.38545459508895874 6.0 12 -0.08102330565452576
1.1777019500732422 -2.1395773887634277 0.47473281621932983 5.0 13 -0.08101870119571686
1.1794272661209106 -2.143597364425659 -0.12822310626506805 12.0 6 -0.08101639896631241
1.1767058372497559 -2.1395351886749268 0.5637273788452148 6.0 14 -0.08101408928632736
1.1647032499313354 -2.118587017059326 -0.04219992086291313 9.0 7 -0.08101178705692291
1.1694892644882202 -2.1281723976135254 0.650671124458313 7.0 15 -0.08100948482751846
0.6702412962913513 -1.223206877708435 -0.3737347424030304 8.0 0 -0.08098874986171722
1.1671373844146729 -2.130936861038208 0.042409345507621765 7.0 8 -0.08098644763231277
0.8001353740692139 -1.4614770412445068 -0.3846663236618042 6.0 1 -0.08098413795232773
1.176478385925293 -2.1497721672058105 0.12843245267868042 6.0 9 -0.08098183572292328
1.0113030672073364 -1.8479481935501099 -0.4094761312007904 6.0 2 -0.08097953349351883
1.1732356548309326 -2.14473557472229 0.21388019621372223 6.0 10 -0.08097723126411438
1.202650547027588 -2.1994190216064453 -0.39703071117401123 118.0 3 -0.08097492158412933
1.1681925058364868 -2.1372885704040527 0.2990674078464508 6.0 11 -0.08097261935472488
1.204938530921936 -2.2054316997528076 -0.3085731863975525 99.0 4 -0.08097031712532043
1.1626795530319214 -2.128967046737671 0.38420307636260986 6.0 12 -0.08096801489591599
1.1645818948745728 -2.133335828781128 0.4724431037902832 5.0 13 -0.08096340298652649
1.1728942394256592 -2.1494545936584473 -0.12832777202129364 12.0 6 -0.08096110075712204
1.169230341911316 -2.143629789352417 0.5637273788452148 6.0 14 -0.08095879852771759
1.1582579612731934 -2.1243951320648193 -0.04223482310771942 9.0 7 -0.08095648884773254
1.160204529762268 -2.1288492679595947 0.6496358513832092 7.0 15 -0.0809541866183281
0.667812168598175 -1.2289338111877441 -0.37476998567581177 8.0 0 -0.08093345165252686
1.1577829122543335 -2.131483554840088 0.04233953729271889 8.0 8 -0.0809311494231224
0.7987484335899353 -1.4711116552352905 -0.3864659368991852 6.0 1 -0.08092884719371796
1.1689671277999878 -2.1538658142089844 0.12843245267868042 6.0 9 -0.08092653751373291
1.0067191123962402 -1.8549177646636963 -0.4102393686771393 6.0 2 -0.08092423528432846
1.1562410593032837 -2.131304979324341 0.21213705837726593 6.0 10 -0.08092193305492401
1.1921406984329224 -2.1983940601348877 -0.39609211683273315 111.0 3 -0.08091963082551956
1.1626170873641968 -2.144843339920044 0.29955488443374634 6.0 11 -0.08091732114553452
1.2019612789154053 -2.218351364135742 -0.3097918927669525 106.0 4 -0.08091501891613007
1.1552410125732422 -2.133012533187866 0.38420307636260986 6.0 12 -0.08091271668672562
1.1571279764175415 -2.137387990951538 0.4724431037902832 5.0 13 -0.08090810477733612
1.1587305068969727 -2.141239881515503 -0.12759508192539215 12.0 6 -0.08090580254793167
1.1617404222488403 -2.147698163986206 0.5637273788452148 6.0 14 -0.08090350031852722
1.1536885499954224 -2.133702516555786 -0.04233953729271889 9.0 7 -0.08090119808912277
1.152766227722168 -2.1328864097595215 0.6496358513832092 7.0 15 -0.08089889585971832
0.6616854071617126 -1.2278562784194946 -0.3737347424030304 8.0 0 -0.08087815344333649
1.1465425491333008 -2.1284701824188232 0.04219992086291313 7.0 8 -0.08087585121393204
0.7862175107002258 -1.4601640701293945 -0.3828667104244232 6.0 1 -0.08087354898452759
1.1542433500289917 -2.1436619758605957 0.12759508192539215 6.0 9 -0.08087124675512314
0.9946553111076355 -1.8480480909347534 -0.40794962644577026 6.0 2 -0.08086893707513809
1.1535142660140991 -2.1441009044647217 0.21300862729549408 6.0 10 -0.08086663484573364
1.1900731325149536 -2.2129805088043213 -0.3979693353176117 111.0 3 -0.0808643326163292
1.1438442468643188 -2.1279067993164062 0.29662999510765076 5.0 11 -0.08086203038692474
1.1857540607452393 -2.2067956924438477 -0.3075982630252838 107.0 4 -0.0808597207069397
1.1500312089920044 -2.1403121948242188 0.3848288059234619 6.0 12 -0.08085741847753525
1.1459457874298096 -2.134495496749878 0.47091662883758545 5.0 13 -0.08085281401872635
1.147471308708191 -2.1382319927215576 -0.12717638909816742 12.0 6 -0.0808505117893219
1.146867275238037 -2.1380019187927246 0.5601281523704529 6.0 14 -0.08084820210933685
1.1456615924835205 -2.135754346847534 -0.0423046313226223 9.0 7 -0.0808458998799324
1.1420352458953857 -2.129887104034424 0.6475652456283569 7.0 15 -0.08084359765052795
0.6592164635658264 -1.2335660457611084 -0.37476998567581177 8.0 0 -0.08082286268472672
1.1451327800750732 -2.1428422927856445 0.042409345507621765 7.0 8 -0.08082055300474167
0.7822892665863037 -1.4644821882247925 -0.38331663608551025 7.0 1 -0.08081825077533722
1.1429904699325562 -2.1406304836273193 0.12717638909816742 7.0 9 -0.08081594854593277
0.9881982803344727 -1.8515088558197021 -0.40794962644577026 6.0 2 -0.08081364631652832
1.1460230350494385 -2.1481144428253174 0.21300862729549408 6.0 10 -0.08081133663654327
1.179008960723877 -2.2099432945251465 -0.3967178463935852 111.0 3 -0.08080903440713882
1.1423859596252441 -2.142197847366333 0.29809242486953735 6.0 11 -0.08080673217773438
1.174694299697876 -2.2037084102630615 -0.30662328004837036 103.0 4 -0.08080442994832993
1.1406952142715454 -2.14082670211792 0.38420307636260986 6.0 12 -0.08080212771892548
1.1388611793518066 -2.1382837295532227 0.47091662883758545 5.0 13 -0.08079751580953598
1.141312837600708 -2.1437883377075195 -0.127281054854393 12.0 6 -0.08079521358013153
1.1342781782150269 -2.131471633911133 0.557428777217865 6.0 14 -0.08079291135072708
1.132564663887024 -2.129147529602051 -0.042095206677913666 9.0 7 -0.08079060167074203
1.1382217407226562 -2.14068341255188 0.6496358513832092 7.0 15 -0.08078829944133759
0.6533124446868896 -1.23233163356781 -0.3737347424030304 8.0 0 -0.08076756447553635
1.1357730627059937 -2.1432924270629883 0.04233953729271889 8.0 8 -0.0807652622461319
0.7799089550971985 -1.4723701477050781 -0.3846663236618042 7.0 1 -0.08076295256614685
1.1373803615570068 -2.1481375694274902 0.1273857206106186 6.0 9 -0.0807606503367424
0.9783786535263062 -1.847835659980774 -0.4064231812953949 6.0 2 -0.08075834810733795
1.1388932466506958 -2.151902914047241 0.21300862729549408 6.0 10 -0.0807560458779335
1.1731351613998413 -2.2175378799438477 -0.39734360575675964 111.0 3 -0.08075374364852905
1.1330456733703613 -2.142662763595581 0.2976049780845642 6.0 11 -0.080751433968544
1.168850064277649 -2.211305618286133 -0.3071107864379883 103.0 4 -0.08074913173913956
1.1258330345153809 -2.1308226585388184 0.3817001283168793 6.0 12 -0.08074682950973511
1.1341407299041748 -2.147454023361206 0.47206148505210876 6.0 13 -0.08074221760034561
1.1338225603103638 -2.147759199142456 -0.127281054854393 13.0 6 -0.08073991537094116
1.1268310546875 -2.135418176651001 0.557428777217865 6.0 14 -0.08073761314153671
1.126058578491211 -2.134856700897217 -0.042130108922719955 9.0 7 -0.08073531091213226
1.1307423114776611 -2.144643545150757 0.6496358513832092 7.0 15 -0.08073300123214722
0.6472089290618896 -1.231184720993042 -0.37269943952560425 8.0 0 -0.08071226626634598
1.1208434104919434 -2.133082628250122 0.04206030070781708 8.0 8 -0.08070996403694153
0.7838262915611267 -1.4923361539840698 -0.38916537165641785 7.0 1 -0.08070766180753708
1.1317318677902222 -2.1556315422058105 0.12759508192539215 6.0 9 -0.08070535957813263
0.9737475514411926 -1.8547158241271973 -0.4071864187717438 6.0 2 -0.08070304989814758
1.1285972595214844 -2.1505727767944336 0.21248570084571838 6.0 10 -0.08070074766874313
1.1571284532546997 -2.2058753967285156 -0.39452776312828064 107.0 3 -0.08069844543933868
1.129246711730957 -2.153636932373047 0.2985799014568329 5.0 11 -0.08069614320993423
1.1583597660064697 -2.210097551345825 -0.3063795566558838 106.0 4 -0.08069383352994919
1.1183881759643555 -2.134739637374878 0.3817001283168793 6.0 12 -0.08069153130054474
1.1248164176940918 -2.147921323776245 0.4712982177734375 6.0 13 -0.08068692684173584
1.1281709671020508 -2.155242919921875 -0.12749040126800537 13.0 6 -0.0806846171617508
1.1229840517044067 -2.146245002746582 0.5592283606529236 6.0 14 -0.08068231493234634
1.1158193349838257 -2.1334588527679443 -0.04202539846301079 9.0 7 -0.0806800127029419
1.117879033088684 -2.138305425643921 0.646530032157898 7.0 15 -0.08067771047353745
0.6464791893959045 -1.2402888536453247 -0.37476998567581177 8.0 0 -0.0806569755077362
1.1115427017211914 -2.1334354877471924 0.0419904924929142 8.0 8 -0.08065466582775116
0.7660105228424072 -1.4708653688430786 -0.3828667104244232 6.0 1 -0.08065236359834671
1.1205114126205444 -2.152482271194458 0.12717638909816742 7.0 9 -0.08065006136894226
0.9754262566566467 -1.8737764358520508 -0.4106209874153137 7.0 2 -0.08064775913953781
1.1220029592514038 -2.156266450881958 0.21265999972820282 7.0 10 -0.08064544945955276
1.1448638439178467 -2.201138496398926 -0.3929634094238281 104.0 3 -0.08064314723014832
1.1143966913223267 -2.143475294113159 0.29662999510765076 6.0 11 -0.08064084500074387
1.1542994976043701 -2.2211732864379883 -0.30735450983047485 106.0 4 -0.08063854277133942
1.1145721673965454 -2.1456425189971924 0.38295161724090576 6.0 12 -0.08063623309135437
1.1118836402893066 -2.1413803100585938 0.46900853514671326 6.0 13 -0.08063162863254547
1.117880940437317 -2.1538496017456055 -0.12717638909816742 13.0 6 -0.08062932640314102
1.1145880222320557 -2.1484220027923584 0.5587784647941589 6.0 14 -0.08062701672315598
1.106524109840393 -2.1337900161743164 -0.04195558279752731 9.0 7 -0.08062471449375153
1.1086302995681763 -2.1387643814086914 0.6454947590827942 7.0 15 -0.08062241226434708
0.6437022089958191 -1.2460826635360718 -0.3758052587509155 8.0 0 -0.08060167729854584
1.1077601909637451 -2.144408702850342 0.042130108922719955 8.0 8 -0.08059937506914139
0.7635538578033447 -1.4787249565124512 -0.38421642780303955 7.0 1 -0.08059706538915634
1.1093270778656006 -2.1492815017700195 0.1267576962709427 6.0 9 -0.08059476315975189
0.9676517844200134 -1.875594139099121 -0.4102393686771393 6.0 2 -0.08059246093034744
1.112266182899475 -2.156822681427002 0.21231138706207275 7.0 10 -0.080590158700943
1.1404088735580444 -2.212343215942383 -0.394214928150177 111.0 3 -0.08058784902095795
1.106907606124878 -2.1473522186279297 0.29662999510765076 6.0 11 -0.0805855467915535
1.1401745080947876 -2.212836742401123 -0.3056483268737793 109.0 4 -0.08058324456214905
1.1034575700759888 -2.1424953937530518 0.3817001283168793 6.0 12 -0.0805809423327446
1.0995360612869263 -2.1367130279541016 0.46710047125816345 5.0 13 -0.0805763304233551
1.1035841703414917 -2.1454999446868896 -0.12644368410110474 12.0 6 -0.08057402819395065
1.1040328741073608 -2.1472935676574707 0.557428777217865 6.0 14 -0.0805717259645462
1.0999836921691895 -2.139418125152588 -0.0419904924929142 9.0 7 -0.08056942373514175
1.10292387008667 -2.146057367324829 0.646530032157898 7.0 15 -0.08056711405515671
0.6375873684883118 -1.2448831796646118 -0.37476998567581177 8.0 0 -0.08054637908935547
1.0980706214904785 -2.144894599914551 0.04206030070781708 8.0 8 -0.08054407685995102
0.753690242767334 -1.472839593887329 -0.3819669187068939 6.0 1 -0.08054177463054657
1.0990883111953735 -2.1478066444396973 0.12644368410110474 7.0 9 -0.08053946495056152
0.9503705501556396 -1.8579862117767334 -0.405659943819046 6.0 2 -0.08053716272115707
1.1047307252883911 -2.1606922149658203 0.21231138706207275 6.0 10 -0.08053486049175262
1.129982590675354 -2.211033821105957 -0.39327630400657654 107.0 3 -0.08053255826234818
1.0990296602249146 -2.151395082473755 0.29662999510765076 6.0 11 -0.08053024858236313
1.1266400814056396 -2.206393003463745 -0.3041858971118927 100.0 4 -0.08052794635295868
1.0977691411972046 -2.149852752685547 0.3823258578777313 6.0 12 -0.08052564412355423
1.0956395864486694 -2.147533416748047 0.4686269164085388 5.0 13 -0.08052103966474533
1.0969957113265991 -2.151118516921997 -0.12654836475849152 12.0 6 -0.08051872998476028
1.0912206172943115 -2.140717029571533 0.5547293424606323 6.0 14 -0.08051642775535583
1.0906927585601807 -2.139681577682495 -0.041920680552721024 9.0 7 -0.08051412552595139
1.097179889678955 -2.153336763381958 0.6475652456283569 7.0 15 -0.08051182329654694
0.6262408494949341 -1.233320951461792 -0.37062889337539673 8.0 0 -0.0804910808801651
1.0891410112380981 -2.144958019256592 0.0419904924929142 8.0 8 -0.08048877865076065
0.7532117962837219 -1.4840195178985596 -0.38421642780303955 7.0 1 -0.0804864764213562
1.0951987504959106 -2.158754587173462 0.12686236202716827 7.0 9 -0.08048417419195175
0.9385514855384827 -1.8507863283157349 -0.4033702313899994 6.0 2 -0.0804818719625473
1.0935784578323364 -2.1574268341064453 0.21161414682865143 7.0 10 -0.08047956228256226
1.1262168884277344 -2.221816301345825 -0.39452776312828064 107.0 3 -0.0804772600531578
1.0918896198272705 -2.1550276279449463 0.29662999510765076 6.0 11 -0.08047495782375336
1.122904658317566 -2.217200756072998 -0.30516088008880615 101.0 4 -0.08047265559434891
1.0849049091339111 -2.143097162246704 0.38044866919517517 6.0 12 -0.08047034591436386
1.0876256227493286 -2.1494033336639404 0.46824532747268677 6.0 13 -0.08046574145555496
1.0898563861846924 -2.1547443866729736 -0.12654836475849152 12.0 6 -0.08046343922615051
1.084994912147522 -2.1460633277893066 0.555179238319397 7.0 14 -0.08046112954616547
1.077805519104004 -2.1327672004699707 -0.04171125218272209 9.0 7 -0.08045882731676102
1.080946445465088 -2.1399102210998535 0.6423888802528381 7.0 15 -0.08045652508735657
0.6238853931427002 -1.2388417720794678 -0.3716641664505005 8.0 0 -0.08043579012155533
1.0780503749847412 -2.1416022777557373 0.04185086861252785 8.0 8 -0.08043348789215088
0.7462753653526306 -1.4831581115722656 -0.38331663608551025 7.0 1 -0.08043117821216583
1.0876564979553223 -2.162564516067505 0.12686236202716827 7.0 9 -0.08042887598276138
0.9359372854232788 -1.860904335975647 -0.40489673614501953 6.0 2 -0.08042657375335693
1.0864181518554688 -2.161041498184204 0.21161414682865143 6.0 10 -0.08042427152395248
1.1122456789016724 -2.213378667831421 -0.3923376798629761 111.0 3 -0.08042196184396744
1.080796480178833 -2.1517302989959717 0.2956550419330597 6.0 11 -0.08041965961456299
1.1151583194732666 -2.221107006072998 -0.30516088008880615 107.0 4 -0.08041735738515854
1.0756453275680542 -2.1433401107788086 0.3798229396343231 6.0 12 -0.08041505515575409
1.0730741024017334 -2.1391477584838867 0.46519237756729126 6.0 13 -0.0804104432463646
1.0850138664245605 -2.163891553878784 -0.12686236202716827 13.0 6 -0.08040814101696014
1.080116868019104 -2.1550638675689697 0.5565289855003357 6.0 14 -0.0804058387875557
1.0757282972335815 -2.1472439765930176 -0.041920680552721024 9.0 7 -0.08040352910757065
1.067415475845337 -2.1315786838531494 0.6387654542922974 8.0 15 -0.0804012268781662
0.6195573806762695 -1.2410119771957397 -0.3716641664505005 8.0 0 -0.08038049191236496
1.0634254217147827 -2.131037950515747 0.041571635752916336 8.0 8 -0.08037818968296051
0.7393538951873779 -1.4822663068771362 -0.38241681456565857 7.0 1 -0.08037588745355606
1.0818835496902466 -2.1699228286743164 0.12707172334194183 7.0 9 -0.08037357777357101
0.9233037233352661 -1.8518608808517456 -0.4022253751754761 7.0 2 -0.08037127554416656
1.0753132104873657 -2.1576879024505615 0.2109168916940689 7.0 10 -0.08036897331476212
1.103631854057312 -2.2154793739318848 -0.39202481508255005 114.0 3 -0.08036667108535767
1.069739580154419 -2.1483821868896484 0.294680118560791 6.0 11 -0.08036436140537262
1.1082826852798462 -2.2267630100250244 -0.3054046034812927 106.0 4 -0.08036205917596817
1.0681570768356323 -2.1470818519592285 0.3798229396343231 7.0 12 -0.08035975694656372
1.0682227611541748 -2.148153781890869 0.4663371741771698 5.0 13 -0.08035514503717422
1.0730088949203491 -2.1587233543395996 -0.12633900344371796 13.0 6 -0.08035284280776978
1.0691192150115967 -2.1518402099609375 0.5547293424606323 6.0 14 -0.08035054057836533
1.0637794733047485 -2.142030715942383 -0.04174615815281868 9.0 7 -0.08034823834896088
1.0642629861831665 -2.1439435482025146 0.6413536071777344 7.0 15 -0.08034592866897583
0.6152216196060181 -1.2431670427322388 -0.3716641664505005 8.0 0 -0.08032519370317459
1.0577534437179565 -2.138321876525879 0.041641443967819214 8.0 8 -0.08032289147377014
0.7289928793907166 -1.474357008934021 -0.3797174096107483 7.0 1 -0.08032058924436569
1.067223310470581 -2.1593618392944336 0.12623433768749237 7.0 9 -0.08031828701496124
0.9220532774925232 -1.8656327724456787 -0.4045150876045227 7.0 2 -0.0803159773349762
1.0704225301742554 -2.1667869091033936 0.2114398330450058 7.0 10 -0.08031367510557175
1.0958918333053589 -2.219318389892578 -0.39202481508255005 114.0 3 -0.0803113728761673
1.058719277381897 -2.1449825763702393 0.29370513558387756 7.0 11 -0.08030907064676285
1.0917203426361084 -2.212815761566162 -0.30296722054481506 100.0 4 -0.0803067609667778
1.0606558322906494 -2.1507973670959473 0.3798229396343231 6.0 12 -0.08030445873737335
1.0589818954467773 -2.148348093032837 0.4655739665031433 5.0 13 -0.08029985427856445
1.0637015104293823 -2.158872604370117 -0.12612967193126678 12.0 6 -0.0802975445985794
1.062462329864502 -2.1573073863983154 0.555179238319397 7.0 14 -0.08029524236917496
1.0589452981948853 -2.1511130332946777 -0.04185086861252785 9.0 7 -0.08029294013977051
1.0567727088928223 -2.1476454734802246 0.6413536071777344 7.0 15 -0.08029063791036606
0.6142815351486206 -1.2522447109222412 -0.3737347424030304 8.0 0 -0.08026990294456482
1.0520434379577637 -2.145591974258423 0.04171125218272209 9.0 8 -0.08026759326457977
0.7272724509239197 -1.4838922023773193 -0.3815170228481293 7.0 1 -0.08026529103517532
1.0544071197509766 -2.1523122787475586 0.12560631334781647 7.0 9 -0.08026298880577087
0.9129442572593689 -1.8635509014129639 -0.4033702313899994 7.0 2 -0.08026068657636642
1.055842638015747 -2.1561951637268066 0.21004533767700195 7.0 10 -0.08025837689638138
1.089006781578064 -2.2249045372009277 -0.3923376798629761 111.0 3 -0.08025607466697693
1.0512256622314453 -2.148665189743042 0.29370513558387756 7.0 11 -0.08025377243757248
1.0848616361618042 -2.2183964252471924 -0.30321094393730164 100.0 4 -0.08025147020816803
1.0514068603515625 -2.1509368419647217 0.3791971802711487 6.0 12 -0.08024916052818298
1.054061770439148 -2.157323122024536 0.4667188227176666 6.0 13 -0.08024455606937408
1.0544064044952393 -2.158982992172241 -0.12592032551765442 12.0 6 -0.08024225383996964
1.0455217361450195 -2.1417393684387207 0.5502303242683411 6.0 14 -0.08023995161056519
1.0487992763519287 -2.149405002593994 -0.04174615815281868 9.0 7 -0.08023764193058014
1.0492695569992065 -2.1513214111328125 0.6413536071777344 7.0 15 -0.08023533970117569
0.6048381328582764 -1.2439570426940918 -0.37062889337539673 8.0 0 -0.08021460473537445
1.0480438470840454 -2.156445264816284 0.04185086861252785 8.0 8 -0.08021230250597
0.7220883965492249 -1.4864217042922974 -0.3815170228481293 7.0 1 -0.08020999282598495
1.0507550239562988 -2.1629831790924072 0.1260250061750412 7.0 9 -0.0802076905965805
0.8978580832481384 -1.8490656614303589 -0.399554044008255 6.0 2 -0.08020538836717606
1.0552693605422974 -2.1742072105407715 0.2114398330450058 7.0 10 -0.0802030861377716
1.0820962190628052 -2.2304697036743164 -0.3926505744457245 114.0 3 -0.08020077645778656
1.047183632850647 -2.15946626663208 0.294680118560791 6.0 11 -0.08019847422838211
1.0788429975509644 -2.2257425785064697 -0.30369842052459717 100.0 4 -0.08019617199897766
1.0390985012054443 -2.1437463760375977 0.37731999158859253 6.0 12 -0.08019386976957321
1.0337705612182617 -2.1337037086486816 -0.2074306607246399 1.0 5 -0.08019156754016876
1.0465251207351685 -2.160989284515381 0.4667188227176666 6.0 13 -0.08018925786018372
1.0468636751174927 -2.1626505851745605 -0.12592032551765442 12.0 6 -0.08018695563077927
1.0397366285324097 -2.1488842964172363 0.5511301159858704 6.0 14 -0.08018465340137482
1.0390528440475464 -2.1474711894989014 -0.041641443967819214 9.0 7 -0.08018235117197037
1.0421298742294312 -2.1547887325286865 0.6413536071777344 7.0 15 -0.08018004149198532
0.5954602956771851 -1.2356188297271729 -0.36752307415008545 8.0 0 -0.08015930652618408
1.0391510725021362 -2.156306028366089 0.04178106039762497 8.0 8 -0.08015700429677963
0.7188466191291809 -1.4923194646835327 -0.38241681456565857 7.0 1 -0.08015470206737518
1.0466638803482056 -2.1738359928131104 0.12644368410110474 7.0 9 -0.08015239983797073
0.8990607261657715 -1.8681097030639648 -0.40298861265182495 7.0 2 -0.08015009015798569
1.0407640933990479 -2.163513660430908 0.21004533767700195 7.0 10 -0.08014778792858124
1.0678430795669556 -2.2198047637939453 -0.3901476263999939 100.0 3 -0.08014548569917679
1.040016770362854 -2.1629271507263184 0.294680118560791 6.0 11 -0.08014318346977234
1.068016529083252 -2.222151279449463 -0.3027234971523285 100.0 4 -0.08014087378978729
1.0350306034088135 -2.15448260307312 0.37857145071029663 6.0 12 -0.08013857156038284
1.014242172241211 -2.112154483795166 -0.20499029755592346 1.0 5 -0.0801362693309784
1.0308547019958496 -2.146749973297119 0.46290263533592224 6.0 13 -0.08013396710157394
1.0405504703521729 -2.1679108142852783 -0.1260250061750412 13.0 6 -0.0801316574215889
1.0351340770721436 -2.1575913429260254 0.5524798035621643 7.0 14 -0.08012935519218445
1.0306859016418457 -2.1492815017700195 -0.041606537997722626 10.0 7 -0.08012705296278
1.029591679573059 -2.147960901260376 0.6382477879524231 7.0 15 -0.08012475073337555
0.5963569283485413 -1.2480450868606567 -0.37062889337539673 8.0 0 -0.08010401576757431
1.020413875579834 -2.136462450027466 0.04132729768753052 9.0 8 -0.08010170608758926
0.7102747559547424 -1.4877851009368896 -0.3806172013282776 7.0 1 -0.08009940385818481
1.0411704778671265 -2.1808996200561523 0.1266530305147171 7.0 9 -0.08009710162878036
0.8886331915855408 -1.8622214794158936 -0.40108051896095276 7.0 2 -0.08009479939937592
1.0284373760223389 -2.156163454055786 0.20899945497512817 7.0 10 -0.08009248971939087
1.0600876808166504 -2.2235188484191895 -0.3901476263999939 100.0 3 -0.08009018748998642
1.027336597442627 -2.155791997909546 0.29321765899658203 6.0 11 -0.08008788526058197
1.0619605779647827 -2.229449987411499 -0.30321094393730164 100.0 4 -0.08008558303117752
1.0244824886322021 -2.1507697105407715 0.37731999158859253 6.0 12 -0.08008327335119247
1.012371301651001 -2.1262996196746826 -0.20603616535663605 3.0 5 -0.08008097112178802
1.0233551263809204 -2.1503353118896484 0.46290263533592224 6.0 13 -0.08007866889238358
1.0278288125991821 -2.16070818901062 -0.1253969669342041 12.0 6 -0.08007636666297913
1.0317803621292114 -2.1699910163879395 0.5547293424606323 6.0 14 -0.08007405698299408
1.0235528945922852 -2.1526877880096436 -0.041606537997722626 10.0 7 -0.08007175475358963
1.0241215229034424 -2.154853105545044 0.6392830610275269 7.0 15 -0.08006945252418518
0.5919969081878662 -1.2501190900802612 -0.37062889337539673 8.0 0 -0.08004871755838394
1.0201704502105713 -2.1542928218841553 0.041606537997722626 9.0 8 -0.08004641532897949
0.7028359174728394 -1.4848482608795166 -0.37926751375198364 7.0 1 -0.08004410564899445
1.0250095129013062 -2.16646671295166 0.12560631334781647 7.0 9 -0.08004180341959
0.8854849934577942 -1.8724114894866943 -0.4026069939136505 6.0 2 -0.08003950119018555
1.0243104696273804 -2.166945457458496 0.2096967101097107 7.0 10 -0.0800371989607811
1.0510201454162598 -2.223450183868408 -0.38952183723449707 100.0 3 -0.08003488928079605
1.0184860229492188 -2.15559720993042 0.2927301824092865 6.0 11 -0.0800325870513916
1.0511704683303833 -2.2257795333862305 -0.30223599076271057 99.0 4 -0.08003028482198715
1.0220283269882202 -2.165050745010376 0.3791971802711487 7.0 12 -0.0800279825925827
1.0074938535690308 -2.135226249694824 -0.20655910670757294 4.0 5 -0.08002567291259766
1.0178941488265991 -2.1572680473327637 0.4636658728122711 6.0 13 -0.0800233706831932
1.0172500610351562 -2.15687894821167 -0.12497827410697937 12.0 6 -0.08002106845378876
1.009621262550354 -2.141672134399414 0.5466310977935791 6.0 14 -0.08001876622438431
1.018589735031128 -2.1616742610931396 -0.04171125218272209 11.0 7 -0.08001646399497986
1.016593337059021 -2.158414840698242 0.6392830610275269 7.0 15 -0.08001415431499481
0.589270830154419 -1.2556757926940918 -0.3716641664505005 8.0 0 -0.07995820045471191
1.0122677087783813 -2.15801739692688 0.041606537997722626 9.0 8 -0.07995589822530746
0.6998709440231323 -1.492707371711731 -0.3806172013282776 7.0 1 -0.07995359599590302
1.0136719942092896 -2.1629750728607178 0.12518762052059174 8.0 9 -0.07995128631591797
0.8706122040748596 -1.8577138185501099 -0.3987908363342285 6.0 2 -0.07994898408651352
1.018430471420288 -2.1741161346435547 0.21004533767700195 7.0 10 -0.07994668185710907
1.044538974761963 -2.230865478515625 -0.3901476263999939 100.0 3 -0.07994437962770462
1.0114198923110962 -2.161113739013672 0.29297390580177307 7.0 11 -0.07994206994771957
1.0396413803100586 -2.2224247455596924 -0.3012610375881195 100.0 4 -0.07993976771831512
1.009065866470337 -2.158045530319214 0.37731999158859253 6.0 12 -0.07993746548891068
0.9929121732711792 -2.124464511871338 -0.2051646113395691 7.0 5 -0.07993516325950623
1.0108118057250977 -2.1627631187438965 0.46404752135276794 6.0 13 -0.07993285357952118
1.0101834535598755 -2.162402391433716 -0.12508295476436615 12.0 6 -0.07993055135011673
1.0017647743225098 -2.1453583240509033 0.5466310977935791 7.0 14 -0.07992824912071228
1.0030484199523926 -2.1490848064422607 -0.041397109627723694 10.0 7 -0.07992594689130783
1.010309100151062 -2.165627956390381 0.6403183937072754 7.0 15 -0.07992363721132278
0.5814075469970703 -1.2508198022842407 -0.36959362030029297 8.0 0 -0.07990290224552155
1.0064144134521484 -2.1651644706726074 0.041676346212625504 9.0 8 -0.0799006000161171
0.6930137276649475 -1.4916068315505981 -0.3797174096107483 7.0 1 -0.07989829778671265
1.0094807147979736 -2.173746109008789 0.12560631334781647 7.0 9 -0.0798959955573082
0.8687569499015808 -1.8715767860412598 -0.40108051896095276 6.0 2 -0.07989368587732315
1.0087779760360718 -2.1742196083068848 0.2096967101097107 7.0 10 -0.0798913836479187
1.0363556146621704 -2.2346787452697754 -0.3901476263999939 100.0 3 -0.07988908141851425
1.003035068511963 -2.162830114364624 0.2927301824092865 7.0 11 -0.0798867791891098
1.0335469245910645 -2.229642391204834 -0.30174851417541504 99.0 4 -0.07988446950912476
0.9982048273086548 -2.1543850898742676 0.37606850266456604 7.0 12 -0.0798821672797203
0.9821412563323975 -2.1206860542297363 -0.20446737110614777 8.0 5 -0.07987986505031586
1.0086511373519897 -2.178924560546875 0.4667188227176666 6.0 13 -0.07987756282091141
1.001412272453308 -2.1642775535583496 -0.12497827410697937 13.0 6 -0.07987525314092636
0.9971670508384705 -2.15609073638916 0.5484307408332825 7.0 14 -0.07987295091152191
0.9988978505134583 -2.1598329544067383 -0.04153672605752945 10.0 7 -0.07987064868211746
0.9962587356567383 -2.1551129817962646 0.6361772418022156 7.0 15 -0.07986834645271301
0.572188675403595 -1.2423135042190552 -0.3664877712726593 8.0 0 -0.07984761148691177
0.990109384059906 -2.1506741046905518 0.04132729768753052 9.0 8 -0.07984530180692673
0.692429780960083 -1.5047587156295776 -0.38241681456565857 7.0 1 -0.07984299957752228
1.002341389656067 -2.179245948791504 0.12571097910404205 8.0 9 -0.07984069734811783
0.8622187376022339 -1.8745976686477661 -0.40108051896095276 6.0 2 -0.07983839511871338
0.9978535771369934 -2.1704866886138916 0.20899945497512817 7.0 10 -0.07983608543872833
1.0260740518569946 -2.232897996902466 -0.38920900225639343 100.0 3 -0.07983378320932388
0.9934437870979309 -2.16288423538208 0.29224270582199097 7.0 11 -0.07983148097991943
1.0237116813659668 -2.2298073768615723 -0.3012610375881195 100.0 4 -0.07982917875051498
0.9870064854621887 -2.150848150253296 0.37481701374053955 6.0 12 -0.07982686907052994
0.97223961353302 -2.118668794631958 -0.20394444465637207 9.0 5 -0.07982456684112549
0.9944910407066345 -2.168156147003174 0.4636658728122711 6.0 13 -0.07982226461172104
0.9980134963989258 -2.176837682723999 -0.1255016326904297 13.0 6 -0.07981996238231659
0.9863875508308411 -2.1524717807769775 0.5466310977935791 6.0 14 -0.07981766015291214
0.9893096089363098 -2.1598434448242188 -0.04146691784262657 11.0 7 -0.0798153504729271
0.9851359128952026 -2.151723861694336 0.6341066956520081 7.0 15 -0.07981304824352264
0.5694528222084045 -1.2478182315826416 -0.36752307415008545 8.0 0 -0.0797923132777214
0.9809363484382629 -2.1504786014556885 0.04125748947262764 9.0 8 -0.07979001104831696
0.6807056069374084 -1.4929814338684082 -0.378817617893219 7.0 1 -0.07978770136833191
0.988930344581604 -2.1700093746185303 0.12497827410697937 8.0 9 -0.07978539913892746
0.8556699156761169 -1.877596139907837 -0.40108051896095276 6.0 2 -0.07978309690952301
0.9919226765632629 -2.1775829792022705 0.20934809744358063 7.0 10 -0.07978079468011856
1.014999508857727 -2.2292747497558594 -0.38795751333236694 100.0 3 -0.07977848500013351
0.9817767143249512 -2.157304525375366 0.29102399945259094 7.0 11 -0.07977618277072906
1.0175654888153076 -2.236981153488159 -0.30174851417541504 100.0 4 -0.07977388054132462
0.9835807681083679 -2.163271427154541 0.37638136744499207 7.0 12 -0.07977157831192017
0.96648770570755 -2.1256771087646484 -0.20429305732250214 10.0 5 -0.07976927608251572
0.9820432662963867 -2.160890579223633 0.4613761901855469 6.0 13 -0.07976696640253067
0.9862783551216125 -2.1712160110473633 -0.12497827410697937 13.0 6 -0.07976466417312622
0.9804792404174805 -2.1594505310058594 0.5475308895111084 6.0 14 -0.07976236194372177
0.9817643165588379 -2.163283586502075 -0.04146691784262657 11.0 7 -0.07976005971431732
0.9808115363121033 -2.162186861038208 0.6361772418022156 8.0 15 -0.07975775003433228
0.5650935769081116 -1.2497984170913696 -0.36752307415008545 8.0 0 -0.07973701506853104
0.9717766642570496 -2.150245428085327 0.04118768125772476 9.0 8 -0.07973471283912659
0.6722810864448547 -1.488244652748108 -0.377018004655838 7.0 1 -0.07973241060972214
0.9825513362884521 -2.1750972270965576 0.12508295476436615 8.0 9 -0.07973010092973709
0.845879077911377 -1.8734145164489746 -0.399554044008255 7.0 2 -0.07972779870033264
0.9826763868331909 -2.1774001121520996 0.20899945497512817 7.0 10 -0.07972549647092819
1.007211685180664 -2.2328040599823 -0.38795751333236694 100.0 3 -0.07972319424152374
0.9709764719009399 -2.153480052947998 0.29004907608032227 7.0 11 -0.0797208920121193
1.0048571825027466 -2.229660749435425 -0.30028611421585083 100.0 4 -0.07971858233213425
0.9812714457511902 -2.1773266792297363 0.3782585859298706 7.0 12 -0.0797162801027298
0.958243191242218 -2.1272213459014893 -0.2041187435388565 13.0 5 -0.07971397787332535
0.9809422492980957 -2.178626537322998 0.46442911028862 6.0 13 -0.0797116756439209
0.9737755656242371 -2.163717746734619 -0.12435024976730347 13.0 6 -0.07970936596393585
0.9697375297546387 -2.1557512283325195 0.5457313060760498 6.0 14 -0.0797070637345314
0.9754053950309753 -2.1683509349823 -0.04150182008743286 12.0 7 -0.07970476150512695
