# .PCD v0.7 - Point Cloud Data file format
VERSION 0.7
FIELDS x y z intensity ring time
SIZE 4 4 4 4 4 4
TYPE F F F F F F
COUNT 1 1 1 1 1 1
WIDTH 550
HEIGHT 1
VIEWPOINT 0 0 0 1 0 0 0
POINTS 550
DATA ascii
-1.7915159463882446 2.194267749786377 -0.3478151261806488 3.0 4 -0.02871500886976719
-3.4560678005218506 4.234537601470947 0.8657084703445435 50.0 12 -0.02871270477771759
-2.2343854904174805 2.73865008354187 -0.3092285692691803 1.0 5 -0.02871040254831314
-3.4316420555114746 4.206108093261719 1.0551737546920776 55.0 13 -0.028708098456263542
-2.2027599811553955 2.7008495330810547 -0.18265250325202942 1.0 6 -0.028705794364213943
-3.4220540523529053 4.197346210479736 1.2502779960632324 50.0 14 -0.028703490272164345
-1.7787623405456543 2.1825320720672607 -0.049145977944135666 3.0 7 -0.028701186180114746
-3.399484157562256 4.172640323638916 1.442139744758606 68.0 15 -0.028698882088065147
-2.045647621154785 2.517167329788208 -0.8691143989562988 5.0 0 -0.02867814525961876
-2.308342218399048 2.842442035675049 -0.8453661203384399 3.0 1 -0.028673537075519562
-3.1873111724853516 3.9261813163757324 0.26502931118011475 0.0 9 -0.028671232983469963
-3.4271721839904785 4.226165771484375 0.6680877804756165 47.0 11 -0.028662018477916718
-2.1901166439056396 2.7016756534576416 -0.42703020572662354 56.0 4 -0.02865971438586712
-3.4226090908050537 4.223555088043213 0.8610153794288635 42.0 12 -0.02865741029381752
-2.227799654006958 2.749141216278076 -0.30957719683647156 1.0 5 -0.02865510620176792
-3.4157023429870605 4.216536521911621 1.0547921657562256 46.0 13 -0.028652802109718323
-2.1933181285858154 2.7085225582122803 -0.18265250325202942 1.0 6 -0.028650498017668724
-3.408607006072998 4.210782051086426 1.2507280111312866 46.0 14 -0.028648193925619125
-1.759811282157898 2.1747379302978516 -0.04883183166384697 3.0 7 -0.028645889833569527
-3.4043385982513428 4.208511829376221 1.450421929359436 70.0 15 -0.028643585741519928
-2.035634994506836 2.522789716720581 -0.8685967326164246 6.0 0 -0.02862284891307354
-2.286175012588501 2.8353116512298584 -0.8408671021461487 3.0 1 -0.02861824259161949
-3.1610522270202637 3.921734094619751 0.2639825940132141 0.0 9 -0.028615938499569893
-2.3125600814819336 2.8690593242645264 -0.7162970304489136 1.0 2 -0.028613634407520294
-3.4223575592041016 4.250473499298096 0.6700376868247986 42.0 11 -0.028606722131371498
-2.185652017593384 2.715489387512207 -0.4280051589012146 60.0 4 -0.0286044180393219
-3.4165143966674805 4.246249675750732 0.8632054328918457 41.0 12 -0.0286021139472723
-2.203202486038208 2.7382726669311523 -0.3074854612350464 1.0 5 -0.028599809855222702
-3.4120376110076904 4.242201328277588 1.0582268238067627 37.0 13 -0.028597505763173103
-3.4012136459350586 4.231767177581787 1.253427267074585 41.0 14 -0.028592897579073906
-2.1843128204345703 2.718679189682007 -0.06087399274110794 1.0 7 -0.028590593487024307
-3.3823702335357666 4.211331844329834 1.4473161697387695 61.0 15 -0.02858828939497471
-2.0244011878967285 2.5268642902374268 -0.8675615191459656 6.0 0 -0.02856755442917347
-1.7375319004058838 2.1695690155029297 0.04851769283413887 1.0 8 -0.02856525033712387
-2.2994048595428467 2.872178554534912 -0.8494152426719666 3.0 1 -0.028562946245074272
-3.1348628997802734 3.9171512126922607 0.2629358768463135 0.0 9 -0.028560642153024673
-2.258368968963623 2.821932792663574 -0.7025587558746338 1.0 2 -0.028558338060975075
-3.0572190284729004 3.822862386703491 -0.7752892971038818 2.0 3 -0.028553729876875877
-3.4322896003723145 4.293405055999756 0.6749124526977539 42.0 11 -0.02855142578482628
-2.1823554039001465 2.730856418609619 -0.4292238652706146 61.0 4 -0.02854912169277668
-3.426331043243408 4.289016246795654 0.8694628477096558 37.0 12 -0.02854681760072708
-2.193631410598755 2.745946168899536 -0.3074854612350464 1.0 5 -0.028544513508677483
-3.4119086265563965 4.272495746612549 1.0628061294555664 35.0 13 -0.028542209416627884
-3.401008129119873 4.2618913650512695 1.2588261365890503 35.0 14 -0.028537601232528687
-2.174808979034424 2.726288080215454 -0.06087399274110794 1.0 7 -0.028535297140479088
-3.3760790824890137 4.233686447143555 1.450939655303955 55.0 15 -0.02853299304842949
-2.009554624557495 2.5263564586639404 -0.8649733066558838 5.0 0 -0.02851225808262825
-1.7287030220031738 2.1740562915802 0.04848278686404228 2.0 8 -0.02850995399057865
-2.2820885181427 2.871034860610962 -0.8467158079147339 3.0 1 -0.028507649898529053
-3.121171236038208 3.9280693531036377 0.2629358768463135 0.0 9 -0.028505345806479454
-2.2631616592407227 2.848243474960327 -0.707138180732727 1.0 2 -0.028503041714429855
-3.466050148010254 4.363671779632568 0.48754921555519104 1.0 10 -0.028500737622380257
-3.056138515472412 3.848982095718384 -0.7784180045127869 8.0 3 -0.028498433530330658
-3.42962384223938 4.3209075927734375 0.677349865436554 33.0 11 -0.02849612943828106
-2.1777455806732178 2.7446773052215576 -0.4301988184452057 57.0 4 -0.02849382534623146
-3.43220591545105 4.327261447906494 0.8747816681861877 35.0 12 -0.028491521254181862
-2.1840322017669678 2.753587007522583 -0.3074854612350464 1.0 5 -0.028489217162132263
-3.415271282196045 4.307454586029053 1.0685304403305054 33.0 13 -0.028486913070082664
-3.4042625427246094 4.29664945602417 1.2655746936798096 33.0 14 -0.028482304885983467
-2.1652798652648926 2.7338624000549316 -0.06087399274110794 1.0 7 -0.02848000079393387
-3.381667137145996 4.271193504333496 1.4597394466400146 51.0 15 -0.02847769856452942
-2.016289472579956 2.5530643463134766 -0.8717026114463806 6.0 0 -0.02845696173608303
-2.944091320037842 3.7292027473449707 0.08293383568525314 1.0 8 -0.028454657644033432
-2.255150556564331 2.857567548751831 -0.8404171466827393 4.0 1 -0.028452353551983833
-3.1049678325653076 3.9358041286468506 0.2627265453338623 0.0 9 -0.028450049459934235
-2.24104642868042 2.840712308883667 -0.7033219933509827 1.0 2 -0.028447745367884636
-3.4520320892333984 4.377307891845703 0.48772352933883667 5.0 10 -0.028445441275835037
-3.0426836013793945 3.8596274852752686 -0.7784180045127869 8.0 3 -0.02844313718378544
-3.4354093074798584 4.359358310699463 0.6814934611320496 35.0 11 -0.02844083309173584
-2.1706089973449707 2.755380630493164 -0.4306862950325012 53.0 4 -0.02843852899968624
-3.4402987957000732 4.3687028884887695 0.8807260990142822 36.0 12 -0.028436224907636642
-2.1891980171203613 2.7799782752990723 -0.30957719683647156 1.0 5 -0.028433920815587044
-3.4123592376708984 4.334775924682617 1.0723466873168945 28.0 13 -0.028431618586182594
-3.4049055576324463 4.328418731689453 1.2714234590530396 35.0 14 -0.028427010402083397
-3.3894200325012207 4.311829090118408 1.4695746898651123 47.0 15 -0.0284224022179842
-2.007364511489868 2.560087203979492 -0.8717026114463806 6.0 0 -0.02840166538953781
-2.9458601474761963 3.7583425045013428 0.08335269242525101 1.0 8 -0.028399361297488213
-2.259585380554199 2.883829116821289 -0.8458160161972046 4.0 1 -0.028397057205438614
-3.096135377883911 3.952908754348755 0.26314520835876465 0.0 9 -0.028394753113389015
-2.214167833328247 2.8268802165985107 -0.6979793310165405 1.0 2 -0.028392449021339417
-3.463752031326294 4.423843860626221 0.49155837297439575 8.0 10 -0.028390144929289818
-3.027975559234619 3.868668556213379 -0.7781051397323608 8.0 3 -0.02838784083724022
-3.438518524169922 4.394774913787842 0.6851494908332825 33.0 11 -0.02838553860783577
-2.1585311889648438 2.7598140239715576 -0.4301988184452057 45.0 4 -0.02838323451578617
-3.434763193130493 4.393134593963623 0.88322913646698 35.0 12 -0.028380930423736572
-2.211388111114502 2.8284120559692383 -0.31410929560661316 1.0 5 -0.028378626331686974
-3.4213855266571045 4.377598762512207 1.0799789428710938 30.0 13 -0.028376322239637375
-3.4005720615386963 4.354099273681641 1.2754725217819214 32.0 14 -0.028371714055538177
-2.1461410522460938 2.7489123344421387 -0.06087399274110794 1.0 7 -0.02836940996348858
-3.386234760284424 4.338862895965576 1.4747509956359863 45.0 15 -0.02836710587143898
-1.9865494966506958 2.5518343448638916 -0.866526186466217 6.0 0 -0.028346369042992592
-2.949916124343872 3.7906975746154785 0.08384136110544205 1.0 8 -0.028344064950942993
-2.250702381134033 2.8932363986968994 -0.8462659120559692 3.0 1 -0.028341760858893394
-3.0602498054504395 3.9353115558624268 0.26126110553741455 0.0 9 -0.028339456766843796
-2.238032579421997 2.877985954284668 -0.7086646556854248 1.0 2 -0.028337154537439346
-3.4568495750427246 4.446918487548828 0.49277856945991516 13.0 10 -0.028334850445389748
-3.0168776512145996 3.882333517074585 -0.7787308692932129 8.0 3 -0.02833254635334015
-3.443859577178955 4.433400630950928 0.6892930269241333 30.0 11 -0.02833024226129055
-2.157407522201538 2.778306484222412 -0.43190500140190125 37.0 4 -0.02832793816924095
-3.433943271636963 4.423821449279785 0.8869835138320923 35.0 12 -0.028325634077191353
-2.179511785507202 2.807784080505371 -0.3109716773033142 1.0 5 -0.028323329985141754
-3.432563543319702 4.423637390136719 1.0883746147155762 30.0 13 -0.028321025893092155
-3.4116244316101074 4.39982271194458 1.2853703498840332 32.0 14 -0.028316417708992958
-2.1365315914154053 2.75638747215271 -0.06087399274110794 1.0 7 -0.02831411361694336
-3.3900012969970703 4.375089168548584 1.483033299446106 43.0 15 -0.02831180952489376
-1.976448893547058 2.5572240352630615 -0.8660085797309875 6.0 0 -0.02829107455909252
-2.246544599533081 2.908787488937378 -0.8485153913497925 3.0 1 -0.028286466374993324
-3.0684633255004883 3.9744274616241455 0.26314520835876465 0.0 9 -0.028284162282943726
-2.4463298320770264 3.168609142303467 -0.7781190872192383 1.0 2 -0.028281858190894127
-3.461998462677002 4.485772132873535 0.4957418441772461 19.0 10 -0.028279554098844528
-3.0008933544158936 3.8897135257720947 -0.7781051397323608 9.0 3 -0.02827725000679493
-3.4610939025878906 4.487837791442871 0.6958739757537842 33.0 11 -0.02827494591474533
-2.161027669906616 2.803114414215088 -0.4345861077308655 30.0 4 -0.028272641822695732
-3.4438014030456543 4.468640327453613 0.8935537934303284 35.0 12 -0.028270337730646133
-2.2232093811035156 2.884812831878662 -0.31864139437675476 1.0 5 -0.028268033638596535
-3.436269998550415 4.460476875305176 1.0944803953170776 30.0 13 -0.028265729546546936
-3.4164528846740723 4.437956809997559 1.2930186986923218 30.0 14 -0.02826112136244774
-2.1268978118896484 2.7638280391693115 -0.06087399274110794 1.0 7 -0.02825881727039814
-3.386486768722534 4.4022088050842285 1.48820960521698 47.0 15 -0.02825651317834854
-1.97691810131073 2.576369285583496 -0.8701496720314026 6.0 0 -0.028235778212547302
-2.9428532123565674 3.8365864753723145 0.08439984172582626 1.0 8 -0.028233474120497704
-2.2387495040893555 2.919703960418701 -0.8494152426719666 4.0 1 -0.028231170028448105
-3.035822868347168 3.9592208862304688 0.2614704668521881 0.0 9 -0.028228865936398506
-3.47540283203125 4.53578519821167 0.49992531538009644 20.0 10 -0.02822425775229931
-2.9872984886169434 3.9001643657684326 -0.7781051397323608 9.0 3 -0.02822195366024971
-3.4586832523345947 4.517229080200195 0.6985551714897156 30.0 11 -0.02821964956820011
-2.157754898071289 2.818145751953125 -0.4358048141002655 21.0 4 -0.028217345476150513
-3.4601809978485107 4.520819664001465 0.9016883969306946 35.0 12 -0.028215041384100914
-2.169542074203491 2.835590362548828 -0.31236615777015686 1.0 5 -0.028212737292051315
-3.434992790222168 4.491157531738281 1.099059820175171 30.0 13 -0.028210433200001717
-3.427757740020752 4.483319282531738 1.3029166460037231 30.0 14 -0.02820582501590252
-3.395327568054199 4.444116115570068 1.4985623359680176 43.0 15 -0.028201216831803322
-1.971877098083496 2.5875203609466553 -0.8717026114463806 6.0 0 -0.028180481866002083
-2.9179954528808594 3.8304176330566406 0.08405079692602158 1.0 8 -0.028178177773952484
-2.212526559829712 2.9054062366485596 -0.8431165814399719 3.0 1 -0.028175873681902885
-3.0154170989990234 3.9597315788269043 0.2608424425125122 0.0 9 -0.028173569589853287
-3.4808526039123535 4.574240207672119 0.5028886198997498 20.0 10 -0.02816896140575409
-2.9695651531219482 3.903759479522705 -0.776853621006012 8.0 3 -0.02816665731370449
-3.459303617477417 4.5492167472839355 0.7017237544059753 35.0 11 -0.028164353221654892
-2.144792079925537 2.8205456733703613 -0.435073584318161 11.0 4 -0.028162049129605293
-3.466686487197876 4.560576915740967 0.9073200225830078 33.0 12 -0.028159745037555695
-2.1721818447113037 2.8586323261260986 -0.31410929560661316 1.0 5 -0.028157440945506096
-3.439079999923706 4.527538776397705 1.105165719985962 28.0 13 -0.028155136853456497
-3.4258334636688232 4.511734485626221 1.3078655004501343 32.0 14 -0.02815053053200245
-2.1689722537994385 2.857513189315796 -0.06261923164129257 1.0 7 -0.02814822643995285
-3.402756929397583 4.484591960906982 1.5083974599838257 41.0 15 -0.02814592234790325
-1.9656165838241577 2.5971262454986572 -0.8727378845214844 6.0 0 -0.028125185519456863
-2.926994800567627 3.86877703666687 0.08467907458543777 1.0 8 -0.028122881427407265
-2.21345853805542 2.9267163276672363 -0.8471657633781433 4.0 1 -0.028120577335357666
-3.0094971656799316 3.9792683124542236 0.2614704668521881 0.0 9 -0.028118273243308067
-3.4896912574768066 4.617547512054443 0.5063748955726624 22.0 10 -0.02811366505920887
-2.9625566005706787 3.9214673042297363 -0.7784180045127869 5.0 3 -0.02811136096715927
-3.465733289718628 4.589176177978516 0.7061110138893127 32.0 11 -0.028109056875109673
-2.16413950920105 2.8656609058380127 -0.4409233331680298 3.0 4 -0.028106752783060074
-3.462256669998169 4.586236000061035 0.910135805606842 34.0 12 -0.028104450553655624
-2.177091598510742 2.884904623031616 -0.31620103120803833 1.0 5 -0.028102146461606026
-3.446512222290039 4.568696022033691 1.1124165058135986 28.0 13 -0.028099842369556427
-3.427281141281128 4.5448527336120605 1.314164161682129 33.0 14 -0.02809523418545723
-2.758939266204834 3.6599059104919434 -0.0800018310546875 1.0 7 -0.02809293009340763
-3.4111204147338867 4.526708126068115 1.5187503099441528 41.0 15 -0.028090626001358032
-1.9558331966400146 2.602085590362549 -0.8722202181816101 6.0 0 -0.028069889172911644
-2.135761022567749 2.842501163482666 0.06206075847148895 1.0 8 -0.028067585080862045
-2.2142744064331055 2.948063373565674 -0.8512148261070251 4.0 1 -0.028065280988812447
-2.9962856769561768 3.9892256259918213 0.2614704668521881 0.0 9 -0.028062976896762848
-3.4958858489990234 4.657777786254883 0.5095124840736389 26.0 10 -0.02805836871266365
-2.9436092376708984 3.9233686923980713 -0.776853621006012 6.0 3 -0.0280560664832592
-3.471935987472534 4.629228115081787 0.7104983329772949 32.0 11 -0.028053762391209602
-2.9454879760742188 3.9273006916046143 -0.6027657985687256 33.0 4 -0.028051458299160004
-3.4695417881011963 4.62772274017334 0.9160803556442261 39.0 12 -0.028049154207110405
-2.167513370513916 2.8921079635620117 -0.31620103120803833 1.0 5 -0.028046850115060806
-3.456063747406006 4.613094806671143 1.1204304695129395 30.0 13 -0.028044546023011208
-3.4355528354644775 4.587389945983887 1.3231621980667114 33.0 14 -0.02803993783891201
-2.149972915649414 2.871835708618164 -0.06261923164129257 1.0 7 -0.02803763374686241
-3.4146106243133545 4.562740802764893 1.5270323753356934 41.0 15 -0.028035329654812813
-1.9358869791030884 2.5953006744384766 -0.8675615191459656 6.0 0 -0.027997970581054688
-2.12532901763916 2.850309371948242 0.06206075847148895 1.0 8 -0.02799566648900509
-2.2069475650787354 2.9608473777770996 -0.8525645732879639 4.0 1 -0.02799336239695549
-2.9940719604492188 4.018319129943848 0.26262184977531433 1.0 9 -0.02799105830490589
-3.4859330654144287 4.680146217346191 0.5105583071708679 22.0 10 -0.027986450120806694
-2.9303884506225586 3.935716390609741 -0.7771665453910828 8.0 3 -0.027984146028757095
-3.47983455657959 4.675364017486572 0.7156168222427368 37.0 11 -0.027981841936707497
-2.926831007003784 3.9338042736053467 -0.6020345687866211 15.0 4 -0.027979537844657898
-3.469431161880493 4.664785385131836 0.9207733273506165 38.0 12 -0.0279772337526083
-2.9036078453063965 3.9040138721466064 -0.4256686568260193 1.0 5 -0.0279749296605587
-3.450845241546631 4.641487121582031 1.124246597290039 30.0 13 -0.02797262743115425
-3.4434814453125 4.634960651397705 1.3330600261688232 33.0 14 -0.027968019247055054
-2.155621290206909 2.902545690536499 -0.06310790032148361 1.0 7 -0.027965715155005455
-3.4166417121887207 4.602188587188721 1.5358322858810425 43.0 15 -0.027963411062955856
-1.9406120777130127 2.6206719875335693 -0.8737731575965881 6.0 0 -0.027942674234509468
-2.1896445751190186 2.9591333866119385 -0.8498651385307312 5.0 1 -0.02793806605041027
-2.9645872116088867 4.007870674133301 0.26126110553741455 0.0 9 -0.027935761958360672
-3.493267059326172 4.724325180053711 0.5140445828437805 22.0 10 -0.027931153774261475
-2.908414125442505 3.9348013401031494 -0.7749764919281006 8.0 3 -0.027928849682211876
-3.478829860687256 4.708237171173096 0.7187854647636414 32.0 11 -0.027926547452807426
-2.935490846633911 3.974334716796875 -0.6066656112670898 1.0 4 -0.027924243360757828
-3.4719011783599854 4.702293395996094 0.9257792830467224 38.0 12 -0.02792193926870823
-2.9136321544647217 3.9461820125579834 -0.4291548728942871 1.0 5 -0.02791963517665863
-3.453277349472046 4.678777694702148 1.13035249710083 30.0 13 -0.02791733108460903
-3.4492597579956055 4.676750183105469 1.3416081666946411 30.0 14 -0.027912722900509834
-3.415454626083374 4.634304523468018 1.542561650276184 45.0 15 -0.027908114716410637
-1.937172770500183 2.6352131366729736 -0.8763613104820251 6.0 0 -0.02788737788796425
-2.872694492340088 3.9092659950256348 0.08467907458543777 1.0 8 -0.02788507379591465
-2.167764186859131 2.951054096221924 -0.8453661203384399 3.0 1 -0.02788276970386505
-2.956488847732544 4.0262451171875 0.26178449392318726 3.0 9 -0.027880467474460602
-2.4924821853637695 3.394345283508301 -0.8185706734657288 1.0 2 -0.027878163382411003
-3.5026907920837402 4.771826267242432 0.5178794264793396 20.0 10 -0.027875859290361404
-2.8969974517822266 3.948115587234497 -0.7756021618843079 8.0 3 -0.027873555198311806
-3.4776358604431152 4.741161346435547 0.7219540476799011 32.0 11 -0.027871251106262207
-3.48115611076355 4.749436378479004 0.9326624274253845 35.0 12 -0.02786664292216301
-2.8991482257843018 3.9568350315093994 -0.4291548728942871 1.0 5 -0.02786433883011341
-3.4601292610168457 4.722476959228516 1.1379848718643188 30.0 13 -0.027862034738063812
-3.4432735443115234 4.702914237976074 1.3456573486328125 32.0 14 -0.027857426553964615
-2.841561794281006 3.8825016021728516 -0.0839809849858284 1.0 7 -0.027855122461915016
-3.4254937171936035 4.682057857513428 1.5544673204421997 36.0 15 -0.027852818369865417
-1.924086332321167 2.63761305809021 -0.8748083710670471 6.0 0 -0.02783208340406418
-2.851958990097046 3.9095773696899414 0.08446964621543884 1.0 8 -0.02782977931201458
-2.088559150695801 2.864128589630127 -0.8183720111846924 1.0 1 -0.02782747521996498
-2.9212400913238525 4.007488250732422 0.25990039110183716 3.0 9 -0.027825171127915382
-2.4638381004333496 3.3812429904937744 -0.8132279515266418 1.0 2 -0.027822867035865784
-3.509813070297241 4.818450927734375 0.5215399265289307 23.0 10 -0.027820562943816185
-2.8825082778930664 3.9587063789367676 -0.7756021618843079 6.0 3 -0.027818258851766586
-3.4902780055999756 4.793389797210693 0.7280475497245789 32.0 11 -0.027815954759716988
-2.1179637908935547 2.9097824096679688 -0.44189828634262085 1.0 4 -0.02781365066766739
-3.4854767322540283 4.790308952331543 0.938293993473053 31.0 12 -0.02781134657561779
-2.125901460647583 2.9228315353393555 -0.31620103120803833 1.0 5 -0.02780904248356819
-3.4647345542907715 4.765296936035156 1.1452356576919556 25.0 13 -0.027806738391518593
-3.448920965194702 4.747034549713135 1.354655385017395 32.0 14 -0.027802130207419395
-2.870305299758911 3.9506380558013916 -0.08523755520582199 1.0 7 -0.027799826115369797
-3.4318349361419678 4.725247383117676 1.5648200511932373 32.0 15 -0.027797522023320198
-1.9171329736709595 2.6474430561065674 -0.8758436441421509 6.0 0 -0.02777678705751896
-2.835266590118408 3.916764259338379 0.08439984172582626 1.0 8 -0.02777448296546936
-2.0597681999206543 2.8465049266815186 -0.8111735582351685 1.0 1 -0.02777217887341976
-2.8948259353637695 4.001986503601074 0.25885364413261414 1.0 9 -0.027769874781370163
-2.452019691467285 3.3898234367370605 -0.8132279515266418 2.0 2 -0.027767570689320564
-3.509317398071289 4.853275775909424 0.5239803194999695 23.0 10 -0.027765266597270966
-2.872142791748047 3.9735476970672607 -0.7765407562255859 2.0 3 -0.027762962505221367
-3.4936110973358154 4.835113048553467 0.7324348092079163 27.0 11 -0.027760658413171768
-2.1956212520599365 3.0398261547088623 -0.4604223966598511 1.0 4 -0.02775835432112217
-3.4829275608062744 4.823873043060303 0.9423612952232361 27.0 12 -0.02775605022907257
-2.17166805267334 3.0077717304229736 -0.324567973613739 1.0 5 -0.027753746137022972
-3.475653648376465 4.8155694007873535 1.154394507408142 23.0 13 -0.027751442044973373
-2.1023032665252686 2.9138405323028564 -0.18830479681491852 8.0 6 -0.027749137952923775
-3.455129384994507 4.790655136108398 1.3636534214019775 36.0 14 -0.027746833860874176
-2.0395278930664062 2.828916072845459 -0.06087399274110794 1.0 7 -0.027744529768824577
-3.4336938858032227 4.764438629150391 1.5736198425292969 33.0 15 -0.02774222567677498
-1.898859977722168 2.6415698528289795 -0.8717026114463806 6.0 0 -0.02772149071097374
-2.830911159515381 3.939629077911377 0.08467907458543777 1.0 8 -0.02771918661892414
-2.058915376663208 2.8663387298583984 -0.8147727847099304 1.0 1 -0.027716882526874542
-2.8563764095306396 3.977996826171875 0.2566555440425873 0.0 9 -0.027714578434824944
-2.4401726722717285 3.3983612060546875 -0.8132279515266418 1.0 2 -0.027712274342775345
-3.510941982269287 4.891394138336182 0.5267692804336548 19.0 10 -0.027709970250725746
-2.8421337604522705 3.9610791206359863 -0.7721606492996216 2.0 3 -0.027707666158676147
-3.5044806003570557 4.88599157333374 0.7382845282554626 22.0 11 -0.02770536206662655
-2.117908000946045 2.95390248298645 -0.44628557562828064 2.0 4 -0.02770305797457695
-3.494837760925293 4.876140117645264 0.950183093547821 28.0 12 -0.02770075388252735
-2.161156415939331 3.015333652496338 -0.324567973613739 1.0 5 -0.027698449790477753
-3.4748315811157227 4.8500142097473145 1.1597371101379395 25.0 13 -0.027696145698428154
-2.0851409435272217 2.91141939163208 -0.18767675757408142 2.0 6 -0.027693843469023705
-3.4667470455169678 4.842298984527588 1.3749009370803833 35.0 14 -0.027691539376974106
-2.1436922550201416 2.9953811168670654 -0.06429466605186462 1.0 7 -0.027689235284924507
-3.4305307865142822 4.795248031616211 1.5798314809799194 34.0 15 -0.02768693119287491
-1.8963606357574463 2.6576168537139893 -0.8748083710670471 6.0 0 -0.02766619436442852
-2.064664840698242 2.894554615020752 0.06206075847148895 1.0 8 -0.02766389027237892
-2.08510160446167 2.9242820739746094 -0.8291696310043335 1.0 1 -0.027661586180329323
-2.802586078643799 3.9305291175842285 0.25299203395843506 7.0 9 -0.027659282088279724
-2.4374122619628906 3.4196481704711914 -0.8162809610366821 1.0 2 -0.027656977996230125
-3.530841827392578 4.955545902252197 0.5323472619056702 23.0 10 -0.027654673904180527
-2.8431880474090576 3.991891860961914 -0.7762279510498047 2.0 3 -0.027652369812130928
-3.5046753883361816 4.922450542449951 0.7419406175613403 27.0 11 -0.02765006572008133
-3.0318808555603027 4.259970188140869 -0.6420077681541443 6.0 4 -0.02764776349067688
-3.500410556793213 4.9182820320129395 0.9561275839805603 29.0 12 -0.02764545939862728
-3.4760849475860596 4.88771390914917 1.1658430099487305 26.0 13 -0.027640851214528084
-2.0888516902923584 2.9382145404815674 -0.18893282115459442 1.0 6 -0.027638547122478485
-3.4712700843811035 4.884552478790283 1.3834490776062012 33.0 14 -0.027636243030428886
-3.4425792694091797 4.845971584320068 1.5927724838256836 36.0 15 -0.02763163484632969
-1.8837217092514038 2.6594910621643066 -0.8732554912567139 6.0 0 -0.0276108980178833
-2.0550553798675537 2.9013848304748535 0.06206075847148895 1.0 8 -0.027608593925833702
-2.1249403953552246 3.0011603832244873 -0.8489653468132019 3.0 1 -0.027606289833784103
-2.7888479232788086 3.940288782119751 0.25299203395843506 23.0 9 -0.027603985741734505
-2.429995536804199 3.434546709060669 -0.8178074359893799 1.0 2 -0.027601681649684906
-3.5296294689178467 4.990612506866455 0.5347875952720642 23.0 10 -0.027599379420280457
-2.825371265411377 3.9948480129241943 -0.7749764919281006 2.0 3 -0.027597075328230858
-3.508958578109741 4.963222503662109 0.7463278770446777 30.0 11 -0.02759477123618126
-3.033778667449951 4.292696475982666 -0.6454201340675354 22.0 4 -0.02759246714413166
-3.507157802581787 4.964351177215576 0.9626978039741516 28.0 12 -0.027590163052082062
-3.482509136199951 4.931286811828613 1.1734753847122192 26.0 13 -0.027585554867982864
-2.9625699520111084 4.196598529815674 -0.2692161798477173 1.0 6 -0.027583250775933266
-3.4685375690460205 4.91514253616333 1.3888479471206665 32.0 14 -0.027580946683883667
-2.12325382232666 3.0099031925201416 -0.06429466605186462 1.0 7 -0.02757864259183407
-3.449023485183716 4.891112804412842 1.6036428213119507 35.0 15 -0.02757633849978447
-1.886006474494934 2.6815242767333984 -0.8784318566322327 6.0 0 -0.02755560167133808
-2.0449159145355225 2.9085402488708496 0.06206075847148895 1.0 8 -0.027553299441933632
-2.1312599182128906 3.0324745178222656 -0.8557138442993164 3.0 1 -0.027550995349884033
-2.804929733276367 3.99249005317688 0.25571349263191223 7.0 9 -0.027548691257834435
-2.408435821533203 3.4281275272369385 -0.8143728375434875 2.0 2 -0.027546387165784836
-3.5382533073425293 5.0381598472595215 0.5386224985122681 21.0 10 -0.027544083073735237
-2.8227603435516357 4.020852565765381 -0.7781051397323608 1.0 3 -0.02754177898168564
-3.5155599117279053 5.009563446044922 0.7514464259147644 32.0 11 -0.02753947488963604
-3.0301766395568848 4.319510459899902 -0.6478574872016907 22.0 4 -0.02753717079758644
-3.5079550743103027 5.002439022064209 0.9677037000656128 28.0 12 -0.027534866705536842
-3.053523540496826 4.356029033660889 -0.4654116630554199 1.0 5 -0.027532562613487244
-3.494572877883911 4.9852118492126465 1.1833974123001099 23.0 13 -0.027530258521437645
-2.9696784019470215 4.237992286682129 -0.27120494842529297 32.0 6 -0.027527954429388046
-3.475957155227661 4.962334156036377 1.3987457752227783 36.0 14 -0.027525650337338448
-3.458514928817749 4.941107749938965 1.6160662174224854 33.0 15 -0.02752104215323925
-1.8706369400024414 2.6804983615875244 -0.8758436441421509 6.0 0 -0.02750030718743801
-2.1251206398010254 3.0462892055511475 -0.8575134873390198 3.0 1 -0.027495699003338814
-2.7978298664093018 4.012087345123291 0.2563415467739105 5.0 9 -0.027493394911289215
-2.407081127166748 3.453038215637207 -0.8181890249252319 2.0 2 -0.027491090819239616
-3.5391268730163574 5.078884601593018 0.5415857434272766 24.0 10 -0.027488786727190018
-2.8080031871795654 4.031172275543213 -0.7781051397323608 1.0 3 -0.02748648263514042
-3.5241472721099854 5.059269428253174 0.7570524215698242 28.0 11 -0.02748417854309082
-3.4064269065856934 4.892090320587158 -0.7319473624229431 2.0 4 -0.02748187445104122
-3.5107839107513428 5.043838024139404 0.973335325717926 30.0 12 -0.027479570358991623
-3.0246453285217285 4.3470354080200195 -0.46331992745399475 2.0 5 -0.027477266266942024
-3.498699426651001 5.0302205085754395 1.1910297870635986 25.0 13 -0.027474962174892426
-2.9723689556121826 4.27508544921875 -0.2728796899318695 33.0 6 -0.027472658082842827
-3.4822123050689697 5.0102458000183105 1.4086436033248901 33.0 14 -0.027470353990793228
-3.4555764198303223 4.973774433135986 1.6227954626083374 32.0 15 -0.02746574580669403
-1.8568692207336426 2.680659055709839 -0.8737731575965881 6.0 0 -0.027445010840892792
-2.7753851413726807 4.0081634521484375 0.08509793877601624 1.0 8 -0.027442706748843193
-2.11283278465271 3.052454948425293 -0.8570635914802551 3.0 1 -0.027440402656793594
-2.830414056777954 4.089159965515137 0.26063308119773865 1.0 9 -0.027438098564743996
-2.390545606613159 3.454960823059082 -0.8166625499725342 2.0 2 -0.027435794472694397
-3.541775703430176 5.12070369720459 0.544723391532898 25.0 10 -0.0274334903806448
-2.782681465148926 4.02470064163208 -0.7749764919281006 1.0 3 -0.0274311862885952
-3.5270256996154785 5.10317850112915 0.761683464050293 26.0 11 -0.0274288821965456
-3.4448904991149902 4.986204624176025 -0.7441343069076538 2.0 4 -0.027426578104496002
-3.514488935470581 5.086942672729492 0.9792798757553101 30.0 12 -0.027424274012446404
-3.5189547538757324 5.095303058624268 -0.5417600870132446 43.0 5 -0.027421969920396805
-3.4978511333465576 5.066636562347412 1.1967540979385376 26.0 13 -0.027419665828347206
-2.9755775928497314 4.311737060546875 -0.27455446124076843 30.0 6 -0.027417361736297607
-3.4879415035247803 5.056056022644043 1.4180915355682373 35.0 14 -0.027415059506893158
-3.456838846206665 5.012841701507568 1.6315953731536865 33.0 15 -0.02741045132279396
-1.8628242015838623 2.7094106674194336 -0.8810200095176697 6.0 0 -0.027389714494347572
-2.75754714012146 4.010753154754639 0.08495831489562988 12.0 8 -0.027387410402297974
-2.1060094833374023 3.064263343811035 -0.8584132790565491 3.0 1 -0.027385106310248375
-2.8229072093963623 4.108892440795898 0.26126110553741455 0.0 9 -0.027382802218198776
-2.376248836517334 3.4600470066070557 -0.8158992528915405 2.0 2 -0.027380498126149178
-3.5453057289123535 5.164243221282959 0.5480352640151978 23.0 10 -0.02737819403409958
-2.7872066497802734 4.059963703155518 -0.779982328414917 1.0 3 -0.02737588994204998
-3.5258071422576904 5.137762069702148 0.7650958299636841 26.0 11 -0.02737358585000038
-3.4081268310546875 4.968132972717285 -0.7397469878196716 3.0 4 -0.027371281757950783
-3.521289348602295 5.135019779205322 0.9861630201339722 30.0 12 -0.027368977665901184
-3.49438738822937 5.097696781158447 -0.5407142043113708 41.0 5 -0.027366675436496735
-3.4965691566467285 5.100879192352295 1.202096700668335 27.0 13 -0.027364371344447136
-3.074159860610962 4.486337184906006 -0.2850216329097748 64.0 6 -0.027362067252397537
-3.496483087539673 5.1045732498168945 1.4284392595291138 32.0 14 -0.02735976316034794
-3.465506076812744 5.063138961791992 1.6440186500549316 35.0 15 -0.02735515497624874
-1.8494716882705688 2.7091915607452393 -0.8789495229721069 6.0 0 -0.027334418147802353
-2.745783805847168 4.023658752441406 0.08502812683582306 11.0 8 -0.027332114055752754
-2.0865156650543213 3.0587165355682373 -0.8548140525817871 3.0 1 -0.027329809963703156
-3.5734870433807373 5.238534450531006 0.33233335614204407 3.0 9 -0.027327505871653557
-2.3747153282165527 3.48250675201416 -0.8193338513374329 2.0 2 -0.027325201779603958
-3.5550949573516846 5.215482234954834 0.5522187948226929 21.0 10 -0.02732289768755436
-2.7663445472717285 4.059873104095459 -0.7781051397323608 1.0 3 -0.02732059545814991
-3.5268502235412598 5.177928924560547 0.7692393660545349 23.0 11 -0.02731829136610031
-3.359480619430542 4.934056758880615 -0.7329223155975342 3.0 4 -0.027315987274050713
-3.532036304473877 5.187488079071045 0.9939846992492676 30.0 12 -0.027313683182001114
-3.472980260848999 5.102666854858398 -0.5400169491767883 40.0 5 -0.027311379089951515
-3.505248546600342 5.1520094871521 1.211255669593811 27.0 13 -0.027309074997901917
-3.0955474376678467 4.551539421081543 -0.28847581148147583 67.0 6 -0.027306770905852318
-3.4961748123168945 5.142531871795654 1.4356377124786377 33.0 14 -0.02730446681380272
-3.4725868701934814 5.1097540855407715 1.6554067134857178 33.0 15 -0.02729985862970352
-1.8432551622390747 2.720428466796875 -0.880502462387085 6.0 0 -0.027279121801257133
-2.7492518424987793 4.057573318481445 0.08555170148611069 2.0 8 -0.027276817709207535
-2.08182430267334 3.0736870765686035 -0.8570635914802551 3.0 1 -0.027274515479803085
-3.57309627532959 5.277437686920166 0.334008127450943 3.0 9 -0.027272211387753487
-2.360344886779785 3.487523317337036 -0.8185706734657288 1.0 2 -0.027269907295703888
-3.5614278316497803 5.264165878295898 0.556053638458252 21.0 10 -0.02726760320365429
-2.7484376430511475 4.062480449676514 -0.776853621006012 1.0 3 -0.02726529911160469
-3.5419087409973145 5.237283229827881 0.7763077616691589 21.0 11 -0.027262995019555092
-3.3497722148895264 4.955036640167236 -0.7343847751617432 3.0 4 -0.027260690927505493
-3.5349206924438477 5.230884075164795 0.9999291896820068 24.0 12 -0.027258386835455894
-3.4506850242614746 5.108155727386475 -0.5393196940422058 38.0 5 -0.027256082743406296
-3.518914222717285 5.209157466888428 1.2219408750534058 22.0 13 -0.027253778651356697
-3.0815536975860596 4.563436031341553 -0.2885805070400238 65.0 6 -0.0272514745593071
-3.497636079788208 5.181556701660156 1.4432860612869263 35.0 14 -0.0272491704672575
-3.4817352294921875 5.161884784698486 1.6683475971221924 32.0 15 -0.027244562283158302
-1.8299095630645752 2.7201149463653564 -0.8784318566322327 6.0 0 -0.027223827317357063
-2.0634727478027344 3.0696136951446533 -0.8539142608642578 3.0 1 -0.027219219133257866
-3.6170332431793213 5.3827128410339355 0.33986973762512207 3.0 9 -0.027216915041208267
-2.3465757369995117 3.492072820663452 -0.8178074359893799 2.0 2 -0.02721461094915867
-3.563950300216675 5.305716514587402 0.5591912269592285 20.0 10 -0.02721230685710907
-2.7518601417541504 4.098288536071777 -0.7818595170974731 1.0 3 -0.02721000276505947
-3.5545833110809326 5.295764446258545 0.7831324338912964 20.0 11 -0.027207698673009872
-3.3213939666748047 4.950216293334961 -0.7319473624229431 1.0 4 -0.027205394580960274
-3.535346508026123 5.271080017089844 1.005247950553894 19.0 12 -0.027203090488910675
-3.419520378112793 5.100311279296875 -0.537227988243103 40.0 5 -0.027200786396861076
-3.5258560180664062 5.258913516998291 1.2307181358337402 21.0 13 -0.027198482304811478
-3.0644943714141846 4.572504997253418 -0.28847581148147583 45.0 6 -0.02719617821276188
-3.5066444873809814 5.234208106994629 1.454533576965332 31.0 14 -0.02719387412071228
-3.4787421226501465 5.196481227874756 1.6755945682525635 32.0 15 -0.027189265936613083
-1.8156384229660034 2.7203757762908936 -0.8763613104820251 6.0 0 -0.027168530970811844
-3.370266914367676 5.049679279327393 0.10597101598978043 5.0 8 -0.027166226878762245
-2.067887306213379 3.0994925498962402 -0.8602128624916077 3.0 1 -0.027163922786712646
-3.622602939605713 5.431860446929932 0.3421725034713745 3.0 9 -0.027161618694663048
-2.3424718379974365 3.513718366622925 -0.8208603262901306 2.0 2 -0.02715931460261345
-3.6019351482391357 5.404956817626953 0.5682554244995117 28.0 10 -0.02715701051056385
-2.7368197441101074 4.1083478927612305 -0.7818595170974731 1.0 3 -0.02715470641851425
-3.5933032035827637 5.394049167633057 0.795806884765625 24.0 11 -0.027152402326464653
-3.573845148086548 5.368895053863525 1.0215171575546265 30.0 12 -0.027147794142365456
-3.3906569480895996 5.0956292152404785 -0.5354848504066467 42.0 5 -0.027145490050315857
-3.546786308288574 5.332284927368164 1.2448378801345825 20.0 13 -0.027143185958266258
-3.0244932174682617 4.548779010772705 -0.286277711391449 39.0 6 -0.02714088186621666
-3.5187177658081055 5.294092178344727 1.467580795288086 26.0 14 -0.02713857777416706
-3.4862380027770996 5.24721097946167 1.6880178451538086 26.0 15 -0.027133971452713013
-1.8125317096710205 2.736360788345337 -0.8794671893119812 5.0 0 -0.027113234624266624
-2.9542958736419678 4.461761951446533 0.09340527653694153 17.0 8 -0.027110930532217026
-2.0457565784454346 3.0908010005950928 -0.8557138442993164 4.0 1 -0.027108626440167427
-3.5970044136047363 5.434480667114258 0.341544508934021 5.0 9 -0.02710632234811783
-2.336693048477173 3.5316972732543945 -0.8231500387191772 1.0 2 -0.02710401825606823
-3.6083240509033203 5.455719470977783 0.5722646117210388 31.0 10 -0.02710171416401863
-2.7224628925323486 4.117875576019287 -0.7818595170974731 1.0 3 -0.027099410071969032
-3.592116117477417 5.435335636138916 0.7999504208564758 33.0 11 -0.027097105979919434
-3.1064369678497314 4.702223777770996 -0.6919742226600647 1.0 4 -0.027094801887869835
-3.586658000946045 5.429135799407959 1.0305904150009155 35.0 12 -0.027092497795820236
-3.370654582977295 5.104107856750488 -0.5351362824440002 40.0 5 -0.027090193703770638
-3.5616822242736816 5.395423889160156 1.2566680908203125 41.0 13 -0.027087891474366188
-2.982194185256958 4.51930046081543 -0.283765584230423 49.0 6 -0.02708558738231659
-3.56138014793396 5.399064540863037 1.4932252168655396 56.0 14 -0.02708328329026699
-3.506186008453369 5.317408561706543 1.7066528797149658 25.0 15 -0.027078675106167793
-1.8050918579101562 2.7458994388580322 -0.880502462387085 5.0 0 -0.027057938277721405
-2.9361891746520996 4.4665207862854 0.09330056607723236 24.0 8 -0.027055634185671806
-2.036566734313965 3.099196195602417 -0.8561637997627258 4.0 1 -0.027053330093622208
-3.6339375972747803 5.532138347625732 0.34688276052474976 4.0 9 -0.02705102600157261
-2.326507091522217 3.543114185333252 -0.8239133358001709 1.0 2 -0.02704872190952301
-3.6144022941589355 5.506592273712158 0.5762737989425659 28.0 10 -0.02704641781747341
-2.7022879123687744 4.116972923278809 -0.779982328414917 1.0 3 -0.027044113725423813
-3.574073553085327 5.447216987609863 0.7999504208564758 33.0 11 -0.027041811496019363
-3.2388908863067627 4.938246726989746 -0.7251226305961609 1.0 4 -0.027039507403969765
-3.5720155239105225 5.448231220245361 1.0318418741226196 36.0 12 -0.027037203311920166
-3.347357988357544 5.107510089874268 -0.5342646837234497 20.0 5 -0.027034899219870567
-3.568523406982422 5.444971561431885 1.265445351600647 41.0 13 -0.02703259512782097
-2.9617197513580322 4.520811080932617 -0.28324222564697266 51.0 6 -0.02703029103577137
-3.564807653427124 5.443451404571533 1.502223253250122 58.0 14 -0.02702798694372177
-3.5288591384887695 5.392658233642578 1.7268407344818115 32.0 15 -0.027023378759622574
-1.7896404266357422 2.742163896560669 -0.8773965835571289 6.0 0 -0.027002641931176186
-2.9173035621643066 4.471717834472656 0.0931958481669426 52.0 8 -0.027000337839126587
-2.035315752029419 3.1209776401519775 -0.8602128624916077 4.0 1 -0.026998033747076988
-3.6113312244415283 5.53977108001709 0.3465687334537506 5.0 9 -0.02699572965502739
-2.307238817214966 3.539297580718994 -0.8212419748306274 2.0 2 -0.02699342742562294
-3.629843235015869 5.570293426513672 0.5816774368286133 32.0 10 -0.02699112333357334
-2.728872060775757 4.189277172088623 -0.7918713688850403 1.0 3 -0.026988819241523743
-3.599447011947632 5.527865409851074 0.8099437355995178 27.0 11 -0.026986515149474144
-3.2324612140655518 4.966160774230957 -0.7275600433349609 12.0 4 -0.026984211057424545
-3.5928378105163574 5.521929740905762 1.043418049812317 36.0 12 -0.026981906965374947
-3.0196359157562256 4.640960216522217 -0.4844115972518921 17.0 5 -0.026979602873325348
-3.570902109146118 5.490311622619629 1.2730777263641357 36.0 13 -0.02697729878127575
-2.9415652751922607 4.524425029754639 -0.2828235328197479 41.0 6 -0.02697499468922615
-3.552157402038574 5.465664386749268 1.5049227476119995 52.0 14 -0.026972690597176552
-2.9871485233306885 4.598047733306885 -0.09570899605751038 1.0 7 -0.026970386505126953
-3.5226383209228516 5.424386501312256 1.733052372932434 34.0 15 -0.026968082413077354
-1.7884596586227417 2.7613656520843506 -0.881537675857544 5.0 0 -0.026947347447276115
-2.9016754627227783 4.481874465942383 0.0931958481669426 57.0 8 -0.026945043355226517
-2.022292137145996 3.124790668487549 -0.8593130707740784 4.0 1 -0.026942739263176918
-3.658149242401123 5.654635906219482 0.3529537320137024 3.0 9 -0.02694043517112732
-2.302335739135742 3.558868169784546 -0.8239133358001709 1.0 2 -0.02693813107907772
-3.634180784225464 5.619736194610596 0.5855122804641724 32.0 10 -0.026935826987028122
-2.6927850246429443 4.165597915649414 -0.785614013671875 1.0 3 -0.026933522894978523
-3.6124517917633057 5.590414047241211 0.8172559142112732 29.0 11 -0.026931218802928925
-3.2204930782318115 4.985750675201416 -0.7287787795066833 22.0 4 -0.026928914710879326
-3.5928292274475098 5.56430721282959 1.0490496158599854 36.0 12 -0.026926610618829727
-2.993691921234131 4.636407375335693 -0.4828428328037262 31.0 5 -0.02692430652678013
-3.584721088409424 5.5538763999938965 1.2849078178405762 38.0 13 -0.02692200243473053
-2.9246726036071777 4.532986640930176 -0.28271886706352234 25.0 6 -0.02691969834268093
-3.568969488143921 5.533710956573486 1.520219326019287 50.0 14 -0.026917394250631332
-2.908235549926758 4.5109663009643555 -0.09368451684713364 6.0 7 -0.026915090158581734
-3.5403106212615967 5.493483543395996 1.7511696815490723 37.0 15 -0.026912786066532135
-1.7767213582992554 2.764341115951538 -0.880502462387085 5.0 0 -0.026892051100730896
-2.8784451484680176 4.480199813842773 0.09295151382684708 59.0 8 -0.026889747008681297
-2.016636848449707 3.1400299072265625 -0.8615626096725464 3.0 1 -0.0268874429166317
-3.6610488891601562 5.702664852142334 0.35515183210372925 2.0 9 -0.0268851388245821
-2.2856574058532715 3.560274362564087 -0.8223868608474731 2.0 2 -0.0268828347325325
-3.6392903327941895 5.670955657958984 0.5895214676856995 28.0 10 -0.026880530640482903
-2.6739609241485596 4.168322563171387 -0.7843625545501709 1.0 3 -0.026878226548433304
-3.6229171752929688 5.649779319763184 0.8240805268287659 27.0 11 -0.026875922456383705
-3.2234222888946533 5.02871561050415 -0.7334097623825073 8.0 4 -0.026873618364334106
-3.6032230854034424 5.623385906219482 1.0578099489212036 33.0 12 -0.026871314272284508
-2.973188638687134 4.640119552612305 -0.4821455478668213 33.0 5 -0.02686901018023491
-3.5896658897399902 5.604380130767822 1.2936850786209106 36.0 13 -0.02686670608818531
-3.5769433975219727 5.58881139755249 1.531916856765747 52.0 14 -0.026862097904086113
-2.9010915756225586 4.534566879272461 -0.09396375715732574 8.0 7 -0.026859793812036514
-3.545050859451294 5.543241500854492 1.763075351715088 35.0 15 -0.026857489719986916
-1.766021490097046 2.768897771835327 -0.8799847960472107 6.0 0 -0.026836754754185677
-2.862790107727051 4.490219593048096 0.09295151382684708 58.0 8 -0.026834450662136078
-1.9930962324142456 3.1273293495178223 -0.8561637997627258 3.0 1 -0.02683214657008648
-2.9478793144226074 4.627242565155029 0.28753378987312317 6.0 9 -0.02682984247803688
-2.2753243446350098 3.571542978286743 -0.8231500387191772 1.0 2 -0.026827538385987282
-3.6483700275421143 5.728998184204102 0.5942278504371643 29.0 10 -0.026825234293937683
-2.657273530960083 4.174297332763672 -0.7837367653846741 1.0 3 -0.026822930201888084
-3.6234235763549805 5.694211006164551 0.8287115693092346 25.0 11 -0.026820626109838486
-3.2090466022491455 5.044961452484131 -0.7341409921646118 3.0 4 -0.026818322017788887
-3.6143105030059814 5.684269905090332 1.0668832063674927 33.0 12 -0.02681601792573929
-2.9644579887390137 4.662238597869873 -0.4833657443523407 27.0 5 -0.02681371383368969
-3.5911448001861572 5.650013446807861 1.3013173341751099 35.0 13 -0.02681140974164009
-2.877959728240967 4.529692649841309 -0.281253457069397 2.0 6 -0.02680910751223564
-3.587712287902832 5.648967742919922 1.5449639558792114 55.0 14 -0.026806803420186043
-2.908825635910034 4.581806182861328 -0.09473166614770889 12.0 7 -0.026804499328136444
-3.556735038757324 5.6045145988464355 1.778604507446289 34.0 15 -0.026802195236086845
-1.758411169052124 2.778310775756836 -0.8810200095176697 6.0 0 -0.026781458407640457
-2.849238157272339 4.503564834594727 0.09302133321762085 59.0 8 -0.02677915431559086
-1.9936259984970093 3.152384042739868 -0.861112654209137 4.0 1 -0.02677685022354126
-2.927438974380493 4.630752086639404 0.28711506724357605 18.0 9 -0.02677454613149166
-2.2733333110809326 3.5960588455200195 -0.8269662261009216 1.0 2 -0.026772242039442062
-3.660281181335449 5.792226314544678 0.5994572043418884 31.0 10 -0.026769937947392464
-2.6511247158050537 4.196908950805664 -0.7862396836280823 1.0 3 -0.026767633855342865
-3.6236610412597656 5.7387166023254395 0.8333426117897034 22.0 11 -0.026765329763293266
-3.1850602626800537 5.0460591316223145 -0.7326785326004028 3.0 4 -0.026763025671243668
-3.62290620803833 5.741960048675537 1.0753307342529297 33.0 12 -0.026760723441839218
-3.1895036697387695 5.055058002471924 -0.5229344367980957 20.0 5 -0.02675841934978962
-3.5986297130584717 5.705690383911133 1.31123948097229 36.0 13 -0.02675611525774002
-2.8749136924743652 4.5599846839904785 -0.2825095057487488 57.0 6 -0.026753811165690422
-3.5897891521453857 5.696079254150391 1.5544118881225586 56.0 14 -0.026751507073640823
-2.9173288345336914 4.630847454071045 -0.09553447365760803 21.0 7 -0.026749202981591225
-3.557739734649658 5.649590015411377 1.7889572381973267 35.0 15 -0.026746898889541626
-1.7558950185775757 2.7958831787109375 -0.8846435546875 5.0 0 -0.026726162061095238
-2.8334991931915283 4.51348352432251 0.09302133321762085 61.0 8 -0.02672385796904564
-1.9867526292800903 3.1659271717071533 -0.8629122972488403 3.0 1 -0.02672155387699604
-2.9048898220062256 4.6307902336120605 0.28648707270622253 30.0 9 -0.02671924978494644
-2.260767698287964 3.6039717197418213 -0.8269662261009216 1.0 2 -0.026716947555541992
-3.6675586700439453 5.848856449127197 0.60398930311203 29.0 10 -0.026714641600847244
-2.6385579109191895 4.209484577178955 -0.7868654727935791 1.0 3 -0.026712339371442795
-3.6394436359405518 5.808523178100586 0.8416297435760498 24.0 11 -0.026710035279393196
-3.165318489074707 5.053782939910889 -0.7321910858154297 5.0 4 -0.026707731187343597
-3.630096197128296 5.798101902008057 1.0834652185440063 35.0 12 -0.026705427095294
-3.221531629562378 5.145529747009277 -0.5311270952224731 47.0 5 -0.0267031230032444
-3.61618709564209 5.778127670288086 1.3249777555465698 35.0 13 -0.0267008189111948
-2.855799913406372 4.564913749694824 -0.282195508480072 72.0 6 -0.026698514819145203
-3.595717191696167 5.749881744384766 1.565659523010254 51.0 14 -0.026696210727095604
-2.912806987762451 4.659654140472412 -0.09591842442750931 18.0 7 -0.026693906635046005
-3.5676839351654053 5.70948600769043 1.8039687871932983 37.0 15 -0.026691602542996407
-1.7379517555236816 2.7888786792755127 -0.880502462387085 5.0 0 -0.026641130447387695
-2.8198399543762207 4.526741981506348 0.09309113770723343 61.0 8 -0.026638826355338097
-1.9695096015930176 3.162916898727417 -0.8602128624916077 3.0 1 -0.026636522263288498
-2.8736824989318848 4.614965915679932 0.2849169671535492 13.0 9 -0.0266342181712389
-2.2440247535705566 3.6051743030548096 -0.8254397511482239 1.0 2 -0.0266319140791893
-3.6702747344970703 5.898840427398682 0.6078241467475891 29.0 10 -0.026629609987139702
-2.6363682746887207 4.238797664642334 -0.7906199097633362 1.0 3 -0.026627305895090103
-3.649542808532715 5.870080947875977 0.8486981391906738 24.0 11 -0.026625001803040504
-3.1382265090942383 5.049627780914307 -0.7299973964691162 2.0 4 -0.026622697710990906
-3.6358726024627686 5.850375652313232 1.0909740924835205 33.0 12 -0.026620393618941307
-3.18147349357605 5.1212029457092285 -0.5274665951728821 40.0 5 -0.02661808952689171
-3.624997138977051 5.837414264678955 1.335663080215454 36.0 13 -0.02661578729748726
-2.830366611480713 4.559582710266113 -0.281253457069397 56.0 6 -0.02661348320543766
-3.599257469177246 5.80048131942749 1.5760072469711304 52.0 14 -0.02661117911338806
-2.8794162273406982 4.640401363372803 -0.0953250452876091 22.0 7 -0.026608875021338463
-3.5701165199279785 5.755760192871094 1.814839243888855 27.0 15 -0.026606570929288864
-1.7312533855438232 2.7998580932617188 -0.8820553421974182 5.0 0 -0.026585834100842476
-2.79850435256958 4.525862693786621 0.0928817018866539 59.0 8 -0.026583530008792877
