# .PCD v0.7 - Point Cloud Data file format
VERSION 0.7
FIELDS x y z intensity ring time
SIZE 4 4 4 4 4 4
TYPE F F F F F F
COUNT 1 1 1 1 1 1
WIDTH 542
HEIGHT 1
VIEWPOINT 0 0 0 1 0 0 0
POINTS 542
DATA ascii
-2.4753522872924805 0.2257099598646164 -0.043386682868003845 18.0 7 -0.01881655678153038
-3.016580820083618 0.2755923569202423 0.8116565346717834 19.0 15 -0.01881425268948078
-2.754628896713257 0.25505363941192627 -0.7412577867507935 9.0 0 -0.018822193145751953
-2.596454381942749 0.2408657819032669 0.04551587626338005 55.0 8 -0.018819889053702354
-2.7572765350341797 0.2562701404094696 -0.6393109560012817 10.0 1 -0.018817584961652756
-3.0167906284332275 0.2809212803840637 0.1587873101234436 3.0 9 -0.018815280869603157
-2.7425808906555176 0.2553870677947998 -0.5354101061820984 11.0 2 -0.01881297677755356
-2.7276906967163086 0.25448065996170044 0.239678293466568 1.0 10 -0.01881067268550396
-2.7318902015686035 0.2553534209728241 -0.43457499146461487 11.0 3 -0.01880836859345436
-3.053607225418091 0.28596231341362 0.37657630443573 17.0 11 -0.018806064501404762
-2.7136142253875732 0.2546006143093109 -0.33465322852134705 12.0 4 -0.018803760409355164
-3.0523293018341064 0.28691741824150085 0.4855726361274719 12.0 12 -0.018801456317305565
-2.7136266231536865 0.2550795376300812 -0.23845809698104858 12.0 5 -0.018799152225255966
-3.0472302436828613 0.28697463870048523 0.5949424505233765 8.0 13 -0.018796849995851517
-2.429858922958374 0.22926117479801178 -0.1279090791940689 39.0 6 -0.018794545903801918
-3.0207226276397705 0.28554201126098633 0.7004976272583008 1.0 14 -0.01879224181175232
-2.4387149810791016 0.2309556007385254 -0.04275839403271675 13.0 7 -0.01878993771970272
-2.711416244506836 0.2606015205383301 -0.7298697233200073 9.0 0 -0.018766896799206734
-2.6155028343200684 0.2518443167209625 0.04586492106318474 87.0 8 -0.018764592707157135
-2.713690757751465 0.26177674531936646 -0.6294130682945251 9.0 1 -0.018762288615107536
-3.0217556953430176 0.2920258641242981 0.15910132229328156 2.0 9 -0.018759984523057938
-2.6830482482910156 0.2592928111553192 -0.5239615440368652 11.0 2 -0.01875768043100834
-2.647460699081421 0.2563205659389496 0.23270583152770996 1.0 10 -0.01875537633895874
-2.6916592121124268 0.26107391715049744 -0.4283176064491272 11.0 3 -0.01875307224690914
-3.1098883152008057 0.30218738317489624 0.3836447298526764 1.0 11 -0.018750770017504692
-2.6751697063446045 0.2604171335697174 -0.3300222158432007 11.0 4 -0.018748465925455093
-3.043445110321045 0.29680344462394714 0.4843211770057678 1.0 12 -0.018746161833405495
-2.6552133560180664 0.25894221663475037 -0.23340308666229248 11.0 5 -0.018743857741355896
-2.4548847675323486 0.24027079343795776 -0.1292698234319687 25.0 6 -0.0187392495572567
-2.477696418762207 0.24337664246559143 -0.04345649108290672 22.0 7 -0.0187346413731575
-9.599370956420898 0.9446085691452026 2.584567070007324 0.0 15 -0.018732337281107903
-2.6605091094970703 0.2650853097438812 -0.7164111733436584 9.0 0 -0.018711600452661514
-2.6662228107452393 0.266593873500824 -0.618615448474884 9.0 1 -0.018706992268562317
-3.0326945781707764 0.3032371401786804 0.15972934663295746 2.0 9 -0.018704690039157867
-2.627429246902466 0.26317867636680603 -0.513276219367981 11.0 2 -0.01870238594710827
-2.614830732345581 0.26237767934799194 0.22991684079170227 1.0 10 -0.01870008185505867
-2.633732795715332 0.264737993478775 -0.4192444086074829 12.0 3 -0.01869777776300907
-2.622892379760742 0.26457375288009644 -0.3236849904060364 12.0 4 -0.018693169578909874
-2.614647150039673 0.26420238614082336 -0.22991684079170227 12.0 5 -0.018688561394810677
-2.4778761863708496 0.25125643610954285 -0.1305258870124817 27.0 6 -0.01868395321071148
-2.532580614089966 0.25725001096725464 -0.044433824717998505 22.0 7 -0.018679345026612282
-9.596184730529785 0.9764364957809448 2.584567070007324 0.0 15 -0.018677040934562683
-2.609604835510254 0.2692163288593292 -0.7029525637626648 9.0 0 -0.018656305968761444
-2.947903633117676 0.30411645770072937 0.05172893404960632 6.0 8 -0.018654001876711845
-2.5994179248809814 0.2686232924461365 -0.6033187508583069 11.0 1 -0.018651697784662247
-3.0316176414489746 0.3138214647769928 0.15972934663295746 2.0 9 -0.018649393692612648
-2.5893919467926025 0.26850131154060364 -0.506025493144989 12.0 2 -0.01864708960056305
-2.570301055908203 0.266974538564682 0.2260819971561432 1.0 10 -0.01864478550851345
-2.5837202072143555 0.26836836338043213 -0.4114226996898651 12.0 3 -0.018642481416463852
-2.5943591594696045 0.2703893780708313 -0.32027265429496765 11.0 4 -0.018637873232364655
-2.578040838241577 0.2695983052253723 -0.2267792522907257 11.0 5 -0.018633265048265457
-2.469083547592163 0.25863975286483765 -0.13010719418525696 27.0 6 -0.01862865686416626
-2.5654759407043457 0.26964229345321655 -0.04502721130847931 20.0 7 -0.018624048680067062
-9.65035629272461 1.0159958600997925 2.6000962257385254 0.0 15 -0.018621744588017464
-2.5779616832733154 0.27459484338760376 -0.6946703195571899 10.0 0 -0.018601009622216225
-2.7937164306640625 0.298068642616272 0.0490412637591362 4.0 8 -0.018598705530166626
-2.551959276199341 0.2727254331111908 -0.5925211310386658 10.0 1 -0.018596401438117027
-3.034475803375244 0.3248278498649597 0.15993870794773102 2.0 9 -0.01859409734606743
-2.5474929809570312 0.27269840240478516 -0.4980114996433258 11.0 2 -0.01859179325401783
-2.5456295013427734 0.2729476988315582 0.22399026155471802 1.0 10 -0.01858948916196823
-2.5493786334991455 0.27379971742630005 -0.4061039388179779 12.0 3 -0.018587185069918633
-2.530242443084717 0.27263790369033813 -0.31247302889823914 12.0 4 -0.018582576885819435
-2.531572103500366 0.27322813868522644 -0.2227700799703598 13.0 5 -0.018577968701720238
-2.468165636062622 0.26725637912750244 -0.13010719418525696 30.0 6 -0.01857336051762104
-9.745014190673828 1.0569266080856323 2.263007640838623 1.0 14 -0.01857105642557144
-2.534698963165283 0.2753564417362213 -0.04450363665819168 17.0 7 -0.018568752333521843
-9.639068603515625 1.0488377809524536 2.5980255603790283 0.0 15 -0.018566448241472244
-2.5347418785095215 0.27894237637519836 -0.6832823157310486 9.0 0 -0.018545713275671005
-2.649547576904297 0.292044460773468 0.04652811586856842 3.0 8 -0.018543409183621407
-2.523874044418335 0.27863866090774536 -0.5862225294113159 11.0 1 -0.018541105091571808
-3.011486768722534 0.33300289511680603 0.1587873101234436 2.0 9 -0.01853880099952221
-2.505547046661377 0.27705731987953186 -0.4899975061416626 12.0 2 -0.01853649690747261
-2.4971344470977783 0.276568204164505 0.21980677545070648 1.0 10 -0.018534192815423012
-2.5071771144866943 0.27812403440475464 -0.3995336890220642 12.0 3 -0.018531888723373413
-2.489816904067993 0.27707740664482117 -0.3075982630252838 12.0 4 -0.018527280539274216
-2.5028810501098633 0.27897408604621887 -0.22032971680164337 13.0 5 -0.01852267235517502
-9.277640342712402 1.0357338190078735 1.8145935535430908 1.0 13 -0.01852036826312542
-2.447368860244751 0.2736509442329407 -0.12906047701835632 24.0 6 -0.01851806603372097
-9.741265296936035 1.0909368991851807 2.263007640838623 1.0 14 -0.01851576194167137
-2.480067014694214 0.27818357944488525 -0.04356120526790619 16.0 7 -0.018513457849621773
-9.643028259277344 1.0833410024642944 2.6000962257385254 0.0 15 -0.018511153757572174
-2.4915237426757812 0.2829921543598175 -0.6718943119049072 10.0 0 -0.018490416929125786
-2.582944869995117 0.29383257031440735 0.045376256108284 6.0 8 -0.018488112837076187
-2.4841620922088623 0.2830343246459961 -0.5772244930267334 11.0 1 -0.01848580874502659
-3.0142745971679688 0.34396588802337646 0.15899664163589478 2.0 9 -0.01848350465297699
-2.465552806854248 0.28134995698928833 -0.4823651611804962 12.0 2 -0.01848120056092739
-2.424891710281372 0.27713873982429504 0.21353155374526978 1.0 10 -0.018478896468877792
-2.461052179336548 0.2817066013813019 -0.3923376798629761 13.0 3 -0.018476592376828194
-25.216222763061523 2.8908567428588867 3.116442918777466 2.0 11 -0.018474288284778595
-2.453336000442505 0.2816915512084961 -0.30321094393730164 11.0 4 -0.018471986055374146
-2.4504289627075195 0.28179046511650085 -0.21579761803150177 12.0 5 -0.018467377871274948
-2.438462495803833 0.2812773883342743 -0.12864179909229279 20.0 6 -0.01846276968717575
-9.737398147583008 1.1249315738677979 2.263007640838623 1.0 14 -0.018460465595126152
-2.4413387775421143 0.28247207403182983 -0.042898017913103104 15.0 7 -0.018458161503076553
-9.662216186523438 1.1196659803390503 2.6063079833984375 0.0 15 -0.018455857411026955
-2.436796188354492 0.28539538383483887 -0.6574004292488098 10.0 0 -0.018435120582580566
-2.4667108058929443 0.28933537006378174 0.043351780623197556 1.0 8 -0.018432816490530968
-2.4521920680999756 0.28806623816490173 -0.5700260400772095 11.0 1 -0.01843051239848137
-2.3723599910736084 0.27910786867141724 0.12518762052059174 1.0 9 -0.01842820830643177
-2.4255597591400146 0.28536680340766907 -0.47473281621932983 12.0 2 -0.01842590421438217
-2.3645482063293457 0.27860721945762634 0.20830221474170685 1.0 10 -0.018423601984977722
-2.4227800369262695 0.2858971953392029 -0.38639315962791443 13.0 3 -0.018421297892928123
-2.432624578475952 0.2879198491573334 -0.300773561000824 11.0 4 -0.018416689708828926
-2.405902624130249 0.2851828634738922 -0.2119627594947815 12.0 5 -0.01841208152472973
-2.4235823154449463 0.28813639283180237 -0.1279090791940689 21.0 6 -0.01840747334063053
-9.733412742614746 1.1589148044586182 2.263007640838623 1.0 14 -0.018405169248580933
-2.396653652191162 0.2857838571071625 -0.042130108922719955 15.0 7 -0.018402865156531334
-9.623720169067383 1.1492635011672974 2.5969903469085693 0.0 15 -0.018400561064481735
-2.407015800476074 0.2904278635978699 -0.6496358513832092 12.0 0 -0.018379824236035347
-2.3465704917907715 0.2835506796836853 0.04125748947262764 13.0 8 -0.018377522006630898
-2.3970019817352295 0.2900690734386444 -0.557428777217865 15.0 1 -0.0183752179145813
-2.3793020248413086 0.28834789991378784 0.12560631334781647 58.0 9 -0.0183729138225317
-2.385568857192993 0.2891073524951935 -0.46710047125816345 21.0 2 -0.0183706097304821
-2.3497164249420166 0.285179078578949 0.20708204805850983 21.0 10 -0.018368305638432503
-2.390392541885376 0.2905391454696655 -0.38138729333877563 23.0 3 -0.018366001546382904
-2.3724894523620605 0.2892035245895386 -0.293461412191391 30.0 4 -0.018361393362283707
-2.383086919784546 0.2913395166397095 -0.21004533767700195 40.0 5 -0.01835678517818451
-2.3789479732513428 0.2912549376487732 -0.12560631334781647 69.0 6 -0.018352176994085312
-9.729308128356934 1.1928839683532715 2.263007640838623 1.0 14 -0.018349872902035713
-2.3658697605133057 0.29049253463745117 -0.041606537997722626 57.0 7 -0.018347568809986115
-9.638824462890625 1.185205340385437 2.6021668910980225 0.0 15 -0.018345264717936516
-2.4078521728515625 0.2994871139526367 -0.6501534581184387 32.0 0 -0.018324529752135277
-2.3495352268218994 0.2922336757183075 0.04132729768753052 74.0 8 -0.018322225660085678
-2.4075775146484375 0.2998790442943573 -0.5601281523704529 44.0 1 -0.01831992156803608
-2.3604440689086914 0.29442721605300903 0.12466426193714142 70.0 9 -0.01831761747598648
-2.396181583404541 0.2993096113204956 -0.4693901240825653 51.0 2 -0.018315313383936882
-2.3605170249938965 0.2952725291252136 0.20812790095806122 82.0 10 -0.018313009291887283
-2.3873515129089355 0.2990529239177704 -0.3810743987560272 50.0 3 -0.018310705199837685
-2.3832833766937256 0.29896584153175354 -0.2949238419532776 64.0 4 -0.018306097015738487
-2.370194435119629 0.2981642782688141 -0.20899945497512817 64.0 5 -0.01830148883163929
-2.377864360809326 0.29997286200523376 -0.12560631334781647 92.0 6 -0.018296880647540092
-2.3846805095672607 0.3012549579143524 -0.04195558279752731 96.0 7 -0.018292272463440895
-9.64612865447998 1.2202988862991333 2.6052727699279785 0.0 15 -0.018289968371391296
-2.4221222400665283 0.30985087156295776 -0.6542945504188538 31.0 0 -0.018269233405590057
-2.358365774154663 0.30211371183395386 0.04150182008743286 90.0 8 -0.01826692931354046
-2.4277241230010986 0.31142938137054443 -0.5650770664215088 50.0 1 -0.01826462522149086
-2.3594019412994385 0.30266499519348145 0.12466426193714142 50.0 9 -0.01826232112944126
-2.414594888687134 0.3101729154586792 -0.4732063114643097 58.0 2 -0.018260017037391663
-2.3574960231781006 0.30325692892074585 0.20795360207557678 70.0 10 -0.018257712945342064
-2.427435874938965 0.3126843273639679 -0.3876446485519409 65.0 3 -0.018255408853292465
-2.399890422821045 0.3099876940250397 -0.2971175014972687 60.0 4 -0.018250800669193268
-2.3829708099365234 0.3082250952720642 -0.21021965146064758 50.0 5 -0.01824619248509407
-2.3807642459869385 0.3087846338748932 -0.12581564486026764 51.0 6 -0.018241584300994873
-9.720521926879883 1.2624746561050415 2.263007640838623 1.0 14 -0.018239282071590424
-2.3677501678466797 0.307516872882843 -0.041676346212625504 47.0 7 -0.018236977979540825
-9.68012523651123 1.2589435577392578 2.6156253814697266 0.0 15 -0.018234673887491226
-2.564678430557251 0.33719053864479065 -0.6931174397468567 63.0 0 -0.018213937059044838
-3.021533250808716 0.39725542068481445 0.053194932639598846 44.0 8 -0.01821163296699524
-2.559990644454956 0.337029367685318 -0.596120297908783 71.0 1 -0.01820932887494564
-3.0414745807647705 0.4009571671485901 0.1607760637998581 32.0 9 -0.018207024782896042
-2.5575287342071533 0.3376128077507019 -0.5014460682868958 89.0 2 -0.018204720690846443
-2.565427780151367 0.33911168575286865 -0.4098583459854126 86.0 3 -0.018200112506747246
-2.540536403656006 0.3367237150669098 -0.31466665863990784 53.0 4 -0.01819550432264805
-2.699859619140625 0.3587988018989563 -0.23828379809856415 12.0 5 -0.018190898001194
-2.3995251655578613 0.3193124830722809 -0.12686236202716827 19.0 6 -0.018186289817094803
-9.716282844543457 1.2947026491165161 2.263007640838623 1.0 14 -0.018183985725045204
-2.994997262954712 0.3996178209781647 -0.052741169929504395 83.0 7 -0.018181681632995605
-9.683329582214355 1.29375159740448 2.6176958084106445 0.0 15 -0.018179377540946007
-2.5769476890563965 0.347500741481781 -0.6967409253120422 70.0 0 -0.01815864071249962
-3.016164779663086 0.4072657525539398 0.05312512442469597 47.0 8 -0.01815633662045002
-2.5703859329223633 0.34752941131591797 -0.5988197326660156 74.0 1 -0.01815403252840042
-3.049952745437622 0.4129113554954529 0.1612994372844696 33.0 9 -0.018151728436350822
-2.560286283493042 0.3466189205646515 -0.5022093057632446 86.0 2 -0.018149424344301224
-2.9614968299865723 0.40146300196647644 0.26146721839904785 2.0 10 -0.018147120252251625
-2.544654369354248 0.3454071283340454 -0.40672966837882996 79.0 3 -0.018144818022847176
-2.547213554382324 0.34666064381599426 -0.3156416416168213 60.0 4 -0.018140209838747978
-2.7618274688720703 0.37635859847068787 -0.24386176466941833 10.0 5 -0.01813560165464878
-2.4003748893737793 0.3279569149017334 -0.12696704268455505 19.0 6 -0.018130993470549583
-2.993584156036377 0.4100699722766876 -0.052741169929504395 69.0 7 -0.018126385286450386
-9.701722145080566 1.330695390701294 2.6239075660705566 0.0 15 -0.018124081194400787
-2.5795462131500244 0.3570236265659332 -0.6977761387825012 73.0 0 -0.0181033443659544
-3.028590202331543 0.41971251368522644 0.05336945876479149 45.0 8 -0.0181010402739048
-2.563366174697876 0.3556961417198181 -0.5974700450897217 66.0 1 -0.01809873804450035
-3.0603623390197754 0.4252043664455414 0.1619274616241455 31.0 9 -0.018096433952450752
-2.5629501342773438 0.3560943007469177 -0.5029725432395935 86.0 2 -0.018094129860401154
-2.985731840133667 0.41536641120910645 0.26373329758644104 2.0 10 -0.018091825768351555
-2.54343318939209 0.35428762435913086 -0.40672966837882996 75.0 3 -0.018089521676301956
-2.545988082885742 0.35555005073547363 -0.3156416416168213 60.0 4 -0.01808491349220276
-2.7526042461395264 0.3848932981491089 -0.243164524435997 9.0 5 -0.01808030530810356
-2.383392095565796 0.3341156542301178 -0.12612967193126678 20.0 6 -0.018075697124004364
-9.70700740814209 1.3625012636184692 2.263007640838623 1.0 14 -0.018073393031954765
-2.998075246810913 0.4213520586490631 -0.05284588783979416 72.0 7 -0.018071088939905167
-9.66258430480957 1.3597073554992676 2.6145899295806885 0.0 15 -0.018068784847855568
-2.576371669769287 0.3657543361186981 -0.6972585916519165 72.0 0 -0.01804804988205433
-3.0310659408569336 0.43084460496902466 0.053439266979694366 44.0 8 -0.01804574579000473
-3.045018196105957 0.43391215801239014 0.16119475662708282 29.0 9 -0.018041137605905533
-2.571409225463867 0.3664233684539795 -0.5048806071281433 82.0 2 -0.018038833513855934
-2.9665117263793945 0.4232533276081085 0.26216447353363037 2.0 10 -0.018036529421806335
-2.5656471252441406 0.3665160536766052 -0.41048407554626465 86.0 3 -0.018034225329756737
-2.5427663326263428 0.36415308713912964 -0.31539788842201233 63.0 4 -0.01802961714565754
-9.765154838562012 1.4002203941345215 1.5624676942825317 0.0 12 -0.01802731305360794
-2.7551190853118896 0.39554649591445923 -0.24351313710212708 9.0 5 -0.018025008961558342
-9.823528289794922 1.4103426933288574 1.9290790557861328 1.0 13 -0.018022704869508743
-2.3881421089172363 0.3432852327823639 -0.12644368410110474 18.0 6 -0.018020400777459145
-3.0104408264160156 0.4338112473487854 -0.05309021845459938 76.0 7 -0.018015792593359947
-9.692195892333984 1.398391604423523 2.6239075660705566 0.0 15 -0.01801348850131035
-2.5845720767974854 0.37658748030662537 -0.6998467445373535 67.0 0 -0.01799275353550911
-3.02954363822937 0.4414224624633789 0.053439266979694366 32.0 8 -0.01799044944345951
-3.0395326614379883 0.4439614415168762 0.16098542511463165 29.0 9 -0.017985841259360313
-2.5622785091400146 0.37470924854278564 -0.5033541321754456 78.0 2 -0.017983537167310715
-2.9787397384643555 0.43614456057548523 0.2633846402168274 2.0 10 -0.017981233075261116
-2.550605297088623 0.3739115297794342 -0.4082939922809601 71.0 3 -0.017978928983211517
-2.5355875492095947 0.37216201424598694 -0.31466665863990784 60.0 4 -0.01797432079911232
-9.779749870300293 1.4371733665466309 1.565596342086792 0.0 12 -0.01797201670706272
-2.761606454849243 0.4063207507133484 -0.2442103773355484 10.0 5 -0.017969712615013123
-2.3947713375091553 0.3532021939754486 -0.12686236202716827 21.0 6 -0.017965104430913925
-2.9990170001983643 0.4428557753562927 -0.05291569605469704 72.0 7 -0.017960496246814728
-9.733121871948242 1.438996434211731 2.636331081390381 0.0 15 -0.01795819401741028
-2.573688507080078 0.3841804265975952 -0.6972585916519165 72.0 0 -0.01793745718896389
-3.039771795272827 0.4542968273162842 0.0536486990749836 36.0 8 -0.01793515309691429
-3.0498158931732178 0.45634204149246216 0.16161344945430756 28.0 9 -0.017930544912815094
-2.559013843536377 0.3833596408367157 -0.5029725432395935 71.0 2 -0.017928240820765495
-2.981140375137329 0.44713011384010315 0.26373329758644104 2.0 10 -0.017925936728715897
-2.5785868167877197 0.38721272349357605 -0.41298702359199524 86.0 3 -0.017923632636666298
-2.5459845066070557 0.38322579860687256 -0.31612908840179443 58.0 4 -0.0179190244525671
-9.852808952331543 1.4830611944198608 1.5781110525131226 0.0 12 -0.017916720360517502
-2.7562310695648193 0.4153643846511841 -0.24386176466941833 9.0 5 -0.017914416268467903
-9.81318473815918 1.4806021451950073 1.9290790557861328 1.0 13 -0.017912114039063454
-2.3994486331939697 0.362453818321228 -0.12717638909816742 17.0 6 -0.017909809947013855
-3.0014076232910156 0.45391979813575745 -0.05298550799489021 72.0 7 -0.017905201762914658
-9.728039741516113 1.4729652404785156 2.636331081390381 0.0 15 -0.01790289767086506
-2.572331666946411 0.3931626081466675 -0.6972585916519165 24.0 0 -0.01788216084241867
-3.032318353652954 0.4634683132171631 0.05354398116469383 31.0 8 -0.017879856750369072
-3.0600497722625732 0.4687992036342621 0.16224147379398346 27.0 9 -0.017875248566269875
-2.989408016204834 0.4590456187725067 0.2646048367023468 3.0 10 -0.017870640382170677
-2.553858518600464 0.39216381311416626 -0.40923261642456055 81.0 3 -0.01786833629012108
-2.5427374839782715 0.39136457443237305 -0.31588536500930786 63.0 4 -0.01786372996866703
-2.7547643184661865 0.4249829649925232 -0.24386176466941833 9.0 5 -0.017859121784567833
-2.398233413696289 0.3704087734222412 -0.12717638909816742 19.0 6 -0.017854513600468636
-3.0037569999694824 0.4650065302848816 -0.05305531620979309 72.0 7 -0.017849905416369438
-9.722838401794434 1.5069113969802856 2.636331081390381 0.0 15 -0.01784760132431984
-3.016852378845215 0.47188711166381836 0.05329965054988861 28.0 8 -0.017824560403823853
-2.4605045318603516 0.38530418276786804 -0.5749749541282654 1.0 1 -0.017822256311774254
-3.0623409748077393 0.480096697807312 0.16245082020759583 27.0 9 -0.017819952219724655
-2.476822853088379 0.38830244541168213 -0.4873262047767639 1.0 2 -0.017817649990320206
-2.98590087890625 0.46864748001098633 0.26443052291870117 2.0 10 -0.017815345898270607
-2.5466198921203613 0.4001561999320984 -0.4082939922809601 62.0 3 -0.01781304180622101
-2.5511608123779297 0.40178221464157104 -0.3171040713787079 60.0 4 -0.01780843362212181
-2.745391845703125 0.43335381150245667 -0.243164524435997 9.0 5 -0.017803825438022614
-2.3949532508850098 0.3784662187099457 -0.12707172334194183 18.0 6 -0.017799217253923416
-3.0100157260894775 0.47673937678337097 -0.053194932639598846 72.0 7 -0.01779460906982422
-9.717519760131836 1.5408414602279663 2.636331081390381 0.0 15 -0.01779230497777462
-2.435992956161499 0.38974636793136597 -0.6610238552093506 1.0 0 -0.01777157001197338
-3.0151870250701904 0.4824144244194031 0.05329965054988861 26.0 8 -0.017769265919923782
-2.459144353866577 0.3938906490802765 -0.5749749541282654 1.0 1 -0.017766961827874184
-3.0606462955474854 0.4907841384410858 0.16245082020759583 27.0 9 -0.017764657735824585
-2.978261709213257 0.4786391258239746 0.2639075815677643 2.0 10 -0.017760049551725388
-2.541903257369995 0.409422367811203 -0.31612908840179443 57.0 4 -0.01775313727557659
-2.737961769104004 0.4419819116592407 -0.24264158308506012 9.0 5 -0.017748529091477394
-2.3876349925994873 0.386284738779068 -0.1267576962709427 17.0 6 -0.017743920907378197
-3.0103073120117188 0.48756322264671326 -0.05322984233498573 69.0 7 -0.017739312723279
-2.4651219844818115 0.4032370448112488 -0.6693060994148254 1.0 0 -0.01771627366542816
-3.0252389907836914 0.49540215730667114 0.05350907891988754 27.0 8 -0.017713969573378563
-2.419222593307495 0.39659664034843445 -0.5659768581390381 2.0 1 -0.017711665481328964
-3.0549726486206055 0.50081866979599 0.16224147379398346 27.0 9 -0.017709361389279366
-2.4042365550994873 0.39457014203071594 -0.4735879600048065 1.0 2 -0.017707057297229767
-2.982470989227295 0.4900020658969879 0.26443052291870117 2.0 10 -0.017704753205180168
-2.454028606414795 0.403622031211853 -0.3939020335674286 1.0 3 -0.01770244911313057
-2.5403854846954346 0.41873621940612793 -0.31612908840179443 57.0 4 -0.017697840929031372
-2.74426531791687 0.45283401012420654 -0.24333882331848145 8.0 5 -0.017693232744932175
-2.398094892501831 0.3965719938278198 -0.1273857206106186 19.0 6 -0.017688624560832977
-3.0026683807373047 0.4970884621143341 -0.05312512442469597 67.0 7 -0.01768401637673378
-2.467510223388672 0.4124765694141388 -0.6703413724899292 1.0 0 -0.017660977318882942
-3.037385940551758 0.5077387690544128 0.05375341325998306 24.0 8 -0.017658673226833344
-3.0650248527526855 0.513458788394928 0.16286951303482056 22.0 9 -0.017654065042734146
-2.4028444290161133 0.4029601514339447 -0.4735879600048065 1.0 2 -0.017651760950684547
-2.9827070236206055 0.5007398724555969 0.2646048367023468 2.0 10 -0.01764945685863495
-2.5111196041107178 0.421569287776947 -0.4032880961894989 1.0 3 -0.01764715276658535
-2.542898178100586 0.4278169274330139 -0.31661656498908997 57.0 4 -0.017642544582486153
-2.7269508838653564 0.45976006984710693 -0.2419443279504776 9.0 5 -0.017637936398386955
-2.3967666625976562 0.40452226996421814 -0.1273857206106186 17.0 6 -0.017633330076932907
-2.994999885559082 0.5065655708312988 -0.0530204102396965 63.0 7 -0.01762872189283371
-2.4051895141601562 0.4102622866630554 -0.6537768840789795 1.0 0 -0.017605680972337723
-3.0237679481506348 0.5163193941116333 0.05354398116469383 23.0 8 -0.017603376880288124
-2.4548847675323486 0.41962090134620667 -0.5749749541282654 1.0 1 -0.017601072788238525
-3.0711801052093506 0.5249661207199097 0.1632881909608841 22.0 9 -0.017598768696188927
-2.9790663719177246 0.5102918148040771 0.26443052291870117 2.0 10 -0.01759416051208973
-2.4823756217956543 0.4256577491760254 -0.39890795946121216 1.0 3 -0.01759185642004013
-2.549215078353882 0.4380354881286621 -0.3175915479660034 57.0 4 -0.017587248235940933
-2.7214839458465576 0.46812501549720764 -0.24159571528434753 8.0 5 -0.017582641914486885
-2.40714955329895 0.41492176055908203 -0.1280137598514557 15.0 6 -0.017578033730387688
-3.0011861324310303 0.5178548097610474 -0.05316003039479256 63.0 7 -0.01757342554628849
-3.0141592025756836 0.5249699354171753 0.05340436473488808 22.0 8 -0.017548080533742905
-2.3459718227386475 0.40901559591293335 -0.5497803688049316 2.0 1 -0.017545776441693306
-3.0712966918945312 0.5360267758369446 0.16339287161827087 22.0 9 -0.017543472349643707
-2.4000461101531982 0.41930651664733887 -0.4735879600048065 1.0 2 -0.017541170120239258
-2.9890425205230713 0.5227463841438293 0.26547640562057495 2.0 10 -0.01753886416554451
-2.551659107208252 0.44717198610305786 -0.31807902455329895 57.0 4 -0.017531953752040863
-2.731607675552368 0.47968965768814087 -0.24264158308506012 9.0 5 -0.017527345567941666
-2.4057602882385254 0.42290198802948 -0.1280137598514557 19.0 6 -0.017522737383842468
-3.0032989978790283 0.5290216207504272 -0.05322984233498573 57.0 7 -0.01751812919974327
-3.0240273475646973 0.5381166338920593 0.05361378937959671 20.0 8 -0.01749189756810665
-2.4020135402679443 0.42786362767219543 -0.5632774829864502 1.0 1 -0.017489593476057053
-3.071277379989624 0.5476307272911072 0.16349753737449646 23.0 9 -0.017487289384007454
-2.9852383136749268 0.5328269004821777 0.26530206203460693 2.0 10 -0.017482681199908257
-2.542186975479126 0.4551214277744293 -0.3171040713787079 54.0 4 -0.01747576892375946
-2.725994348526001 0.48851901292800903 -0.24229297041893005 8.0 5 -0.017471160739660263
-2.3963310718536377 0.4303041994571686 -0.12759508192539215 18.0 6 -0.017466554418206215
-3.0052759647369385 0.5407339334487915 -0.05329965054988861 58.0 7 -0.017461946234107018
-2.3893563747406006 0.4333581328392029 -0.650671124458313 1.0 0 -0.01743890531361103
-3.0240979194641113 0.5490264296531677 0.0536486990749836 15.0 8 -0.017436601221561432
-2.4503560066223145 0.44530510902404785 -0.5749749541282654 1.0 1 -0.017434297129511833
-3.0634520053863525 0.5572758316993713 0.1631835252046585 21.0 9 -0.017431993037462234
-2.3970601558685303 0.43605178594589233 -0.4735879600048065 1.0 2 -0.017429688945412636
-2.9970812797546387 0.5457426309585571 0.26652225852012634 2.0 10 -0.017427384853363037
-2.5444884300231934 0.4647059142589569 -0.3175915479660034 54.0 4 -0.01742047443985939
-3.58709716796875 0.6557669043540955 0.5775561332702637 1.0 12 -0.01741817034780979
-2.7203526496887207 0.497314989566803 -0.2419443279504776 8.0 5 -0.017415866255760193
-3.5862133502960205 0.6562521457672119 0.7086646556854248 1.0 13 -0.017413562163710594
-2.4085662364959717 0.44118532538414 -0.12832777202129364 18.0 6 -0.017411258071660995
-3.565223455429077 0.6536972522735596 0.8368179798126221 1.0 14 -0.017408953979611397
-2.9955027103424072 0.5497772097587585 -0.05316003039479256 34.0 7 -0.017406649887561798
-3.545499563217163 0.6513600945472717 0.9659126996994019 2.0 15 -0.0174043457955122
-3.022163152694702 0.5595785975456238 0.0536486990749836 13.0 8 -0.017381304875016212
-2.448786735534668 0.4538557827472687 -0.5749749541282654 1.0 1 -0.017379000782966614
-3.069343328475952 0.569423258304596 0.16360221803188324 21.0 9 -0.017376698553562164
-2.3955235481262207 0.44441649317741394 -0.4735879600048065 1.0 2 -0.017374394461512566
-2.9912405014038086 0.5554729700088501 0.2661736309528351 3.0 10 -0.017372090369462967
-3.464087963104248 0.6445324420928955 0.43263620138168335 2.0 11 -0.01736748218536377
-2.5545599460601807 0.47576576471328735 -0.3190539479255676 53.0 4 -0.01736517809331417
-3.4993414878845215 0.6523554921150208 0.5637898445129395 2.0 12 -0.017362874001264572
-2.722517251968384 0.5075381398200989 -0.24229297041893005 8.0 5 -0.017360569909214973
-3.4951233863830566 0.6522002816200256 0.6911102533340454 1.0 13 -0.017358265817165375
-2.4070115089416504 0.44959017634391785 -0.12832777202129364 21.0 6 -0.017355961725115776
-3.486297607421875 0.6518127918243408 0.8188218474388123 1.0 14 -0.017353657633066177
-3.4824419021606445 0.6523508429527283 0.9493483304977417 4.0 15 -0.01734904944896698
-2.416646957397461 0.45575612783432007 -0.6589533090591431 1.0 0 -0.01732831448316574
-3.012331485748291 0.5686416029930115 0.05350907891988754 12.0 8 -0.017326010391116142
-2.4471874237060547 0.46240097284317017 -0.5749749541282654 1.0 1 -0.017323706299066544
-3.0712618827819824 0.5808754563331604 0.1638115644454956 21.0 9 -0.017321402207016945
-2.413248300552368 0.45642369985580444 -0.4774041175842285 1.0 2 -0.017319098114967346
-2.9971134662628174 0.5673941373825073 0.2668708562850952 4.0 10 -0.017316794022917747
-3.547631025314331 0.6728963851928711 0.44336071610450745 2.0 11 -0.01731218583881855
-2.556784152984619 0.4854205548763275 -0.31954145431518555 50.0 4 -0.01730988174676895
-3.3107411861419678 0.6291624307632446 0.5337544679641724 2.0 12 -0.017307577654719353
-2.7246437072753906 0.5177823901176453 -0.24264158308506012 8.0 5 -0.017305273562669754
-3.143735647201538 0.5979929566383362 0.6220373511314392 2.0 13 -0.017302969470620155
-2.421123743057251 0.46097806096076965 -0.1291651576757431 23.0 6 -0.017300665378570557
-3.085829734802246 0.5880951881408691 0.7252422571182251 1.0 14 -0.017298361286520958
-3.041804790496826 0.5808053016662598 0.8297739028930664 13.0 15 -0.01729375310242176
-2.3846874237060547 0.45835480093955994 -0.650671124458313 1.0 0 -0.01727301813662052
-3.00836443901062 0.5787753462791443 0.053474172949790955 11.0 8 -0.017270714044570923
-2.445558547973633 0.4709399342536926 -0.5749749541282654 1.0 1 -0.017268409952521324
-3.0850086212158203 0.5940784811973572 0.16464893519878387 19.0 9 -0.017266105860471725
-2.4617624282836914 0.47450584173202515 -0.4873262047767639 1.0 2 -0.017263801768422127
-3.034241199493408 0.5854013562202454 0.2703571021556854 7.0 10 -0.017261497676372528
-3.0560574531555176 0.5907168984413147 0.3821823000907898 12.0 11 -0.01725688949227333
-2.566767692565918 0.49660491943359375 -0.32100388407707214 51.0 4 -0.017254585400223732
-3.0662100315093994 0.5932344794273376 0.4946458339691162 31.0 12 -0.017252281308174133
-2.7228198051452637 0.5272894501686096 -0.24264158308506012 8.0 5 -0.017249977216124535
-3.041405439376831 0.5895367860794067 0.6021932363510132 30.0 13 -0.017247673124074936
-2.4057750701904297 0.46676379442214966 -0.12843245267868042 25.0 6 -0.017245369032025337
-3.0627152919769287 0.594775915145874 0.7202933430671692 42.0 14 -0.01724306493997574
-3.0171055793762207 0.5864658355712891 0.8235622644424438 34.0 15 -0.01723845675587654
-3.0083911418914795 0.5891327857971191 0.05350907891988754 9.0 8 -0.017215417698025703
-3.0750765800476074 0.6033055782318115 0.16423025727272034 19.0 9 -0.017210809513926506
-3.059548854827881 0.601368248462677 0.27279746532440186 28.0 10 -0.01720620132982731
-3.0501863956451416 0.6000809073448181 0.38169482350349426 36.0 11 -0.01720159314572811
-2.5651066303253174 0.5051140189170837 -0.32100388407707214 47.0 4 -0.017199289053678513
-3.0641207695007324 0.6039332747459412 0.4946458339691162 45.0 12 -0.017196984961628914
-2.707279682159424 0.5340913534164429 -0.2414214164018631 8.0 5 -0.017194680869579315
-3.0375075340270996 0.5992386341094971 0.6018115878105164 42.0 13 -0.017192376777529716
-2.400294780731201 0.4739653170108795 -0.12822310626506805 24.0 6 -0.017190074548125267
-3.0454318523406982 0.6019063591957092 0.7166941165924072 35.0 14 -0.01718777045607567
-2.711040735244751 0.5363088250160217 -0.04823845252394676 1.0 7 -0.01718546636402607
-3.022620439529419 0.5984948873519897 0.8256327509880066 33.0 15 -0.01718316227197647
-2.438350200653076 0.48590266704559326 -0.6662002205848694 1.0 0 -0.017162425443530083
-3.012199640274048 0.6008031368255615 0.05361378937959671 10.0 8 -0.017160121351480484
-3.0690345764160156 0.6132540106773376 0.16402089595794678 19.0 9 -0.017155513167381287
-2.3891682624816895 0.4774032235145569 -0.4735879600048065 1.0 2 -0.017153209075331688
-3.0692598819732666 0.6138553619384766 0.27384334802627563 27.0 10 -0.01715090498328209
-3.0675370693206787 0.6146251559257507 0.3841322064399719 50.0 11 -0.017146296799182892
-2.5555427074432373 0.5125029683113098 -0.3200289309024811 49.0 4 -0.017143994569778442
-3.0484366416931152 0.6119042038917542 0.49245578050613403 30.0 12 -0.017141690477728844
-2.7172141075134277 0.5454187989234924 -0.2424672693014145 7.0 5 -0.017139386385679245
-3.046945810317993 0.6121588945388794 0.604101300239563 32.0 13 -0.017137082293629646
-2.4064583778381348 0.4839155375957489 -0.12864179909229279 24.0 6 -0.017134778201580048
-3.014655828475952 0.6067655682563782 0.709945559501648 28.0 14 -0.01713247410953045
-2.7013111114501953 0.5441892743110657 -0.04809883236885071 31.0 7 -0.01713017001748085
-3.0129377841949463 0.6075148582458496 0.8235622644424438 35.0 15 -0.01712786592543125
-2.3798413276672363 0.48288649320602417 -0.650671124458313 1.0 0 -0.017107129096984863
-3.0198824405670166 0.6133041381835938 0.05378831923007965 9.0 8 -0.017104825004935265
-2.440579414367676 0.49609771370887756 -0.5749749541282654 1.0 1 -0.017102520912885666
-3.0825326442718506 0.6271480321884155 0.16485828161239624 20.0 9 -0.017100216820836067
-2.4567458629608154 0.49983033537864685 -0.4873262047767639 1.0 2 -0.01709791272878647
-3.049527406692505 0.6209873557090759 0.27227452397346497 38.0 10 -0.01709561049938202
-3.026472330093384 0.6173927783966064 0.3792574405670166 46.0 11 -0.01709100231528282
-2.569298028945923 0.5245974659919739 -0.3219788372516632 45.0 4 -0.017088698223233223
-3.03079891204834 0.6193781495094299 0.48995280265808105 41.0 12 -0.017086394131183624
-2.691869020462036 0.5501139760017395 -0.24037553369998932 7.0 5 -0.017084090039134026
-3.039020299911499 0.6216100454330444 0.6029564738273621 37.0 13 -0.017081785947084427
-2.416494369506836 0.49471616744995117 -0.1292698234319687 23.0 6 -0.017079481855034828
-3.0258827209472656 0.6200240850448608 0.7130948901176453 30.0 14 -0.01707717776298523
-3.022153377532959 0.620358407497406 0.8266680836677551 33.0 15 -0.017072569578886032
-3.0059733390808105 0.6214128136634827 0.05357888713479042 9.0 8 -0.017049530521035194
-2.438832998275757 0.504613995552063 -0.5749749541282654 1.0 1 -0.017047226428985596
-3.0842361450195312 0.6387143731117249 0.1650676131248474 21.0 9 -0.017044922336935997
-3.0453903675079346 0.6312241554260254 0.2721002399921417 34.0 10 -0.0170403141528368
-3.057340383529663 0.6348141431808472 0.38340097665786743 40.0 11 -0.017035705968737602
-2.5791122913360596 0.5359862446784973 -0.3234412670135498 43.0 4 -0.017033401876688004
-3.067298173904419 0.6379992961883545 0.4962101876735687 36.0 12 -0.017031097784638405
-2.6860313415527344 0.5586956143379211 -0.24002692103385925 7.0 5 -0.017028793692588806
-3.069506883621216 0.63901686668396 0.6094439625740051 41.0 13 -0.017026489600539207
-2.410842180252075 0.5023335814476013 -0.12906047701835632 24.0 6 -0.01702418550848961
-3.082838773727417 0.6429158449172974 0.7270418405532837 41.0 14 -0.01702188141644001
-3.048334836959839 0.6368305683135986 0.8344326615333557 38.0 15 -0.017017273232340813
-3.003786087036133 0.631901204586029 0.05357888713479042 9.0 8 -0.016994234174489975
-3.0937139987945557 0.6519476175308228 0.1656956523656845 21.0 9 -0.016989625990390778
-3.0880072116851807 0.6513071656227112 0.27610939741134644 31.0 10 -0.01698501780629158
-3.101719379425049 0.6553309559822083 0.3892507255077362 53.0 11 -0.016980409622192383
-2.584994316101074 0.5466292500495911 -0.32441622018814087 43.0 4 -0.016978105530142784
-3.1056365966796875 0.6572909951210022 0.5027804374694824 48.0 12 -0.016975801438093185
-2.6879632472991943 0.5688927173614502 -0.24037553369998932 7.0 5 -0.016973497346043587
-3.097987413406372 0.6562370657920837 0.6155498623847961 48.0 13 -0.016971193253993988
-2.3993046283721924 0.5086753964424133 -0.128537118434906 22.0 6 -0.01696888916194439
-3.1015453338623047 0.6581218838691711 0.7319908142089844 46.0 14 -0.01696658506989479
-3.0612103939056396 0.6506807208061218 0.8385737538337708 40.0 15 -0.016961976885795593
-3.021116018295288 0.646568238735199 0.053927935659885406 9.0 8 -0.016938937827944756
-3.0875136852264404 0.6619047522544861 0.16548630595207214 22.0 9 -0.016934329643845558
-3.1032471656799316 0.6658449769020081 0.2776781916618347 32.0 10 -0.01692972145974636
-3.0994131565093994 0.6661533117294312 0.3892507255077362 53.0 11 -0.016925113275647163
-2.575307607650757 0.5539788007736206 -0.3234412670135498 42.0 4 -0.016922809183597565
-3.1052544116973877 0.6685435771942139 0.5030933022499084 47.0 12 -0.016920505091547966
-2.6858601570129395 0.5787401795387268 -0.24037553369998932 7.0 5 -0.016918200999498367
-3.0918400287628174 0.6662193536758423 0.6147866249084473 50.0 13 -0.01691589690744877
-2.4072766304016113 0.5191522240638733 -0.12906047701835632 24.0 6 -0.01691359281539917
-3.0763707160949707 0.6640105843544006 0.7265920042991638 36.0 14 -0.01691129058599472
-3.0551440715789795 0.6605451703071594 0.8375384211540222 37.0 15 -0.016906682401895523
-3.014932870864868 0.6562594175338745 0.05385812744498253 9.0 8 -0.016883641481399536
-3.085184335708618 0.6726790070533752 0.16548630595207214 21.0 9 -0.01687903329730034
-3.1046788692474365 0.6780640482902527 0.278026819229126 34.0 10 -0.01687442511320114
-3.0970687866210938 0.676969051361084 0.3892507255077362 53.0 11 -0.016869816929101944
-2.5675408840179443 0.5616922974586487 -0.3227100670337677 40.0 4 -0.016867512837052345
-3.0932533740997314 0.6772656440734863 0.5015289187431335 43.0 12 -0.016865208745002747
-2.7052319049835205 0.5928040146827698 -0.24229297041893005 6.0 5 -0.016862906515598297
-3.09512996673584 0.6788095831871033 0.6159314513206482 35.0 13 -0.0168606024235487
-2.417062759399414 0.5305411219596863 -0.12968851625919342 24.0 6 -0.0168582983314991
-3.0605926513671875 0.6723546981811523 0.7234426140785217 36.0 14 -0.0168559942394495
-3.0452725887298584 0.6695463061332703 0.8354679346084595 38.0 15 -0.016851386055350304
-2.2615597248077393 0.5005471110343933 -0.6206480860710144 1.0 0 -0.016830649226903915
-3.0261740684509277 0.6703319549560547 0.05410246178507805 9.0 8 -0.016828345134854317
-3.092566967010498 0.6856057643890381 0.16600966453552246 22.0 9 -0.01682373695075512
-3.0711731910705566 0.6819868087768555 0.2752378284931183 36.0 10 -0.016819128766655922
-3.0616250038146973 0.6809887886047363 0.385107159614563 46.0 11 -0.016814522445201874
-2.5674021244049072 0.5715304017066956 -0.3229537904262543 39.0 4 -0.016812218353152275
-3.0561630725860596 0.68033367395401 0.4958972930908203 40.0 12 -0.016809914261102676
-2.6914775371551514 0.599643886089325 -0.24124708771705627 7.0 5 -0.016807610169053078
-3.06783127784729 0.6840550303459167 0.6109704375267029 38.0 13 -0.01680530607700348
-2.4132463932037354 0.5385399460792542 -0.12958383560180664 22.0 6 -0.01680300198495388
-3.0544230937957764 0.6821845769882202 0.7225428223609924 45.0 14 -0.01680069789290428
-3.025949001312256 0.6763795018196106 0.8308091163635254 41.0 15 -0.016796089708805084
-2.235297441482544 0.5029258728027344 -0.6139188408851624 3.0 0 -0.016775352880358696
-3.0161309242248535 0.6786077618598938 0.053962841629981995 8.0 8 -0.016773048788309097
-3.0940518379211426 0.6972741484642029 0.16621901094913483 23.0 9 -0.01676844246685505
-3.0687737464904785 0.692703902721405 0.2752378284931183 36.0 10 -0.016763834282755852
-3.072904109954834 0.6941998600959778 0.38681334257125854 46.0 11 -0.016759226098656654
-2.5732381343841553 0.5817916393280029 -0.32392874360084534 39.0 4 -0.016756922006607056
-3.059549570083618 0.6923054456710815 0.4968359172344208 36.0 12 -0.016754617914557457
-2.6660497188568115 0.6037546396255493 -0.2391553521156311 5.0 5 -0.01675231382250786
-3.061716318130493 0.6933574676513672 0.610207200050354 38.0 13 -0.01675000973045826
-2.4153430461883545 0.5474220514297485 -0.129793182015419 21.0 6 -0.01674770563840866
-3.0559451580047607 0.6931719183921814 0.7234426140785217 41.0 14 -0.016745401546359062
-3.023569345474243 0.6869380474090576 0.8308091163635254 49.0 15 -0.016740793362259865
-2.261867046356201 0.5167901515960693 -0.6216834187507629 1.0 0 -0.016720058396458626
-3.0098447799682617 0.6882404685020447 0.05389302968978882 8.0 8 -0.016717754304409027
-3.1013331413269043 0.7102996706962585 0.16674236953258514 24.0 9 -0.01671314612030983
-3.06840181350708 0.7033209800720215 0.2754121422767639 37.0 10 -0.016708537936210632
-2.59346866607666 0.594936728477478 -0.42143452167510986 1.0 3 -0.016706233844161034
-3.062723159790039 0.7031446695327759 0.3858383595943451 51.0 11 -0.016703929752111435
-2.5866687297821045 0.5943272113800049 -0.32587864995002747 39.0 4 -0.016701625660061836
-3.0705902576446533 0.7060799598693848 0.49902600049972534 43.0 12 -0.016699321568012238
-2.6716928482055664 0.614844024181366 -0.23985259234905243 5.0 5 -0.01669701747596264
-3.0458850860595703 0.7009578943252563 0.6075358986854553 45.0 13 -0.01669471338391304
-2.405632257461548 0.5540574789047241 -0.12937450408935547 7.0 6 -0.01669240929186344
-3.074395179748535 0.7086498737335205 0.7283915877342224 56.0 14 -0.016690105199813843
-2.6188135147094727 0.6041187047958374 -0.046912070363759995 1.0 7 -0.016687801107764244
-3.0268001556396484 0.6987918615341187 0.8323620557785034 53.0 15 -0.016685497015714645
-3.0230062007904053 0.7023637890815735 0.054172269999980927 7.0 8 -0.016662457957863808
-3.08910870552063 0.7188577651977539 0.16621901094913483 27.0 9 -0.01665784977376461
-3.069683790206909 0.7154670357704163 0.2757607400417328 38.0 10 -0.016653241589665413
-2.591270923614502 0.6044377088546753 -0.42143452167510986 26.0 3 -0.016650937497615814
-3.069915771484375 0.7160860300064087 0.3870570659637451 57.0 11 -0.016648633405566216
-2.57684588432312 0.6015477180480957 -0.3249036967754364 37.0 4 -0.016646329313516617
-3.070030689239502 0.7172427773475647 0.49933886528015137 51.0 12 -0.016644025221467018
-2.690871238708496 0.6291560530662537 -0.24177002906799316 5.0 5 -0.01664172112941742
-3.054764747619629 0.7148014903068542 0.6098255515098572 45.0 13 -0.01663941703736782
-2.419142723083496 0.5665134787559509 -0.13021187484264374 25.0 6 -0.016637112945318222
-3.049009323120117 0.7145773768424988 0.7229927778244019 51.0 14 -0.016634808853268623
-3.028104305267334 0.7102355360984802 0.833397388458252 54.0 15 -0.016630202531814575
-2.284433603286743 0.5391751527786255 -0.6289302706718445 1.0 0 -0.016609465703368187
-3.020411968231201 0.7134382724761963 0.054172269999980927 8.0 8 -0.016607161611318588
-3.082693099975586 0.7287182807922363 0.16600966453552246 29.0 9 -0.01660255342721939
-3.0788004398345947 0.7289321422576904 0.27680662274360657 38.0 10 -0.016597945243120193
-2.5968337059020996 0.6153016686439514 -0.42268598079681396 29.0 3 -0.016595641151070595
-3.059544563293457 0.7255010008811951 0.38608211278915405 55.0 11 -0.016593337059020996
-2.57076096534729 0.610071063041687 -0.32441622018814087 34.0 4 -0.016591032966971397
-3.0675082206726074 0.7279549241065979 0.49933886528015137 50.0 12 -0.0165887288749218
-3.0656213760375977 0.7286375164985657 0.6124969124794006 48.0 13 -0.01658412255346775
-2.432694911956787 0.5786519646644592 -0.131049245595932 31.0 6 -0.016581818461418152
-3.044600486755371 0.7247648239135742 0.7225428223609924 52.0 14 -0.016579514369368553
-3.029365301132202 0.7216960191726685 0.8344326615333557 55.0 15 -0.016574906185269356
-2.229935884475708 0.5345370173454285 -0.6144364476203918 3.0 0 -0.016554169356822968
-3.0296971797943115 0.7262474298477173 0.05438169836997986 7.0 8 -0.01655186526477337
-3.084014654159546 0.7404062747955322 0.16621901094913483 28.0 9 -0.01654725708067417
-3.0801117420196533 0.7406063675880432 0.2771552503108978 38.0 10 -0.016542648896574974
-2.59285831451416 0.6234472990036011 -0.42237308621406555 15.0 3 -0.016540344804525375
-3.0725622177124023 0.7393583655357361 0.38803204894065857 56.0 11 -0.016538042575120926
-2.5918827056884766 0.6241698265075684 -0.32734107971191406 7.0 4 -0.016535738483071327
-3.068789482116699 0.7395845055580139 0.4999645948410034 46.0 12 -0.01653343439102173
-2.661234140396118 0.6418536901473999 -0.23950397968292236 3.0 5 -0.01653113029897213
-3.065096855163574 0.7392598986625671 0.6128785014152527 42.0 13 -0.01652882620692253
-2.428821086883545 0.5862473845481873 -0.13094457983970642 31.0 6 -0.016526522114872932
-3.047863245010376 0.7362299561500549 0.7238925695419312 46.0 14 -0.016524218022823334
-3.026827573776245 0.7322661876678467 0.8344326615333557 54.0 15 -0.016519609838724136
-2.2656936645507812 0.551059901714325 -0.6247891783714294 1.0 0 -0.016498873010277748
-3.031029462814331 0.7377637624740601 0.054451506584882736 8.0 8 -0.01649656891822815
-2.540912389755249 0.6189378499984741 -0.6037686467170715 1.0 1 -0.01649426482617855
-3.0930542945861816 0.7540051937103271 0.16684705018997192 29.0 9 -0.016491960734128952
-3.0698964595794678 0.7489275932312012 0.2764580249786377 38.0 10 -0.016487354412674904
-2.5906662940979004 0.6324943900108337 -0.42237308621406555 42.0 3 -0.016485050320625305
-3.073819160461426 0.7510214447975159 0.3885194957256317 55.0 11 -0.016482746228575706
-2.5935449600219727 0.6341564059257507 -0.3278285562992096 27.0 4 -0.016480442136526108
-3.0757827758789062 0.7526389956474304 0.5015289187431335 53.0 12 -0.01647813804447651
-2.6610264778137207 0.651148796081543 -0.239678293466568 5.0 5 -0.01647583395242691
-3.062497615814209 0.7499546408653259 0.6128785014152527 45.0 13 -0.01647352986037731
-2.438399076461792 0.5975744128227234 -0.13157260417938232 34.0 6 -0.016471225768327713
-3.0528454780578613 0.7487205862998962 0.7256921529769897 55.0 14 -0.016468921676278114
-2.6101233959198 0.640624463558197 -0.046912070363759995 1.0 7 -0.016466617584228516
-3.020500898361206 0.7419065237045288 0.833397388458252 55.0 15 -0.016464313492178917
-3.0206706523895264 0.7464208602905273 0.05431189015507698 8.0 8 -0.01644127443432808
-3.09428071975708 0.7657570838928223 0.1670563817024231 29.0 9 -0.016436666250228882
-3.0749993324279785 0.7615541815757751 0.2771552503108978 38.0 10 -0.016432058066129684
-2.590360164642334 0.6420089602470398 -0.42268598079681396 41.0 3 -0.016429753974080086
-3.0692522525787354 0.7612687349319458 0.38827574253082275 53.0 11 -0.016427449882030487
-2.602875232696533 0.6460751295089722 -0.3292909860610962 37.0 4 -0.01642514578998089
-3.075054168701172 0.7638472318649292 0.5018418431282043 47.0 12 -0.01642284169793129
-2.6587371826171875 0.6604335904121399 -0.239678293466568 5.0 5 -0.01642053760588169
-3.054145574569702 0.7592194080352783 0.6117336750030518 41.0 13 -0.016418233513832092
-2.43048357963562 0.6046358942985535 -0.13125859200954437 36.0 6 -0.016415929421782494
-3.0653414726257324 0.7631387710571289 0.7292913794517517 57.0 14 -0.016413625329732895
-2.6078715324401855 0.6497316360473633 -0.046912070363759995 1.0 7 -0.016411321237683296
-3.021641731262207 0.7533795833587646 0.8344326615333557 55.0 15 -0.016409017145633698
