# .PCD v0.7 - Point Cloud Data file format
VERSION 0.7
FIELDS x y z intensity ring time
SIZE 4 4 4 4 4 4
TYPE F F F F F F
COUNT 1 1 1 1 1 1
WIDTH 548
HEIGHT 1
VIEWPOINT 0 0 0 1 0 0 0
POINTS 548
DATA ascii
-3.072815418243408 1.3290894031524658 0.7729318737983704 78.0 14 -0.07896139472723007
-1.9600257873535156 0.8481783866882324 -0.03727834299206734 7.0 7 -0.07895909249782562
-3.0545895099639893 1.3224711418151855 0.8918904662132263 76.0 15 -0.07895678281784058
-2.8722383975982666 1.2476924657821655 -0.8390913605690002 6.0 0 -0.07893604785203934
-1.947686791419983 0.8464739322662354 0.03706891089677811 1.0 8 -0.07893374562263489
-1.9889739751815796 0.8652430772781372 0.11367370933294296 55.0 9 -0.07892914116382599
-1.9533098936080933 0.849728524684906 -0.4140555262565613 1.0 2 -0.07892683148384094
-3.112975835800171 1.3548521995544434 0.29702678322792053 8.0 10 -0.07892452925443649
-2.0338950157165527 0.8856290578842163 -0.3513518273830414 9.0 3 -0.07892222702503204
-2.065582036972046 0.8998554944992065 0.27664345502853394 4.0 11 -0.0789199247956276
-2.0217504501342773 0.8811810612678528 -0.27079370617866516 2.0 4 -0.07891761511564255
-1.9972169399261475 0.8709022998809814 0.3450944721698761 2.0 12 -0.0789153128862381
-1.999807357788086 0.8720318675041199 -0.19087107479572296 8.0 5 -0.07891301065683365
-2.0567879676818848 0.897305965423584 0.4361893832683563 1.0 13 -0.0789107084274292
-1.9769322872161865 0.8628789186477661 -0.11304567754268646 10.0 6 -0.07890839874744415
-3.073514938354492 1.3421471118927002 0.7742815613746643 81.0 14 -0.0789060965180397
-1.9533882141113281 0.8534138202667236 -0.03720853105187416 8.0 7 -0.07890379428863525
-3.053494691848755 1.3346738815307617 0.8929257392883301 76.0 15 -0.0789014920592308
-2.832481622695923 1.242193341255188 -0.8287386298179626 3.0 0 -0.07888075709342957
-1.9080965518951416 0.8371985554695129 0.036370813846588135 1.0 8 -0.07887844741344452
-1.9879224300384521 0.8726367354393005 0.11377837508916855 58.0 9 -0.07887384295463562
-1.9431418180465698 0.8533840179443359 -0.4125290811061859 1.0 2 -0.07887154072523117
-2.0885682106018066 0.9176867604255676 0.1995866596698761 7.0 10 -0.07886923104524612
-2.0181329250335693 0.8871587514877319 -0.3491617739200592 10.0 3 -0.07886692881584167
-2.044257164001465 0.8990685939788818 0.2742060422897339 2.0 11 -0.07886462658643723
-2.00412654876709 0.8818365335464478 -0.26884379982948303 2.0 4 -0.07886232435703278
-1.9888936281204224 0.8751339316368103 0.34415584802627563 1.0 12 -0.07886001467704773
-1.996751308441162 0.8790072798728943 -0.19087107479572296 9.0 5 -0.07885771244764328
-2.0464563369750977 0.9013147950172424 0.43466290831565857 1.0 13 -0.07885541021823883
-1.977563500404358 0.8713852167129517 -0.11325501650571823 9.0 6 -0.07885310798883438
-3.079510450363159 1.3575835227966309 0.776980996131897 81.0 14 -0.07885079830884933
-1.9578663110733032 0.8631134629249573 -0.037348151206970215 9.0 7 -0.07884849607944489
-3.059657335281372 1.3494699001312256 0.8960315585136414 74.0 15 -0.07884619385004044
-1.929080605506897 0.8540447950363159 0.036824580281972885 3.0 8 -0.07882315665483475
-1.9775601625442505 0.876334011554718 0.11335969716310501 62.0 9 -0.07881854474544525
-1.9580988883972168 0.8681182265281677 -0.4163452684879303 1.0 2 -0.0788162425160408
-2.0999221801757812 0.9314343333244324 0.20098112523555756 30.0 10 -0.07881394028663635
-2.029625654220581 0.9002538323402405 -0.3516647219657898 10.0 3 -0.0788116306066513
-2.0285630226135254 0.9002063274383545 0.27249985933303833 4.0 11 -0.07880932837724686
-2.019334554672241 0.8965328335762024 -0.2712811827659607 1.0 4 -0.07880702614784241
-2.0002691745758057 0.8884862661361694 0.3466588258743286 2.0 12 -0.07880472391843796
-1.9882084131240845 0.8835445642471313 -0.19034813344478607 9.0 5 -0.07880241423845291
-2.0793378353118896 0.924041748046875 0.44229528307914734 1.0 13 -0.07880011200904846
-1.9673629999160767 0.8746927380561829 -0.1128363311290741 9.0 6 -0.07879780977964401
-3.0749917030334473 1.3677880764007568 0.776980996131897 75.0 14 -0.07879550755023956
-1.9584956169128418 0.8715685606002808 -0.03741795942187309 9.0 7 -0.07879320532083511
-3.058457851409912 1.3617135286331177 0.8970668315887451 74.0 15 -0.07879089564085007
-1.9333900213241577 0.8640374541282654 0.03696419671177864 5.0 8 -0.07876785844564438
-1.9708430767059326 0.8816001415252686 0.11315035074949265 68.0 9 -0.07876324653625488
-1.9570014476776123 0.8754084706306458 -0.41672685742378235 2.0 2 -0.07876094430685043
-2.087728977203369 0.9343236088752747 0.2001095712184906 34.0 10 -0.07875864207744598
-2.021061897277832 0.9049113988876343 -0.35072609782218933 9.0 3 -0.07875633984804153
-2.0145390033721924 0.9024122953414917 0.2710374593734741 6.0 11 -0.07875403016805649
-2.008946657180786 0.9003288745880127 -0.27030622959136963 2.0 4 -0.07875172793865204
-1.979130506515503 0.8873812556266785 0.3435301184654236 3.0 12 -0.07874942570924759
-1.996019721031189 0.895371675491333 -0.19139400124549866 9.0 5 -0.07874712347984314
-1.9642980098724365 0.881554365158081 -0.1128363311290741 10.0 6 -0.07874251157045364
-3.073754072189331 1.3801100254058838 0.7778807878494263 81.0 14 -0.0787402093410492
-1.9499684572219849 0.8759419322013855 -0.03731324523687363 12.0 7 -0.07873790711164474
-3.0624966621398926 1.3763401508331299 0.8996549844741821 72.0 15 -0.0787356048822403
-2.2311532497406006 1.0064669847488403 -0.6558474898338318 1.0 0 -0.07871486246585846
-1.926716685295105 0.8691365122795105 0.03689438849687576 4.0 8 -0.07871256023645401
-2.206075668334961 0.9956173896789551 -0.5587784647941589 4.0 1 -0.07871025800704956
-1.9750345945358276 0.891762375831604 0.11356903612613678 66.0 9 -0.07870795577764511
-1.9591470956802368 0.8850005269050598 -0.41787171363830566 1.0 2 -0.07870565354824066
-2.0661346912384033 0.9337633848190308 0.1983664631843567 36.0 10 -0.07870334386825562
-2.0249314308166504 0.9155682325363159 -0.3519775867462158 10.0 3 -0.07870104163885117
-1.993288516998291 0.9012609720230103 0.2686000466346741 6.0 11 -0.07869873940944672
-1.9949398040771484 0.9024270176887512 -0.26884379982948303 2.0 4 -0.07869643718004227
-1.9706223011016846 0.8918405175209045 0.3425915241241455 4.0 12 -0.07869412750005722
-1.9819916486740112 0.8974032998085022 -0.19034813344478607 10.0 5 -0.07869182527065277
-1.9665110111236572 0.891221284866333 -0.11315035074949265 11.0 6 -0.07868722081184387
-3.0686748027801514 1.391366720199585 0.7778807878494263 74.0 14 -0.07868491113185883
-1.946899175643921 0.8827428221702576 -0.03731324523687363 13.0 7 -0.07868260890245438
-3.0559144020080566 1.3862239122390747 0.8991374373435974 74.0 15 -0.07868030667304993
-2.2135612964630127 1.0078444480895996 -0.6517063975334167 3.0 0 -0.07865957170724869
-1.91805899143219 0.8737051486968994 0.036789670586586 2.0 8 -0.07865726947784424
-2.220144271850586 1.0117782354354858 -0.5632774829864502 30.0 1 -0.07865495979785919
-1.9755444526672363 0.9003076553344727 0.11377837508916855 59.0 9 -0.07865265756845474
-1.9631916284561157 0.8950912952423096 -0.4193982183933258 1.0 2 -0.07865035533905029
-2.057424783706665 0.9384894967079163 0.197843536734581 39.0 10 -0.07864805310964584
-2.0181288719177246 0.9209907650947571 -0.3513518273830414 11.0 3 -0.0786457434296608
-2.011641502380371 0.9184538125991821 0.27152493596076965 5.0 11 -0.07864344120025635
-2.002452850341797 0.9146814942359924 -0.27030622959136963 2.0 4 -0.0786411389708519
-1.9872617721557617 0.9077425599098206 0.34603309631347656 3.0 12 -0.07863883674144745
-1.9770350456237793 0.9034882187843323 -0.19017383456230164 8.0 5 -0.0786365270614624
-2.069382429122925 0.9461267590522766 0.44229528307914734 1.0 13 -0.07863422483205795
-1.9615719318389893 0.8972495198249817 -0.11304567754268646 12.0 6 -0.0786319226026535
-3.0779755115509033 1.4085572957992554 0.7814800143241882 75.0 14 -0.07862962037324905
-1.9438060522079468 0.8895334005355835 -0.03731324523687363 9.0 7 -0.07862731069326401
-3.0528132915496826 1.3976868391036987 0.8996549844741821 72.0 15 -0.07862500846385956
-2.2065186500549316 1.0139518976211548 -0.650671124458313 1.0 0 -0.07860427349805832
-1.9151511192321777 0.8800609707832336 0.036789670586586 1.0 8 -0.07860197126865387
-2.262812376022339 1.0402990579605103 -0.5749749541282654 1.0 1 -0.07859966903924942
-1.9869062900543213 0.9138743877410889 0.11461575329303741 59.0 9 -0.07859735935926437
-1.9600551128387451 0.9019386768341064 -0.4193982183933258 2.0 2 -0.07859505712985992
-2.045086622238159 0.9414999485015869 0.19697196781635284 44.0 10 -0.07859275490045547
-2.0168581008911133 0.9285042881965637 -0.3516647219657898 12.0 3 -0.07859045267105103
-1.997766375541687 0.9201370477676392 0.27006247639656067 5.0 11 -0.07858814299106598
-2.013831853866577 0.927962601184845 -0.27225613594055176 2.0 4 -0.07858584076166153
-1.9804933071136475 0.9130199551582336 0.3454073667526245 2.0 12 -0.07858353853225708
-1.9738692045211792 0.910383939743042 -0.19017383456230164 9.0 5 -0.07858123630285263
-2.0662333965301514 0.9529839754104614 0.44229528307914734 1.0 13 -0.07857892662286758
-1.947704792022705 0.8987281322479248 -0.11241763830184937 12.0 6 -0.07857662439346313
-3.085672616958618 1.4244741201400757 0.7846293449401855 72.0 14 -0.07857432216405869
-1.937058448791504 0.894636332988739 -0.03724343329668045 8.0 7 -0.07857201993465424
-3.06369948387146 1.415626883506775 0.9043138027191162 74.0 15 -0.07856971025466919
-1.930208444595337 0.895153820514679 0.037138719111680984 1.0 8 -0.0785466730594635
-3.1324288845062256 1.4533601999282837 -0.79722660779953 15.0 1 -0.07854437083005905
-1.9800809621810913 0.9191226959228516 0.11440641433000565 55.0 9 -0.0785420686006546
-1.983764886856079 0.9208326935768127 -0.42512246966362 2.0 2 -0.07853975892066956
-2.045567750930786 0.9499545693397522 0.1973206102848053 48.0 10 -0.0785374566912651
-2.0153961181640625 0.9363711476325989 -0.3519775867462158 13.0 3 -0.07853515446186066
-1.990942120552063 0.9254316091537476 0.26957499980926514 4.0 11 -0.07853285223245621
-2.0141801834106445 0.9366611838340759 -0.2727436125278473 2.0 4 -0.07853054255247116
-1.9898313283920288 0.9257605671882629 0.3475974202156067 1.0 12 -0.07852824032306671
-1.9760984182357788 0.9197903871536255 -0.19069677591323853 9.0 5 -0.07852593809366226
-2.002377986907959 0.9320224523544312 0.42932024598121643 1.0 13 -0.07852363586425781
-1.9391239881515503 0.9029926061630249 -0.11210363358259201 10.0 6 -0.07852132618427277
-3.0753819942474365 1.4327675104141235 0.7832795977592468 75.0 14 -0.07851902395486832
-1.939361333847046 0.9039264917373657 -0.037348151206970215 9.0 7 -0.07851672172546387
-3.069244146347046 1.431212067604065 0.9074196219444275 76.0 15 -0.07851441949605942
-2.839780330657959 1.3290414810180664 -0.840126633644104 5.0 0 -0.07849368453025818
-1.9343167543411255 0.9052767753601074 0.03727834299206734 1.0 8 -0.07849137485027313
-3.113217830657959 1.4576748609542847 -0.7936273813247681 25.0 1 -0.07848907262086868
-1.9714345932006836 0.9234871864318848 0.1140923947095871 52.0 9 -0.07848677039146423
-1.960821270942688 0.9189335107803345 -0.42092466354370117 3.0 2 -0.07848446816205978
-2.045680284500122 0.9591372609138489 0.19766922295093536 49.0 10 -0.07848215848207474
-2.019104480743408 0.9471068382263184 -0.3532290756702423 13.0 3 -0.07847985625267029
-1.9841053485870361 0.9306896924972534 0.269087553024292 5.0 11 -0.07847755402326584
-1.9785512685775757 0.9285063147544861 -0.2683563232421875 1.0 4 -0.07847525179386139
-1.9651305675506592 0.9226260781288147 0.343843013048172 1.0 12 -0.07847294211387634
-1.9764825105667114 0.9283768534660339 -0.1910453885793686 9.0 5 -0.0784706398844719
-2.0273778438568115 0.9527155160903931 0.43542614579200745 1.0 13 -0.07846833765506744
-1.9520686864852905 0.9177412390708923 -0.11304567754268646 9.0 6 -0.078466035425663
-3.080690622329712 1.44900643825531 0.7859790325164795 81.0 14 -0.07846373319625854
-1.9343843460083008 0.909839928150177 -0.03731324523687363 10.0 7 -0.0784614235162735
-3.0747172832489014 1.446852207183838 0.9105254411697388 78.0 15 -0.07845912128686905
-2.8333771228790283 1.3381212949752808 -0.8396090269088745 7.0 0 -0.07843838632106781
-1.945449948310852 0.9191944003105164 0.03755757957696915 2.0 8 -0.07843608409166336
-3.0955216884613037 1.4632452726364136 -0.7904780507087708 31.0 1 -0.07843377441167831
-1.9681991338729858 0.9303627610206604 0.1140923947095871 52.0 9 -0.07843147218227386
-1.98422372341156 0.9383617639541626 -0.42664891481399536 3.0 2 -0.07842916995286942
-2.038717746734619 0.964568018913269 0.1973206102848053 48.0 10 -0.07842686772346497
-2.0336403846740723 0.962600827217102 -0.35635775327682495 13.0 3 -0.07842455804347992
-1.996827483177185 0.9456018805503845 0.2712811827659607 3.0 11 -0.07842225581407547
-1.9858986139297485 0.9408507943153381 -0.2698187232017517 1.0 4 -0.07841995358467102
-1.9404757022857666 0.9193310141563416 0.34008854627609253 1.0 12 -0.07841765135526657
-1.9768303632736206 0.9369775652885437 -0.19139400124549866 12.0 5 -0.07841534912586212
-2.0098488330841064 0.9530566334724426 0.43237319588661194 1.0 13 -0.07841303944587708
-1.9488532543182373 0.9245496392250061 -0.11304567754268646 9.0 6 -0.07841073721647263
-3.0738532543182373 1.4589157104492188 0.7855291366577148 72.0 14 -0.07840843498706818
-1.9257771968841553 0.9140145182609558 -0.03720853105187416 9.0 7 -0.07840613275766373
-3.0661582946777344 1.455918312072754 0.909490168094635 74.0 15 -0.07840382307767868
-2.816481113433838 1.3421858549118042 -0.8359856009483337 6.0 0 -0.07838308811187744
-1.9080923795700073 0.909295916557312 0.03689438849687576 3.0 8 -0.07838078588247299
-3.076580047607422 1.4667932987213135 -0.7868788242340088 31.0 1 -0.07837848365306854
-1.972150444984436 0.9406673312187195 0.11451108753681183 53.0 9 -0.07837618142366409
-1.9632176160812378 0.9368272423744202 -0.42283275723457336 2.0 2 -0.07837387174367905
-2.024550437927246 0.9665279388427734 0.19627472758293152 51.0 10 -0.0783715695142746
-2.0143935680389404 0.9616789817810059 -0.35354191064834595 14.0 3 -0.07836926728487015
-2.0008459091186523 0.9556406140327454 0.27225613594055176 3.0 11 -0.0783669650554657
-1.9970967769622803 0.9542780518531799 -0.2717686593532562 1.0 4 -0.07836465537548065
-1.955077052116394 0.9346188306808472 0.34321725368499756 1.0 12 -0.0783623531460762
-1.9555737972259521 0.9352756142616272 -0.18965089321136475 12.0 5 -0.07836005091667175
-1.9854240417480469 0.9495518207550049 0.42779380083084106 1.0 13 -0.0783577486872673
-1.9511815309524536 0.9335933923721313 -0.11335969716310501 10.0 6 -0.07835543900728226
-3.086575746536255 1.4775151014328003 0.7900281548500061 72.0 14 -0.07835313677787781
-1.9189679622650146 0.9190033078193665 -0.037138719111680984 10.0 7 -0.07835083454847336
-3.064541816711426 1.4682817459106445 0.9105254411697388 76.0 15 -0.07834853231906891
-2.8224616050720215 1.3565393686294556 -0.8390913605690002 6.0 0 -0.07832779735326767
-1.9121158123016357 0.9194167256355286 0.03703400865197182 5.0 8 -0.07832548767328262
-3.0468552112579346 1.4656975269317627 -0.7805802226066589 31.0 1 -0.07832318544387817
-1.9798189401626587 0.9523969888687134 0.11513911187648773 55.0 9 -0.07832088321447372
-2.0007879734039307 0.962914228439331 -0.43160995841026306 2.0 2 -0.07831858098506927
-2.0285143852233887 0.9766940474510193 0.19697196781635284 51.0 10 -0.07831627130508423
-2.0163633823394775 0.9712770581245422 -0.3544805347919464 13.0 3 -0.07831396907567978
-1.9992860555648804 0.9634808301925659 0.27249985933303833 5.0 11 -0.07831166684627533
-1.993753433227539 0.9612434506416321 -0.2717686593532562 1.0 4 -0.07830936461687088
-1.9626431465148926 0.9462443590164185 0.3450944721698761 1.0 12 -0.07830705493688583
-1.9524614810943604 0.941755473613739 -0.18965089321136475 9.0 5 -0.07830475270748138
-1.9785610437393188 0.954770028591156 0.4270305633544922 1.0 13 -0.07830245047807693
-1.938917636871338 0.9360570907592773 -0.1128363311290741 11.0 6 -0.07830014824867249
-3.098947525024414 1.4967550039291382 0.7945271730422974 71.0 14 -0.07829783856868744
-1.921311855316162 0.9279709458351135 -0.03724343329668045 11.0 7 -0.07829553633928299
-3.0631349086761475 1.4801173210144043 0.9115607142448425 80.0 15 -0.07829323410987854
-2.8368306159973145 1.3756550550460815 -0.8447853922843933 7.0 0 -0.0782724991440773
-1.9072569608688354 0.9248799085617065 0.03699910268187523 6.0 8 -0.07827019691467285
-3.0209386348724365 1.4655852317810059 -0.7751813530921936 30.0 1 -0.0782678872346878
-1.971091866493225 0.9566857218742371 0.11482509225606918 58.0 9 -0.07826558500528336
-1.993882656097412 0.9681774377822876 -0.4308467507362366 3.0 2 -0.0782632827758789
-2.032261848449707 0.9872509837150574 0.19766922295093536 49.0 10 -0.07826098054647446
-2.011354923248291 0.9770946502685547 -0.3541676700115204 12.0 3 -0.07825867086648941
-1.9835821390151978 0.9640315771102905 0.27079370617866516 3.0 11 -0.07825636863708496
-2.0155484676361084 0.9800021648406982 -0.27518099546432495 1.0 4 -0.07825406640768051
-1.9646573066711426 0.9556818008422852 0.34603309631347656 2.0 12 -0.07825176417827606
-1.967077374458313 0.957283616065979 -0.19139400124549866 9.0 5 -0.07824945449829102
-1.977149248123169 0.9621850848197937 0.42741215229034424 2.0 13 -0.07824715226888657
-1.9268240928649902 0.9381101727485657 -0.11231297254562378 11.0 6 -0.07824485003948212
-3.0887112617492676 1.5044634342193604 0.7931774854660034 74.0 14 -0.07824254781007767
-1.927049160003662 0.9390519261360168 -0.03741795942187309 15.0 7 -0.07824024558067322
-3.0753142833709717 1.499266266822815 0.9167370796203613 78.0 15 -0.07823793590068817
-2.8233346939086914 1.381304144859314 -0.8421972393989563 7.0 0 -0.07823634147644043
-1.90565025806427 0.9327438473701477 0.03703400865197182 4.0 8 -0.07823403924703598
-2.9892938137054443 1.463793158531189 -0.7684328556060791 30.0 1 -0.07823173701763153
-1.9675723314285278 0.9639033079147339 0.11482509225606918 64.0 9 -0.07822942733764648
-1.9746235609054565 0.9673576354980469 -0.42741215229034424 2.0 2 -0.07822712510824203
-2.035959005355835 0.997846782207489 0.1983664631843567 48.0 10 -0.07822482287883759
-2.0166280269622803 0.9888089299201965 -0.3557320237159729 13.0 3 -0.07822252064943314
-1.9871646165847778 0.9747917652130127 0.2717686593532562 3.0 11 -0.07822021096944809
-1.9798660278320312 0.9716408848762512 -0.27079370617866516 1.0 4 -0.07821790874004364
-1.9611413478851318 0.9628762602806091 0.34603309631347656 2.0 12 -0.07821560651063919
-1.9601470232009888 0.9623880386352539 -0.1910453885793686 9.0 5 -0.07821330428123474
-1.9736095666885376 0.9694247841835022 0.42741215229034424 2.0 13 -0.0782109946012497
-1.9305428266525269 0.9486894607543945 -0.11273165792226791 11.0 6 -0.07820869237184525
-3.0884227752685547 1.5183532238006592 0.7945271730422974 72.0 14 -0.0782063901424408
-1.9110333919525146 0.9399306178092957 -0.03717362508177757 15.0 7 -0.07820408791303635
-3.0767321586608887 1.513939619064331 0.9188076257705688 78.0 15 -0.0782017782330513
-2.823693037033081 1.3937163352966309 -0.8437501192092896 9.0 0 -0.07818104326725006
-1.907761573791504 0.9420462250709534 0.037138719111680984 3.0 8 -0.07817874103784561
-2.975430488586426 1.4699026346206665 -0.7661833167076111 31.0 1 -0.07817643880844116
-1.967776894569397 0.9725354909896851 0.11503444612026215 66.0 9 -0.07817413657903671
-1.9342741966247559 0.9559774398803711 -0.4193982183933258 2.0 2 -0.07817182689905167
-2.0253195762634277 1.0014153718948364 0.19766922295093536 43.0 10 -0.07816952466964722
-2.0273289680480957 1.0028486251831055 -0.3582349717617035 13.0 3 -0.07816722244024277
-1.9979827404022217 0.9887666702270508 0.27371856570243835 3.0 11 -0.07816492021083832
-2.029831886291504 1.0049693584442139 -0.27810585498809814 1.0 4 -0.07816261053085327
-1.9471477270126343 0.9644549489021301 0.34415584802627563 3.0 12 -0.07816030830144882
-1.9424928426742554 0.9621492624282837 -0.18965089321136475 9.0 5 -0.07815800607204437
-1.9895635843276978 0.9858973026275635 0.43160995841026306 2.0 13 -0.07815570384263992
-1.93258798122406 0.9580840468406677 -0.11304567754268646 12.0 6 -0.07815339416265488
-3.0970706939697266 1.5360509157180786 0.7981263995170593 71.0 14 -0.07815109193325043
-1.8969929218292236 0.9412627816200256 -0.03696419671177864 11.0 7 -0.07814878970384598
-3.0748894214630127 1.526388168334961 0.9198428988456726 76.0 15 -0.07814648747444153
-2.80843448638916 1.3983986377716064 -0.8406442999839783 7.0 0 -0.07812575250864029
-1.9026719331741333 0.947807788848877 0.037103816866874695 2.0 8 -0.07812344282865524
-2.9598164558410645 1.4750646352767944 -0.7634838819503784 31.0 1 -0.0781211405992508
-1.9715193510055542 0.9829635620117188 0.11545313149690628 66.0 9 -0.07811883836984634
-1.937952995300293 0.9662280082702637 -0.42092466354370117 1.0 2 -0.0781165361404419
-2.0182459354400635 1.006699800491333 0.1973206102848053 37.0 10 -0.07811422646045685
-2.0132110118865967 1.0046271085739136 -0.35635775327682495 11.0 3 -0.0781119242310524
-1.9998472929000854 0.9983949661254883 0.27444979548454285 4.0 11 -0.07810962200164795
-1.9596728086471558 0.9791924953460693 0.34697169065475464 2.0 12 -0.07810501009225845
-1.9462512731552124 0.9724861979484558 -0.19034813344478607 9.0 5 -0.078102707862854
-1.979085922241211 0.9893249273300171 0.4300835132598877 3.0 13 -0.07810040563344955
-1.941736102104187 0.9710772037506104 -0.11377837508916855 13.0 6 -0.0780981034040451
-3.0934324264526367 1.5477252006530762 0.798576295375824 70.0 14 -0.07809580117464066
-1.90800142288208 0.955039381980896 -0.03724343329668045 10.0 7 -0.07809349149465561
-3.0660881996154785 1.535381555557251 0.9188076257705688 82.0 15 -0.07809118926525116
-2.813894033432007 1.4133954048156738 -0.8437501192092896 9.0 0 -0.07807045429944992
-1.9261536598205566 0.9679118394851685 0.037627387791872025 1.0 8 -0.07806815207004547
-2.9320149421691895 1.4740091562271118 -0.757635235786438 30.0 1 -0.07806584239006042
-1.9787824153900146 0.9952235221862793 0.11608116328716278 66.0 9 -0.07806354016065598
-1.9328147172927856 0.9721042513847351 -0.42054301500320435 2.0 2 -0.07806123793125153
-2.0147197246551514 1.013738751411438 0.1973206102848053 34.0 10 -0.07805893570184708
-2.002634048461914 1.0080962181091309 -0.35510629415512085 9.0 3 -0.07805662602186203
-1.9945772886276245 1.0044764280319214 0.2742060422897339 3.0 11 -0.07805432379245758
-1.9632983207702637 0.9895839691162109 0.34822314977645874 4.0 12 -0.07804971933364868
-1.949961543083191 0.9828616380691528 -0.1910453885793686 9.0 5 -0.07804741710424423
-1.9791266918182373 0.9979947209358215 0.4308467507362366 3.0 13 -0.07804510742425919
-1.929418683052063 0.9733513593673706 -0.11325501650571823 16.0 6 -0.07804280519485474
-3.105408191680908 1.5672943592071533 0.8030753135681152 66.0 14 -0.07804050296545029
-1.9153666496276855 0.9671012163162231 -0.03745286539196968 8.0 7 -0.07803820073604584
-3.077953577041626 1.5547853708267212 0.9239840507507324 78.0 15 -0.07803589105606079
-2.8054966926574707 1.421462893486023 -0.8427148461341858 7.0 0 -0.07801515609025955
-1.9227632284164429 0.9746295213699341 0.037627387791872025 1.0 8 -0.0780128538608551
-2.91120982170105 1.4763017892837524 -0.7535860538482666 31.0 1 -0.07801055163145065
-1.9717336893081665 1.0003174543380737 0.11587180942296982 64.0 9 -0.0780082419514656
-1.941665530204773 0.9850629568099976 -0.4232143759727478 1.0 2 -0.07800593972206116
-2.018275499343872 1.0243722200393677 0.19801783561706543 35.0 10 -0.07800363749265671
-2.0079097747802734 1.0195518732070923 -0.35667064785957336 10.0 3 -0.07800133526325226
-2.0016777515411377 1.0168269872665405 0.2756684720516205 2.0 11 -0.07799903303384781
-2.107680559158325 1.0711385011672974 -0.29029279947280884 1.0 4 -0.07799672335386276
-1.9703974723815918 1.0018023252487183 0.3501003682613373 5.0 12 -0.07799442112445831
-1.9465190172195435 0.9896619319915771 -0.1910453885793686 10.0 5 -0.07799211889505386
-1.9931297302246094 1.0137978792190552 0.43466290831565857 2.0 13 -0.07798981666564941
-1.9242290258407593 0.9791750907897949 -0.11315035074949265 15.0 6 -0.07798750698566437
-3.096445322036743 1.5763558149337769 0.8021755218505859 70.0 14 -0.07798520475625992
-1.9244521856307983 0.9801338911056519 -0.0376971997320652 7.0 7 -0.07798290252685547
-3.079392194747925 1.5690288543701172 0.9260545372962952 76.0 15 -0.07798060029745102
-2.8005175590515137 1.431247353553772 -0.8427148461341858 9.0 0 -0.07795985788106918
-1.9193494319915771 0.9813353419303894 0.037627387791872025 1.0 8 -0.07795755565166473
-2.8938941955566406 1.4802429676055908 -0.7504367828369141 32.0 1 -0.07795525342226028
-1.9575622081756592 1.0017350912094116 0.11524379253387451 68.0 9 -0.07795295119285583
-1.9312243461608887 0.9882572889328003 -0.42168790102005005 1.0 2 -0.07795064896345139
-2.005819797515869 1.0268714427947998 0.19714628159999847 30.0 10 -0.07794833928346634
-2.009612798690796 1.029255986213684 -0.35760921239852905 9.0 3 -0.07794603705406189
-2.0387496948242188 1.0446281433105469 0.2812744677066803 1.0 11 -0.07794373482465744
-1.9791926145553589 1.014984130859375 0.35229045152664185 4.0 12 -0.07793912291526794
-1.950143814086914 1.0000871419906616 -0.19174262881278992 10.0 5 -0.0779368206858635
-3.1005289554595947 1.5907196998596191 0.6773719787597656 59.0 13 -0.07793451845645905
-1.9243532419204712 0.9877095222473145 -0.11335969716310501 14.0 6 -0.0779322162270546
-3.097858190536499 1.5907155275344849 0.8039751052856445 66.0 14 -0.07792990654706955
-1.9121254682540894 0.9822773933410645 -0.03752267360687256 8.0 7 -0.0779276043176651
-3.0876424312591553 1.5868319272994995 0.930195689201355 76.0 15 -0.07792530208826065
-2.7886364459991455 1.437473177909851 -0.8406442999839783 9.0 0 -0.07790456712245941
-1.8945846557617188 0.9770306944847107 0.03720853105187416 1.0 8 -0.07790226489305496
-2.8783183097839355 1.4849746227264404 -0.7477373480796814 33.0 1 -0.07789995521306992
-1.9577794075012207 1.0100525617599487 0.11545313149690628 64.0 9 -0.07789765298366547
-1.9138063192367554 0.9877884984016418 -0.41863495111465454 1.0 2 -0.07789535075426102
-2.014615297317505 1.040265679359436 0.1983664631843567 43.0 10 -0.07789304852485657
-2.016538143157959 1.0417044162750244 -0.3594864308834076 9.0 3 -0.07789073884487152
-3.128467321395874 1.6167970895767212 0.4323924481868744 37.0 11 -0.07788843661546707
-1.9652873277664185 1.0160983800888062 0.3504132330417633 3.0 12 -0.07788383215665817
-1.939562439918518 1.0032271146774292 -0.1910453885793686 11.0 5 -0.07788152247667313
-3.103675603866577 1.6060441732406616 0.6792800426483154 66.0 13 -0.07787922024726868
-1.9279884099960327 0.9980936050415039 -0.11377837508916855 18.0 6 -0.07787691801786423
-3.1026694774627686 1.6068967580795288 0.8066745400428772 70.0 14 -0.07787461578845978
-1.8982036113739014 0.9830945134162903 -0.03731324523687363 8.0 7 -0.07787230610847473
-3.0823628902435303 1.5970631837844849 0.930195689201355 80.0 15 -0.07787000387907028
-2.787029266357422 1.4489814043045044 -0.841679573059082 9.0 0 -0.07784926891326904
-1.901979684829712 0.9888426661491394 0.03741795942187309 1.0 8 -0.0778469666838646
-2.8664627075195312 1.4909145832061768 -0.7459377646446228 33.0 1 -0.07784466445446014
-1.9684159755706787 1.0242552757263184 0.11629050970077515 64.0 9 -0.0778423547744751
-1.9347264766693115 1.0071548223495483 -0.4239776134490967 1.0 2 -0.07784005254507065
-2.018040180206299 1.050972819328308 0.1990637183189392 19.0 10 -0.0778377503156662
-2.0025603771209717 1.042911171913147 -0.35760921239852905 9.0 3 -0.07783544808626175
-3.1442148685455322 1.6381688117980957 0.43531733751296997 63.0 11 -0.0778331384062767
-1.9722380638122559 1.0284326076507568 0.35229045152664185 1.0 12 -0.0778285339474678
-1.9431146383285522 1.0136768817901611 -0.19174262881278992 11.0 5 -0.07782623171806335
-3.1018142700195312 1.618143081665039 0.6800432801246643 70.0 13 -0.07782392203807831
-1.9352917671203613 1.010026216506958 -0.11440641433000565 19.0 6 -0.07782161980867386
-3.1042332649230957 1.6207845211029053 0.8084741234779358 66.0 14 -0.07781931757926941
-1.9178022146224976 1.0017509460449219 -0.03776700794696808 9.0 7 -0.07781701534986496
-3.083618402481079 1.6113911867141724 0.9322662353515625 78.0 15 -0.07781471312046051
-2.7856314182281494 1.4600087404251099 -0.8427148461341858 10.0 0 -0.07779397070407867
-1.8489280939102173 0.9694745540618896 0.03644062578678131 1.0 8 -0.07779166847467422
-2.8388068675994873 1.4891424179077148 -0.7400889992713928 38.0 1 -0.07778936624526978
-1.9683654308319092 1.032976746559143 0.11649984866380692 68.0 9 -0.07778706401586533
-1.962667465209961 1.0299866199493408 -0.4308467507362366 1.0 2 -0.07778475433588028
-2.012779712677002 1.0567330121994019 0.19888940453529358 1.0 10 -0.07778245210647583
-1.9989080429077148 1.0498946905136108 -0.35760921239852905 9.0 3 -0.07778014987707138
-3.134962320327759 1.647288203239441 0.43482983112335205 64.0 11 -0.07777784764766693
-3.105060338973999 1.6329584121704102 0.555655300617218 70.0 12 -0.07777323573827744
-1.94326913356781 1.0219696760177612 -0.19209124147891998 10.0 5 -0.07777093350887299
-3.097883939743042 1.6298755407333374 0.6804249286651611 71.0 13 -0.07776863127946854
-1.9176150560379028 1.0093333721160889 -0.11356903612613678 19.0 6 -0.07776632905006409
-3.115799903869629 1.640689492225647 0.812973141670227 77.0 14 -0.07776401937007904
-1.9160631895065308 1.0093706846237183 -0.03780191391706467 9.0 7 -0.07776171714067459
-3.084810972213745 1.6257480382919312 0.93433678150177 80.0 15 -0.07775941491127014
-2.7702701091766357 1.4643075466156006 -0.8396090269088745 10.0 0 -0.0777386799454689
-1.9056367874145508 1.0077050924301147 0.037627387791872025 1.0 8 -0.07773637026548386
-2.8129210472106934 1.488107442855835 -0.7346901893615723 36.0 1 -0.0777340680360794
-1.9612170457839966 1.0379729270935059 0.11629050970077515 66.0 9 -0.07773176580667496
-1.9312965869903564 1.0221375226974487 -0.42474085092544556 1.0 2 -0.07772946357727051
-3.1359949111938477 1.6604230403900146 0.3104487657546997 31.0 10 -0.07772715389728546
-2.0074503421783447 1.0633383989334106 -0.359799325466156 8.0 3 -0.07772485166788101
-3.137963056564331 1.6628687381744385 0.4360485374927521 66.0 11 -0.07772254943847656
-3.1133017539978027 1.651192307472229 0.5581582188606262 76.0 12 -0.07771794497966766
-1.9396896362304688 1.028747320175171 -0.19209124147891998 9.0 5 -0.07771563529968262
-3.1060497760772705 1.648040771484375 0.6834778785705566 71.0 13 -0.07771333307027817
-1.9176087379455566 1.0178934335708618 -0.11377837508916855 17.0 6 -0.07771103084087372
-3.096284866333008 1.64424467086792 0.8093739748001099 63.0 14 -0.07770872861146927
-1.9178260564804077 1.0188676118850708 -0.03790662810206413 11.0 7 -0.07770641893148422
-3.0859410762786865 1.6401320695877075 0.9364073872566223 80.0 15 -0.07770411670207977
-2.7753708362579346 1.4794204235076904 -0.8427148461341858 10.0 0 -0.07768338173627853
-1.9021075963974 1.0143510103225708 0.037627387791872025 1.0 8 -0.07768107950687408
-2.7973928451538086 1.4924143552780151 -0.7319908142089844 34.0 1 -0.07767876982688904
-1.9575821161270142 1.0448120832443237 0.11629050970077515 64.0 9 -0.07767646759748459
-1.9277170896530151 1.0288723707199097 -0.42474085092544556 1.0 2 -0.07767416536808014
-3.149512529373169 1.6816824674606323 0.31236615777015686 35.0 10 -0.07767186313867569
-2.0228919982910156 1.0805777311325073 -0.3632408678531647 7.0 3 -0.07766956090927124
-3.139143228530884 1.6775540113449097 0.4370235204696655 66.0 11 -0.0776672512292862
-3.1005516052246094 1.6583232879638672 0.5569067597389221 62.0 12 -0.0776626467704773
-1.9536559581756592 1.0449086427688599 -0.19383437931537628 10.0 5 -0.07766034454107285
-3.108933687210083 1.6635032892227173 0.6853859424591064 68.0 13 -0.0776580348610878
-1.9193265438079834 1.0274087190628052 -0.1140923947095871 12.0 6 -0.07765573263168335
-3.1025516986846924 1.6614826917648315 0.8125232458114624 67.0 14 -0.0776534304022789
-1.908969759941101 1.022722840309143 -0.03780191391706467 11.0 7 -0.07765112817287445
-3.097223997116089 1.6600208282470703 0.9415837526321411 76.0 15 -0.0776488184928894
-2.766786575317383 1.4872699975967407 -0.841679573059082 11.0 0 -0.07762808352708817
-1.8985551595687866 1.020984411239624 0.037627387791872025 1.0 8 -0.07762578129768372
-2.787018060684204 1.4993995428085327 -0.7306410670280457 14.0 1 -0.07762347906827927
-1.9574406147003174 1.0535321235656738 0.11649984866380692 64.0 9 -0.07762117683887482
-1.9725191593170166 1.0616477727890015 -0.43542614579200745 1.0 2 -0.07761886715888977
-3.1453776359558105 1.6936107873916626 0.3125405013561249 32.0 10 -0.07761656492948532
-2.017369031906128 1.0866950750350952 -0.36292800307273865 6.0 3 -0.07761426270008087
-3.136763334274292 1.6903849840164185 0.43751096725463867 67.0 11 -0.07761196047067642
-3.0964832305908203 1.6700732707977295 0.5572196245193481 63.0 12 -0.07760734856128693
-1.9464895725250244 1.0498297214508057 -0.19348573684692383 10.0 5 -0.07760504633188248
-3.1169302463531494 1.681803584098816 0.688438892364502 67.0 13 -0.07760274410247803
-1.9174858331680298 1.0350513458251953 -0.11419706791639328 12.0 6 -0.07760043442249298
-3.1087357997894287 1.6787842512130737 0.8156725764274597 70.0 14 -0.07759813219308853
-1.9053882360458374 1.0293797254562378 -0.03780191391706467 11.0 7 -0.07759582996368408
-3.0914106369018555 1.670822262763977 0.9415837526321411 78.0 15 -0.07759352773427963
-2.75478458404541 1.4932366609573364 -0.8396090269088745 10.0 0 -0.0775727927684784
-1.89497971534729 1.0276055335998535 0.037627387791872025 1.0 8 -0.07757048308849335
-2.768064022064209 1.5016849040985107 -0.7270418405532837 7.0 1 -0.0775681808590889
-1.9642834663391113 1.0660747289657593 0.11712788045406342 66.0 9 -0.07756587862968445
-1.9688012599945068 1.0685267448425293 -0.43542614579200745 1.0 2 -0.07756357640028
-3.1429481506347656 1.7064812183380127 0.31288909912109375 31.0 10 -0.07756126672029495
-2.018770933151245 1.0965591669082642 -0.3638666272163391 6.0 3 -0.0775589644908905
-3.1482856273651123 1.7108023166656494 0.43994835019111633 67.0 11 -0.07755666226148605
-3.1045172214508057 1.6884220838546753 0.5597225427627563 63.0 12 -0.07755205035209656
-1.9428130388259888 1.0566178560256958 -0.19348573684692383 9.0 5 -0.07754974812269211
-3.1110405921936035 1.6926735639572144 0.688438892364502 66.0 13 -0.07754744589328766
-1.9226323366165161 1.0465127229690552 -0.1147204264998436 12.0 6 -0.07754514366388321
-3.113126039505005 1.6952166557312012 0.8183720111846924 70.0 14 -0.07754283398389816
-1.9105634689331055 1.040808081626892 -0.03797643631696701 11.0 7 -0.07754053175449371
-3.085559368133545 1.6816030740737915 0.9415837526321411 78.0 15 -0.07753822952508926
-2.752946138381958 1.5046958923339844 -0.8406442999839783 12.0 0 -0.07751749455928802
-1.8668177127838135 1.0207825899124146 0.037138719111680984 1.0 8 -0.07751519232988358
-2.738870143890381 1.4982448816299438 -0.7207432389259338 14.0 1 -0.07751288264989853
-1.9675582647323608 1.076760172843933 0.11754656583070755 61.0 9 -0.07751058042049408
-1.9650593996047974 1.075392723083496 -0.43542614579200745 1.0 2 -0.07750827819108963
-3.147458076477051 1.7231825590133667 0.31393498182296753 30.0 10 -0.07750597596168518
-2.0114657878875732 1.1017014980316162 -0.3632408678531647 5.0 3 -0.07750366628170013
-3.1440348625183105 1.722736120223999 0.4401921033859253 64.0 11 -0.07750136405229568
-3.1038005352020264 1.7020982503890991 0.5606611967086792 67.0 12 -0.07749675959348679
-1.9513415098190308 1.0700993537902832 -0.19470593333244324 8.0 5 -0.07749444991350174
-3.101670026779175 1.7016348838806152 0.6876756548881531 67.0 13 -0.07749214768409729
-1.9102133512496948 1.0484123229980469 -0.11419706791639328 12.0 6 -0.07748984545469284
-3.117438554763794 1.711700677871704 0.8210713863372803 70.0 14 -0.07748754322528839
-1.9034134149551392 1.0455455780029297 -0.03790662810206413 9.0 7 -0.07748524099588394
-3.093215227127075 1.6998059749603271 0.9457248449325562 76.0 15 -0.0774829313158989
-2.7544443607330322 1.5180268287658691 -0.8427148461341858 11.0 0 -0.07746219635009766
-1.9157780408859253 1.0562578439712524 0.03818586841225624 1.0 8 -0.0774598941206932
-2.7063217163085938 1.492736577987671 -0.7135447859764099 29.0 1 -0.07745759189128876
-1.9497981071472168 1.0759022235870361 0.11670918762683868 61.0 9 -0.07745528221130371
-1.9612935781478882 1.0822454690933228 -0.43542614579200745 1.0 2 -0.07745297998189926
-3.1501452922821045 1.7389733791351318 0.3148065507411957 30.0 10 -0.07745067775249481
-2.0370047092437744 1.1249501705169678 -0.36855965852737427 6.0 3 -0.07744837552309036
-3.1414778232574463 1.7356196641921997 0.4406795799732208 63.0 11 -0.07744606584310532
-3.1168556213378906 1.7234375476837158 0.5641027688980103 63.0 12 -0.07744146138429642
-1.9510811567306519 1.0788328647613525 -0.1950545459985733 8.0 5 -0.07743915915489197
-3.111173152923584 1.721003532409668 0.6911102533340454 64.0 13 -0.07743685692548752
-1.915279746055603 1.0599093437194824 -0.1147204264998436 11.0 6 -0.07743454724550247
-3.1131491661071777 1.7235169410705566 0.8215212821960449 67.0 14 -0.07743224501609802
-1.9119975566864014 1.0589648485183716 -0.03815096244215965 8.0 7 -0.07742994278669357
-3.0957119464874268 1.715274453163147 0.9483130574226379 70.0 15 -0.07742764055728912
-2.7423739433288574 1.523879051208496 -0.8406442999839783 12.0 0 -0.07740689814090729
-1.9120795726776123 1.0629383325576782 0.03818586841225624 1.0 8 -0.07740459591150284
-2.701094150543213 1.502174973487854 -0.7135447859764099 32.0 1 -0.07740229368209839
-1.9530119895935059 1.0865861177444458 0.11712788045406342 59.0 9 -0.07739999145269394
-1.9575037956237793 1.0890852212905884 -0.43542614579200745 1.0 2 -0.07739768922328949
-3.1579833030700684 1.7577098608016968 0.31620103120803833 28.0 10 -0.07739537954330444
-2.052049398422241 1.142625093460083 -0.37200120091438293 7.0 3 -0.0773930773139
-3.149273633956909 1.7543030977249146 0.44262948632240295 63.0 11 -0.07739077508449554
-3.112546443939209 1.7352681159973145 0.5644156336784363 62.0 12 -0.07738616317510605
-1.9560048580169678 1.0904874801635742 -0.19592611491680145 7.0 5 -0.0773838609457016
-3.1120052337646484 1.7356784343719482 0.6926366686820984 61.0 13 -0.07738155871629715
-1.9220328330993652 1.0724273920059204 -0.1153484508395195 14.0 6 -0.0773792564868927
-3.1139206886291504 1.738171935081482 0.8233208656311035 72.0 14 -0.07737694680690765
-1.9013057947158813 1.0617327690124512 -0.0380113422870636 8.0 7 -0.0773746445775032
-3.0998244285583496 1.7317237854003906 0.9514188170433044 69.0 15 -0.07737234234809875
-2.7302968502044678 1.5296649932861328 -0.8385737538337708 11.0 0 -0.07735160738229752
-1.9153350591659546 1.073517084121704 0.038325484842061996 1.0 8 -0.07734930515289307
-2.690734624862671 1.5087352991104126 -0.712195098400116 18.0 1 -0.07734699547290802
-1.9493979215621948 1.093056559562683 0.11712788045406342 58.0 9 -0.07734469324350357
-1.953690528869629 1.0959111452102661 -0.43542614579200745 1.0 2 -0.07734239101409912
-3.1553032398223877 1.7706726789474487 0.3165496587753296 28.0 10 -0.07734008878469467
-2.0514934062957764 1.1517152786254883 -0.3726269602775574 6.0 3 -0.07733777910470963
-3.1535160541534424 1.7711173295974731 0.44409194588661194 63.0 11 -0.07733547687530518
-3.108497142791748 1.7465479373931885 0.5647284984588623 63.0 12 -0.07733087241649628
-1.9487128257751465 1.0953562259674072 -0.1955774873495102 7.0 5 -0.07732856273651123
-3.1161949634552 1.7523044347763062 0.694926381111145 60.0 13 -0.07732626050710678
-1.9217592477798462 1.0810885429382324 -0.11555780470371246 10.0 6 -0.07732395827770233
-3.1149332523345947 1.7523105144500732 0.8251205086708069 69.0 14 -0.07732165604829788
-1.8960316181182861 1.0670511722564697 -0.03797643631696701 7.0 7 -0.07731934636831284
-3.094064950942993 1.7419930696487427 0.9514188170433044 69.0 15 -0.07731704413890839
-2.6999757289886475 1.5244632959365845 -0.8308091163635254 13.0 0 -0.07729630917310715
-1.9187290668487549 1.0837966203689575 0.03846510127186775 1.0 8 -0.0772940069437027
-2.208972454071045 1.2482502460479736 -0.5857725739479065 1.0 1 -0.07729170471429825
-1.959673285484314 1.1073757410049438 0.11796525865793228 55.0 9 -0.0772893950343132
-1.9500455856323242 1.1023838520050049 -0.43542614579200745 1.0 2 -0.07728709280490875
-3.1476800441741943 1.7801456451416016 0.31637534499168396 27.0 10 -0.0772847905755043
-2.03218936920166 1.1497576236724854 -0.36981111764907837 4.0 3 -0.07728248834609985
-3.161445379257202 1.7893882989883423 0.4460418224334717 60.0 11 -0.07728017866611481
-3.111283302307129 1.7617124319076538 0.5662928223609924 62.0 12 -0.07727557420730591
-1.9537376165390015 1.106722354888916 -0.19644904136657715 7.0 5 -0.07727327197790146
-3.117198944091797 1.7665002346038818 0.6964528560638428 59.0 13 -0.07727096229791641
-1.9251136779785156 1.0913951396942139 -0.1159764900803566 12.0 6 -0.07726866006851196
-3.1226677894592285 1.7703185081481934 0.8287197351455688 73.0 14 -0.07726635783910751
-1.906398057937622 1.081225037574768 -0.03825567662715912 7.0 7 -0.07726405560970306
-3.0949923992156982 1.7560573816299438 0.9534894227981567 70.0 15 -0.07726174592971802
-2.664682388305664 1.5162115097045898 -0.8214917182922363 27.0 0 -0.07724101096391678
-1.9081730842590332 1.0861965417861938 0.038325484842061996 1.0 8 -0.07723870873451233
-2.1641793251037598 1.232424020767212 -0.5749749541282654 1.0 1 -0.07723640650510788
-1.9662083387374878 1.1201410293579102 0.11859328299760818 50.0 9 -0.07723410427570343
-1.9463791847229004 1.1088443994522095 -0.43542614579200745 1.0 2 -0.07723179459571838
-3.148683786392212 1.794520378112793 0.3170726001262665 25.0 10 -0.07722949236631393
-1.9991929531097412 1.139857292175293 -0.36449235677719116 2.0 3 -0.07722719013690948
-3.1537697315216064 1.798878788948059 0.4457980990409851 60.0 11 -0.07722488790750504
-3.1239852905273438 1.7833354473114014 0.5697343945503235 65.0 12 -0.07722027599811554
-1.951786994934082 1.1141828298568726 -0.19662334024906158 6.0 5 -0.07721797376871109
-3.111323833465576 1.7768276929855347 0.6964528560638428 60.0 13 -0.07721567153930664
-1.9214838743209839 1.0977730751037598 -0.1159764900803566 10.0 6 -0.0772133618593216
-3.121544122695923 1.7841094732284546 0.8300694227218628 72.0 14 -0.07721105962991714
-1.9060840606689453 1.0898581743240356 -0.038325484842061996 7.0 7 -0.0772087574005127
-3.1005823612213135 1.7735638618469238 0.9571128487586975 74.0 15 -0.07720645517110825
-2.644291877746582 1.5168523788452148 -0.816832959651947 34.0 0 -0.077185720205307
-2.149724006652832 1.23414945602417 -0.5722755193710327 7.0 1 -0.07718110829591751
-1.95882248878479 1.125008225440979 0.11838394403457642 44.0 9 -0.07717880606651306
-3.1579480171203613 1.8144334554672241 0.31864139437675476 26.0 10 -0.07717419415712357
-1.979788064956665 1.1379691362380981 -0.36167651414871216 2.0 3 -0.07717189192771912
-3.1474716663360596 1.8098759651184082 0.4457980990409851 60.0 11 -0.07716958969831467
-1.990847110748291 1.145249843597412 -0.2820056974887848 1.0 4 -0.07716728746891022
-3.124589443206787 1.798170566558838 0.5709858536720276 65.0 12 -0.07716497778892517
-1.9634275436401367 1.1299333572387695 -0.19819216430187225 5.0 5 -0.07716267555952072
-3.115311861038208 1.7935541868209839 0.6987425684928894 63.0 13 -0.07716037333011627
-1.9211012125015259 1.1064677238464355 -0.11618582904338837 10.0 6 -0.07715807110071182
-3.12205171585083 1.7988866567611694 0.8318690657615662 72.0 14 -0.07715576887130737
-1.9143956899642944 1.1034951210021973 -0.038569819182157516 6.0 7 -0.07715345919132233
-3.1044132709503174 1.7901673316955566 0.9602187275886536 76.0 15 -0.07715115696191788
-2.632291555404663 1.5222053527832031 -0.8147624135017395 38.0 0 -0.07713042199611664
-2.162269115447998 1.251407265663147 -0.576774537563324 2.0 1 -0.07712581008672714
-1.965254306793213 1.1378434896469116 0.11901197582483292 28.0 9 -0.07712350785732269
-1.93839430809021 1.1227444410324097 -0.43542614579200745 1.0 2 -0.07712120562791824
-3.167111396789551 1.834434151649475 0.32021018862724304 27.0 10 -0.0771189033985138
-1.9775131940841675 1.1458629369735718 -0.36198940873146057 2.0 3 -0.07711659371852875
-3.1565914154052734 1.829811453819275 0.4479917287826538 66.0 11 -0.0771142914891243
-1.952492356300354 1.1322758197784424 -0.27713093161582947 3.0 4 -0.07711198925971985
-3.1285462379455566 1.8150134086608887 0.5728631019592285 71.0 12 -0.0771096870303154
-1.9885673522949219 1.1541231870651245 -0.20115545392036438 4.0 5 -0.07710738480091095
-3.118903636932373 1.8108757734298706 0.701032280921936 63.0 13 -0.0771050751209259
-1.925668478012085 1.1185168027877808 -0.11670918762683868 9.0 6 -0.07710277289152145
-3.119123935699463 1.8117306232452393 0.8327688574790955 72.0 14 -0.077100470662117
-1.9088034629821777 1.1091663837432861 -0.03853491693735123 4.0 7 -0.07709816843271255
-3.111506462097168 1.8087598085403442 0.9643597602844238 82.0 15 -0.07709585875272751
-2.6066689491271973 1.5201642513275146 -0.8085507154464722 39.0 0 -0.07707512378692627
-2.57843017578125 1.5049015283584595 -0.6892500519752502 7.0 1 -0.07707051932811737
-1.9817681312561035 1.1571238040924072 0.12026803940534592 19.0 9 -0.07706821709871292
-3.160367012023926 1.8460290431976318 0.32021018862724304 24.0 10 -0.07706360518932343
-1.9801222085952759 1.1570898294448853 -0.3632408678531647 1.0 3 -0.07706130295991898
-3.1584324836730957 1.8463778495788574 0.44921043515205383 66.0 11 -0.07705900073051453
-1.9620381593704224 1.1474411487579346 -0.2790808379650116 3.0 4 -0.07705669105052948
-3.108232021331787 1.8184884786605835 0.5703601241111755 60.0 12 -0.07705438882112503
-2.001519203186035 1.1714682579040527 -0.2028985619544983 1.0 5 -0.07705208659172058
-3.1257994174957275 1.8302299976348877 0.7040852308273315 61.0 13 -0.07704978436231613
-1.9318958520889282 1.131624460220337 -0.11733722686767578 9.0 6 -0.07704747468233109
-3.124232530593872 1.8300459384918213 0.835918128490448 73.0 14 -0.07704517245292664
-1.9099009037017822 1.1191879510879517 -0.038639627397060394 3.0 7 -0.07704287022352219
-3.1048567295074463 1.8201512098312378 0.9643597602844238 78.0 15 -0.07704056799411774
-2.584427833557129 1.519914150238037 -0.8033743500709534 39.0 0 -0.0770198330283165
-2.598088264465332 1.5291696786880493 -0.6959986090660095 41.0 1 -0.077015221118927
-2.0016088485717773 1.1785670518875122 0.12173344939947128 19.0 9 -0.07701291888952255
-3.157013177871704 1.859622597694397 0.3205588161945343 22.0 10 -0.07700830698013306
-2.0030977725982666 1.1803854703903198 -0.36824676394462585 1.0 3 -0.07700600475072861
-3.1619043350219727 1.8639905452728271 0.45067286491394043 64.0 11 -0.07700370252132416
-1.974918246269226 1.1647087335586548 -0.28151822090148926 1.0 4 -0.07700140029191971
-3.1304690837860107 1.8469318151474 0.5756788849830627 67.0 12 -0.07699909061193466
-3.119070291519165 1.8416744470596313 0.7040852308273315 63.0 13 -0.07699448615312576
-1.9449321031570435 1.1488550901412964 -0.11838394403457642 7.0 6 -0.07699218392372131
-3.125894069671631 1.8464393615722656 0.838167667388916 72.0 14 -0.07698987424373627
-1.9057856798171997 1.1261811256408691 -0.038639627397060394 3.0 7 -0.07698757201433182
-3.0981647968292236 1.8315190076828003 0.9643597602844238 78.0 15 -0.07698526978492737
-2.5755159854888916 1.527406096458435 -0.8023390769958496 27.0 0 -0.07696453481912613
-2.5656533241271973 1.5227676630020142 -0.6888001561164856 23.0 1 -0.07695992290973663
