# .PCD v0.7 - Point Cloud Data file format
VERSION 0.7
FIELDS x y z intensity ring time
SIZE 4 4 4 4 4 4
TYPE F F F F F F
COUNT 1 1 1 1 1 1
WIDTH 538
HEIGHT 1
VIEWPOINT 0 0 0 1 0 0 0
POINTS 538
DATA ascii
-0.2655654549598694 1.8159435987472534 -0.4917562007904053 89.0 0 -0.05175065994262695
-0.2627132534980774 1.7986382246017456 0.03172847628593445 4.0 8 -0.051748357713222504
-0.2649971544742584 1.8164855241775513 -0.4238077998161316 90.0 1 -0.051746051758527756
-0.26496362686157227 1.8162556886672974 0.09619349241256714 100.0 9 -0.051743749529123306
-0.26523610949516296 1.820347547531128 -0.35757607221603394 94.0 2 -0.05174144357442856
-0.9692335724830627 6.6601362228393555 0.5888242125511169 93.0 10 -0.05173914134502411
-0.26339319348335266 1.8121323585510254 -0.29002952575683594 100.0 3 -0.05173683539032936
-0.9639411568641663 6.640008926391602 0.8238368034362793 95.0 11 -0.05173453316092491
-0.2634824514389038 1.8172082901000977 -0.2254583090543747 99.0 4 -0.051732227206230164
-0.9648697972297668 6.65459680557251 1.065005898475647 85.0 12 -0.051729924976825714
-0.26270580291748047 1.8140751123428345 -0.16036656498908997 100.0 5 -0.051727619022130966
-0.9591726064682007 6.631580352783203 1.3024622201919556 100.0 13 -0.05172531679272652
-0.2601422667503357 1.8008102178573608 -0.09535612165927887 1.0 6 -0.05172301083803177
-0.9589640498161316 6.646535396575928 1.5503627061843872 100.0 14 -0.05172070860862732
-0.2604304850101471 1.805031657218933 -0.031833190470933914 1.0 7 -0.05171840265393257
-0.9539151191711426 6.619693279266357 1.7920631170272827 63.0 15 -0.05171610042452812
-0.2597702443599701 1.820684552192688 -0.49279147386550903 87.0 0 -0.05169536545872688
-0.2575950026512146 1.80543851852417 0.031833190470933914 6.0 8 -0.051693059504032135
-0.25787270069122314 1.8096373081207275 -0.4220081865787506 90.0 1 -0.051690757274627686
-0.2580588161945343 1.8132150173187256 0.09598415344953537 100.0 9 -0.05168845131993294
-0.2583272457122803 1.8173750638961792 -0.35681283473968506 100.0 2 -0.05168614909052849
-0.9471011757850647 6.671369552612305 0.5895214676856995 90.0 10 -0.05168384313583374
-0.2584926187992096 1.8208189010620117 -0.2912810146808624 100.0 3 -0.05168154090642929
-0.9408002495765686 6.635307312011719 0.8228618502616882 93.0 11 -0.05167923495173454
-0.25662028789520264 1.8121755123138428 -0.2247270941734314 90.0 4 -0.05167693272233009
-0.9416364431381226 6.657924175262451 1.065005898475647 88.0 12 -0.051674626767635345
-0.2558141052722931 1.8110356330871582 -0.1600179374217987 100.0 5 -0.051672324538230896
-0.9371744394302368 6.634725093841553 1.3024622201919556 100.0 13 -0.05167001858353615
-0.25612249970436096 1.8155065774917603 -0.09608882665634155 2.0 6 -0.0516677163541317
-0.9358318448066711 6.641960144042969 1.5485631227493286 100.0 14 -0.05166541039943695
-0.25273531675338745 1.796028733253479 -0.03165866807103157 1.0 7 -0.0516631081700325
-0.9308005571365356 6.622982978820801 1.7920631170272827 63.0 15 -0.05166080221533775
-0.2553298771381378 1.833016276359558 -0.4958973228931427 90.0 0 -0.051640067249536514
-0.2529449164867401 1.8182103633880615 0.032042618840932846 7.0 8 -0.051637765020132065
-0.2520902156829834 1.8143868446350098 -0.4229080080986023 89.0 1 -0.05163545906543732
-0.25117841362953186 1.8101482391357422 0.095774807035923 100.0 9 -0.05163315683603287
-0.25094953179359436 1.8084986209869385 -0.35490477085113525 99.0 2 -0.05163085088133812
-0.9255211353302002 6.678420066833496 0.589870035648346 93.0 10 -0.05162854865193367
-0.25078144669532776 1.8119263648986816 -0.2897166609764099 100.0 3 -0.05162624269723892
-0.9192620515823364 6.6503496170043945 0.8243243098258972 93.0 11 -0.05162394046783447
-0.2494790256023407 1.80716073513031 -0.2239958643913269 99.0 4 -0.051621634513139725
-0.9183917045593262 6.66117000579834 1.065005898475647 85.0 12 -0.051619332283735275
-0.2508959472179413 1.8197687864303589 -0.16071519255638123 100.0 5 -0.05161702632904053
-0.9150786399841309 6.645735740661621 1.3039886951446533 100.0 13 -0.05161472409963608
-0.24923983216285706 1.8124322891235352 -0.09587948024272919 2.0 6 -0.05161241814494133
-0.912377655506134 6.643255233764648 1.548113226890564 100.0 14 -0.05161011591553688
-0.24700744450092316 1.8008623123168945 -0.03172847628593445 2.0 7 -0.05160781368613243
-0.9082021117210388 6.630019664764404 1.7930984497070312 63.0 15 -0.05160550773143768
-0.24737121164798737 1.8224104642868042 -0.49279147386550903 89.0 0 -0.051584772765636444
-0.2457902431488037 1.813137412071228 0.03193790465593338 19.0 8 -0.051582466810941696
-0.24680057168006897 1.8229804039001465 -0.4247076213359833 90.0 1 -0.05158016458153725
-0.24539388716220856 1.8149724006652832 0.09598415344953537 100.0 9 -0.0515778586268425
-0.24489857256412506 1.8113090991973877 -0.3552863597869873 100.0 2 -0.05157555639743805
-0.9011353254318237 6.673712253570557 0.5891727805137634 93.0 10 -0.0515732504427433
-0.24471864104270935 1.8147486448287964 -0.29002952575683594 100.0 3 -0.05157094821333885
-0.8965736627578735 6.657451629638672 0.8248117566108704 95.0 11 -0.051568642258644104
-0.24316884577274323 1.8080205917358398 -0.2239958643913269 99.0 4 -0.051566340029239655
-0.894080638885498 6.656504154205322 1.0637544393539429 88.0 12 -0.051564037799835205
-0.24241989850997925 1.8048361539840698 -0.15932069718837738 100.0 5 -0.05156173184514046
-0.8929205536842346 6.656672477722168 1.3055152893066406 100.0 13 -0.05155942961573601
-0.2431764453649521 1.8152709007263184 -0.09598415344953537 5.0 6 -0.05155712366104126
-0.8891810178756714 6.646399974822998 1.548113226890564 100.0 14 -0.05155482143163681
-0.24124975502490997 1.8056777715682983 -0.031798284500837326 5.0 7 -0.05155251547694206
-0.8845406770706177 6.629319667816162 1.7920631170272827 63.0 15 -0.05155021324753761
-0.2410086840391159 1.8232628107070923 -0.49279147386550903 89.0 0 -0.051529474556446075
-0.23788988590240479 1.8020894527435303 0.03172847628593445 20.0 8 -0.051527172327041626
-0.24069075286388397 1.8257627487182617 -0.4251575171947479 94.0 1 -0.05152486637234688
-0.23853594064712524 1.8118574619293213 0.095774807035923 100.0 9 -0.05152256414294243
-0.2383185625076294 1.810206413269043 -0.35490477085113525 99.0 2 -0.05152025818824768
-0.8762772679328918 6.664964199066162 0.5881268978118896 90.0 10 -0.05151795595884323
-0.23632563650608063 1.7999231815338135 -0.28752657771110535 100.0 3 -0.05151565372943878
-0.8748791813850403 6.6723504066467285 0.8262742161750793 95.0 11 -0.051513347774744034
-0.23788666725158691 1.8167316913604736 -0.22497083246707916 99.0 4 -0.051511045545339584
-0.871353268623352 6.663502216339111 1.0643802881240845 88.0 12 -0.051508739590644836
-0.23663541674613953 1.8096226453781128 -0.15966932475566864 100.0 5 -0.05150643736124039
-0.8676465749740601 6.644174575805664 1.3024622201919556 100.0 13 -0.05150413140654564
-0.2376127988100052 1.8220500946044922 -0.09629816561937332 5.0 6 -0.05150182917714119
-0.8664800524711609 6.653327465057373 1.5490130186080933 100.0 14 -0.05149952322244644
-0.23571938276290894 1.8124576807022095 -0.03190299868583679 6.0 7 -0.05149722099304199
-0.8603976964950562 6.624703884124756 1.7899925708770752 63.0 15 -0.051494915038347244
-0.2336573600769043 1.8164288997650146 -0.4907209575176239 90.0 0 -0.051474180072546005
-0.23006880283355713 1.791008472442627 0.031519047915935516 25.0 8 -0.05147187411785126
-0.23307593166828156 1.8169273138046265 -0.4229080080986023 90.0 1 -0.05146957188844681
-0.23246408998966217 1.8146601915359497 0.09587948024272919 100.0 9 -0.05146726965904236
-0.23249761760234833 1.8149218559265137 -0.35566797852516174 99.0 2 -0.05146496370434761
-0.853005051612854 6.667982578277588 0.5881268978118896 93.0 10 -0.05146266147494316
-0.23029111325740814 1.8026964664459229 -0.28783944249153137 100.0 3 -0.05146035552024841
-0.8490724563598633 6.655672073364258 0.8238368034362793 93.0 11 -0.051458053290843964
-0.23179487884044647 1.8195202350616455 -0.22521455585956573 96.0 4 -0.051455747336149216
-0.8485848903656006 6.670422077178955 1.065005898475647 88.0 12 -0.051453445106744766
-0.23081961274147034 1.8143905401229858 -0.1600179374217987 100.0 5 -0.05145113915205002
-0.8444502353668213 6.647162914276123 1.3024622201919556 100.0 13 -0.05144883692264557
-0.23175431787967682 1.8268312215805054 -0.09650751203298569 7.0 6 -0.05144653096795082
-0.844228208065033 6.664045333862305 1.5508127212524414 100.0 14 -0.05144422873854637
-0.2301437258720398 1.8192211389541626 -0.03200771287083626 7.0 7 -0.051441922783851624
-0.8372693061828613 6.62766695022583 1.7899925708770752 63.0 15 -0.051439620554447174
-0.22875362634658813 1.8287348747253418 -0.4938267767429352 89.0 0 -0.051418885588645935
-0.2257988303899765 1.807674765586853 0.031798284500837326 45.0 8 -0.05141657963395119
-0.22649145126342773 1.815796136856079 -0.42245811223983765 94.0 1 -0.05141427740454674
-0.22595025599002838 1.8114573955535889 0.09567013382911682 100.0 9 -0.05141197144985199
-0.22713111340999603 1.8235152959823608 -0.3571944534778595 99.0 2 -0.05140966922044754
-0.8312012553215027 6.682783126831055 0.5891727805137634 90.0 10 -0.05140736326575279
-0.22399750351905823 1.803489327430725 -0.28783944249153137 100.0 3 -0.05140506103634834
-0.8248555064201355 6.6507158279418945 0.8228618502616882 95.0 11 -0.051402755081653595
-0.22446657717227936 1.8124380111694336 -0.22423960268497467 94.0 4 -0.051400452852249146
-0.8250048756599426 6.66143798828125 1.0631288290023804 84.0 12 -0.0513981468975544
-0.22424064576625824 1.8132078647613525 -0.15984363853931427 100.0 5 -0.05139584466814995
-0.821721613407135 6.653967380523682 1.3032255172729492 100.0 13 -0.0513935387134552
-0.2248867005109787 1.8236645460128784 -0.09629816561937332 7.0 6 -0.05139123648405075
-0.8200098872184753 6.659214496612549 1.5490130186080933 100.0 14 -0.051388930529356
-0.22484323382377625 1.8259283304214478 -0.032112427055835724 8.0 7 -0.05138662829995155
-0.8157594203948975 6.634241580963135 1.7910279035568237 63.0 15 -0.051384322345256805
-0.22283442318439484 1.8333576917648315 -0.49486202001571655 89.0 0 -0.051363587379455566
-0.22076772153377533 1.8163539171218872 0.03193790465593338 100.0 8 -0.05136128515005112
-0.22023436427116394 1.8146024942398071 -0.4220081865787506 89.0 1 -0.05135897919535637
-0.21914464235305786 1.8082696199417114 0.09546079486608505 100.0 9 -0.05135667696595192
-0.21934881806373596 1.8126028776168823 -0.35490477085113525 99.0 2 -0.05135437101125717
-0.8083483576774597 6.689599514007568 0.5895214676856995 90.0 10 -0.05135206878185272
-0.218253031373024 1.8061834573745728 -0.2881523370742798 100.0 3 -0.051349762827157974
-0.8042213916778564 6.665239334106445 0.8243243098258972 97.0 11 -0.051347460597753525
-0.218217134475708 1.811201572418213 -0.2239958643913269 99.0 4 -0.05134515464305878
-0.801748514175415 6.664277076721191 1.0631288290023804 85.0 12 -0.05134285241365433
-0.21957293152809143 1.827826738357544 -0.1610638052225113 100.0 5 -0.05134054645895958
-0.8003523945808411 6.662503719329834 1.304370403289795 100.0 13 -0.05133824422955513
-0.21883833408355713 1.8244001865386963 -0.09629816561937332 10.0 6 -0.05133593827486038
-0.7972287535667419 6.656092643737793 1.5476633310317993 100.0 14 -0.05133363604545593
-0.2160930633544922 1.8068467378616333 -0.03176337853074074 8.0 7 -0.05133133381605148
-0.792594850063324 6.637048721313477 1.7910279035568237 63.0 15 -0.051329027861356735
-0.2158478945493698 1.8264124393463135 -0.49279147386550903 89.0 0 -0.051308292895555496
-0.21489520370960236 1.8210853338241577 0.03200771287083626 100.0 8 -0.05130598694086075
-0.2148105353116989 1.8231016397476196 -0.4238077998161316 92.0 1 -0.0513036847114563
-0.21376514434814453 1.8169578313827515 0.09587948024272919 100.0 9 -0.05130137875676155
-0.21333716809749603 1.8133201599121094 -0.35490477085113525 99.0 2 -0.0512990765273571
-0.784763753414154 6.680370330810547 0.5884755849838257 93.0 10 -0.051296770572662354
-0.2124067097902298 1.810858130455017 -0.28877806663513184 100.0 3 -0.051294468343257904
-0.7809517979621887 6.668006420135498 0.8243243098258972 97.0 11 -0.051292162388563156
-0.21189391613006592 1.8119522333145142 -0.2239958643913269 99.0 4 -0.05128986015915871
-0.7789372801780701 6.670958518981934 1.0637544393539429 88.0 12 -0.05128755420446396
-0.2122678905725479 1.8206660747528076 -0.16036656498908997 100.0 5 -0.05128525197505951
-0.7773166298866272 6.66720724105835 1.304751992225647 100.0 13 -0.05128294974565506
-0.21339282393455505 1.8330883979797363 -0.09671685099601746 7.0 6 -0.05128064379096031
-0.7742130160331726 6.660770893096924 1.548113226890564 100.0 14 -0.05127834156155586
-0.2102452665567398 1.8115628957748413 -0.031833190470933914 8.0 7 -0.051276035606861115
-0.7689790725708008 6.635936737060547 1.7899925708770752 63.0 15 -0.051273733377456665
-0.20827220380306244 1.819514274597168 -0.4907209575176239 85.0 0 -0.05125299468636513
-0.20785440504550934 1.8158643245697021 0.03190299868583679 100.0 8 -0.05125069245696068
-0.20888836681842804 1.8277126550674438 -0.4247076213359833 90.0 1 -0.05124838650226593
-0.20696894824504852 1.8137240409851074 0.09567013382911682 100.0 9 -0.05124608427286148
-0.20646685361862183 1.8121392726898193 -0.3545231223106384 97.0 2 -0.05124377831816673
-0.7598247528076172 6.679242134094238 0.5881268978118896 93.0 10 -0.05124147608876228
-0.20509973168373108 1.8057360649108887 -0.28783944249153137 100.0 3 -0.051239170134067535
-0.7581207752227783 6.674635410308838 0.8248117566108704 97.0 11 -0.051236867904663086
-0.20623831450939178 1.8185982704162598 -0.2247270941734314 96.0 4 -0.051234565675258636
-0.7547558546066284 6.665786266326904 1.0625029802322388 85.0 12 -0.05123225972056389
-0.2050172984600067 1.8134769201278687 -0.15966932475566864 100.0 5 -0.05122995749115944
-0.7524359226226807 6.666109561920166 1.3039886951446533 100.0 13 -0.05122765153646469
-0.2066723108291626 1.8338583707809448 -0.09671685099601746 7.0 6 -0.05122534930706024
-0.7511038184165955 6.675182342529297 1.5508127212524414 100.0 14 -0.051223043352365494
-0.20414528250694275 1.8142726421356201 -0.031868092715740204 8.0 7 -0.051220741122961044
-0.7453774809837341 6.634741306304932 1.7889572381973267 63.0 15 -0.051218435168266296
-0.20234687626361847 1.8240700960159302 -0.4917562007904053 89.0 0 -0.05119770020246506
-0.19943690299987793 1.8007134199142456 0.031623758375644684 100.0 8 -0.05119539424777031
-0.20133087038993835 1.8207182884216309 -0.4229080080986023 92.0 1 -0.05119309201836586
-0.20151419937610626 1.8223761320114136 0.09608882665634155 100.0 9 -0.05119078606367111
-0.2014339417219162 1.8245573043823242 -0.35681283473968506 100.0 2 -0.05118848383426666
-0.7369400858879089 6.685815334320068 0.5884755849838257 93.0 10 -0.05118618160486221
-0.1990109086036682 1.8084046840667725 -0.2881523370742798 96.0 3 -0.051183875650167465
-0.7332198619842529 6.6734232902526855 0.8243243098258972 97.0 11 -0.051181573420763016
-0.20032380521297455 1.8232532739639282 -0.22521455585956573 100.0 4 -0.05117926746606827
-0.7323462963104248 6.676233768463135 1.0637544393539429 88.0 12 -0.05117696523666382
-0.19911915063858032 1.8181425333023071 -0.1600179374217987 100.0 5 -0.05117465928196907
-0.7285267114639282 6.662839889526367 1.3028439283370972 100.0 13 -0.05117235705256462
-0.19961987435817719 1.828612208366394 -0.0964028462767601 6.0 6 -0.05117005109786987
-0.7276932597160339 6.666013240814209 1.548113226890564 100.0 14 -0.051167748868465424
-0.19759392738342285 1.8129864931106567 -0.031833190470933914 8.0 7 -0.051165442913770676
-0.7230474948883057 6.644985198974609 1.7910279035568237 63.0 15 -0.051163140684366226
-0.19629642367362976 1.8247311115264893 -0.4917562007904053 89.0 0 -0.05114240571856499
-0.19624076783657074 1.8272123336791992 0.032077521085739136 100.0 8 -0.05114009976387024
-0.19446051120758057 1.813625454902649 -0.4211083948612213 89.0 1 -0.05113779753446579
-0.19419178366661072 1.8111193180084229 0.09546079486608505 100.0 9 -0.05113549157977104
-0.19496393203735352 1.8213109970092773 -0.3560495972633362 97.0 2 -0.05113318935036659
-0.7156133055686951 6.6961469650268555 0.5891727805137634 93.0 10 -0.051130883395671844
-0.195108100771904 1.8286969661712646 -0.2912810146808624 100.0 3 -0.051128581166267395
-0.7102431058883667 6.667922496795654 0.8233493566513062 97.0 11 -0.05112627521157265
-0.19280430674552917 1.8100903034210205 -0.22350840270519257 99.0 4 -0.0511239729821682
-0.7110399603843689 6.686482906341553 1.065005898475647 88.0 12 -0.05112166702747345
-0.1930883675813675 1.8187928199768066 -0.1600179374217987 100.0 5 -0.051119364798069
-0.7066329717636108 6.667171478271484 1.3032255172729492 100.0 13 -0.05111705884337425
-0.19313491880893707 1.825291633605957 -0.09619349241256714 7.0 6 -0.0511147566139698
-0.7043549418449402 6.65676212310791 1.545413851737976 100.0 14 -0.051112450659275055
-0.19305069744586945 1.827552080154419 -0.032077521085739136 7.0 7 -0.051110148429870605
-0.7014176845550537 6.651188373565674 1.7920631170272827 63.0 15 -0.05110784247517586
-0.1914462298154831 1.8369005918502808 -0.49486202001571655 87.0 0 -0.05108710750937462
-0.1887313425540924 1.8139305114746094 0.031833190470933914 84.0 8 -0.05108480527997017
-0.18925093114376068 1.8220136165618896 -0.4229080080986023 89.0 1 -0.05108249932527542
-0.1874578595161438 1.8078125715255737 0.09525144845247269 100.0 9 -0.05108019709587097
-0.18811357021331787 1.814136266708374 -0.3545231223106384 97.0 2 -0.051077891141176224
-0.6934022903442383 6.698483467102051 0.5891727805137634 93.0 10 -0.051075588911771774
-0.18721574544906616 1.8116496801376343 -0.2884652018547058 100.0 3 -0.051073282957077026
-0.6887399554252625 6.676164627075195 0.8240805268287659 100.0 11 -0.05107098072767258
-0.1866876184940338 1.8127269744873047 -0.22375212609767914 94.0 4 -0.05106867477297783
-0.6868855357170105 6.681064128875732 1.0637544393539429 88.0 12 -0.05106637254357338
-0.18775677680969238 1.829365611076355 -0.16088949143886566 100.0 5 -0.05106406658887863
-0.6849221587181091 6.673383712768555 1.3039886951446533 100.0 13 -0.05106176435947418
-0.18972687423229218 1.851751446723938 -0.09755422919988632 7.0 6 -0.051059458404779434
-0.6809142231941223 6.657242298126221 1.5449639558792114 100.0 14 -0.051057156175374985
-0.18646831810474396 1.8262255191802979 -0.032042618840932846 15.0 7 -0.05105485022068024
-0.678586483001709 6.657440185546875 1.7930984497070312 63.0 15 -0.05105254799127579
-0.18355262279510498 1.8260570764541626 -0.4917562007904053 87.0 0 -0.05103181302547455
-0.18359877169132233 1.8265162706375122 0.032042618840932846 59.0 8 -0.0510295070707798
-0.18347382545471191 1.8284798860549927 -0.42425769567489624 94.0 1 -0.05102720484137535
-0.18154393136501312 1.812430739402771 0.09546079486608505 100.0 9 -0.0510248988866806
-0.18126653134822845 1.812860369682312 -0.354141503572464 99.0 2 -0.051022596657276154
-0.6686500310897827 6.698996543884277 0.5889984965324402 96.0 10 -0.051020290702581406
-0.18116241693496704 1.818220615386963 -0.2894037961959839 100.0 3 -0.051017988473176956
-0.6662171483039856 6.686429500579834 0.8250555396080017 100.0 11 -0.05101568251848221
-0.18075130879878998 1.8173182010650635 -0.22423960268497467 96.0 4 -0.05101338028907776
-0.6635614633560181 6.6834211349487305 1.0637544393539429 88.0 12 -0.05101107433438301
-0.18019047379493713 1.8181138038635254 -0.15984363853931427 100.0 5 -0.05100877210497856
-0.6616132259368896 6.687572002410889 1.3062784671783447 100.0 13 -0.051006466150283813
-0.1849018633365631 1.8723101615905762 -0.09860094636678696 9.0 6 -0.051004163920879364
-0.6565110683441162 6.659692764282227 1.5449639558792114 100.0 14 -0.051001861691474915
-0.1810728758573532 1.8368154764175415 -0.03221714124083519 20.0 7 -0.05099955573678017
-0.6545850038528442 6.652078151702881 1.7910279035568237 63.0 15 -0.05099725350737572
-0.17680475115776062 1.8228410482406616 -0.4907209575176239 89.0 0 -0.05097651481628418
-0.1751682013273239 1.8092633485794067 0.03172847628593445 57.0 8 -0.05097421258687973
-0.17695875465869904 1.8310798406600952 -0.4247076213359833 90.0 1 -0.05097190663218498
-0.1752837598323822 1.817059874534607 0.09567013382911682 100.0 9 -0.05096960440278053
-0.17531563341617584 1.8173902034759521 -0.35490477085113525 99.0 2 -0.050967298448085785
-0.644496500492096 6.693357467651367 0.5883012413978577 96.0 10 -0.050964996218681335
-0.17500390112400055 1.8208081722259521 -0.2897166609764099 100.0 3 -0.05096269026398659
-0.6417071223258972 6.688826560974121 0.8250555396080017 100.0 11 -0.05096038803458214
-0.1748466044664383 1.825872778892517 -0.22521455585956573 94.0 4 -0.05095808207988739
-0.6390593647956848 6.6858086585998535 1.0637544393539429 88.0 12 -0.05095577985048294
-0.17384248971939087 1.8187319040298462 -0.15984363853931427 100.0 5 -0.05095347762107849
-0.6371510028839111 6.67811393737793 1.3039886951446533 100.0 13 -0.05095117166638374
-0.17987944185733795 1.888850450515747 -0.09943832457065582 8.0 6 -0.050948869436979294
-0.6352871060371399 6.683283805847168 1.549912929534912 100.0 14 -0.050946563482284546
-0.17528332769870758 1.847420573234558 -0.03239166736602783 29.0 7 -0.050944261252880096
-0.6298366785049438 6.650585651397705 1.7899925708770752 63.0 15 -0.05094195529818535
-0.17044028639793396 1.8234471082687378 -0.4907209575176239 90.0 0 -0.05092122033238411
-0.16866625845432281 1.8078726530075073 0.03169357031583786 48.0 8 -0.05091891437768936
-0.16984279453754425 1.8239250183105469 -0.4229080080986023 92.0 1 -0.05091661214828491
-0.16967883706092834 1.825615406036377 0.09608882665634155 100.0 9 -0.050914306193590164
-0.1691519021987915 1.8199459314346313 -0.3552863597869873 97.0 2 -0.050912003964185715
-0.6213138103485107 6.697549819946289 0.5884755849838257 93.0 10 -0.050909701734781265
-0.16755379736423492 1.8096060752868652 -0.28783944249153137 100.0 3 -0.05090739578008652
-0.6172570586204529 6.679165840148926 0.8235930800437927 100.0 11 -0.05090509355068207
-0.16883711516857147 1.8304253816604614 -0.22570204734802246 96.0 4 -0.05090278759598732
-0.6164434552192688 6.695866584777832 1.065005898475647 88.0 12 -0.05090048536658287
-0.16731061041355133 1.8173435926437378 -0.15966932475566864 100.0 5 -0.05089817941188812
-0.6134751439094543 6.676387786865234 1.3032255172729492 100.0 13 -0.05089587718248367
-0.17073173820972443 1.8616219758987427 -0.09797292202711105 9.0 6 -0.050893571227788925
-0.6123109459877014 6.689342021942139 1.5508127212524414 100.0 14 -0.050891268998384476
-0.16883394122123718 1.8480212688446045 -0.03239166736602783 26.0 7 -0.05088896304368973
-0.606967031955719 6.656591415405273 1.7910279035568237 63.0 15 -0.05088666081428528
-0.16476689279079437 1.831727147102356 -0.49279147386550903 89.0 0 -0.05086592212319374
-0.16342778503894806 1.8204004764556885 0.03190299868583679 47.0 8 -0.05086361989378929
-0.16347457468509674 1.8245068788528442 -0.4229080080986023 92.0 1 -0.05086131766438484
-0.1622382402420044 1.814260721206665 0.09546079486608505 100.0 9 -0.050859011709690094
-0.1627984344959259 1.8205254077911377 -0.3552863597869873 97.0 2 -0.050856709480285645
-0.5989953279495239 6.711585521697998 0.5895214676856995 93.0 10 -0.0508544035255909
-0.16088508069515228 1.806244969367981 -0.2872137129306793 100.0 3 -0.05085210129618645
-0.5946431756019592 6.6891889572143555 0.8245680332183838 100.0 11 -0.0508497953414917
-0.16174450516700745 1.8230942487716675 -0.2247270941734314 94.0 4 -0.05084749311208725
-0.5934134125709534 6.701912879943848 1.0656317472457886 88.0 12 -0.0508451871573925
-0.16166828572750092 1.8258548974990845 -0.16036656498908997 100.0 5 -0.05084288492798805
-0.5901678204536438 6.678488731384277 1.3032255172729492 100.0 13 -0.050840578973293304
-0.16528469324111938 1.8741438388824463 -0.09860094636678696 10.0 6 -0.050838276743888855
-0.5882717370986938 6.68367338180542 1.5490130186080933 100.0 14 -0.05083597078919411
-0.16605712473392487 1.8904317617416382 -0.033124666661024094 43.0 7 -0.05083366855978966
-0.5844038128852844 6.666368007659912 1.7930984497070312 63.0 15 -0.05083136260509491
-0.15903690457344055 1.8399899005889893 -0.49486202001571655 89.0 0 -0.05081062763929367
-0.1572437584400177 1.822952151298523 0.03193790465593338 46.0 8 -0.05080832540988922
-0.1567709892988205 1.821183204650879 -0.4220081865787506 90.0 1 -0.05080601945519447
-0.15522003173828125 1.806856393814087 0.09504210948944092 100.0 9 -0.050803717225790024
-0.15560196340084076 1.8113023042678833 -0.3533782958984375 99.0 2 -0.050801411271095276
-0.5750515460968018 6.707679271697998 0.5889984965324402 99.0 10 -0.050799109041690826
-0.15508468449115753 1.8127001523971558 -0.2881523370742798 100.0 3 -0.05079680308699608
-0.5712881088256836 6.691223621368408 0.8245680332183838 100.0 11 -0.05079450085759163
-0.15504306554794312 1.819691777229309 -0.22423960268497467 90.0 4 -0.05079219490289688
-0.5681762099266052 6.682292461395264 1.0621901750564575 84.0 12 -0.05078989267349243
-0.15563185513019562 1.8303786516189575 -0.16071519255638123 100.0 5 -0.050787586718797684
-0.5675141215324402 6.688333034515381 1.304751992225647 100.0 13 -0.050785284489393234
-0.15840508043766022 1.8707292079925537 -0.09839160740375519 10.0 6 -0.050782978534698486
-0.5646110773086548 6.681802749633789 1.548113226890564 100.0 14 -0.05078067630529404
-0.1549200564622879 1.837199091911316 -0.0321822389960289 22.0 7 -0.05077837035059929
-0.5611316561698914 6.6683669090271 1.7930984497070312 63.0 15 -0.05077606812119484
-0.15133647620677948 1.8251320123672485 -0.4907209575176239 89.0 0 -0.0507553331553936
-0.15120969712734222 1.827475666999817 0.03200771287083626 43.0 8 -0.05075302720069885
-0.15073314309120178 1.825603723526001 -0.4229080080986023 90.0 1 -0.0507507249712944
-0.14956749975681305 1.8153492212295532 0.09546079486608505 100.0 9 -0.050748419016599655
-0.1496003270149231 1.8157477378845215 -0.354141503572464 99.0 2 -0.050746116787195206
-0.5511454939842224 6.703688621520996 0.5884755849838257 93.0 10 -0.05074381083250046
-0.1497248411178589 1.8250430822372437 -0.29002952575683594 100.0 3 -0.05074150860309601
-0.5477641820907593 6.69119930267334 0.8243243098258972 97.0 11 -0.05073920264840126
-0.14901384711265564 1.82417893409729 -0.2247270941734314 90.0 4 -0.05073690041899681
-0.5453268885612488 6.690142631530762 1.0631288290023804 85.0 12 -0.05073459446430206
-0.14891746640205383 1.8269391059875488 -0.16036656498908997 100.0 5 -0.050732292234897614
-0.544480562210083 6.694186687469482 1.3055152893066406 100.0 13 -0.050729986280202866
-0.15413638949394226 1.8991405963897705 -0.09985701739788055 15.0 6 -0.050727684050798416
-0.5422258377075195 6.695387363433838 1.5508127212524414 100.0 14 -0.05072537809610367
-0.1481834501028061 1.8337422609329224 -0.032112427055835724 23.0 7 -0.05072307586669922
-0.5372315645217896 6.6625823974609375 1.7910279035568237 63.0 15 -0.05072077363729477
-0.14496417343616486 1.8256491422653198 -0.4907209575176239 89.0 0 -0.05070003494620323
-0.14419744908809662 1.8200186491012573 0.031868092715740204 44.0 8 -0.05069773271679878
-0.1446680724620819 1.8300038576126099 -0.4238077998161316 89.0 1 -0.050695426762104034
-0.1438584178686142 1.8238245248794556 0.09587948024272919 100.0 9 -0.050693124532699585
-0.1435704082250595 1.8201731443405151 -0.35490477085113525 99.0 2 -0.05069081857800484
-0.5275837779045105 6.703585624694824 0.5883012413978577 96.0 10 -0.05068851634860039
-0.14227207005023956 1.8117690086364746 -0.28783944249153137 98.0 3 -0.05068621039390564
-0.5247156620025635 6.697027683258057 0.8248117566108704 99.0 11 -0.05068390816450119
-0.14357313513755798 1.8365622758865356 -0.226189523935318 96.0 4 -0.05068160220980644
-0.5222792625427246 6.6959428787231445 1.0637544393539429 88.0 12 -0.05067929998040199
-0.14161013066768646 1.8155295848846436 -0.15932069718837738 100.0 5 -0.050676994025707245
-0.5209592580795288 6.694089412689209 1.305133581161499 100.0 13 -0.050674691796302795
-0.14827880263328552 1.909623384475708 -0.10038037598133087 18.0 6 -0.050672389566898346
-0.5191537141799927 6.701124668121338 1.5517125129699707 100.0 14 -0.0506700836122036
-0.14193610846996307 1.8362421989440918 -0.03214733302593231 25.0 7 -0.05066778138279915
-0.5139697790145874 6.664417266845703 1.7910279035568237 63.0 15 -0.0506654754281044
-0.13917484879493713 1.8338491916656494 -0.49279147386550903 87.0 0 -0.05064474046230316
-0.13784390687942505 1.8205108642578125 0.031868092715740204 40.0 8 -0.050642434507608414
-0.1382787972688675 1.8304977416992188 -0.4238077998161316 92.0 1 -0.050640132278203964
-0.13871265947818756 1.8362410068511963 0.09650751203298569 100.0 9 -0.050637826323509216
-0.13765807449817657 1.8265362977981567 -0.3560495972633362 97.0 2 -0.05063552409410477
-0.5043314695358276 6.707373142242432 0.5884755849838257 90.0 10 -0.05063321813941002
-0.13727638125419617 1.8299832344055176 -0.290655255317688 100.0 3 -0.05063091591000557
-0.5013337135314941 6.698818683624268 0.8248117566108704 97.0 11 -0.05062861368060112
-0.13716186583042145 1.8370522260665894 -0.226189523935318 94.0 4 -0.05062630772590637
-0.5006614923477173 6.705517768859863 1.065005898475647 85.0 12 -0.05062400549650192
-0.13630829751491547 1.8299211263656616 -0.1605408787727356 100.0 5 -0.050621699541807175
-0.4968601167201996 6.686078071594238 1.3032255172729492 100.0 13 -0.050619397312402725
-0.14131712913513184 1.906145691871643 -0.1001710295677185 19.0 6 -0.05061709135770798
-0.495473176240921 6.699009418487549 1.5508127212524414 100.0 14 -0.05061478912830353
-0.13687898218631744 1.850662350654602 -0.03239166736602783 26.0 7 -0.05061248317360878
-0.4921494424343109 6.669938564300537 1.7920631170272827 63.0 15 -0.05061018094420433
-0.13277393579483032 1.834323763847351 -0.49279147386550903 87.0 0 -0.05058944225311279
-0.13151775300502777 1.8169689178466797 0.031798284500837326 32.0 8 -0.050587140023708344
-0.13178634643554688 1.8251153230667114 -0.42245811223983765 94.0 1 -0.050584837794303894
-0.13129717111587524 1.8227694034576416 0.095774807035923 100.0 9 -0.050582531839609146
-0.13128268718719482 1.8270055055618286 -0.3560495972633362 97.0 2 -0.0505802296102047
-0.48176825046539307 6.721017360687256 0.5895214676856995 93.0 10 -0.05057792365550995
-0.1313479244709015 1.8323990106582642 -0.2909681499004364 100.0 3 -0.0505756214261055
-0.4791182279586792 6.700444221496582 0.8248117566108704 97.0 11 -0.05057331547141075
-0.1302221566438675 1.825616717338562 -0.2247270941734314 94.0 4 -0.0505710132420063
-0.47725000977516174 6.7072248458862305 1.065005898475647 88.0 12 -0.050568707287311554
-0.12991935014724731 1.8303859233856201 -0.1605408787727356 100.0 5 -0.050566405057907104
-0.47524288296699524 6.695522308349609 1.304751992225647 100.0 13 -0.05056409910321236
-0.13400831818580627 1.8926578760147095 -0.09943832457065582 19.0 6 -0.05056179687380791
-0.47270467877388 6.692839622497559 1.5490130186080933 100.0 14 -0.05055949091911316
-0.1308392435312271 1.8571131229400635 -0.0324963815510273 27.0 7 -0.05055718868970871
-0.468868613243103 6.671615123748779 1.7920631170272827 63.0 15 -0.05055488273501396
-0.12722216546535492 1.8424630165100098 -0.49486202001571655 89.0 0 -0.05053414776921272
-0.12544886767864227 1.8214069604873657 0.031868092715740204 33.0 8 -0.05053184553980827
-0.12581488490104675 1.8313966989517212 -0.4238077998161316 89.0 1 -0.050529539585113525
-0.12429322302341461 1.8092468976974487 0.09504210948944092 100.0 9 -0.050527237355709076
-0.1249544769525528 1.8235137462615967 -0.3552863597869873 94.0 2 -0.05052493140101433
-0.4597509503364563 6.726552963256836 0.589870035648346 90.0 10 -0.05052262917160988
-0.1254877895116806 1.8407294750213623 -0.2922196090221405 100.0 3 -0.05052032321691513
-0.455727756023407 6.702075481414795 0.8248117566108704 99.0 11 -0.05051802098751068
-0.12357962876558304 1.822098970413208 -0.22423960268497467 90.0 4 -0.05051571503281593
-0.45473945140838623 6.704829216003418 1.0643802881240845 85.0 12 -0.050513412803411484
-0.12438623607158661 1.8387579917907715 -0.16123811900615692 100.0 5 -0.050511106848716736
-0.45253050327301025 6.706933975219727 1.3066600561141968 100.0 13 -0.050508804619312286
-0.12874142825603485 1.9130417108535767 -0.10048504173755646 21.0 6 -0.05050649866461754
-0.4495986998081207 6.698338031768799 1.549912929534912 100.0 14 -0.05050419643521309
-0.12401001155376434 1.847561001777649 -0.032321859151124954 26.0 7 -0.05050189048051834
-0.4472564458847046 6.680843830108643 1.7941336631774902 63.0 15 -0.05049958825111389
-0.12028411775827408 1.8351850509643555 -0.49279147386550903 90.0 0 -0.05047885328531265
-0.12045396119356155 1.8377764225006104 0.03214733302593231 33.0 8 -0.050476547330617905
-0.11948808282613754 1.8279147148132324 -0.4229080080986023 90.0 1 -0.050474245101213455
-0.11862792819738388 1.8196346759796143 0.09556546807289124 100.0 9 -0.05047193914651871
-0.11820583790540695 1.8180614709854126 -0.354141503572464 99.0 2 -0.05046963691711426
-0.4360085129737854 6.724140644073486 0.5895214676856995 93.0 10 -0.05046733096241951
-0.11938339471817017 1.8411355018615723 -0.2922196090221405 100.0 3 -0.05046502873301506
-0.43439850211143494 6.717417240142822 0.8265179991722107 100.0 11 -0.05046272277832031
-0.11804717034101486 1.8304227590560913 -0.22521455585956573 96.0 4 -0.05046042054891586
-0.43082356452941895 6.698490619659424 1.0631288290023804 88.0 12 -0.050458114594221115
-0.11733060330152512 1.8292392492294312 -0.16036656498908997 100.0 5 -0.050455812364816666
-0.4301626682281494 6.706438064575195 1.3062784671783447 100.0 13 -0.05045350641012192
-0.12443626672029495 1.9453492164611816 -0.10215979814529419 43.0 6 -0.05045120418071747
-0.4273850619792938 6.69979190826416 1.549912929534912 100.0 14 -0.05044889822602272
-0.1164187341928482 1.8300215005874634 -0.03200771287083626 25.0 7 -0.05044659599661827
-0.4236868619918823 6.678508758544922 1.7930984497070312 63.0 15 -0.05044429004192352
-0.11363941431045532 1.8317373991012573 -0.4917562007904053 87.0 0 -0.05042123794555664
-0.11248304694890976 1.8182467222213745 0.031798284500837326 35.0 8 -0.05041893571615219
-0.11326711624860764 1.8361204862594604 -0.4247076213359833 89.0 1 -0.05041662976145744
-0.11220347881317139 1.8240442276000977 0.095774807035923 100.0 9 -0.050414327532052994
-0.11222176998853683 1.8243415355682373 -0.3552863597869873 97.0 2 -0.050412021577358246
-0.41204768419265747 6.7176666259765625 0.5888242125511169 93.0 10 -0.050409719347953796
-0.11215251684188843 1.8336739540100098 -0.2909681499004364 100.0 3 -0.05040741339325905
-0.409652441740036 6.716982841491699 0.8262742161750793 97.0 11 -0.0504051111638546
-0.11133795231580734 1.8308429718017578 -0.22521455585956573 96.0 4 -0.05040280520915985
-0.406988263130188 6.711854457855225 1.065005898475647 88.0 12 -0.0504005029797554
-0.1105823963880539 1.823671579360962 -0.15984363853931427 100.0 5 -0.050398197025060654
-0.4053375720977783 6.704050540924072 1.3055152893066406 100.0 13 -0.050395894795656204
-0.11730579286813736 1.9457920789718628 -0.10215979814529419 30.0 6 -0.050393588840961456
-0.4030615985393524 6.705204010009766 1.5508127212524414 100.0 14 -0.05039128661155701
-0.11042707413434982 1.8424125909805298 -0.03221714124083519 27.0 7 -0.05038898065686226
-0.3987465500831604 6.672302722930908 1.7910279035568237 63.0 15 -0.05038667842745781
-0.10701850801706314 1.8282660245895386 -0.4907209575176239 89.0 0 -0.05036594346165657
-0.10625152289867401 1.820624589920044 0.031833190470933914 29.0 8 -0.05036363750696182
-0.10663115978240967 1.8326137065887451 -0.4238077998161316 89.0 1 -0.05036133527755737
-0.10618221759796143 1.8304065465927124 0.09608882665634155 100.0 9 -0.050359029322862625
-0.1063072606921196 1.8325620889663696 -0.35681283473968506 94.0 2 -0.050356727093458176
-0.38893944025039673 6.72503137588501 0.5893471240997314 81.0 10 -0.05035442113876343
-0.10586521029472351 1.8360261917114258 -0.2912810146808624 100.0 3 -0.05035211890935898
-0.3857490122318268 6.710444450378418 0.8252992630004883 97.0 11 -0.05034981295466423
-0.10540027171373367 1.8391480445861816 -0.226189523935318 92.0 4 -0.05034751072525978
-0.38378381729125977 6.7171783447265625 1.0656317472457886 88.0 12 -0.05034520477056503
-0.10432995110750198 1.826035499572754 -0.1600179374217987 100.0 5 -0.050342902541160583
-0.38149163126945496 6.69758415222168 1.3039886951446533 100.0 13 -0.050340596586465836
-0.10745527595281601 1.8923505544662476 -0.09933365881443024 22.0 6 -0.050338294357061386
-0.3804260194301605 6.720189571380615 1.553961992263794 100.0 14 -0.05033598840236664
-0.10433446615934372 1.8487763404846191 -0.032321859151124954 26.0 7 -0.05033368617296219
-0.3761027157306671 6.6852264404296875 1.7941336631774902 63.0 15 -0.05033138021826744
-0.1014847680926323 1.844059705734253 -0.49486202001571655 89.0 0 -0.0503106452524662
-0.10011515766382217 1.8249777555465698 0.03190299868583679 29.0 8 -0.05030834302306175
-0.10002020001411438 1.8290832042694092 -0.4229080080986023 90.0 1 -0.050306037068367004
-0.09967505931854248 1.8227715492248535 0.09567013382911682 100.0 9 -0.050303734838962555
-0.10012298822402954 1.836842656135559 -0.35757607221603394 100.0 2 -0.05030142888426781
-0.3661123216152191 6.738284587860107 0.5903929471969604 54.0 10 -0.05029912665486336
-0.09817323833703995 1.812714695930481 -0.28752657771110535 100.0 3 -0.05029682070016861
-0.36232104897499084 6.711750030517578 0.8252992630004883 97.0 11 -0.05029451847076416
-0.09865918755531311 1.8275940418243408 -0.2247270941734314 92.0 4 -0.05029221251606941
-0.36192944645881653 6.726304531097412 1.0668832063674927 88.0 12 -0.05028991028666496
-0.09816817939281464 1.8303676843643188 -0.16036656498908997 100.0 5 -0.050287604331970215
-0.35873737931251526 6.710638046264648 1.3062784671783447 100.0 13 -0.050285302102565765
-0.09893663227558136 1.8568143844604492 -0.09744956344366074 16.0 6 -0.05028299614787102
-0.35761862993240356 6.711684226989746 1.5517125129699707 100.0 14 -0.05028069391846657
-0.0988389179110527 1.861093521118164 -0.032531287521123886 28.0 7 -0.05027839168906212
-0.35434144735336304 6.694153785705566 1.7962043285369873 63.0 15 -0.05027608573436737
-0.09556809812784195 1.8482449054718018 -0.4958973228931427 89.0 0 -0.05025535076856613
-0.09406312555074692 1.825299620628357 0.03190299868583679 28.0 8 -0.050253044813871384
-0.09395456314086914 1.8294048309326172 -0.4229080080986023 90.0 1 -0.050250742584466934
-0.09342547506093979 1.8191028833389282 0.09546079486608505 100.0 9 -0.050248436629772186
-0.09322791546583176 1.821479082107544 -0.3545231223106384 97.0 2 -0.05024613440036774
-0.3439696729183197 6.743441581726074 0.5907416343688965 53.0 10 -0.05024382844567299
-0.09276359528303146 1.8248674869537354 -0.2894037961959839 100.0 3 -0.05024152621626854
-0.3405624032020569 6.722828388214111 0.8265179991722107 100.0 11 -0.05023922026157379
-0.09239675104618073 1.8239461183547974 -0.22423960268497467 90.0 4 -0.05023691803216934
-0.33892637491226196 6.713657379150391 1.0646930932998657 85.0 12 -0.05023461580276489
-0.0925988256931305 1.8406325578689575 -0.16123811900615692 100.0 5 -0.050232309848070145
-0.3366768956184387 6.715712547302246 1.3070416450500488 100.0 13 -0.050230007618665695
-0.09337697178125381 1.86910080909729 -0.09807758778333664 16.0 6 -0.05022770166397095
-0.3351668119430542 6.7089409828186035 1.5508127212524414 100.0 14 -0.0502253994345665
-0.0918717086315155 1.8454331159591675 -0.03225204721093178 26.0 7 -0.05022309347987175
-0.3323304355144501 6.699150562286377 1.7972395420074463 63.0 15 -0.0502207912504673
-0.08887965232133865 1.8369739055633545 -0.49279147386550903 89.0 0 -0.05020005255937576
-0.08820178359746933 1.8295964002609253 0.03197281062602997 23.0 8 -0.050197750329971313
-0.08826100081205368 1.8374922275543213 -0.4247076213359833 90.0 1 -0.050195444375276566
-0.08745734393596649 1.8273977041244507 0.09587948024272919 100.0 9 -0.050193142145872116
-0.08728224784135818 1.8237391710281372 -0.35490477085113525 99.0 2 -0.05019083619117737
-0.3219834566116333 6.752505302429199 0.5914388298988342 33.0 10 -0.05018853396177292
-0.0868048444390297 1.827138066291809 -0.2897166609764099 98.0 3 -0.05018623173236847
-0.3181743025779724 6.72193717956543 0.8262742161750793 99.0 11 -0.05018392577767372
-0.08640386164188385 1.8321890830993652 -0.22521455585956573 90.0 4 -0.05018162354826927
-0.3158583343029022 6.722692966461182 1.0659445524215698 89.0 12 -0.050179317593574524
-0.08583949506282806 1.826998233795166 -0.1600179374217987 100.0 5 -0.050177015364170074
-0.31440627574920654 6.71679162979126 1.3070416450500488 100.0 13 -0.05017470940947533
-0.08754993975162506 1.877380609512329 -0.09849628061056137 18.0 6 -0.05017240718007088
-0.3119252622127533 6.713963031768799 1.5517125129699707 100.0 14 -0.05017010122537613
-0.08570627123117447 1.8517353534698486 -0.032356761395931244 27.0 7 -0.05016779899597168
-0.30841153860092163 6.68869161605835 1.7941336631774902 63.0 15 -0.05016549304127693
-0.08229313790798187 1.8334131240844727 -0.4917562007904053 90.0 0 -0.05014475807547569
-0.08136855065822601 1.8199045658111572 0.031798284500837326 24.0 8 -0.050142452120780945
-0.08202020823955536 1.8416827917099 -0.4256074130535126 90.0 1 -0.050140149891376495
-0.08116602152585983 1.829687237739563 0.09598415344953537 100.0 9 -0.050137847661972046
-0.08117620646953583 1.8299167156219482 -0.3560495972633362 100.0 2 -0.0501355417072773
-0.2975327968597412 6.7336835861206055 0.5896957516670227 32.0 10 -0.05013323947787285
-0.08094792068004608 1.8392707109451294 -0.29159387946128845 100.0 3 -0.0501309335231781
-0.29505759477615356 6.7309393882751465 0.8272491693496704 97.0 11 -0.05012863129377365
-0.08018136769533157 1.8364460468292236 -0.22570204734802246 92.0 4 -0.0501263253390789
-0.2920479476451874 6.715859889984131 1.0646930932998657 86.0 12 -0.050124023109674454
-0.07920227199792862 1.8213151693344116 -0.15949499607086182 100.0 5 -0.050121717154979706
-0.29121464490890503 6.723732948303223 1.3081865310668945 100.0 13 -0.050119414925575256
-0.08159904927015305 1.891642689704895 -0.09922898560762405 21.0 6 -0.05011710897088051
-0.28890371322631836 6.724746227264404 1.553961992263794 100.0 14 -0.05011480674147606
-0.07924237102270126 1.8520233631134033 -0.032356761395931244 29.0 7 -0.05011250078678131
-0.2852276861667633 6.693587303161621 1.7951689958572388 63.0 15 -0.05011019855737686
-0.07605211436748505 1.8375495672225952 -0.49279147386550903 89.0 0 -0.05008946359157562
-0.07509812712669373 1.8221755027770996 0.031833190470933914 20.0 8 -0.050087157636880875
-0.07527092099189758 1.8341693878173828 -0.4238077998161316 90.0 1 -0.050084855407476425
-0.07485979050397873 1.8319549560546875 0.09608882665634155 90.0 9 -0.05008254945278168
-0.07486777752637863 1.8321504592895508 -0.3564312160015106 99.0 2 -0.05008024722337723
-0.27435144782066345 6.7426438331604 0.5903929471969604 100.0 10 -0.05007794126868248
-0.07436675578355789 1.835594654083252 -0.2909681499004364 100.0 3 -0.05007563903927803
-0.2713986039161682 6.727961540222168 0.8267617225646973 97.0 11 -0.05007333308458328
-0.07408953458070755 1.8446487188339233 -0.22667700052261353 92.0 4 -0.05007103085517883
-0.26891741156578064 6.724733829498291 1.0659445524215698 84.0 12 -0.050068724900484085
-0.0727636069059372 1.8275656700134277 -0.1600179374217987 100.0 5 -0.050066422671079636
-0.26735034584999084 6.71489953994751 1.3062784671783447 100.0 13 -0.05006411671638489
-0.07539143413305283 1.9018943309783936 -0.09975234419107437 25.0 6 -0.05006181448698044
-0.2655833065509796 6.729607582092285 1.5548617839813232 100.0 14 -0.05005950853228569
-0.07301215082406998 1.8582830429077148 -0.03246147558093071 31.0 7 -0.05005720630288124
-0.2618623375892639 6.694542407989502 1.7951689958572388 63.0 15 -0.05005490034818649
-0.06946268677711487 1.8416770696640015 -0.4938267767429352 89.0 0 -0.050034165382385254
-0.06888734549283981 1.8264230489730835 0.03190299868583679 21.0 8 -0.050031863152980804
-0.0687221884727478 1.8305262327194214 -0.4229080080986023 92.0 1 -0.050029557198286057
-0.06816668063402176 1.8242216110229492 0.09567013382911682 84.0 9 -0.05002725496888161
-0.0684443861246109 1.8402601480484009 -0.3579576909542084 99.0 2 -0.05002494901418686
-0.24970857799053192 6.745595932006836 0.5905672907829285 88.0 10 -0.05002264678478241
-0.06763886660337448 1.8358548879623413 -0.2909681499004364 100.0 3 -0.05002034083008766
-0.2479133903980255 6.728868007659912 0.8267617225646973 97.0 11 -0.05001803860068321
-0.06721311062574387 1.8329933881759644 -0.22521455585956573 90.0 4 -0.050015732645988464
-0.24630793929100037 6.7493205070495605 1.0696990489959717 89.0 12 -0.050013430416584015
-0.06660109758377075 1.8337818384170532 -0.1605408787727356 100.0 5 -0.05001112446188927
-0.24288053810596466 6.7197585105896 1.3070416450500488 100.0 13 -0.05000882223248482
-0.06741363555192947 1.8742144107818604 -0.0982869416475296 22.0 6 -0.05000651627779007
-0.24084806442260742 6.728588104248047 1.5544118881225586 100.0 14 -0.05000421404838562
-0.06638240814208984 1.8545297384262085 -0.03239166736602783 26.0 7 -0.05000191181898117
-0.23890329897403717 6.706999778747559 1.7982748746871948 63.0 15 -0.04999960586428642
-0.06316525489091873 1.8457697629928589 -0.49486202001571655 89.0 0 -0.049978870898485184
-0.062125064432621 1.8246647119522095 0.031868092715740204 19.0 8 -0.049976564943790436
-0.06234189122915268 1.8405040502548218 -0.4251575171947479 94.0 1 -0.049974262714385986
-0.06147965043783188 1.824459195137024 0.09567013382911682 73.0 9 -0.04997195675969124
-0.06168917939066887 1.8306772708892822 -0.3560495972633362 100.0 2 -0.04996965453028679
-0.22662921249866486 6.760365009307861 0.5917875170707703 87.0 10 -0.04996734857559204
-0.06142715737223625 1.8420026302337646 -0.2919067442417145 100.0 3 -0.04996504634618759
-0.2235107272863388 6.737667083740234 0.8277366757392883 99.0 11 -0.049962740391492844
-0.06036387011408806 1.8292595148086548 -0.2247270941734314 94.0 4 -0.049960438162088394
-0.22078941762447357 6.7264862060546875 1.0659445524215698 87.0 12 -0.049958132207393646
-0.060395192354917526 1.8399769067764282 -0.1610638052225113 100.0 5 -0.0499558299779892
-0.2195490449666977 6.724489688873291 1.307804822921753 100.0 13 -0.04995352774858475
-0.06093711033463478 1.8764344453811646 -0.09839160740375519 20.0 6 -0.04995122179389
-0.21723182499408722 6.725492000579834 1.5535120964050293 100.0 14 -0.04994891956448555
-0.05913484841585159 1.8407700061798096 -0.03214733302593231 25.0 7 -0.0499466136097908
-0.21456755697727203 6.715553283691406 1.8003453016281128 63.0 15 -0.04994431138038635
-0.05636632442474365 1.8343932628631592 -0.4917562007904053 90.0 0 -0.049923572689294815
-0.056060273200273514 1.8348643779754639 0.032042618840932846 21.0 8 -0.049921270459890366
-0.05597739294171333 1.8426581621170044 -0.4256074130535126 92.0 1 -0.04991896450519562
-0.0550508126616478 1.8226664066314697 0.09556546807289124 84.0 9 -0.04991666227579117
-0.05523966997861862 1.8289191722869873 -0.35566797852516174 99.0 2 -0.04991435632109642
-0.20296815037727356 6.7591233253479 0.5916131734848022 90.0 10 -0.04991205409169197
-0.05517334118485451 1.848129391670227 -0.29284536838531494 100.0 3 -0.04990974813699722
-0.19999194145202637 6.738406658172607 0.8277366757392883 99.0 11 -0.04990744590759277
-0.054094795137643814 1.8334274291992188 -0.22521455585956573 94.0 4 -0.049905143678188324
-0.19724854826927185 6.725241184234619 1.0656317472457886 87.0 12 -0.049902837723493576
