# .PCD v0.7 - Point Cloud Data file format
VERSION 0.7
FIELDS x y z intensity ring time
SIZE 4 4 4 4 4 4
TYPE F F F F F F
COUNT 1 1 1 1 1 1
WIDTH 546
HEIGHT 1
VIEWPOINT 0 0 0 1 0 0 0
POINTS 546
DATA ascii
-3.1180710792541504 1.8432869911193848 0.31689828634262085 12.0 10 -0.0316324345767498
-1.9774372577667236 1.1694526672363281 -0.3638666272163391 1.0 3 -0.031630128622055054
-3.1521382331848145 1.8649122714996338 0.44969791173934937 64.0 11 -0.031627826392650604
-2.0345852375030518 1.2042086124420166 -0.29029279947280884 1.0 4 -0.031625520437955856
-3.1292641162872314 1.8528530597686768 0.5759917497634888 65.0 12 -0.03162321820855141
-2.019566059112549 1.1957951784133911 -0.20533892512321472 1.0 5 -0.03162091225385666
-3.116495370864868 1.8460283279418945 0.7040852308273315 61.0 13 -0.03161861002445221
-1.9072433710098267 1.1301875114440918 -0.11618582904338837 8.0 6 -0.03161630406975746
-3.1380770206451416 1.860290765762329 0.8422167897224426 69.0 14 -0.03161400184035301
-1.8902548551559448 1.1210129261016846 -0.038360390812158585 6.0 7 -0.031611695885658264
-3.1019294261932373 1.8403266668319702 0.9664303660392761 82.0 15 -0.031609393656253815
-2.5617594718933105 1.524086356163025 -0.7987156510353088 14.0 0 -0.031588658690452576
-1.8524059057235718 1.1025031805038452 0.037627387791872025 1.0 8 -0.03158635273575783
-2.5518040657043457 1.5193696022033691 -0.6856508255004883 10.0 1 -0.03158405050635338
-1.9424244165420532 1.1569981575012207 0.1184886172413826 31.0 9 -0.03158174455165863
-2.5211291313171387 1.5022976398468018 0.2567608058452606 2.0 10 -0.03157713636755943
-1.932620644569397 1.152072787284851 -0.35635775327682495 1.0 3 -0.031574834138154984
-3.1541342735290527 1.8809870481491089 0.4509166181087494 66.0 11 -0.031572528183460236
-1.9689979553222656 1.1746896505355835 -0.28151822090148926 1.0 4 -0.031570225954055786
-3.1397392749786377 1.873889446258545 0.5791204571723938 65.0 12 -0.03156791999936104
-3.1235177516937256 1.8649471998214722 0.707138180732727 63.0 13 -0.03156331181526184
-1.917003870010376 1.1450318098068237 -0.11702320724725723 8.0 6 -0.03156100958585739
-3.128217935562134 1.8692351579666138 0.8413169980049133 73.0 14 -0.03155870363116264
-1.8983449935913086 1.1347864866256714 -0.038604725152254105 3.0 7 -0.031556401401758194
-3.1054351329803467 1.8570917844772339 0.9695361852645874 80.0 15 -0.031554095447063446
-2.5611259937286377 1.5364469289779663 -0.8002685308456421 12.0 0 -0.03153336048126221
-2.5648648738861084 1.5392988920211792 -0.690599799156189 13.0 1 -0.03152875229716301
-1.941798448562622 1.1658276319503784 0.11869796365499496 17.0 9 -0.03152645006775856
-2.5514700412750244 1.533077359199524 0.26042136549949646 8.0 10 -0.03152184188365936
-1.9351571798324585 1.1632190942764282 -0.35760921239852905 1.0 3 -0.031519535928964615
-3.152653455734253 1.8950536251068115 0.4516478180885315 64.0 11 -0.031517233699560165
-3.129793882369995 1.8828012943267822 0.5784947276115417 63.0 12 -0.03151262551546097
-1.9870579242706299 1.1958332061767578 -0.2028985619544983 1.0 5 -0.03151031956076622
-3.126753568649292 1.8824580907821655 0.7094278931617737 61.0 13 -0.03150801733136177
-1.9230595827102661 1.1582335233688354 -0.11765124648809433 7.0 6 -0.03150571137666702
-3.1246845722198486 1.882698655128479 0.8422167897224426 73.0 14 -0.03150340914726257
-1.8858084678649902 1.1362454891204834 -0.03843019902706146 2.0 7 -0.031501106917858124
-3.1121695041656494 1.8758994340896606 0.9736772775650024 80.0 15 -0.031498800963163376
-2.638404130935669 1.595356822013855 -0.8261504173278809 9.0 0 -0.03147806599736214
-2.7292637825012207 1.6515988111495972 -0.7364898324012756 51.0 1 -0.03147345781326294
-1.9650570154190063 1.1891433000564575 0.1203727126121521 13.0 9 -0.03147115185856819
-3.1664388179779053 1.9176630973815918 0.3238707184791565 11.0 10 -0.031466543674468994
-3.155871629714966 1.912770390510559 0.4531102478504181 66.0 11 -0.0314619354903698
-3.128270149230957 1.8967868089675903 0.5794333219528198 67.0 12 -0.0314573273062706
-3.1335902214050293 1.9015096426010132 0.7124808430671692 61.0 13 -0.0314527228474617
-1.9241268634796143 1.1680480241775513 -0.11796525865793228 1.0 6 -0.03145041689276695
-3.130084753036499 1.900128960609436 0.8453661203384399 67.0 14 -0.0314481146633625
-1.8937952518463135 1.1500873565673828 -0.03867453336715698 2.0 7 -0.031445808708667755
-3.1056020259857178 1.8867515325546265 0.9736772775650024 80.0 15 -0.031443506479263306
-2.6776440143585205 1.6312345266342163 -0.840126633644104 7.0 0 -0.03142276778817177
-2.740410566329956 1.6707847118377686 -0.7409887909889221 56.0 1 -0.03141815960407257
-1.9883875846862793 1.2122882604599 0.12204745411872864 11.0 9 -0.03141585737466812
-3.170266628265381 1.9343794584274292 0.3249166011810303 12.0 10 -0.031411249190568924
-3.164759874343872 1.9325345754623413 0.4553038775920868 12.0 11 -0.03140664100646973
-3.132077217102051 1.9133286476135254 0.581310510635376 67.0 12 -0.03140203282237053
-2.082576036453247 1.2727067470550537 -0.21353155374526978 13.0 5 -0.03139973059296608
-3.130617380142212 1.9139387607574463 0.7132440805435181 64.0 13 -0.03139742463827133
-1.9849895238876343 1.2140213251113892 -0.12194279581308365 1.0 6 -0.03139512240886688
-3.1320788860321045 1.9155821800231934 0.8476155996322632 61.0 14 -0.031392816454172134
-1.9104397296905518 1.1688848733901978 -0.039093390107154846 2.0 7 -0.031390514224767685
-3.10262393951416 1.8990569114685059 0.974712610244751 80.0 15 -0.03138820827007294
-2.677159309387207 1.6431365013122559 -0.841679573059082 7.0 0 -0.0313674733042717
-2.731534004211426 1.6778234243392944 -0.7400889992713928 55.0 1 -0.0313628651201725
-2.009669303894043 1.2349060773849487 0.12361754477024078 8.0 9 -0.03136055916547775
-2.72147536277771 1.6722983121871948 -0.6208925247192383 1.0 2 -0.0313582569360733
-2.68048095703125 1.6483979225158691 -0.4984002709388733 14.0 3 -0.031353648751974106
-3.0399811267852783 1.870207667350769 0.43824219703674316 1.0 11 -0.031351346522569656
-2.726897716522217 1.6782546043395996 -0.39315053820610046 3.0 4 -0.03134904056787491
-3.13883638381958 1.9325354099273682 0.583813488483429 67.0 12 -0.03134673833847046
-2.0834338665008545 1.282739520072937 -0.21405449509620667 27.0 5 -0.03134443238377571
-3.127596855163574 1.9263684749603271 0.7140072584152222 63.0 13 -0.03134213015437126
-2.0472676753997803 1.261458396911621 -0.1260250061750412 14.0 6 -0.031339824199676514
-3.135326385498047 1.9326390027999878 0.8503150343894958 61.0 14 -0.031337521970272064
-1.9131563901901245 1.1797449588775635 -0.0392330102622509 1.0 7 -0.031335216015577316
-3.1091299057006836 1.9179891347885132 0.9788536429405212 82.0 15 -0.03133291378617287
-2.6845510005950928 1.6606019735336304 -0.8458206653594971 7.0 0 -0.03131217882037163
-2.7322888374328613 1.6914504766464233 -0.7418886423110962 52.0 1 -0.03130757063627243
-1.9934600591659546 1.2345525026321411 0.1228848323225975 1.0 9 -0.03130526468157768
-2.7323122024536133 1.6921244859695435 -0.6247087121009827 45.0 2 -0.03130296245217323
-2.969027519226074 1.8394407033920288 0.30556803941726685 5.0 10 -0.031300656497478485
-2.693180561065674 1.6691911220550537 -0.5018418431282043 56.0 3 -0.031298354268074036
-2.960888147354126 1.8358274698257446 0.427761435508728 4.0 11 -0.03129604831337929
-2.700779438018799 1.6752067804336548 -0.39022567868232727 14.0 4 -0.03129374608397484
-3.1438210010528564 1.9507712125778198 0.5860036015510559 63.0 12 -0.03129144012928009
-2.090794324874878 1.2973579168319702 -0.21527467668056488 26.0 5 -0.03128913789987564
-3.1442060470581055 1.9517699480056763 0.7193499803543091 61.0 13 -0.03128683194518089
-2.044548511505127 1.2696506977081299 -0.12612967193126678 62.0 6 -0.031284529715776443
-3.1351823806762695 1.9476850032806396 0.8521146178245544 66.0 14 -0.031282223761081696
-1.9429951906204224 1.2075265645980835 -0.03993110731244087 1.0 7 -0.031279921531677246
-3.1188220977783203 1.9390305280685425 0.9840300679206848 76.0 15 -0.0312776155769825
-2.6754586696624756 1.6679192781448364 -0.8447853922843933 7.0 0 -0.03125688061118126
-2.7329812049865723 1.7051037549972534 -0.7436882257461548 52.0 1 -0.03125227242708206
-2.9718472957611084 1.8548535108566284 0.18359455466270447 7.0 9 -0.031249968335032463
-2.7313849925994873 1.7047710418701172 -0.6258535385131836 58.0 2 -0.031247664242982864
-2.9761083126068115 1.8582351207733154 0.3069625198841095 7.0 10 -0.031245360150933266
-2.6990652084350586 1.6859074831008911 -0.5040318965911865 63.0 3 -0.031243057921528816
-2.9679291248321533 1.8545680046081543 0.42971134185791016 4.0 11 -0.031240753829479218
-2.694915533065796 1.684624195098877 -0.39022567868232727 24.0 4 -0.03123844973742962
-3.138667583465576 1.9627797603607178 0.5863164663314819 62.0 12 -0.03123614564538002
-2.087942361831665 1.305704116821289 -0.2154489904642105 23.0 5 -0.03123384155333042
-3.140702486038208 1.9648159742355347 0.7201131582260132 60.0 13 -0.031231537461280823
-2.050262451171875 1.2831372022628784 -0.1267576962709427 68.0 6 -0.031229233369231224
-3.130016803741455 1.9596505165100098 0.8525645732879639 63.0 14 -0.031226929277181625
-1.9896098375320435 1.2461451292037964 -0.04097824916243553 3.0 7 -0.031224625185132027
-3.1284050941467285 1.96016263961792 0.9892064332962036 76.0 15 -0.031222321093082428
-2.6696207523345947 1.6772476434707642 -0.8447853922843933 7.0 0 -0.03120158426463604
-2.7369110584259033 1.72085702419281 -0.7463876008987427 55.0 1 -0.03119697794318199
-2.9738075733184814 1.8705331087112427 0.18411791324615479 7.0 9 -0.031194673851132393
-2.732064962387085 1.7184762954711914 -0.6273800134658813 58.0 2 -0.031192369759082794
-2.979722499847412 1.8749784231185913 0.3080084025859833 7.0 10 -0.031190065667033195
-2.6965067386627197 1.6974239349365234 -0.5046576261520386 58.0 3 -0.031187761574983597
-2.9715158939361572 1.8712636232376099 0.43117377161979675 4.0 11 -0.031185457482933998
-2.6856601238250732 1.6919043064117432 -0.38973820209503174 30.0 4 -0.0311831533908844
-3.138481378555298 1.9779376983642578 0.587567925453186 62.0 12 -0.0311808492988348
-2.083371639251709 1.3129850625991821 -0.2154489904642105 11.0 5 -0.031178545206785202
-3.1537535190582275 1.98833167552948 0.7246925830841064 60.0 13 -0.031176241114735603
-2.040703296661377 1.287089228630066 -0.12644368410110474 53.0 6 -0.031173937022686005
-3.1346933841705322 1.97784423828125 0.8557138442993164 61.0 14 -0.031171632930636406
-2.01568603515625 1.2722951173782349 -0.041606537997722626 49.0 7 -0.031169328838586807
-3.121544122695923 1.971070408821106 0.9892064332962036 78.0 15 -0.03116702474653721
-2.6637496948242188 1.686556339263916 -0.8447853922843933 7.0 0 -0.03114628978073597
-2.747347831726074 1.7408311367034912 -0.7508866190910339 51.0 1 -0.031141681596636772
-2.985816240310669 1.8926639556884766 0.1852693110704422 7.0 9 -0.031139377504587173
-2.7310245037078857 1.7311551570892334 -0.6285248398780823 51.0 2 -0.031137073412537575
-2.9832546710968018 1.8917701244354248 0.30905425548553467 7.0 10 -0.031134769320487976
-2.6888973712921143 1.705768346786499 -0.5043447613716125 54.0 3 -0.031132465228438377
-2.975022554397583 1.8880062103271484 0.43263620138168335 4.0 11 -0.03113016113638878
-2.684765338897705 1.7044607400894165 -0.39046943187713623 37.0 4 -0.03112785704433918
-3.1465651988983154 1.9984123706817627 0.590383768081665 60.0 12 -0.03112555295228958
-2.7058088779449463 1.7191457748413086 -0.2804671823978424 51.0 5 -0.031123248860239983
-3.1434803009033203 1.9972219467163086 0.7239293456077576 59.0 13 -0.031120944768190384
-2.046311140060425 1.3006335496902466 -0.12707172334194183 45.0 6 -0.031118640676140785
-3.1392815113067627 1.9960938692092896 0.8588631749153137 63.0 14 -0.031116336584091187
-2.012920379638672 1.2803963422775269 -0.041641443967819214 54.0 7 -0.031114032492041588
-3.1211636066436768 1.986103892326355 0.9912769794464111 76.0 15 -0.03111172839999199
-2.6494085788726807 1.6911104917526245 -0.8421972393989563 6.0 0 -0.03109099343419075
-3.1773335933685303 2.0280838012695312 0.06579557061195374 4.0 8 -0.03108868934214115
-2.744539976119995 1.7525076866149902 -0.751786470413208 50.0 1 -0.031086385250091553
-2.994339942932129 1.91275155544281 0.18621134757995605 7.0 9 -0.031084081158041954
-2.7263150215148926 1.742211103439331 -0.6289064884185791 49.0 2 -0.031081777065992355
-2.9729435443878174 1.9005452394485474 0.3087056279182434 7.0 10 -0.031079472973942757
-2.7009334564208984 1.727318525314331 -0.5077863335609436 63.0 3 -0.031077168881893158
-2.968414068222046 1.8983795642852783 0.43263620138168335 5.0 11 -0.03107486478984356
-2.693848133087158 1.7234506607055664 -0.39266306161880493 40.0 4 -0.03107256069779396
-3.1495535373687744 2.0157723426818848 0.5922609567642212 60.0 12 -0.031070256605744362
-2.7014694213867188 1.7296547889709473 -0.28064149618148804 48.0 5 -0.031067952513694763
-3.1427512168884277 2.0129663944244385 0.7254558801651001 60.0 13 -0.031065648421645164
-2.034803867340088 1.3038142919540405 -0.1266530305147171 10.0 6 -0.031063344329595566
-3.151632308959961 2.020205497741699 0.864262044429779 72.0 14 -0.031061040237545967
-2.0421087741851807 1.308997631072998 -0.04233953729271889 29.0 7 -0.03105873614549637
-3.1272215843200684 2.005329132080078 0.9954180717468262 78.0 15 -0.03105643391609192
-2.641864061355591 1.6993038654327393 -0.841679573059082 7.0 0 -0.03103569708764553
-3.1446540355682373 2.0234851837158203 0.0652720034122467 35.0 8 -0.031033392995595932
-2.738098621368408 1.7625545263290405 -0.751786470413208 51.0 1 -0.031031088903546333
-2.9940261840820312 1.9280389547348022 0.1866300404071808 6.0 9 -0.031028784811496735
-2.7350728511810303 1.7612829208374023 -0.6323410272598267 51.0 2 -0.031026480719447136
-2.9964396953582764 1.9303332567214966 0.31184324622154236 7.0 10 -0.031024176627397537
-2.6915664672851562 1.734595775604248 -0.5071606040000916 56.0 3 -0.03102187253534794
-2.9681098461151123 1.9135490655899048 0.4336111545562744 4.0 11 -0.03101956844329834
-2.6791725158691406 1.727932333946228 -0.3914443552494049 45.0 4 -0.03101726435124874
-3.1521029472351074 2.033728837966919 0.5941381454467773 58.0 12 -0.031014960259199142
-2.7155048847198486 1.7520369291305542 -0.2827332317829132 53.0 5 -0.031012656167149544
-3.152200937271118 2.0345704555511475 0.7292720079421997 57.0 13 -0.031010353937745094
-3.166168212890625 2.0443685054779053 -0.19751591980457306 52.0 6 -0.031008049845695496
-3.14619779586792 2.032252550125122 0.8647118806838989 69.0 14 -0.031005745753645897
-3.1312077045440674 2.024118185043335 0.9990415573120117 72.0 15 -0.0310011375695467
-2.652127265930176 1.7190228700637817 -0.8468559384346008 9.0 0 -0.03098040074110031
-2.7417383193969727 1.7784653902053833 -0.7544858455657959 50.0 1 -0.030975792557001114
-2.9805760383605957 1.9341295957565308 0.18621134757995605 6.0 9 -0.030973488464951515
-2.7289083003997803 1.7708195447921753 -0.6323410272598267 47.0 2 -0.030971184372901917
-2.9997103214263916 1.947290301322937 0.31288909912109375 7.0 10 -0.030968880280852318
-2.698748826980591 1.7525876760482788 -0.5096635222434998 56.0 3 -0.03096657618880272
-2.98471736907959 1.9390383958816528 0.4370235204696655 4.0 11 -0.03096427395939827
-2.6797826290130615 1.7416009902954102 -0.39241933822631836 47.0 4 -0.03096196986734867
-3.1499533653259277 2.0479488372802734 0.5950767993927002 57.0 12 -0.030959665775299072
-2.7210657596588135 1.7691065073013306 -0.28395339846611023 54.0 5 -0.030957361683249474
-3.148371458053589 2.0477020740509033 0.7300352454185486 60.0 13 -0.030955057591199875
-3.182450294494629 2.070657253265381 -0.19898132979869843 64.0 6 -0.030952753499150276
-3.1423516273498535 2.0453479290008545 0.865611732006073 66.0 14 -0.030950449407100677
-2.919163703918457 1.9008009433746338 -0.06080418452620506 51.0 7 -0.03094814531505108
-3.1403095722198486 2.0455808639526367 1.0042178630828857 69.0 15 -0.03094584122300148
-2.639641046524048 1.7240445613861084 -0.8447853922843933 9.0 0 -0.030925104394555092
-3.1639323234558105 2.0672647953033447 0.06597010046243668 1.0 8 -0.030922800302505493
-2.7518255710601807 1.7986868619918823 -0.7589848637580872 47.0 1 -0.030920496210455894
-3.000552177429199 1.9620106220245361 0.1878861039876938 6.0 9 -0.030918192118406296
-2.727639675140381 1.7835577726364136 -0.6334859132766724 49.0 2 -0.030915889889001846
-3.0012314319610596 1.963202714920044 0.3137606680393219 6.0 10 -0.030913585796952248
-2.6992263793945312 1.7663241624832153 -0.5109150409698486 57.0 3 -0.03091128170490265
-2.991217613220215 1.9581434726715088 0.43897342681884766 4.0 11 -0.03090897761285305
-2.690293550491333 1.7618199586868286 -0.394856721162796 48.0 4 -0.03090667352080345
-3.149394989013672 2.0632619857788086 0.5963282585144043 61.0 12 -0.030904369428753853
-2.708207130432129 1.7742269039154053 -0.2832561731338501 49.0 5 -0.030902065336704254
-3.1576244831085205 2.069441080093384 0.733851432800293 60.0 13 -0.030899761244654655
-3.176872968673706 2.0828490257263184 -0.199085995554924 55.0 6 -0.030897457152605057
-3.146599531173706 2.0637857913970947 0.8687610626220703 67.0 14 -0.030895153060555458
-2.9258861541748047 1.919755220413208 -0.06108342483639717 47.0 7 -0.03089284896850586
-3.133150577545166 2.0565295219421387 1.0042178630828857 72.0 15 -0.03089054487645626
-2.643289566040039 1.7396198511123657 -0.8478912711143494 7.0 0 -0.03086980991065502
-3.1333131790161133 2.0629022121429443 0.06548143178224564 1.0 8 -0.030867505818605423
-2.7487852573394775 1.8104255199432373 -0.7598847150802612 49.0 1 -0.030865201726555824
-3.007028102874756 1.9812629222869873 0.18872347474098206 5.0 9 -0.030862897634506226
-2.736152172088623 1.8027889728546143 -0.6369204521179199 47.0 2 -0.030860593542456627
-2.9893698692321777 1.9703775644302368 0.313237726688385 5.0 10 -0.030858289450407028
-2.6979916095733643 1.778997540473938 -0.5118536353111267 55.0 3 -0.03085598535835743
-3.007563352584839 1.9838746786117554 0.442385733127594 2.0 11 -0.03085368126630783
-2.694068431854248 1.7777601480484009 -0.39631912112236023 48.0 4 -0.030851377174258232
-3.155362129211426 2.082948923110962 0.5988311767578125 62.0 12 -0.030849073082208633
-2.7119741439819336 1.7902553081512451 -0.2843020260334015 51.0 5 -0.030846768990159035
-3.153657913208008 2.0826141834259033 0.7346146702766418 59.0 13 -0.030844464898109436
-3.1862475872039795 2.1049346923828125 -0.20013271272182465 53.0 6 -0.030842160806059837
-3.154008150100708 2.0844271183013916 0.8728101253509521 69.0 14 -0.03083985671401024
-2.929175615310669 1.93657386302948 -0.061292849481105804 17.0 7 -0.03083755262196064
-3.1291756629943848 2.069585084915161 1.0052531957626343 70.0 15 -0.03083524852991104
-2.6259307861328125 1.741362452507019 -0.844267725944519 7.0 0 -0.030814513564109802
-2.748944044113159 1.8243193626403809 -0.7616842985153198 48.0 1 -0.030809905380010605
-3.0104262828826904 1.9978502988815308 0.18935151398181915 6.0 9 -0.030807601287961006
-2.742927074432373 1.8210166692733765 -0.6399734020233154 51.0 2 -0.030805297195911407
-2.992431879043579 1.9874142408370972 0.3142836093902588 5.0 10 -0.03080299310386181
-2.691765785217285 1.788403868675232 -0.5118536353111267 54.0 3 -0.03080068901181221
-2.994006633758545 1.9899665117263794 0.4414108097553253 2.0 11 -0.03079838491976261
-2.69807767868042 1.7932772636413574 -0.3977815806865692 48.0 4 -0.030796080827713013
-3.159952163696289 2.101057529449463 0.6010212898254395 65.0 12 -0.030793776735663414
-2.7156624794006348 1.806330919265747 -0.28534790873527527 54.0 5 -0.030791472643613815
-3.1496381759643555 2.09578537940979 0.7353779077529907 56.0 13 -0.030789168551564217
-3.175555467605591 2.11383056640625 -0.19992336630821228 57.0 6 -0.030786864459514618
-3.1600563526153564 2.103513479232788 0.8764093518257141 69.0 14 -0.03078456036746502
-2.932724714279175 1.9529262781143188 -0.061502281576395035 51.0 7 -0.03078225627541542
-3.133549928665161 2.0874478816986084 1.0088766813278198 74.0 15 -0.030779952183365822
-2.621748208999634 1.751133918762207 -0.8447853922843933 7.0 0 -0.030759217217564583
-2.7428791522979736 1.8334251642227173 -0.7616842985153198 48.0 1 -0.030754609033465385
-3.0071053504943848 2.010042190551758 0.18956086039543152 5.0 9 -0.030752304941415787
-2.749929666519165 1.8388323783874512 -0.6430263519287109 51.0 2 -0.030750000849366188
-2.9924488067626953 2.001757860183716 0.3149808347225189 5.0 10 -0.03074769675731659
-2.703878879547119 1.8094052076339722 -0.5152952075004578 55.0 3 -0.03074539266526699
-2.9906907081604004 2.002092123031616 0.44189828634262085 2.0 11 -0.030743088573217392
-2.695415496826172 1.8044227361679077 -0.39826905727386475 48.0 4 -0.030740784481167793
-3.1611740589141846 2.117020606994629 0.6025856137275696 62.0 12 -0.030738480389118195
-2.7195889949798584 1.8219804763793945 -0.28639376163482666 54.0 5 -0.030736176297068596
-3.1524558067321777 2.112776517868042 0.7376676201820374 64.0 13 -0.030733872205018997
-3.175163745880127 2.128798246383667 -0.200342059135437 53.0 6 -0.030731569975614548
-3.1595377922058105 2.1183218955993652 0.8782089948654175 69.0 14 -0.03072926588356495
-2.9162678718566895 1.9559576511383057 -0.061292849481105804 55.0 7 -0.03072696179151535
-3.136235475540161 2.104285955429077 1.0119824409484863 76.0 15 -0.03072465769946575
-2.6287503242492676 1.7684451341629028 -0.8489265441894531 7.0 0 -0.030703920871019363
-3.1388139724731445 2.1123783588409424 0.06603990495204926 19.0 8 -0.030701616778969765
-2.7561824321746826 1.855570673942566 -0.7670831084251404 46.0 1 -0.030699312686920166
-3.016990900039673 2.0311572551727295 0.19060757756233215 4.0 9 -0.030697008594870567
-2.74381685256958 1.847941517829895 -0.6430263519287109 51.0 2 -0.03069470450282097
-3.008927345275879 2.0272560119628906 0.31742119789123535 5.0 10 -0.03069240041077137
-2.712606191635132 1.8282979726791382 -0.5181110501289368 51.0 3 -0.03069009631872177
-3.007077693939209 2.0275352001190186 0.4453106224536896 2.0 11 -0.030687792226672173
-2.692708730697632 1.815570592880249 -0.3987565040588379 47.0 4 -0.030685488134622574
-3.1623244285583496 2.1330151557922363 0.6041499972343445 63.0 12 -0.030683185905218124
-2.7267444133758545 1.8399040699005127 -0.2877882421016693 54.0 5 -0.030680881813168526
-3.161705255508423 2.134202241897583 0.7414838075637817 59.0 13 -0.030678577721118927
-3.182983875274658 2.1493754386901855 -0.20128411054611206 60.0 6 -0.03067627362906933
-3.1573405265808105 2.132059335708618 0.8795586824417114 67.0 14 -0.03067396953701973
-2.8849098682403564 1.9488271474838257 -0.060769278556108475 61.0 7 -0.03067166544497013
-3.145246982574463 2.125490665435791 1.01715886592865 76.0 15 -0.030669361352920532
-2.616473913192749 1.7728179693222046 -0.8468559384346008 7.0 0 -0.030648624524474144
-3.1483452320098877 2.1339945793151855 0.06638895720243454 24.0 8 -0.030646320432424545
-2.7580785751342773 1.870168685913086 -0.7693326473236084 36.0 1 -0.030644016340374947
-3.0201573371887207 2.0478763580322266 0.19123560190200806 4.0 9 -0.030641712248325348
-2.7425475120544434 1.860336422920227 -0.6441711783409119 49.0 2 -0.0306394100189209
-2.9988913536071777 2.034984827041626 0.3170726001262665 5.0 10 -0.03063710406422615
-2.714700222015381 1.8428308963775635 -0.5196753740310669 50.0 3 -0.0306348018348217
-3.0134754180908203 2.046417713165283 0.4472605288028717 3.0 11 -0.030632497742772102
-2.6998112201690674 1.8334118127822876 -0.4007064402103424 50.0 4 -0.030630193650722504
-3.160135507583618 2.146820306777954 0.6050885915756226 62.0 12 -0.030627889558672905
-2.720628023147583 1.8489362001419067 -0.2877882421016693 52.0 5 -0.030625585466623306
-3.1675989627838135 2.153505563735962 0.7445367574691772 61.0 13 -0.030623281374573708
-3.1824445724487305 2.164411783218384 -0.2017027884721756 59.0 6 -0.03062097728252411
-3.1583099365234375 2.1479973793029785 0.8818081617355347 66.0 14 -0.03061867319047451
-2.8817379474639893 1.9606329202651978 -0.06083908677101135 80.0 7 -0.03061636909842491
-3.1413753032684326 2.1380832195281982 1.0181941986083984 76.0 15 -0.030614065006375313
-2.611553907394409 1.7834855318069458 -0.8473736047744751 6.0 0 -0.030598163604736328
-3.1355488300323486 2.1421353816986084 0.06628423929214478 24.0 8 -0.03059585951268673
-2.7737300395965576 1.8956592082977295 -0.775631308555603 28.0 1 -0.03059355542063713
-3.018866539001465 2.0639665126800537 0.1916542947292328 4.0 9 -0.030591251328587532
-2.748676300048828 1.8792403936386108 -0.6472241282463074 49.0 2 -0.030588947236537933
-2.991412401199341 2.0459628105163574 0.3170726001262665 5.0 10 -0.030586643144488335
-2.7095580101013184 1.8538837432861328 -0.5199882388114929 49.0 3 -0.030584339052438736
-3.0157833099365234 2.064176559448242 0.4487229585647583 3.0 11 -0.030582034960389137
-2.7091307640075684 1.8549801111221313 -0.40314382314682007 50.0 4 -0.03057973086833954
-3.1697964668273926 2.1712169647216797 0.6085301041603088 63.0 12 -0.03057742677628994
-2.717120885848999 1.8611476421356201 -0.28813689947128296 51.0 5 -0.03057512268424034
-3.162923812866211 2.167320489883423 0.7452999949455261 60.0 13 -0.03057282045483589
-3.189317226409912 2.1862239837646484 -0.20264483988285065 53.0 6 -0.030570516362786293
-3.1612892150878906 2.167823553085327 0.884957492351532 63.0 14 -0.030568212270736694
-2.8560495376586914 1.959240436553955 -0.06045513600111008 75.0 7 -0.030565908178687096
-3.1331427097320557 2.1501293182373047 1.0181941986083984 80.0 15 -0.030563604086637497
-2.6069040298461914 1.7936859130859375 -0.8478912711143494 6.0 0 -0.03054286725819111
-3.134641408920288 2.1576027870178223 0.06642386317253113 20.0 8 -0.03054056316614151
-2.794382095336914 1.9241169691085815 -0.7832795977592468 13.0 1 -0.03053825907409191
-3.0248022079467773 2.0835556983947754 0.19249166548252106 4.0 9 -0.030535954982042313
-2.751800537109375 1.8955057859420776 -0.649513840675354 49.0 2 -0.030533650889992714
-2.990814685821533 2.0609142780303955 0.3177698254585266 3.0 10 -0.030531346797943115
-2.7063229084014893 1.8655729293823242 -0.520613968372345 49.0 3 -0.030529042705893517
-2.9987542629241943 2.067929267883301 0.4472605288028717 3.0 11 -0.030526740476489067
-2.7157111167907715 1.8734431266784668 -0.4050937294960022 48.0 4 -0.03052443638443947
-3.1752047538757324 2.19124436378479 0.6110330820083618 65.0 12 -0.03052213229238987
-2.7204463481903076 1.877410650253296 -0.28918275237083435 50.0 5 -0.03051982820034027
-3.1585702896118164 2.1805789470672607 0.7460631728172302 63.0 13 -0.030517524108290672
-3.1997439861297607 2.2098286151885986 -0.20379623770713806 60.0 6 -0.030515220016241074
-3.1649258136749268 2.186599016189575 0.8881068229675293 61.0 14 -0.030512915924191475
-2.847548246383667 1.968061089515686 -0.06042023003101349 70.0 7 -0.030510611832141876
-3.1415083408355713 2.172039747238159 1.0233705043792725 76.0 15 -0.030508307740092278
-2.5911006927490234 1.7961710691452026 -0.8447853922843933 6.0 0 -0.03048757091164589
-3.1369504928588867 2.175367832183838 0.06663328409194946 31.0 8 -0.03048526681959629
-2.8997304439544678 2.0116147994995117 -0.8147727847099304 6.0 1 -0.030482962727546692
-3.0175106525421143 2.094101667404175 0.19249166548252106 3.0 9 -0.030480660498142242
-2.982264280319214 2.069641351699829 -0.7056117057800293 18.0 2 -0.030478356406092644
-3.0016062259674072 2.0838394165039062 0.31968727707862854 4.0 10 -0.030476052314043045
-2.7160189151763916 1.8862764835357666 -0.5237426161766052 38.0 3 -0.030473748221993446
-3.0078201293945312 2.0897107124328613 0.44969791173934937 3.0 11 -0.030471444129943848
-2.705895185470581 1.8806450366973877 -0.40460625290870667 50.0 4 -0.03046914003789425
-3.180511474609375 2.2113358974456787 0.6135360598564148 65.0 12 -0.03046683594584465
-2.7302348613739014 1.8982690572738647 -0.29092586040496826 49.0 5 -0.03046453185379505
-3.1638331413269043 2.200559377670288 0.7491161227226257 59.0 13 -0.030462227761745453
-3.2182412147521973 2.23923659324646 -0.2054709792137146 59.0 6 -0.030459923669695854
-3.1620726585388184 2.20097279548645 0.8894565105438232 63.0 14 -0.030457619577646255
-2.832455635070801 1.9722754955291748 -0.060245707631111145 75.0 7 -0.030455315485596657
-3.146588087081909 2.191826581954956 1.027511715888977 78.0 15 -0.030453011393547058
-2.5816478729248047 1.8029921054840088 -0.8437501192092896 6.0 0 -0.03043227642774582
-3.1391730308532715 2.1931772232055664 0.06684271991252899 32.0 8 -0.03042997233569622
-2.911858320236206 2.035120725631714 -0.820171594619751 4.0 1 -0.03042766824364662
-3.0200040340423584 2.111487865447998 0.19311968982219696 4.0 9 -0.030425364151597023
-3.2952115535736084 2.3039040565490723 -0.7815536856651306 23.0 2 -0.030423060059547424
-3.0171706676483154 2.1102921962738037 0.3221276104450226 4.0 10 -0.030420755967497826
-2.851848840713501 1.9954028129577637 -0.5512751340866089 31.0 3 -0.030418451875448227
-3.0070130825042725 2.104749917984009 0.45067286491394043 3.0 11 -0.030416147783398628
-2.7090702056884766 1.8969111442565918 -0.40606871247291565 47.0 4 -0.03041384369134903
-3.1727728843688965 2.2224247455596924 0.6135360598564148 63.0 12 -0.03041153959929943
-3.218048572540283 2.254138946533203 -0.3437422513961792 46.0 5 -0.030409235507249832
-3.1689956188201904 2.220602035522461 0.7521690726280212 61.0 13 -0.030406931415200233
-3.22348952293396 2.259627342224121 -0.20630836486816406 59.0 6 -0.030404627323150635
-3.1591572761535645 2.2153537273406982 0.890806257724762 61.0 14 -0.030402323231101036
-2.8009984493255615 1.9649239778518677 -0.059722136706113815 65.0 7 -0.030400019139051437
-3.1484062671661377 2.2094545364379883 1.0306174755096436 76.0 15 -0.03039771504700184
-2.578498363494873 1.814216136932373 -0.8447853922843933 6.0 0 -0.0303769800812006
-3.151121139526367 2.217933177947998 0.06726157665252686 12.0 8 -0.030374675989151
-2.9047372341156006 2.045271873474121 -0.820171594619751 5.0 1 -0.030372371897101402
-3.0256779193878174 2.1312179565429688 0.19395707547664642 3.0 9 -0.030370067805051804
-3.2839388847351074 2.313131093978882 -0.780790388584137 23.0 2 -0.030367763713002205
-3.004899740219116 2.117368221282959 0.3216046690940857 2.0 10 -0.030365459620952606
-3.2323625087738037 2.2784903049468994 -0.6263636946678162 50.0 3 -0.030363155528903008
-2.9996471405029297 2.115234375 0.45067286491394043 3.0 11 -0.03036085143685341
-3.1176917552948 2.199289560317993 -0.46846577525138855 41.0 4 -0.03035854734480381
-3.1698384284973145 2.2369024753570557 0.6144746541976929 62.0 12 -0.03035624325275421
-3.2227864265441895 2.275110960006714 -0.34513673186302185 46.0 5 -0.030353939160704613
-3.1868863105773926 2.249767303466797 0.7582749724388123 60.0 13 -0.030351635068655014
-3.2335281372070312 2.2835395336151123 -0.20745974779129028 55.0 6 -0.030349330976605415
-3.1625466346740723 2.2342381477355957 0.8939555287361145 60.0 14 -0.030347026884555817
-2.7843236923217773 1.9677653312683105 -0.059512704610824585 85.0 7 -0.030344722792506218
-3.146984577178955 2.2248921394348145 1.032688021659851 76.0 15 -0.03034241870045662
-2.5560731887817383 1.8124803304672241 -0.8396090269088745 6.0 0 -0.03032168373465538
-3.1645665168762207 2.243955612182617 0.06771533936262131 47.0 8 -0.03031937964260578
-2.9134747982025146 2.066673755645752 -0.8246706128120422 4.0 1 -0.030317075550556183
-3.03125 2.1510140895843506 0.1947944462299347 3.0 9 -0.030314771458506584
-3.2866451740264893 2.3331072330474854 -0.7834618091583252 13.0 2 -0.030312467366456985
-3.016613245010376 2.142210006713867 0.32369643449783325 2.0 10 -0.030310163274407387
-3.249755382537842 2.3086276054382324 -0.6313695907592773 50.0 3 -0.030307859182357788
-3.024611234664917 2.1486852169036865 0.45554763078689575 3.0 11 -0.03030555509030819
-3.2394447326660156 2.302152395248413 -0.4879648983478546 42.0 4 -0.03030325099825859
-3.1781105995178223 2.2593994140625 0.6176033616065979 61.0 12 -0.030300946906208992
-3.2213199138641357 2.2909655570983887 -0.34583398699760437 46.0 5 -0.030298642814159393
-3.178619146347046 2.261432647705078 0.7582749724388123 57.0 13 -0.030296338722109795
-3.2348999977111816 2.3023242950439453 -0.2080877721309662 55.0 6 -0.030294036492705345
-3.170210838317871 2.257117748260498 0.8984545469284058 60.0 14 -0.030291732400655746
-2.7888412475585938 1.985591173171997 -0.0597570426762104 75.0 7 -0.030289428308606148
-3.145493268966675 2.2403464317321777 1.0347585678100586 76.0 15 -0.03028712421655655
-2.556018352508545 1.8258832693099976 -0.841679573059082 6.0 0 -0.03026638738811016
-3.1953678131103516 2.283442974090576 0.06855305284261703 45.0 8 -0.030264083296060562
-2.8947830200195312 2.0694053173065186 -0.8215212821960449 4.0 1 -0.030261779204010963
-3.039971351623535 2.173196792602539 0.19584116339683533 3.0 9 -0.030259475111961365
-3.2800776958465576 2.345707654953003 -0.7838433980941772 12.0 2 -0.030257171019911766
-3.0334227085113525 2.170116424560547 0.3263110816478729 2.0 10 -0.030254866927862167
-3.2400710582733154 2.3188068866729736 -0.6310567259788513 50.0 3 -0.03025256283581257
-3.023172616958618 2.1643781661987305 0.4565226137638092 3.0 11 -0.03025025874376297
-3.2503511905670166 2.327881336212158 -0.4908897876739502 42.0 4 -0.03024795651435852
-3.181445598602295 2.278531551361084 0.6197934150695801 60.0 12 -0.030245652422308922
-3.229499340057373 2.313800096511841 -0.3475770950317383 44.0 5 -0.030243348330259323
-3.170706272125244 2.2725136280059814 0.7582749724388123 55.0 13 -0.030241044238209724
-3.2365825176239014 2.320585012435913 -0.20871581137180328 53.0 6 -0.030238740146160126
-3.1797313690185547 2.2806639671325684 0.9034035205841064 54.0 14 -0.030236436054110527
-2.7965173721313477 2.005803346633911 -0.0600711815059185 63.0 7 -0.03023413196206093
-3.156489610671997 2.264826774597168 1.0409703254699707 64.0 15 -0.03023182787001133
-2.5496292114257812 1.8347944021224976 -0.841679573059082 6.0 0 -0.03021109104156494
-3.1991398334503174 2.3022029399871826 0.06879738718271255 44.0 8 -0.030208786949515343
-2.8752524852752686 2.069885015487671 -0.817922055721283 4.0 1 -0.030206482857465744
-3.0356085300445557 2.186129331588745 0.1960505247116089 3.0 9 -0.030204178765416145
-3.2782413959503174 2.3617331981658936 -0.785369873046875 9.0 2 -0.030201874673366547
-3.029062271118164 2.183021068572998 0.3266597092151642 2.0 10 -0.030199572443962097
-3.2451844215393066 2.338778495788574 -0.6335596442222595 49.0 3 -0.0301972683519125
-3.0127577781677246 2.172069549560547 0.4560351073741913 3.0 11 -0.0301949642598629
-3.239393949508667 2.3363239765167236 -0.4904022812843323 44.0 4 -0.0301926601678133
-3.191094160079956 2.3023366928100586 0.6232349872589111 57.0 12 -0.030190356075763702
-3.234327793121338 2.3343865871429443 -0.34897157549858093 46.0 5 -0.030188051983714104
-3.1774797439575195 2.293356418609619 0.7617095112800598 50.0 13 -0.030185747891664505
-3.2321078777313232 2.3336434364318848 -0.20892515778541565 52.0 6 -0.030183443799614906
-3.1737306118011475 2.2923367023468018 0.9038533568382263 57.0 14 -0.030181139707565308
-2.8024661540985107 2.024921417236328 -0.06035042181611061 63.0 7 -0.03017883561551571
-3.1657862663269043 2.288280725479126 1.0466642379760742 61.0 15 -0.03017653152346611
-2.549787998199463 1.847773790359497 -0.8437501192092896 6.0 0 -0.030155794695019722
-3.2072739601135254 2.3250930309295654 0.06914643198251724 42.0 8 -0.030153492465615273
-2.8869402408599854 2.0936379432678223 -0.8233208656311035 3.0 1 -0.030151188373565674
-3.0538251399993896 2.215477705001831 0.19772526621818542 3.0 9 -0.030148884281516075
-3.2688026428222656 2.37143874168396 -0.784988284111023 8.0 2 -0.030146580189466476
-3.0443806648254395 2.2094383239746094 0.3291000723838806 2.0 10 -0.030144276097416878
-3.249788284301758 2.3593759536743164 -0.6360625624656677 50.0 3 -0.03014197200536728
-3.037281036376953 2.2059032917022705 0.4609098732471466 3.0 11 -0.03013966791331768
-3.244065999984741 2.356952428817749 -0.492352157831192 41.0 4 -0.03013736382126808
-3.1782448291778564 2.309976816177368 0.6222963929176331 60.0 12 -0.030135059729218483
-3.236238718032837 2.3521275520324707 -0.3500174582004547 44.0 5 -0.030132755637168884
-3.1853342056274414 2.315979242324829 0.7655256986618042 59.0 13 -0.030130451545119286
-3.2368643283843994 2.3543105125427246 -0.2097625434398651 48.0 6 -0.030128147453069687
-3.1720130443573 2.3079864978790283 0.9056529402732849 57.0 14 -0.030125843361020088
-2.7953805923461914 2.03469181060791 -0.06035042181611061 70.0 7 -0.03012353926897049
-3.1749579906463623 2.31182599067688 1.0523582696914673 57.0 15 -0.03012123517692089
-2.5308403968811035 1.8475500345230103 -0.8396090269088745 6.0 0 -0.030100500211119652
-3.213672637939453 2.346888542175293 0.06946057826280594 45.0 8 -0.030098196119070053
-2.870173215866089 2.0968050956726074 -0.8206214904785156 3.0 1 -0.030095892027020454
-3.058973789215088 2.235551118850708 0.1985626369714737 3.0 9 -0.030093587934970856
-3.2509946823120117 2.3758833408355713 -0.7826985716819763 8.0 2 -0.030091283842921257
-3.051126003265381 2.2306339740753174 0.3306688666343689 2.0 10 -0.03008897975087166
-3.2590718269348145 2.383533000946045 -0.6395041942596436 46.0 3 -0.03008667565882206
-3.0519912242889404 2.232902765274048 0.4643222391605377 3.0 11 -0.03008437156677246
-3.2518389225006104 2.3799855709075928 -0.49478960037231445 28.0 4 -0.030082067474722862
-3.210008382797241 2.3502309322357178 0.6301181316375732 75.0 12 -0.030079763382673264
-3.1846039295196533 2.3316309452056885 -0.3453110456466675 31.0 5 -0.030077459290623665
-3.221578359603882 2.3595669269561768 0.7762110829353333 68.0 13 -0.030075155198574066
-3.2399044036865234 2.373856782913208 -0.2104952484369278 42.0 6 -0.030072851106524467
-3.217376947402954 2.3582143783569336 0.9209496974945068 76.0 14 -0.03007054701447487
-2.7979369163513184 2.051532506942749 -0.06055985391139984 70.0 7 -0.03006824292242527
-3.1964664459228516 2.3446033000946045 1.0621933937072754 83.0 15 -0.03006593883037567
-2.5368261337280273 1.8655296564102173 -0.8437501192092896 6.0 0 -0.030045203864574432
-3.2022390365600586 2.355721950531006 0.06939076632261276 45.0 8 -0.030042899772524834
-2.869115114212036 2.1114306449890137 -0.8224210739135742 3.0 1 -0.030040595680475235
-3.06762957572937 2.257520914077759 0.19960935413837433 3.0 9 -0.030038291588425636
-3.2600722312927246 2.4000208377838135 -0.786896288394928 9.0 2 -0.030035987496376038
-3.032090902328491 2.2330002784729004 0.3294486999511719 2.0 10 -0.03003368340432644
-3.2523229122161865 2.3960657119750977 -0.6398170590400696 50.0 3 -0.03003137931227684
-3.063354730606079 2.2576744556427 0.4672470986843109 3.0 11 -0.03002907522022724
-3.2530975341796875 2.398390054702759 -0.49625200033187866 15.0 4 -0.030026771128177643
-3.2228665351867676 2.3761017322540283 0.6341854333877563 68.0 12 -0.030024467036128044
-3.2325665950775146 2.384124279022217 -0.35141193866729736 48.0 5 -0.030022162944078445
-3.233860492706299 2.3859498500823975 0.7811720967292786 72.0 13 -0.030019858852028847
-3.2476677894592285 2.397012710571289 -0.21154196560382843 33.0 6 -0.030017554759979248
-3.234208583831787 2.3879518508911133 0.9281481504440308 84.0 14 -0.0300152525305748
-2.8007702827453613 2.0679259300231934 -0.060769278556108475 65.0 7 -0.0300129484385252
-3.1948893070220947 2.359781265258789 1.064263939857483 102.0 15 -0.0300106443464756
-2.533403158187866 1.8766733407974243 -0.8447853922843933 6.0 0 -0.029989907518029213
-3.202444076538086 2.3722798824310303 0.0695652961730957 42.0 8 -0.029987603425979614
-2.854269027709961 2.1151320934295654 -0.820171594619751 4.0 1 -0.029985299333930016
-3.072566509246826 2.277730703353882 0.2004467248916626 3.0 9 -0.029982995241880417
-3.2564053535461426 2.4148948192596436 -0.7880411744117737 9.0 2 -0.029980691149830818
-3.056281089782715 2.2673115730285645 0.3329349160194397 2.0 10 -0.02997838705778122
-3.253878116607666 2.4138996601104736 -0.6416942477226257 49.0 3 -0.02997608296573162
-3.0797622203826904 2.2855656147003174 0.4709031581878662 1.0 11 -0.029973778873682022
-3.2626590728759766 2.4221808910369873 -0.49893316626548767 48.0 4 -0.029971474781632423
-3.251027822494507 2.41442608833313 0.6413814425468445 77.0 12 -0.029969170689582825
-3.240217924118042 2.4072751998901367 -0.3531550467014313 46.0 5 -0.029966868460178375
-3.2243542671203613 2.3954896926879883 0.780790388584137 67.0 13 -0.029964564368128777
-3.2300827503204346 2.400620937347412 -0.21091392636299133 16.0 6 -0.029962260276079178
-3.205942392349243 2.383547782897949 0.9222994446754456 63.0 14 -0.02995995618402958
-2.8095805644989014 2.089623212814331 -0.06111832708120346 65.0 7 -0.02995765209197998
-3.189732789993286 2.373225688934326 1.0652992725372314 71.0 15 -0.029955347999930382
-2.5333597660064697 1.8896844387054443 -0.8468559384346008 6.0 0 -0.029934611171483994
-3.1909384727478027 2.381051540374756 0.06949548423290253 17.0 8 -0.029932307079434395
-2.8468682765960693 2.1250827312469482 -0.820171594619751 4.0 1 -0.029930002987384796
-3.0613958835601807 2.286052703857422 0.20023739337921143 3.0 9 -0.029927698895335197
-3.251525402069092 2.4280292987823486 -0.7888044714927673 8.0 2 -0.0299253948032856
-3.0567259788513184 2.2833967208862305 0.33380648493766785 2.0 10 -0.029923090711236
-3.262838363647461 2.4382503032684326 -0.6451358199119568 48.0 3 -0.02992078848183155
-3.1035642623901367 2.320073366165161 0.4757779836654663 1.0 11 -0.029918484389781952
-3.2494149208068848 2.429988384246826 -0.4982019364833832 45.0 4 -0.029916180297732353
-3.244162082672119 2.4269421100616455 0.6416942477226257 70.0 12 -0.029913876205682755
-3.2493419647216797 2.4317026138305664 -0.3550724983215332 48.0 5 -0.029911572113633156
-3.230118989944458 2.4173169136047363 0.7842249870300293 66.0 13 -0.029909268021583557
-3.2232825756073 2.4130783081054688 -0.21101859211921692 8.0 6 -0.02990696392953396
-3.2365975379943848 2.4239280223846436 0.9335469007492065 72.0 14 -0.02990465983748436
-2.819873571395874 2.1126067638397217 -0.061502281576395035 67.0 7 -0.02990235574543476
-3.213892698287964 2.4086756706237793 1.0761696100234985 85.0 15 -0.029900051653385162
-2.5248732566833496 1.8977957963943481 -0.8463383316993713 6.0 0 -0.029879314824938774
-3.208184003829956 2.4113996028900146 0.07005396485328674 26.0 8 -0.029877010732889175
-2.848778009414673 2.1420350074768066 -0.8228710293769836 5.0 1 -0.029874708503484726
-3.059781789779663 2.301527500152588 0.20065607130527496 3.0 9 -0.029872404411435127
-3.2457423210144043 2.4422903060913086 -0.7895676493644714 8.0 2 -0.02987010031938553
-3.038785457611084 2.287395715713501 0.33276060223579407 2.0 10 -0.02986779622733593
-3.2665035724639893 2.459699869155884 -0.6476387977600098 48.0 3 -0.02986549213528633
-3.1652212142944336 2.3834333419799805 0.48650243878364563 1.0 11 -0.029863188043236732
-3.247255802154541 2.4460930824279785 -0.49917685985565186 44.0 4 -0.029860883951187134
-3.253023624420166 2.451329231262207 0.6451358199119568 76.0 12 -0.029858579859137535
-3.250379800796509 2.450226306915283 -0.3561183512210846 50.0 5 -0.029856275767087936
-3.2369134426116943 2.440959930419922 0.7880411744117737 71.0 13 -0.029853971675038338
-3.2574660778045654 2.4573519229888916 -0.21384473145008087 1.0 6 -0.02985166758298874
-3.2339136600494385 2.440469980239868 0.9353464841842651 72.0 14 -0.02984936349093914
-2.8076934814453125 2.118823528289795 -0.06139756739139557 65.0 7 -0.02984705939888954
-3.214716672897339 2.4268627166748047 1.0792754888534546 104.0 15 -0.029844755306839943
-2.518233060836792 1.9065977334976196 -0.8463383316993713 7.0 0 -0.029824020341038704
-3.223234176635742 2.4412527084350586 0.07057753205299377 44.0 8 -0.029821716248989105
-2.8362486362457275 2.148930549621582 -0.8215212821960449 4.0 1 -0.029819412156939507
-3.0672430992126465 2.3247904777526855 0.2017027884721756 3.0 9 -0.029817108064889908
-3.2340681552886963 2.4512338638305664 -0.7888044714927673 8.0 2 -0.02981480397284031
-3.0339577198028564 2.300396680831909 0.3331092596054077 2.0 10 -0.02981249988079071
-3.270488977432251 2.4806363582611084 -0.650141716003418 55.0 3 -0.029810195788741112
-3.2307894229888916 2.4514143466949463 0.49795815348625183 4.0 11 -0.029807891696691513
-3.170276641845703 2.4063711166381836 -0.4886961281299591 33.0 4 -0.029805587604641914
-3.2550301551818848 2.4715967178344727 0.647325873374939 82.0 12 -0.029803283512592316
-3.249741554260254 2.467581033706665 -0.35698992013931274 26.0 5 -0.029800979420542717
-3.2580764293670654 2.4748075008392334 0.7952919602394104 67.0 13 -0.02979867532849312
-3.2377870082855225 2.4611775875091553 0.9389457702636719 72.0 14 -0.02979406714439392
-2.812643051147461 2.1387834548950195 -0.06167680397629738 65.0 7 -0.029791763052344322
-3.21041202545166 2.442138195037842 1.080828309059143 102.0 15 -0.029789458960294724
-2.5115621089935303 1.915377140045166 -0.8463383316993713 6.0 0 -0.029768723994493484
-3.213104248046875 2.451275587081909 0.07054262608289719 41.0 8 -0.029766419902443886
-2.8318281173706055 2.161182403564453 -0.8224210739135742 4.0 1 -0.029764115810394287
-3.068634033203125 2.3427555561065674 0.2023308277130127 2.0 9 -0.02976181171834469
-3.2317333221435547 2.4672741889953613 -0.7903308868408203 8.0 2 -0.02975950762629509
-3.0417439937591553 2.323065757751465 0.3348523676395416 1.0 10 -0.02975720353424549
-3.2633793354034424 2.493236780166626 -0.650454580783844 45.0 3 -0.029754899442195892
-3.266374349594116 2.496428966522217 0.5047828555107117 17.0 11 -0.029752595350146294
-3.265939235687256 2.4969983100891113 -0.5047828555107117 50.0 4 -0.029750291258096695
-3.260504722595215 2.4937448501586914 0.650141716003418 77.0 12 -0.029747987166047096
-3.2648468017578125 2.497065782546997 -0.3596045970916748 52.0 5 -0.029745683073997498
-3.249417781829834 2.4861655235290527 0.7952919602394104 67.0 13 -0.0297433789819479
-3.240006446838379 2.4807581901550293 0.9420951008796692 69.0 14 -0.0297387707978487
-2.8242101669311523 2.163179636001587 -0.06209566071629524 63.0 7 -0.029736466705799103
-3.2141363620758057 2.4627292156219482 1.0849695205688477 87.0 15 -0.029734164476394653
-2.507925271987915 1.926485538482666 -0.8473736047744751 6.0 0 -0.029713427647948265
-3.2108705043792725 2.467350482940674 0.07068224996328354 42.0 8 -0.029711123555898666
-2.818086862564087 2.1663036346435547 -0.8206214904785156 3.0 1 -0.029708819463849068
-3.2239460945129395 2.4782934188842773 0.2131120264530182 2.0 9 -0.02970651537179947
-3.21687650680542 2.473752021789551 -0.7888044714927673 5.0 2 -0.02970421127974987
-3.174163579940796 2.4417877197265625 0.3503660559654236 2.0 10 -0.02970190718770027
-3.2640488147735596 2.5118417739868164 -0.6523317694664001 9.0 3 -0.029699603095650673
-3.263932704925537 2.5126585960388184 0.5057578086853027 34.0 11 -0.029697299003601074
-3.274503469467163 2.5217063426971436 -0.5074639916419983 57.0 4 -0.029694994911551476
-3.2678675651550293 2.5165960788726807 0.6532703638076782 76.0 12 -0.029692690819501877
-3.2608449459075928 2.5120956897735596 -0.3601275086402893 66.0 5 -0.029690386727452278
-3.2469403743743896 2.5022857189178467 0.7968183755874634 66.0 13 -0.02968808449804783
-3.2529311180114746 2.508714199066162 0.948393702507019 73.0 14 -0.02968347631394863
-2.8265221118927 2.1798605918884277 -0.06230509281158447 57.0 7 -0.029681172221899033
-3.2227768898010254 2.4863545894622803 1.0906635522842407 104.0 15 -0.029678868129849434
-2.4966015815734863 1.9316816329956055 -0.8458206653594971 6.0 0 -0.029658131301403046
-3.221649646759033 2.492669105529785 0.0711011067032814 44.0 8 -0.029655827209353447
