# .PCD v0.7 - Point Cloud Data file format
VERSION 0.7
FIELDS x y z intensity ring time
SIZE 4 4 4 4 4 4
TYPE F F F F F F
COUNT 1 1 1 1 1 1
WIDTH 540
HEIGHT 1
VIEWPOINT 0 0 0 1 0 0 0
POINTS 540
DATA ascii
2.3033456802368164 -0.03739018365740776 0.04021034389734268 3.0 8 -0.0763985738158226
2.1647591590881348 -0.035518430173397064 -0.49984127283096313 55.0 1 -0.07639627158641815
2.3384690284729004 -0.038776837289333344 0.12257081270217896 2.0 9 -0.0763939619064331
2.1848018169403076 -0.03622870519757271 -0.42474085092544556 61.0 2 -0.07639165967702866
3.6375925540924072 -0.060954149812459946 0.3182927668094635 46.0 10 -0.0763893574476242
2.2239556312561035 -0.037654485553503036 -0.35229045152664185 74.0 3 -0.07638705521821976
3.62027907371521 -0.06192810460925102 0.44457942247390747 39.0 11 -0.07638474553823471
2.2507588863372803 -0.03889418765902519 -0.276399701833725 78.0 4 -0.07638244330883026
3.644015073776245 -0.06360651552677155 0.5772432088851929 100.0 12 -0.07638014107942581
1.924355149269104 -0.033589743077754974 -0.16838489472866058 45.0 5 -0.07637783885002136
3.6471598148345947 -0.06429816037416458 0.7090462446212769 96.0 13 -0.07637552917003632
1.9330406188964844 -0.034416314214468 -0.10132241994142532 42.0 6 -0.07637322694063187
3.68447208404541 -0.06624249368906021 0.8507649302482605 100.0 14 -0.07637092471122742
3.600858211517334 -0.06536788493394852 -0.06286356598138809 48.0 7 -0.07636862248182297
3.6602444648742676 -0.06708499044179916 0.9809242486953735 115.0 15 -0.07636632025241852
2.0821382999420166 -0.040706176310777664 -0.558013916015625 8.0 0 -0.07634557783603668
2.3071999549865723 -0.04550900310277939 0.04028015583753586 3.0 8 -0.07634327560663223
2.1451385021209717 -0.04268692061305046 -0.4953422546386719 55.0 1 -0.07634097337722778
2.3163540363311768 -0.04649845138192177 0.12141943722963333 3.0 9 -0.07633867114782333
2.1866250038146973 -0.04389427602291107 -0.42512246966362 64.0 2 -0.07633636146783829
3.6353657245635986 -0.07361100614070892 0.31811845302581787 51.0 10 -0.07633405923843384
2.2238106727600098 -0.04541730880737305 -0.35229045152664185 74.0 3 -0.07633175700902939
3.6259946823120117 -0.07468749582767487 0.4453106224536896 42.0 11 -0.07632945477962494
2.2426705360412598 -0.04658565670251846 -0.2754247188568115 71.0 4 -0.07632714509963989
3.6516706943511963 -0.0764915868639946 0.5784947276115417 100.0 12 -0.07632484287023544
1.9262181520462036 -0.040348514914512634 -0.1685592085123062 52.0 5 -0.076322540640831
3.6469130516052246 -0.07702872157096863 0.7090462446212769 93.0 13 -0.07632023841142654
1.9289149045944214 -0.04107862710952759 -0.10111307352781296 42.0 6 -0.0763179361820221
3.6725289821624756 -0.07885231077671051 0.8480655550956726 97.0 14 -0.07631562650203705
2.335097551345825 -0.050544265657663345 -0.0407688245177269 6.0 7 -0.0763133242726326
3.667713165283203 -0.08002978563308716 0.9829947352409363 115.0 15 -0.07631102204322815
2.0742580890655518 -0.04779592901468277 -0.5559433102607727 10.0 0 -0.07629028707742691
2.285036087036133 -0.053051795810461044 0.039896201342344284 8.0 8 -0.07628797739744186
2.139131784439087 -0.050037872046232224 -0.49399253726005554 60.0 1 -0.07628567516803741
2.2942137718200684 -0.05406614765524864 0.12026803940534592 5.0 9 -0.07628337293863297
2.17860746383667 -0.05134173110127449 -0.42359596490859985 75.0 2 -0.07628107070922852
3.645045757293701 -0.08653680235147476 0.31898999214172363 41.0 10 -0.07627876102924347
2.235487461090088 -0.05346295237541199 -0.3541676700115204 74.0 3 -0.07627645879983902
3.635634660720825 -0.08758317679166794 0.4465293288230896 55.0 11 -0.07627415657043457
2.2365410327911377 -0.054269298911094666 -0.2746935188770294 61.0 4 -0.07627185434103012
3.643482208251953 -0.08904478698968887 0.5772432088851929 100.0 12 -0.07626955211162567
1.9340327978134155 -0.04726674407720566 -0.16925644874572754 54.0 5 -0.07626724243164062
3.6642861366271973 -0.09019313752651215 0.7124808430671692 99.0 13 -0.07626494020223618
1.9487264156341553 -0.04830649122595787 -0.10215979814529419 30.0 6 -0.07626263797283173
3.668335199356079 -0.09157408773899078 0.8471657633781433 91.0 14 -0.07626033574342728
2.2949252128601074 -0.057689908891916275 -0.04007072374224663 14.0 7 -0.07625802606344223
3.6751368045806885 -0.09302755445241928 0.9850653409957886 113.0 15 -0.07625572383403778
2.0566983222961426 -0.054574958980083466 -0.5512846112251282 13.0 0 -0.07623498886823654
2.2868361473083496 -0.06108113005757332 0.03993110731244087 21.0 8 -0.07623268663883209
2.1467361450195312 -0.05771402269601822 -0.49579212069511414 68.0 1 -0.07623037695884705
2.30599045753479 -0.062398266047239304 0.12089607119560242 2.0 9 -0.0762280747294426
2.168602466583252 -0.05868065357208252 -0.42168790102005005 78.0 2 -0.07622577250003815
3.640738010406494 -0.0991513729095459 0.31864139437675476 46.0 10 -0.0762234702706337
2.2333123683929443 -0.061211809515953064 -0.35385480523109436 78.0 3 -0.07622116804122925
3.6353065967559814 -0.10027337074279785 0.4465293288230896 61.0 11 -0.0762188583612442
2.236337900161743 -0.06207595765590668 -0.2746935188770294 56.0 4 -0.07621655613183975
3.639200210571289 -0.10165205597877502 0.5766174793243408 100.0 12 -0.0762142539024353
1.927881121635437 -0.05385059490799904 -0.16873352229595184 59.0 5 -0.07621195167303085
3.6737616062164307 -0.1032591462135315 0.714388906955719 93.0 13 -0.0762096419930458
1.9485458135604858 -0.05510852113366127 -0.10215979814529419 19.0 6 -0.07620733976364136
3.6738367080688477 -0.10454469919204712 0.8485153913497925 94.0 14 -0.07620503753423691
2.2687249183654785 -0.06495635956525803 -0.039616964757442474 51.0 7 -0.07620273530483246
3.663203239440918 -0.10552185028791428 0.9819594621658325 115.0 15 -0.07620042562484741
2.0545642375946045 -0.061695851385593414 -0.5507669448852539 21.0 0 -0.07617969065904617
2.2626235485076904 -0.06833887100219727 0.03951225057244301 22.0 8 -0.07617738842964172
2.154313087463379 -0.06544386595487595 -0.4975917637348175 66.0 1 -0.07617508620023727
2.2778096199035645 -0.06959337741136551 0.11943066120147705 2.0 9 -0.07617278397083282
2.1723086833953857 -0.06637004017829895 -0.42245110869407654 82.0 2 -0.07617047429084778
3.6343953609466553 -0.11167573928833008 0.31811845302581787 48.0 10 -0.07616817206144333
2.2034685611724854 -0.06809193640947342 -0.3491617739200592 79.0 3 -0.07616586983203888
3.64485502243042 -0.11327064782381058 0.44774800539016724 75.0 11 -0.07616356760263443
2.216266393661499 -0.06926178187131882 -0.27225613594055176 51.0 4 -0.07616125792264938
3.6427717208862305 -0.1144787073135376 0.5772432088851929 100.0 12 -0.07615895569324493
1.921707034111023 -0.060392074286937714 -0.16821058094501495 62.0 5 -0.07615665346384048
3.6576805114746094 -0.11558625847101212 0.7113359570503235 96.0 13 -0.07615435123443604
1.9683040380477905 -0.06254419684410095 -0.10320651531219482 11.0 6 -0.07615204155445099
3.6734495162963867 -0.11736813932657242 0.8485153913497925 94.0 14 -0.07614973932504654
2.2904694080352783 -0.07358155399560928 -0.04000091552734375 67.0 7 -0.07614743709564209
3.6666741371154785 -0.11843288689851761 0.9829947352409363 115.0 15 -0.07614513486623764
2.05240535736084 -0.06880252063274384 -0.5502493381500244 26.0 0 -0.0761243999004364
2.246382713317871 -0.07569770514965057 0.0392330102622509 26.0 8 -0.07612209022045135
2.142385721206665 -0.07256759703159332 -0.49489232897758484 64.0 1 -0.0761197879910469
2.283554792404175 -0.07734932750463486 0.1197446808218956 2.0 9 -0.07611748576164246
2.166177749633789 -0.07375200092792511 -0.421306312084198 75.0 2 -0.076115183532238
3.635974645614624 -0.1244295984506607 0.3182927668094635 42.0 10 -0.07611287385225296
2.1972949504852295 -0.07557934522628784 -0.34822314977645874 83.0 3 -0.07611057162284851
3.6305501461029053 -0.1255127638578415 0.4460418224334717 64.0 11 -0.07610826939344406
2.2120563983917236 -0.07647362351417542 -0.2717686593532562 53.0 4 -0.07610596716403961
3.65421724319458 -0.12696951627731323 0.5791204571723938 100.0 12 -0.07610365748405457
1.9254671335220337 -0.06723879277706146 -0.1685592085123062 72.0 5 -0.07610135525465012
3.6611785888671875 -0.12849095463752747 0.7120991945266724 96.0 13 -0.07609905302524567
2.013982057571411 -0.07103369385004044 -0.10561396926641464 51.0 6 -0.07609675079584122
3.6886203289031982 -0.1300986260175705 0.8521146178245544 94.0 14 -0.07609444111585617
2.2682301998138428 -0.08039744943380356 -0.039616964757442474 50.0 7 -0.07609213888645172
3.6701228618621826 -0.13072893023490906 0.9840300679206848 115.0 15 -0.07608983665704727
2.0598881244659424 -0.07589267194271088 -0.5523198843002319 30.0 0 -0.07606910169124603
2.2441208362579346 -0.08307258039712906 0.03919810429215431 35.0 8 -0.07606679946184158
2.1421332359313965 -0.07967160642147064 -0.49489232897758484 64.0 1 -0.07606448978185654
2.273306131362915 -0.08455027639865875 0.11922132223844528 2.0 9 -0.07606218755245209
2.1737687587738037 -0.08122812956571579 -0.42283275723457336 75.0 2 -0.07605988532304764
3.6494789123535156 -0.13700947165489197 0.3195129334926605 51.0 10 -0.07605758309364319
2.204928159713745 -0.08316323161125183 -0.34947463870048523 85.0 3 -0.07605527341365814
3.6301140785217285 -0.137551411986351 0.4460418224334717 71.0 11 -0.07605297118425369
2.1820356845855713 -0.08268117904663086 -0.26811257004737854 63.0 4 -0.07605066895484924
3.6616721153259277 -0.13938722014427185 0.5803719758987427 100.0 12 -0.0760483667254448
1.933197259902954 -0.07392804324626923 -0.16925644874572754 75.0 5 -0.07604605704545975
3.664655923843384 -0.14078187942504883 0.7128624320030212 93.0 13 -0.0760437548160553
2.253228187561035 -0.08695415407419205 -0.11817460507154465 21.0 6 -0.07604145258665085
3.676485061645508 -0.14187893271446228 0.8494152426719666 94.0 14 -0.0760391503572464
2.2579598426818848 -0.08753141760826111 -0.03944243863224983 44.0 7 -0.07603684812784195
3.681251287460327 -0.1433497816324234 0.9871358871459961 113.0 15 -0.0760345384478569
2.0673465728759766 -0.08303321152925491 -0.5543904304504395 43.0 0 -0.07601380348205566
2.2478291988372803 -0.09067510068416595 0.03926791250705719 41.0 8 -0.07601150125265121
2.1476986408233643 -0.08701139688491821 -0.49624204635620117 70.0 1 -0.07600919902324677
2.2490499019622803 -0.09151069819927216 0.11796525865793228 3.0 9 -0.07600688934326172
2.171525478363037 -0.08835633844137192 -0.42245110869407654 78.0 2 -0.07600458711385727
3.6509954929351807 -0.1491921842098236 0.31968727707862854 59.0 10 -0.07600228488445282
2.2046403884887695 -0.09047458320856094 -0.34947463870048523 83.0 3 -0.07599998265504837
3.647488594055176 -0.15032422542572021 0.44823548197746277 85.0 11 -0.07599767297506332
2.0726470947265625 -0.08578253537416458 -0.2547069489955902 46.0 4 -0.07599537074565887
3.653268337249756 -0.15183985233306885 0.5791204571723938 98.0 12 -0.07599306851625443
1.9408899545669556 -0.08100804686546326 -0.16995368897914886 72.0 5 -0.07599076628684998
3.675938367843628 -0.15342476963996887 0.7151521444320679 96.0 13 -0.07598846405744553
2.3048110008239746 -0.09660018980503082 -0.12089607119560242 29.0 6 -0.07598615437746048
3.6779143810272217 -0.15479332208633423 0.8498651385307312 91.0 14 -0.07598385214805603
2.243655204772949 -0.09482157230377197 -0.03919810429215431 44.0 7 -0.07598154991865158
3.6845884323120117 -0.15636268258094788 0.9881711006164551 111.0 15 -0.07597924768924713
2.055448293685913 -0.09010224044322968 -0.5512846112251282 55.0 0 -0.0759585052728653
2.255490303039551 -0.09887124598026276 0.03940753638744354 47.0 8 -0.07595620304346085
2.1590631008148193 -0.09502183645963669 -0.49894148111343384 77.0 1 -0.0759539008140564
2.272660493850708 -0.10041876137256622 0.11922132223844528 3.0 9 -0.07595159858465195
2.1613807678222656 -0.09587977081537247 -0.42054301500320435 75.0 2 -0.0759492963552475
3.640471935272217 -0.16212952136993408 0.3188157081604004 48.0 10 -0.07594698667526245
2.2102138996124268 -0.0988190695643425 -0.3504132330417633 81.0 3 -0.075944684445858
3.652890920639038 -0.16332142055034637 0.44896671175956726 96.0 11 -0.07594238221645355
1.9890450239181519 -0.08927842229604721 -0.24446991086006165 51.0 4 -0.0759400799870491
3.6487696170806885 -0.16441339254379272 0.5784947276115417 100.0 12 -0.07593777030706406
1.9246727228164673 -0.08706226199865341 -0.1685592085123062 79.0 5 -0.0759354680776596
3.6792736053466797 -0.16707482933998108 0.7159153819084167 93.0 13 -0.07593316584825516
2.310426950454712 -0.10531994700431824 -0.12121009081602097 45.0 6 -0.07593086361885071
3.6792688369750977 -0.1683616042137146 0.8503150343894958 94.0 14 -0.07592855393886566
2.2473056316375732 -0.10283564776182175 -0.03926791250705719 54.0 7 -0.07592625170946121
3.6801607608795166 -0.1690460443496704 0.9871358871459961 113.0 15 -0.07592394948005676
2.0474023818969727 -0.09691119194030762 -0.5492140650749207 48.0 0 -0.07590321451425552
2.2451255321502686 -0.10666289180517197 0.0392330102622509 50.0 8 -0.07590091228485107
2.160646677017212 -0.10302736610174179 -0.4993913471698761 81.0 1 -0.07589860260486603
2.2663114070892334 -0.10806582868099213 0.11890730261802673 3.0 9 -0.07589630037546158
2.170837640762329 -0.10389306396245956 -0.42245110869407654 82.0 2 -0.07589399814605713
3.633913516998291 -0.1745493859052658 0.3182927668094635 46.0 10 -0.07589169591665268
2.1763131618499756 -0.1049165427684784 -0.3450944721698761 53.0 3 -0.07588938623666763
3.6582159996032715 -0.176996648311615 0.44969791173934937 100.0 11 -0.07588708400726318
1.9768078327178955 -0.09599035233259201 -0.24300749599933624 45.0 4 -0.07588478177785873
3.6521191596984863 -0.177340567111969 0.5791204571723938 98.0 12 -0.07588247954845428
1.9283369779586792 -0.0939740538597107 -0.16890782117843628 75.0 5 -0.07588016986846924
3.6786680221557617 -0.1799168884754181 0.7159153819084167 90.0 13 -0.07587786763906479
2.312040090560913 -0.11348211765289307 -0.12131475657224655 48.0 6 -0.07587556540966034
3.6864442825317383 -0.1815871000289917 0.8521146178245544 94.0 14 -0.07587326318025589
2.2389440536499023 -0.11028604954481125 -0.039128296077251434 56.0 7 -0.07587095350027084
3.66797137260437 -0.18131892383098602 0.9840300679206848 113.0 15 -0.0758686512708664
2.0547690391540527 -0.10444965213537216 -0.5512846112251282 46.0 0 -0.07584791630506516
2.234773874282837 -0.11359979212284088 0.039058487862348557 52.0 8 -0.0758456140756607
2.146669864654541 -0.10949686169624329 -0.49624204635620117 77.0 1 -0.07584331184625626
2.275893449783325 -0.11648652702569962 0.11943066120147705 3.0 9 -0.07584100216627121
2.170461893081665 -0.1114700585603714 -0.42245110869407654 82.0 2 -0.07583869993686676
3.6472103595733643 -0.18795080482959747 0.3195129334926605 31.0 10 -0.07583639770746231
2.168062210083008 -0.11172623187303543 -0.343843013048172 82.0 3 -0.07583409547805786
3.645714282989502 -0.1885116994380951 0.44823548197746277 100.0 11 -0.07583178579807281
1.9685490131378174 -0.10213374346494675 -0.24203252792358398 49.0 4 -0.07582948356866837
3.6712052822113037 -0.19111472368240356 0.5822491645812988 100.0 12 -0.07582718133926392
1.9379454851150513 -0.10122426599264145 -0.16977937519550323 61.0 5 -0.07582487910985947
3.6702091693878174 -0.19170519709587097 0.714388906955719 96.0 13 -0.07582256942987442
2.2937002182006836 -0.12020774930715561 -0.1203727126121521 40.0 6 -0.07582026720046997
3.689714193344116 -0.1940154731273651 0.8530144691467285 94.0 14 -0.07581796497106552
2.246533155441284 -0.11852215975522995 -0.03926791250705719 81.0 7 -0.07581566274166107
3.682749032974243 -0.19493833184242249 0.9881711006164551 113.0 15 -0.07581335306167603
2.050553321838379 -0.11105398833751678 -0.5502493381500244 46.0 0 -0.07579261809587479
2.2423505783081055 -0.12183387577533722 0.03919810429215431 51.0 8 -0.07579031586647034
2.1443285942077637 -0.11688339710235596 -0.49579212069511414 79.0 1 -0.07578801363706589
2.271484375 -0.12421206384897232 0.11922132223844528 3.0 9 -0.07578571140766144
2.1700804233551025 -0.11866696178913116 -0.42245110869407654 82.0 2 -0.07578340172767639
3.658503532409668 -0.20069916546344757 0.3205588161945343 64.0 10 -0.07578109949827194
2.1696314811706543 -0.11940203607082367 -0.34415584802627563 91.0 3 -0.07577879726886749
3.6410701274871826 -0.2010176181793213 0.44774800539016724 100.0 11 -0.07577649503946304
1.9523241519927979 -0.10812646150588989 -0.24008263647556305 54.0 4 -0.075774185359478
3.6744601726531982 -0.2041475921869278 0.5828748941421509 100.0 12 -0.07577188313007355
1.9475458860397339 -0.10820277780294418 -0.17065094411373138 67.0 5 -0.0757695809006691
3.677358388900757 -0.2049524039030075 0.7159153819084167 92.0 13 -0.07576727867126465
2.3072257041931152 -0.1289939433336258 -0.12110541760921478 30.0 6 -0.0757649689912796
3.690960168838501 -0.2070029228925705 0.8534643650054932 100.0 14 -0.07576266676187515
2.226140260696411 -0.12524008750915527 -0.038918863981962204 79.0 7 -0.0757603645324707
3.685904026031494 -0.20801004767417908 0.9892064332962036 111.0 15 -0.07575806230306625
2.0501532554626465 -0.11821108311414719 -0.5502493381500244 46.0 0 -0.07573732733726501
2.243908166885376 -0.12977586686611176 0.0392330102622509 50.0 8 -0.07573501765727997
2.145853042602539 -0.12448065727949142 -0.49624204635620117 77.0 1 -0.07573271542787552
2.275024652481079 -0.13237228989601135 0.11943066120147705 3.0 9 -0.07573041319847107
2.1657330989837646 -0.1260131597518921 -0.42168790102005005 82.0 2 -0.07572811096906662
3.649824619293213 -0.2130041867494583 0.3198615610599518 61.0 10 -0.07572580128908157
2.157369375228882 -0.12628214061260223 -0.3422786593437195 81.0 3 -0.07572349905967712
3.652236223220825 -0.21442417800426483 0.44921043515205383 97.0 11 -0.07572119683027267
1.9499530792236328 -0.11482398957014084 -0.2398388832807541 59.0 4 -0.07571889460086823
3.661893844604492 -0.21627384424209595 0.5809977054595947 100.0 12 -0.07571658492088318
1.951134204864502 -0.11523526161909103 -0.17099957168102264 70.0 5 -0.07571428269147873
3.6883795261383057 -0.2184840887784958 0.7182050943374634 93.0 13 -0.07571198046207428
2.3127424716949463 -0.1374022215604782 -0.12141943722963333 33.0 6 -0.07570967823266983
3.68826961517334 -0.21976959705352783 0.8530144691467285 100.0 14 -0.07570737600326538
2.2216973304748535 -0.13277141749858856 -0.038849055767059326 77.0 7 -0.07570506632328033
3.692868947982788 -0.22133728861808777 0.9912769794464111 111.0 15 -0.07570276409387589
2.0420150756835938 -0.12489499896764755 -0.5481787323951721 51.0 0 -0.07568202912807465
2.2634007930755615 -0.13883204758167267 0.039582058787345886 46.0 8 -0.0756797268986702
2.147350549697876 -0.13208997249603271 -0.4966919720172882 79.0 1 -0.07567741721868515
2.2964770793914795 -0.141665518283844 0.12058205902576447 1.0 9 -0.0756751149892807
2.155482530593872 -0.13296781480312347 -0.41977980732917786 89.0 2 -0.07567281275987625
3.6311614513397217 -0.22463597357273102 0.3182927668094635 55.0 10 -0.0756705105304718
2.162830352783203 -0.13417895138263702 -0.34321725368499756 85.0 3 -0.07566820085048676
3.655427932739258 -0.22741806507110596 0.44969791173934937 100.0 11 -0.0756658986210823
1.9693527221679688 -0.12286596745252609 -0.24227626621723175 66.0 4 -0.07566359639167786
3.659144878387451 -0.22893156111240387 0.5806847810745239 90.0 12 -0.07566129416227341
1.9566640853881836 -0.12276000529527664 -0.17152249813079834 53.0 5 -0.07565899193286896
3.687594413757324 -0.231357604265213 0.7182050943374634 90.0 13 -0.07565668225288391
2.3222155570983887 -0.14610140025615692 -0.12194279581308365 35.0 6 -0.07565438002347946
3.6913697719573975 -0.2328881323337555 0.8539142608642578 100.0 14 -0.07565207779407501
2.2112419605255127 -0.1398944854736328 -0.03867453336715698 34.0 7 -0.07564977556467056
3.6843619346618652 -0.23373723030090332 0.9892064332962036 111.0 15 -0.07564746588468552
2.043471574783325 -0.13250350952148438 -0.5486963987350464 54.0 0 -0.07562673091888428
2.246938467025757 -0.14569680392742157 0.03930281847715378 42.0 8 -0.07562442868947983
2.1488208770751953 -0.13971126079559326 -0.49714183807373047 77.0 1 -0.07562212646007538
2.315898895263672 -0.1509801745414734 0.1216287761926651 1.0 9 -0.07561982423067093
2.168694019317627 -0.1417635828256607 -0.42245110869407654 93.0 2 -0.07561751455068588
3.642242908477783 -0.2387252151966095 0.3193386495113373 68.0 10 -0.07561521232128143
2.158381700515747 -0.14184612035751343 -0.3425915241241455 87.0 3 -0.07561291009187698
3.6625351905822754 -0.2406972199678421 0.45067286491394043 100.0 11 -0.07561060786247253
1.9669311046600342 -0.12960903346538544 -0.24203252792358398 62.0 4 -0.07560829818248749
3.6701500415802 -0.24248434603214264 0.5825620293617249 98.0 12 -0.07560599595308304
1.9562236070632935 -0.1295892894268036 -0.17152249813079834 49.0 5 -0.07560369372367859
3.6906394958496094 -0.24513201415538788 0.7189683318138123 93.0 13 -0.07560139149427414
2.3316285610198975 -0.1552753448486328 -0.12246615439653397 33.0 6 -0.07559908181428909
3.6963248252868652 -0.2468055933713913 0.8552640080451965 97.0 14 -0.07559677958488464
2.242664098739624 -0.14974388480186462 -0.0392330102622509 26.0 7 -0.0755944773554802
3.6758134365081787 -0.24608047306537628 0.9871358871459961 111.0 15 -0.07559217512607574
2.056487798690796 -0.14055787026882172 -0.5523198843002319 55.0 0 -0.0755714401602745
2.242399215698242 -0.15365783870220184 0.0392330102622509 30.0 8 -0.07556913048028946
2.13857364654541 -0.14691832661628723 -0.49489232897758484 66.0 1 -0.07556682825088501
2.339240312576294 -0.1611141711473465 0.1228848323225975 1.0 9 -0.07556452602148056
2.170144557952881 -0.14946778118610382 -0.42283275723457336 100.0 2 -0.07556222379207611
3.653312921524048 -0.2522610127925873 0.32038450241088867 100.0 10 -0.07555991411209106
2.159844160079956 -0.14951585233211517 -0.34290438890457153 93.0 3 -0.07555761188268661
3.657667875289917 -0.25384461879730225 0.4501853883266449 100.0 11 -0.07555530965328217
1.9783247709274292 -0.13764400780200958 -0.24349497258663177 59.0 4 -0.07555300742387772
3.677119016647339 -0.2564842998981476 0.583813488483429 98.0 12 -0.07555069774389267
1.961698293685913 -0.1371752917766571 -0.17204543948173523 50.0 5 -0.07554839551448822
3.6858444213867188 -0.2577393352985382 0.7182050943374634 93.0 13 -0.07554609328508377
2.3330647945404053 -0.16355295479297638 -0.12257081270217896 27.0 6 -0.07554379105567932
3.707104206085205 -0.2605263888835907 0.8579633831977844 100.0 14 -0.07554148137569427
2.278005599975586 -0.16049231588840485 -0.039861299097537994 34.0 7 -0.07553917914628983
3.694157123565674 -0.26091238856315613 0.9923122525215149 111.0 15 -0.07553687691688538
2.059812545776367 -0.14837191998958588 -0.5533550977706909 55.0 0 -0.07551614195108414
2.257805585861206 -0.1626337170600891 0.03951225057244301 22.0 8 -0.07551383972167969
2.1341605186462402 -0.15410175919532776 -0.49399253726005554 63.0 1 -0.07551153004169464
2.3386638164520264 -0.16927866637706757 0.1228848323225975 1.0 9 -0.07550922781229019
2.161750078201294 -0.15685245394706726 -0.421306312084198 92.0 2 -0.07550692558288574
3.650376796722412 -0.2655048370361328 0.32021018862724304 100.0 10 -0.07550462335348129
2.157311201095581 -0.15728741884231567 -0.3425915241241455 85.0 3 -0.07550231367349625
3.656759262084961 -0.26661068201065063 0.4501853883266449 100.0 11 -0.0755000114440918
1.9699128866195679 -0.14397002756595612 -0.2425200194120407 59.0 4 -0.07549770921468735
3.6821115016937256 -0.26975125074386597 0.584752082824707 96.0 12 -0.0754954069852829
1.9929999113082886 -0.1463567614555359 -0.17483441531658173 46.0 5 -0.07549309730529785
3.684875011444092 -0.27124691009521484 0.7182050943374634 93.0 13 -0.0754907950758934
2.344400644302368 -0.17298482358455658 -0.12319885194301605 27.0 6 -0.07548849284648895
3.702237606048584 -0.2738243639469147 0.8570635914802551 100.0 14 -0.0754861906170845
2.295379877090454 -0.16977055370807648 -0.040175437927246094 42.0 7 -0.07548388838768005
3.700930595397949 -0.27437710762023926 0.9943828582763672 108.0 15 -0.07548157870769501
2.063162326812744 -0.15549208223819733 -0.5543904304504395 55.0 0 -0.07554197311401367
2.2671940326690674 -0.1712670624256134 0.03968677297234535 14.0 8 -0.07553967088460922
2.137495756149292 -0.16184468567371368 -0.49489232897758484 64.0 1 -0.07553736865520477
2.3380584716796875 -0.1774410754442215 0.1228848323225975 1.0 9 -0.07553505897521973
2.145556926727295 -0.162831649184227 -0.4182533621788025 76.0 2 -0.07553275674581528
3.661396026611328 -0.27851518988609314 0.32125604152679443 100.0 10 -0.07553045451641083
2.158747673034668 -0.16459065675735474 -0.34290438890457153 77.0 3 -0.07552815228700638
3.6597652435302734 -0.27967604994773865 0.45067286491394043 100.0 11 -0.07552584260702133
1.965439796447754 -0.1505422443151474 -0.24203252792358398 59.0 4 -0.07552354037761688
3.677208423614502 -0.2823001742362976 0.584126353263855 93.0 12 -0.07552123814821243
1.9984632730484009 -0.1534225046634674 -0.17535735666751862 51.0 5 -0.07551893591880798
3.695700168609619 -0.284368634223938 0.72049480676651 93.0 13 -0.07551662623882294
2.3677101135253906 -0.18260107934474945 -0.12445490807294846 20.0 6 -0.07551432400941849
3.6974234580993652 -0.2857995629310608 0.8561637997627258 97.0 14 -0.07551202178001404
2.2688546180725098 -0.17577390372753143 -0.03972167521715164 27.0 7 -0.07550971955060959
3.6960980892181396 -0.2869950234889984 0.9933475852012634 108.0 15 -0.07550740987062454
2.0626068115234375 -0.16269290447235107 -0.5543904304504395 55.0 0 -0.0754866749048233
2.286517381668091 -0.18075592815876007 0.04003582149744034 10.0 8 -0.07548437267541885
2.131089925765991 -0.16884319484233856 -0.4935426115989685 70.0 1 -0.0754820704460144
2.3374247550964355 -0.1856013387441635 0.1228848323225975 1.0 9 -0.07547976821660995
2.146932363510132 -0.17047545313835144 -0.41863495111465454 68.0 2 -0.07547745853662491
3.6584155559539795 -0.29113611578941345 0.3210817575454712 96.0 10 -0.07547515630722046
2.1620981693267822 -0.17243917286396027 -0.3435301184654236 79.0 3 -0.07547285407781601
3.6666817665100098 -0.29308196902275085 0.4516478180885315 100.0 11 -0.07547055184841156
1.9827111959457397 -0.15882860124111176 -0.24422620236873627 53.0 4 -0.07546824216842651
3.67226243019104 -0.29481813311576843 0.5835006237030029 96.0 12 -0.07546593993902206
2.003873825073242 -0.1608758419752121 -0.1758802831172943 50.0 5 -0.07546363770961761
3.7103404998779297 -0.29852691292762756 0.7235477566719055 92.0 13 -0.07546133548021317
2.371040105819702 -0.19118589162826538 -0.12466426193714142 44.0 6 -0.07545902580022812
3.7002880573272705 -0.29901814460754395 0.8570635914802551 97.0 14 -0.07545672357082367
3.6989245414733887 -0.30020758509635925 0.9943828582763672 111.0 15 -0.07545211911201477
2.058175563812256 -0.16957448422908783 -0.5533550977706909 58.0 0 -0.07543138414621353
2.3097872734069824 -0.19071079790592194 0.0404546782374382 3.0 8 -0.07542907446622849
2.138256072998047 -0.17692385613918304 -0.4953422546386719 74.0 1 -0.07542677223682404
2.3686439990997314 -0.19598664343357086 0.12455958873033524 1.0 9 -0.07542447000741959
2.142411231994629 -0.17764414846897125 -0.41787171363830566 66.0 2 -0.07542216777801514
3.659362554550171 -0.3040695786476135 0.32125604152679443 100.0 10 -0.07541985809803009
2.153608798980713 -0.17932955920696259 -0.3422786593437195 79.0 3 -0.07541755586862564
3.6775054931640625 -0.3068697452545166 0.4531102478504181 100.0 11 -0.07541525363922119
1.9999775886535645 -0.1668882817029953 -0.24641983211040497 53.0 4 -0.07541295140981674
3.6771700382232666 -0.30748802423477173 0.584439218044281 98.0 12 -0.0754106417298317
2.0211687088012695 -0.16936703026294708 -0.1774490773677826 59.0 5 -0.07540833950042725
3.693624973297119 -0.3101623058319092 0.72049480676651 92.0 13 -0.0754060372710228
2.3723485469818115 -0.19962863624095917 -0.124768927693367 27.0 6 -0.07540373504161835
3.7089855670928955 -0.31210413575172424 0.8593130707740784 100.0 14 -0.0754014328122139
3.626575231552124 -0.30580687522888184 -0.06352675706148148 71.0 7 -0.07539912313222885
3.690208673477173 -0.3118213713169098 0.9923122525215149 111.0 15 -0.0753968209028244
2.0614516735076904 -0.176728755235672 -0.5543904304504395 58.0 0 -0.07537608593702316
2.327073574066162 -0.19990970194339752 0.0407688245177269 2.0 8 -0.07537378370761871
2.1240668296813965 -0.1828436702489853 -0.49219295382499695 68.0 1 -0.07537147402763367
3.6634058952331543 -0.3153528869152069 0.19270101189613342 70.0 9 -0.07536917179822922
2.1378984451293945 -0.1844102293252945 -0.4171084761619568 78.0 2 -0.07536686956882477
3.6603193283081055 -0.31637436151504517 0.32143038511276245 96.0 10 -0.07536456733942032
2.1411941051483154 -0.18544751405715942 -0.34040144085884094 77.0 3 -0.07536225765943527
3.6685569286346436 -0.3183765709400177 0.4521353244781494 100.0 11 -0.07535995543003082
2.0191893577575684 -0.1752358227968216 -0.24885721504688263 72.0 4 -0.07535765320062637
3.6859700679779053 -0.32053592801094055 0.5860036015510559 96.0 12 -0.07535535097122192
2.0344901084899902 -0.1772792488336563 -0.178669273853302 50.0 5 -0.07535304874181747
3.6925761699676514 -0.32240909337997437 0.72049480676651 93.0 13 -0.07535073906183243
2.3597357273101807 -0.20645010471343994 -0.1241409033536911 23.0 6 -0.07534843683242798
3.711812734603882 -0.32474151253700256 0.8602128624916077 100.0 14 -0.07534613460302353
3.6554219722747803 -0.3204508423805237 -0.0640503317117691 100.0 7 -0.07534383237361908
3.696852207183838 -0.32473301887512207 0.9943828582763672 108.0 15 -0.07534152269363403
2.066626787185669 -0.18407794833183289 -0.5559433102607727 57.0 0 -0.0753207877278328
3.633004665374756 -0.32423701882362366 0.06366638094186783 55.0 8 -0.07531848549842834
2.115684747695923 -0.1891920119524002 -0.4903933107852936 68.0 1 -0.0753161832690239
3.6702399253845215 -0.328851580619812 0.19311968982219696 100.0 9 -0.07531387358903885
2.135319471359253 -0.19132351875305176 -0.41672685742378235 86.0 2 -0.0753115713596344
3.6691718101501465 -0.329401433467865 0.3223019242286682 100.0 10 -0.07530926913022995
2.154339551925659 -0.19378575682640076 -0.3425915241241455 54.0 3 -0.0753069669008255
3.6595728397369385 -0.3298274576663971 0.45116034150123596 100.0 11 -0.07530466467142105
2.0165886878967285 -0.18210452795028687 -0.24861349165439606 85.0 4 -0.075302354991436
3.684828758239746 -0.3334004282951355 0.5860036015510559 93.0 12 -0.07530005276203156
2.053734064102173 -0.18582025170326233 -0.1804123967885971 49.0 5 -0.0752977505326271
3.695396661758423 -0.33500683307647705 0.7212580442428589 90.0 13 -0.07529544830322266
2.3212456703186035 -0.21084143221378326 -0.12215213477611542 9.0 6 -0.07529313862323761
3.699012517929077 -0.336636483669281 0.8575134873390198 94.0 14 -0.07529083639383316
3.6562726497650146 -0.33339032530784607 -0.06408523768186569 100.0 7 -0.07528853416442871
3.7033915519714355 -0.3383384943008423 0.9964533448219299 108.0 15 -0.07528623193502426
2.065971612930298 -0.1912907063961029 -0.5559433102607727 57.0 0 -0.07526548951864243
3.6258773803710938 -0.33636245131492615 0.06356166303157806 52.0 8 -0.07526318728923798
2.1072499752044678 -0.19585461914539337 -0.488593727350235 68.0 1 -0.07526088505983353
3.655148983001709 -0.34036484360694885 0.19238698482513428 88.0 9 -0.07525858283042908
2.126819610595703 -0.1980479210615158 -0.415200412273407 71.0 2 -0.07525628060102463
3.6719672679901123 -0.34257739782333374 0.3226505517959595 100.0 10 -0.07525397092103958
2.206753730773926 -0.2062683254480362 -0.35103899240493774 74.0 3 -0.07525166869163513
3.6663050651550293 -0.34334006905555725 0.4521353244781494 100.0 11 -0.07524936646223068
2.0159406661987305 -0.1891426146030426 -0.24861349165439606 71.0 4 -0.07524706423282623
3.6875760555267334 -0.3466305732727051 0.586629331111908 93.0 12 -0.07524475455284119
2.080843687057495 -0.19559842348098755 -0.18285274505615234 67.0 5 -0.07524245232343674
3.7059326171875 -0.3490086495876312 0.7235477566719055 90.0 13 -0.07524015009403229
2.272773265838623 -0.21444010734558105 -0.11964000016450882 26.0 6 -0.07523784786462784
3.703634738922119 -0.35009658336639404 0.8588631749153137 100.0 14 -0.07523553818464279
3.633188009262085 -0.3440771698951721 -0.06370127946138382 96.0 7 -0.07523323595523834
3.709880828857422 -0.351993590593338 0.9985239505767822 104.0 15 -0.07523093372583389
2.065291166305542 -0.1985011249780655 -0.5559433102607727 57.0 0 -0.07521019876003265
3.6386144161224365 -0.3503587245941162 0.06380599737167358 52.0 8 -0.0752078965306282
2.1084930896759033 -0.20339620113372803 -0.48904359340667725 72.0 1 -0.07520558685064316
3.6559269428253174 -0.35331377387046814 0.19249166548252106 91.0 9 -0.07520328462123871
2.1417486667633057 -0.20698152482509613 -0.4182533621788025 55.0 2 -0.07520098239183426
3.6628167629241943 -0.35462486743927 0.32195332646369934 100.0 10 -0.07519868016242981
2.2178170680999756 -0.2151142954826355 -0.3529161810874939 86.0 3 -0.07519637048244476
3.6690356731414795 -0.3565197288990021 0.45262277126312256 100.0 11 -0.07519406825304031
2.025146961212158 -0.19714006781578064 -0.2498321831226349 63.0 4 -0.07519176602363586
3.6863434314727783 -0.3595004975795746 0.586629331111908 93.0 12 -0.07518946379423141
2.080112934112549 -0.2032237946987152 -0.18285274505615234 80.0 5 -0.07518715411424637
3.712507724761963 -0.3627062141895294 0.7250742316246033 90.0 13 -0.07518485188484192
2.266047716140747 -0.22178861498832703 -0.11932599544525146 49.0 6 -0.07518254965543747
3.7082085609436035 -0.36359304189682007 0.8602128624916077 100.0 14 -0.07518024742603302
3.6279845237731934 -0.35636627674102783 -0.06363147497177124 98.0 7 -0.07517793774604797
3.700939416885376 -0.3641846179962158 0.9964533448219299 106.0 15 -0.07517563551664352
2.0587832927703857 -0.20549388229846954 -0.5543904304504395 55.0 0 -0.07515490055084229
3.6313998699188232 -0.3624618947505951 0.06370127946138382 70.0 8 -0.07515259832143784
2.1155266761779785 -0.21153055131435394 -0.4908432364463806 74.0 1 -0.07515029609203339
3.670569896697998 -0.3676656484603882 0.19332905113697052 91.0 9 -0.07514798641204834
2.1898117065429688 -0.21973036229610443 -0.42779380083084106 94.0 2 -0.07514568418264389
3.6634745597839355 -0.36824658513069153 0.3221276104450226 93.0 10 -0.07514338195323944
2.1836013793945312 -0.21987710893154144 -0.3475974202156067 73.0 3 -0.07514107972383499
3.6756691932678223 -0.37012043595314026 0.4535977244377136 100.0 11 -0.07513877004384995
2.054072380065918 -0.20719635486602783 -0.2534882724285126 52.0 4 -0.0751364678144455
3.6889967918395996 -0.3727632462978363 0.58725506067276 96.0 12 -0.07513416558504105
2.0615503787994385 -0.20867763459682465 -0.18128395080566406 57.0 5 -0.0751318633556366
3.703340530395508 -0.3755185902118683 0.7235477566719055 90.0 13 -0.07512955367565155
2.2791287899017334 -0.23150545358657837 -0.12005870044231415 67.0 6 -0.0751272514462471
3.7184834480285645 -0.37836548686027527 0.8629122972488403 100.0 14 -0.07512494921684265
3.630697250366211 -0.3694330155849457 -0.06370127946138382 96.0 7 -0.0751226469874382
3.703489303588867 -0.37749284505844116 0.9974886178970337 106.0 15 -0.07512034475803375
2.071504592895508 -0.2140691876411438 -0.558013916015625 52.0 0 -0.07509960234165192
3.632035970687866 -0.375975102186203 0.06373618543148041 72.0 8 -0.07509730011224747
2.1050453186035156 -0.2182779461145401 -0.488593727350235 66.0 1 -0.07509499788284302
3.673170804977417 -0.38152915239334106 0.1935383826494217 94.0 9 -0.07509269565343857
2.1909842491149902 -0.22757570445537567 -0.4281754195690155 86.0 2 -0.07509038597345352
3.666130304336548 -0.38144469261169434 0.32247623801231384 96.0 10 -0.07508808374404907
2.198538303375244 -0.22913607954978943 -0.3501003682613373 57.0 3 -0.07508578151464462
3.6663906574249268 -0.3827654719352722 0.45262277126312256 97.0 11 -0.07508347928524017
2.086862802505493 -0.2182334065437317 -0.2576318085193634 53.0 4 -0.07508116960525513
3.6954641342163086 -0.3871047794818878 0.5885065197944641 93.0 12 -0.07507886737585068
2.0905327796936035 -0.21898607909679413 -0.18389861285686493 49.0 5 -0.07507656514644623
3.700054407119751 -0.38823848962783813 0.7231661081314087 86.0 13 -0.07507426291704178
2.246525526046753 -0.236119344830513 -0.11838394403457642 59.0 6 -0.07507196068763733
3.7210159301757812 -0.39175117015838623 0.8638120889663696 100.0 14 -0.07506965100765228
3.6452279090881348 -0.3844154477119446 -0.06398051977157593 96.0 7 -0.07506734877824783
3.7097654342651367 -0.3918760418891907 0.999559223651886 104.0 15 -0.07506504654884338
2.0726654529571533 -0.2215040624141693 -0.5585315227508545 51.0 0 -0.07504431158304214
3.6386547088623047 -0.38950231671333313 0.06387580931186676 76.0 8 -0.0750420019030571
2.150773763656616 -0.23061075806617737 -0.4993913471698761 55.0 1 -0.07503969967365265
3.6658589839935303 -0.3937087655067444 0.19322437047958374 88.0 9 -0.0750373974442482
2.186272382736206 -0.2348029613494873 -0.42741215229034424 75.0 2 -0.07503509521484375
3.6727001667022705 -0.3950918912887573 0.32317349314689636 99.0 10 -0.0750327855348587
2.207545280456543 -0.23786716163158417 -0.3516647219657898 54.0 3 -0.07503048330545425
3.665032148361206 -0.39556121826171875 0.45262277126312256 100.0 11 -0.0750281810760498
2.0920090675354004 -0.22615668177604675 -0.2583630383014679 39.0 4 -0.07502587884664536
3.699982166290283 -0.40063995122909546 0.5894451141357422 91.0 12 -0.0750235766172409
2.111544609069824 -0.22864140570163727 -0.18581604957580566 59.0 5 -0.07502126693725586
3.708435535430908 -0.40221017599105835 0.7250742316246033 92.0 13 -0.07501896470785141
2.2258317470550537 -0.24180269241333008 -0.11733722686767578 51.0 6 -0.07501666247844696
3.71187686920166 -0.4038943648338318 0.862012505531311 100.0 14 -0.07501436024904251
3.641876459121704 -0.39692065119743347 -0.06394562125205994 90.0 7 -0.07501205056905746
3.7122156620025635 -0.4052424430847168 1.0005944967269897 106.0 15 -0.07500974833965302
2.0949220657348633 -0.23128153383731842 -0.5647432208061218 44.0 0 -0.07498901337385178
3.645223379135132 -0.40308037400245667 0.06401542574167252 74.0 8 -0.07498671114444733
2.1712615489959717 -0.24047666788101196 -0.5043402910232544 81.0 1 -0.07498440146446228
3.6645331382751465 -0.4058630168437958 0.19322437047958374 88.0 9 -0.07498209923505783
2.175682783126831 -0.24135075509548187 -0.42550405859947205 47.0 2 -0.07497979700565338
3.6792194843292236 -0.40878966450691223 0.3238707184791565 96.0 10 -0.07497749477624893
2.228297472000122 -0.24797476828098297 -0.35510629415512085 62.0 3 -0.07497519254684448
3.671520471572876 -0.4092317521572113 0.4535977244377136 100.0 11 -0.07497288286685944
2.1405696868896484 -0.23859025537967682 -0.26445648074150085 36.0 4 -0.07497058063745499
3.6966700553894043 -0.4126881957054138 0.5891323089599609 93.0 12 -0.07496827840805054
2.1107335090637207 -0.23601065576076508 -0.18581604957580566 63.0 5 -0.07496597617864609
3.7109110355377197 -0.4155895411968231 0.7258374691009521 90.0 13 -0.07496366649866104
2.238867998123169 -0.25112926959991455 -0.11806992441415787 55.0 6 -0.07496136426925659
3.708580493927002 -0.4159839153289795 0.8615626096725464 97.0 14 -0.07495906203985214
3.634578227996826 -0.4083256423473358 -0.06384090334177017 98.0 7 -0.07495675981044769
3.7185304164886475 -0.4184144139289856 1.0026650428771973 106.0 15 -0.07495445013046265
2.1286940574645996 -0.2421576976776123 -0.5740606784820557 60.0 0 -0.07493371516466141
3.655787706375122 -0.41652438044548035 0.06422485411167145 79.0 8 -0.07493141293525696
2.1762607097625732 -0.24833834171295166 -0.5056900382041931 59.0 1 -0.07492911070585251
3.6691203117370605 -0.41869214177131653 0.1935383826494217 94.0 9 -0.07492680847644806
2.198277473449707 -0.2512394189834595 -0.4300835132598877 43.0 2 -0.07492449879646301
3.679823160171509 -0.421214759349823 0.3240450322628021 100.0 10 -0.07492219656705856
2.2372756004333496 -0.2564876675605774 -0.35667064785957336 66.0 3 -0.07491989433765411
3.681976079940796 -0.4227633476257324 0.4550601840019226 100.0 11 -0.07491759210824966
2.2028751373291016 -0.25293341279029846 -0.27225613594055176 54.0 4 -0.07491528242826462
3.689393997192383 -0.4242675006389618 0.5881936550140381 91.0 12 -0.07491298019886017
2.1119184494018555 -0.2432367503643036 -0.1859903484582901 56.0 5 -0.07491067796945572
3.719264268875122 -0.42901793122291565 0.727745532989502 83.0 13 -0.07490837574005127
2.2320704460144043 -0.2578645646572113 -0.11775590479373932 50.0 6 -0.07490606606006622
3.726539134979248 -0.43051618337631226 0.8660616278648376 100.0 14 -0.07490376383066177
3.633204221725464 -0.4203760623931885 -0.06384090334177017 96.0 7 -0.07490146160125732
3.713284492492676 -0.43029841780662537 1.0016297101974487 104.0 15 -0.07489915937185287
2.1336355209350586 -0.24988953769207 -0.5756136178970337 64.0 0 -0.07487842440605164
3.642470121383667 -0.42724740505218506 0.06401542574167252 74.0 8 -0.07487611472606659
3.6716036796569824 -0.4319639801979065 0.19374772906303406 91.0 9 -0.07487151026725769
2.2188799381256104 -0.26105111837387085 -0.43428128957748413 26.0 2 -0.07486920803785324
3.6724700927734375 -0.4327157735824585 0.3235221207141876 96.0 10 -0.0748668983578682
2.236412525177002 -0.2639053463935852 -0.35667064785957336 66.0 3 -0.07486459612846375
3.6844966411590576 -0.43543684482574463 0.45554763078689575 100.0 11 -0.0748622938990593
2.2433764934539795 -0.2655211091041565 -0.27737462520599365 66.0 4 -0.07485999166965485
3.6918139457702637 -0.4376083016395569 0.5888193845748901 91.0 12 -0.0748576819896698
2.1506266593933105 -0.2553046643733978 -0.18947657942771912 43.0 5 -0.07485537976026535
3.700275182723999 -0.439266175031662 0.7243109941482544 88.0 13 -0.0748530775308609
2.2490530014038086 -0.26738712191581726 -0.11869796365499496 51.0 6 -0.07485077530145645
3.723078727722168 -0.44329124689102173 0.865611732006073 100.0 14 -0.0748484656214714
3.633700370788574 -0.4332925081253052 -0.06387580931186676 92.0 7 -0.07484616339206696
3.7117598056793213 -0.443257600069046 1.0016297101974487 108.0 15 -0.0748438611626625
2.144212484359741 -0.25909850001335144 -0.5787193775177002 62.0 0 -0.07482312619686127
3.648897409439087 -0.4409189224243164 0.06415504217147827 81.0 8 -0.07482082396745682
2.2983360290527344 -0.2781292200088501 -0.5344837307929993 1.0 1 -0.07481851428747177
3.6760215759277344 -0.4454984962940216 0.194061741232872 88.0 9 -0.07481621205806732
3.6787710189819336 -0.44713473320007324 0.32421937584877014 93.0 10 -0.07481160759925842
2.22562575340271 -0.2709069848060608 -0.35510629415512085 47.0 3 -0.07480929791927338
3.679013252258301 -0.44781580567359924 0.4550601840019226 100.0 11 -0.07480699568986893
2.2601706981658936 -0.275512158870697 -0.27956831455230713 64.0 4 -0.07480469346046448
3.7059504985809326 -0.45240747928619385 0.5913223624229431 87.0 12 -0.07480239123106003
2.157632827758789 -0.26377731561660767 -0.19017383456230164 37.0 5 -0.07480008155107498
3.70448637008667 -0.45354118943214417 0.7254558801651001 85.0 13 -0.07479777932167053
2.2401280403137207 -0.2746562659740448 -0.11827926337718964 45.0 6 -0.07479547709226608
3.734968423843384 -0.45859646797180176 0.8687610626220703 100.0 14 -0.07479317486286163
3.646059274673462 -0.4476798176765442 -0.06412014365196228 100.0 7 -0.07479087263345718
3.714024782180786 -0.4566829204559326 1.0026650428771973 106.0 15 -0.07478856295347214
2.1432950496673584 -0.26658162474632263 -0.5787193775177002 63.0 0 -0.0747678279876709
3.647256851196289 -0.45428985357284546 0.06415504217147827 81.0 8 -0.07476552575826645
2.2798972129821777 -0.28438031673431396 -0.5304346084594727 1.0 1 -0.074763223528862
3.6744441986083984 -0.4583275020122528 0.194061741232872 88.0 9 -0.07476091384887695
2.335789918899536 -0.29176604747772217 -0.4575599730014801 1.0 2 -0.0747586116194725
3.6811413764953613 -0.4604678452014923 0.324567973613739 96.0 10 -0.07475630939006805
2.2462270259857178 -0.281374990940094 -0.3585478365421295 38.0 3 -0.0747540071606636
3.677347183227539 -0.46129700541496277 0.4550601840019226 100.0 11 -0.07475169748067856
2.25520658493042 -0.28329941630363464 -0.2790808379650116 57.0 4 -0.07474939525127411
3.708268642425537 -0.46583330631256104 0.5919480919837952 91.0 12 -0.07474709302186966
2.1843743324279785 -0.2747887670993805 -0.19261418282985687 26.0 5 -0.07474479079246521
3.702880859375 -0.46646949648857117 0.7254558801651001 85.0 13 -0.07474248856306076
2.2351925373077393 -0.2819741666316986 -0.11806992441415787 40.0 6 -0.07474017888307571
3.725611448287964 -0.47065410017967224 0.8669614195823669 97.0 14 -0.07473787665367126
3.6524102687835693 -0.4614066481590271 -0.06425976008176804 100.0 7 -0.07473557442426682
3.723907470703125 -0.47109925746917725 1.0057708024978638 111.0 15 -0.07473327219486237
2.153848886489868 -0.2755323350429535 -0.5818252563476562 57.0 0 -0.07471252977848053
3.6576313972473145 -0.46790456771850586 0.0643644779920578 81.0 8 -0.07471022754907608
2.348527669906616 -0.30085331201553345 -0.5466310977935791 1.0 1 -0.07470792531967163
3.6748030185699463 -0.471405029296875 0.1941664218902588 94.0 9 -0.07470562309026718
2.4165420532226562 -0.3104236125946045 -0.4735879600048065 1.0 2 -0.07470332086086273
3.689392328262329 -0.4745856523513794 0.32543954253196716 100.0 10 -0.07470101118087769
2.2668333053588867 -0.291594535112381 -0.36198940873146057 9.0 3 -0.07469870895147324
3.6836724281311035 -0.47450342774391174 0.4560351073741913 100.0 11 -0.07469640672206879
2.2581920623779297 -0.2912842929363251 -0.27956831455230713 49.0 4 -0.07469410449266434
3.6987833976745605 -0.47776252031326294 0.5906966328620911 87.0 12 -0.07469179481267929
2.2288482189178467 -0.28829020261764526 -0.19662334024906158 32.0 5 -0.07468949258327484
3.7168893814086914 -0.480760782957077 0.7285087704658508 86.0 13 -0.07468719035387039
2.248110294342041 -0.2911806106567383 -0.11880263686180115 29.0 6 -0.07468488812446594
3.722097635269165 -0.48275551199913025 0.8665115237236023 100.0 14 -0.0746825784444809
3.640862226486206 -0.47286543250083923 -0.06408523768186569 100.0 7 -0.07468027621507645
3.726071834564209 -0.48459354043006897 1.0068061351776123 108.0 15 -0.074677973985672
2.1605851650238037 -0.28367918729782104 -0.5838958024978638 14.0 0 -0.07465723901987076
3.6599414348602295 -0.48119056224823 0.06443428248167038 84.0 8 -0.07465493679046631
2.2779088020324707 -0.299892395734787 -0.5304346084594727 1.0 1 -0.07465262711048126
3.677095413208008 -0.4847516715526581 0.19437576830387115 97.0 9 -0.07465032488107681
2.415499448776245 -0.318435400724411 -0.4735879600048065 1.0 2 -0.07464802265167236
3.6858227252960205 -0.486556738615036 0.32526522874832153 99.0 10 -0.07464572042226791
2.3010518550872803 -0.3041650056838989 -0.3676210343837738 1.0 3 -0.07464341074228287
3.697737216949463 -0.4894428551197052 0.4579850137233734 100.0 11 -0.07464110851287842
2.2709364891052246 -0.3009907901287079 -0.2812744677066803 26.0 4 -0.07463880628347397
3.702967643737793 -0.4914504587650299 0.5916352272033691 93.0 12 -0.07463650405406952
2.2278800010681152 -0.2956797778606415 -0.19662334024906158 30.0 5 -0.07463419437408447
3.722973585128784 -0.49476680159568787 0.7300352454185486 86.0 13 -0.07463189214468002
2.2747976779937744 -0.30271464586257935 -0.12026803940534592 27.0 6 -0.07462958991527557
3.728116273880005 -0.49677467346191406 0.8683111071586609 100.0 14 -0.07462728768587112
3.6471176147460938 -0.4866293966770172 -0.06422485411167145 100.0 7 -0.07462497800588608
3.7205281257629395 -0.497085303068161 1.0057708024978638 108.0 15 -0.07462267577648163
