# .PCD v0.7 - Point Cloud Data file format
VERSION 0.7
FIELDS x y z intensity ring time
SIZE 4 4 4 4 4 4
TYPE F F F F F F
COUNT 1 1 1 1 1 1
WIDTH 548
HEIGHT 1
VIEWPOINT 0 0 0 1 0 0 0
POINTS 548
DATA ascii
-2.9695944786071777 4.259982109069824 -0.272146999835968 33.0 6 -0.0080982381477952
-3.479417562484741 4.993197441101074 1.405044436454773 38.0 14 -0.008095934055745602
-2.8208558559417725 4.049623966217041 -0.0861450806260109 1.0 7 -0.008093629963696003
-3.4585747718811035 4.966981887817383 1.6217602491378784 31.0 15 -0.008091325871646404
-1.868958830833435 2.69108247756958 -0.8779142498970032 6.0 0 -0.00807058997452259
-2.8236145973205566 4.067190170288086 0.0864243134856224 1.0 8 -0.008068285882472992
-2.102116584777832 3.0290586948394775 -0.8512148261070251 3.0 1 -0.008065981790423393
-2.827863931655884 4.076347827911377 0.26000505685806274 0.0 9 -0.008063677698373795
-2.393645763397217 3.450424909591675 -0.8162809610366821 2.0 2 -0.008061373606324196
-3.5457608699798584 5.113096714019775 0.5443747639656067 25.0 10 -0.008059069514274597
-2.7875959873199463 4.021298408508301 -0.7749764919281006 1.0 3 -0.008056765422224998
-3.5264732837677 5.089076042175293 0.7602210640907288 26.0 11 -0.0080544613301754
-3.4351563453674316 4.959144115447998 -0.7407218813896179 3.0 4 -0.008052158169448376
-3.5209405422210693 5.084881782531738 0.9795926809310913 30.0 12 -0.008049854077398777
-3.5365190505981445 5.107380390167236 -0.5435031652450562 47.0 5 -0.008047549985349178
-3.4973340034484863 5.05267333984375 1.1944643259048462 26.0 13 -0.00804524589329958
-2.979708433151245 4.306454658508301 -0.27444979548454285 32.0 6 -0.008042941801249981
-3.4819188117980957 5.034162521362305 1.4131425619125366 38.0 14 -0.008040637709200382
-3.4620859622955322 5.009219169616699 1.6315953731536865 33.0 15 -0.008036029525101185
-1.8573601245880127 2.6944093704223633 -0.8768789768218994 6.0 0 -0.008015293627977371
-2.766284227371216 4.0144500732421875 0.08509793877601624 11.0 8 -0.008012989535927773
-2.099269151687622 3.0476114749908447 -0.8543641567230225 3.0 1 -0.008010685443878174
-2.821545124053955 4.097709655761719 0.2607377767562866 2.0 9 -0.008008381351828575
-2.3826992511749268 3.460376739501953 -0.8166625499725342 2.0 2 -0.008006078191101551
-3.5437071323394775 5.148418426513672 0.5468150973320007 24.0 10 -0.008003774099051952
-2.789216995239258 4.053788661956787 -0.7793565988540649 1.0 3 -0.008001470007002354
-3.528935194015503 5.130795955657959 0.7646083235740662 26.0 11 -0.007999165914952755
-3.414452075958252 4.966197490692139 -0.739990770816803 3.0 4 -0.007996861822903156
-3.5154759883880615 5.115049839019775 0.9830343127250671 31.0 12 -0.007994557730853558
-3.5017411708831787 5.095065593719482 -0.5408885478973389 38.0 5 -0.007992253638803959
-3.504132032394409 5.100451469421387 1.2028599977493286 26.0 13 -0.00798994954675436
-3.0155396461486816 4.390915870666504 -0.2791600227355957 38.0 6 -0.007987645454704762
-3.489694118499756 5.0832366943359375 1.423490285873413 36.0 14 -0.007985342293977737
-3.4664371013641357 5.053133487701416 1.6419481039047241 34.0 15 -0.00798073410987854
-1.8435804843902588 2.6944985389709473 -0.8748083710670471 6.0 0 -0.007959997281432152
-2.751124382019043 4.022431373596191 0.08506302535533905 12.0 8 -0.007957694120705128
-2.091917037963867 3.0597474575042725 -0.8557138442993164 3.0 1 -0.007955390028655529
-3.522836446762085 5.154615879058838 0.3272044360637665 4.0 9 -0.00795308593660593
-2.383899450302124 3.4881229400634766 -0.8212419748306274 2.0 2 -0.007950781844556332
-3.5493152141571045 5.195305824279785 0.5504756569862366 23.0 10 -0.007948477752506733
-2.7661380767822266 4.050448894500732 -0.776853621006012 1.0 3 -0.007946173660457134
-3.535628080368042 5.1791510581970215 0.7699705958366394 26.0 11 -0.007943869568407536
-3.371359348297119 4.94037389755249 -0.7343847751617432 3.0 4 -0.007941565476357937
-3.522090435028076 5.163189888000488 0.9899173974990845 31.0 12 -0.007939262315630913
-3.4749531745910645 5.094089508056641 -0.5394940376281738 36.0 5 -0.007936958223581314
-3.504004955291748 5.138604164123535 1.2089658975601196 26.0 13 -0.007934654131531715
-3.104811906814575 4.554896831512451 -0.28889450430870056 59.0 6 -0.007932350039482117
-3.4938766956329346 5.127594947814941 1.4324884414672852 33.0 14 -0.007930045947432518
-3.4639973640441895 5.087559700012207 1.6491949558258057 34.0 15 -0.00792543776333332
-1.8437937498092651 2.7130589485168457 -0.8789495229721069 6.0 0 -0.007923126220703125
-2.7418458461761475 4.036016464233398 0.08516774326562881 7.0 8 -0.007920822128653526
-2.079010248184204 3.061467409133911 -0.8543641567230225 3.0 1 -0.007918518036603928
-3.5671989917755127 5.254892826080322 0.3328567147254944 4.0 9 -0.007916213944554329
-2.371825695037842 3.493971109390259 -0.8208603262901306 2.0 2 -0.00791390985250473
-3.5564706325531006 5.24105167388916 0.5541362166404724 20.0 10 -0.007911605760455132
-2.757836103439331 4.065657615661621 -0.7781051397323608 1.0 3 -0.007909302599728107
-3.5382771492004395 5.218164920806885 0.7741141319274902 23.0 11 -0.007906998507678509
-3.353595495223999 4.947653770446777 -0.7338972687721252 2.0 4 -0.00790469441562891
-3.5379865169525146 5.221653461456299 0.9989905953407288 23.0 12 -0.007902390323579311
-3.454463243484497 5.098382949829102 -0.5387967824935913 38.0 5 -0.007900086231529713
-3.517568588256836 5.19347620010376 1.2192695140838623 25.0 13 -0.007897782139480114
-3.0904877185821533 4.5646281242370605 -0.28889450430870056 67.0 6 -0.007895478047430515
-3.5050578117370605 5.178891658782959 1.443735957145691 35.0 14 -0.007893173955380917
-2.758742332458496 4.077712059020996 -0.08593565225601196 1.0 7 -0.007890869863331318
-3.4739694595336914 5.136824131011963 1.6616182327270508 33.0 15 -0.00788856577128172
-1.834311604499817 2.7194788455963135 -0.8789495229721069 6.0 0 -0.007867829874157906
-2.071577787399292 3.073554515838623 -0.8557138442993164 3.0 1 -0.007863222621381283
-3.605750560760498 5.351787567138672 0.33819499611854553 3.0 9 -0.007860918529331684
-2.3618099689483643 3.5054850578308105 -0.8216235637664795 2.0 2 -0.007858614437282085
-3.5682034492492676 5.298053741455078 0.5588425993919373 21.0 10 -0.007856310345232487
-2.7568647861480713 4.094923496246338 -0.7818595170974731 1.0 3 -0.007854006253182888
-3.5433170795440674 5.265068054199219 0.7792326807975769 21.0 11 -0.00785170216113329
-3.3207907676696777 4.936272621154785 -0.7304849028587341 2.0 4 -0.00784939806908369
-3.541783332824707 5.266757011413574 1.005247950553894 19.0 12 -0.007847093977034092
-3.432196855545044 5.103797912597656 -0.5380995273590088 40.0 5 -0.007844789884984493
-3.52132511138916 5.238308906555176 1.226901888847351 21.0 13 -0.007842485792934895
-3.0622804164886475 4.557153224945068 -0.28774312138557434 52.0 6 -0.00784018263220787
-3.506516933441162 5.220214366912842 1.4518342018127441 35.0 14 -0.007837878540158272
-3.480781316757202 5.1858110427856445 1.6735239028930664 31.0 15 -0.007833270356059074
-1.8291068077087402 2.732286214828491 -0.8810200095176697 6.0 0 -0.00781253445893526
-3.3586392402648926 5.018968105316162 0.10541253536939621 0.0 8 -0.007810230366885662
-2.067338228225708 3.090484857559204 -0.8584132790565491 3.0 1 -0.007807926274836063
-3.6170237064361572 5.409168243408203 0.3410211205482483 4.0 9 -0.007805622182786465
-2.347377061843872 3.5104432106018066 -0.8208603262901306 2.0 2 -0.007803318090736866
-3.596191167831421 5.380044937133789 0.5661637187004089 23.0 10 -0.007801013998687267
-2.7425549030303955 4.10452127456665 -0.7818595170974731 1.0 3 -0.007798710372298956
-3.5701231956481934 5.345083713531494 0.7892259359359741 18.0 11 -0.007796406280249357
-3.558469533920288 5.331664085388184 1.0152597427368164 19.0 12 -0.00779179809615016
-3.411257266998291 5.113028049468994 -0.5377508997917175 41.0 5 -0.007789494004100561
-3.5400660037994385 5.306095123291016 1.2398768663406372 17.0 13 -0.00778719037771225
-3.034165620803833 4.549536228179932 -0.2865917384624481 39.0 6 -0.007784886285662651
-3.5077292919158936 5.2616095542907715 1.4599324464797974 30.0 14 -0.007782582193613052
-3.4905037879943848 5.23973274230957 1.68698251247406 25.0 15 -0.007777974009513855
-1.8180122375488281 2.7373623847961426 -0.880502462387085 5.0 0 -0.007757238112390041
-3.3787150382995605 5.087296485900879 0.10659930109977722 34.0 8 -0.007754934020340443
-2.051147699356079 3.0895652770996094 -0.8561637997627258 4.0 1 -0.007752630393952131
-3.5815532207489014 5.396799564361572 0.33945104479789734 6.0 9 -0.007750326301902533
-2.338837146759033 3.525567054748535 -0.8223868608474731 2.0 2 -0.007748022209852934
-3.60727858543396 5.43968391418457 0.5710444450378418 28.0 10 -0.007745718117803335
-2.7362232208251953 4.127718448638916 -0.7843625545501709 1.0 3 -0.0077434140257537365
-3.597507953643799 5.427006721496582 0.7994629740715027 36.0 11 -0.007741110399365425
-3.0757174491882324 4.641619682312012 -0.6836870312690735 1.0 4 -0.007738806307315826
-3.5703797340393066 5.390166282653809 1.0240201950073242 36.0 12 -0.007736502215266228
-3.380187749862671 5.1049699783325195 -0.5356591939926147 40.0 5 -0.007734198123216629
-3.569354295730591 5.392705917358398 1.2570496797561646 32.0 13 -0.00773189403116703
-2.9932234287261963 4.523982524871826 -0.2842889428138733 43.0 6 -0.007729590404778719
-3.54109787940979 5.354074954986572 1.4819775819778442 33.0 14 -0.00772728631272912
-3.499894142150879 5.293783187866211 1.7004411220550537 25.0 15 -0.007722678128629923
-1.8052555322647095 2.7388529777526855 -0.8789495229721069 5.0 0 -0.007701942231506109
-2.938664436340332 4.460104465484619 0.09323076158761978 21.0 8 -0.0076996381394565105
-2.050529718399048 3.1133365631103516 -0.8606628179550171 3.0 1 -0.007697334047406912
-3.634101629257202 5.51768684387207 0.34625470638275146 4.0 9 -0.0076950304210186005
-2.3329930305480957 3.543548822402954 -0.824676513671875 1.0 2 -0.007692726328969002
-3.6036040782928467 5.475542068481445 0.5734847784042358 27.0 10 -0.007690422236919403
-2.7196273803710938 4.1339430809021 -0.7837367653846741 1.0 3 -0.007688118144869804
-3.5874109268188477 5.455082416534424 0.8016566634178162 31.0 11 -0.007685814052820206
-3.214380979537964 4.887845993041992 -0.7182979583740234 1.0 4 -0.007683510426431894
-3.580841541290283 5.4471635818481445 1.0324676036834717 35.0 12 -0.007681206334382296
-3.35359525680542 5.103416919708252 -0.5342646837234497 35.0 5 -0.007678902242332697
-3.5645222663879395 5.426463603973389 1.2620108127593994 38.0 13 -0.007676598150283098
-2.970836877822876 4.524385452270508 -0.283660888671875 45.0 6 -0.0076742940582334995
-3.5693182945251465 5.435832500457764 1.5013234615325928 56.0 14 -0.007671990431845188
-3.517428398132324 5.360884666442871 1.718040943145752 30.0 15 -0.007667382247745991
-1.7919325828552246 2.73835825920105 -0.8768789768218994 6.0 0 -0.007646646350622177
-2.9216673374176025 4.46647834777832 0.0931609496474266 44.0 8 -0.007644342258572578
-2.031662940979004 3.1070706844329834 -0.8570635914802551 3.0 1 -0.00764203816652298
-3.6114132404327393 5.5230207443237305 0.3458360433578491 6.0 9 -0.007639734074473381
-2.3147835731506348 3.5414066314697266 -0.8223868608474731 2.0 2 -0.007637429982423782
-3.6115803718566895 5.527493000030518 0.5776682496070862 27.0 10 -0.007635126356035471
-2.699423313140869 4.1330156326293945 -0.7818595170974731 1.0 3 -0.007632822263985872
-3.5910041332244873 5.500193119049072 0.8065314292907715 29.0 11 -0.007630518171936274
-3.2480735778808594 4.974940299987793 -0.7295099496841431 4.0 4 -0.007628214079886675
-3.5854289531707764 5.493748188018799 1.039037823677063 36.0 12 -0.0076259104534983635
-3.020951271057129 4.630591869354248 -0.48371434211730957 12.0 5 -0.007623606361448765
-3.5475785732269287 5.439899444580078 1.2623924016952515 35.0 13 -0.007621302269399166
-2.9492721557617188 4.524174690246582 -0.2830328941345215 39.0 6 -0.007618998177349567
-3.5310513973236084 5.416622161865234 1.4927752017974854 50.0 14 -0.007616694085299969
-2.993565320968628 4.593873023986816 -0.09570899605751038 1.0 7 -0.00761438999325037
-3.5238819122314453 5.409750938415527 1.7299466133117676 34.0 15 -0.007612086366862059
-1.7891558408737183 2.7540056705474854 -0.8799847960472107 5.0 0 -0.007591350004076958
-2.901395320892334 4.467756271362305 0.09298641979694366 57.0 8 -0.007589046377688646
-2.0255918502807617 3.1203296184539795 -0.8588631749153137 3.0 1 -0.007586742285639048
-3.659517288208008 5.639470100402832 0.3523257076740265 4.0 9 -0.007584438193589449
-2.311577320098877 3.5622377395629883 -0.8254397511482239 1.0 2 -0.00758213410153985
-3.6355175971984863 5.60462760925293 0.5844663977622986 29.0 10 -0.0075798300094902515
-2.7007477283477783 4.165149211883545 -0.7862396836280823 1.0 3 -0.00757752638310194
-3.605137348175049 5.5620436668396 0.8138435482978821 27.0 11 -0.0075752222910523415
-3.2263715267181396 4.979583263397217 -0.728534996509552 28.0 4 -0.007572918199002743
-3.6005945205688477 5.5592851638793945 1.0490496158599854 36.0 12 -0.007570614106953144
-2.9993538856506348 4.632747173309326 -0.4828428328037262 30.0 5 -0.007568310014903545
-3.578601598739624 5.527442455291748 1.2799468040466309 37.0 13 -0.007566006388515234
-2.933168649673462 4.532251834869385 -0.2829281985759735 33.0 6 -0.007563702296465635
-3.570341110229492 5.518905162811279 1.5175199508666992 51.0 14 -0.007561398204416037
-2.9243037700653076 4.5220136642456055 -0.09399866312742233 3.0 7 -0.007559094112366438
-3.528050661087036 5.457710266113281 1.7413345575332642 36.0 15 -0.007556790020316839
-1.7853294610977173 2.77028751373291 -0.883090615272522 5.0 0 -0.007536054123193026
-2.886866331100464 4.479537487030029 0.09302133321762085 59.0 8 -0.007533750031143427
-2.0189096927642822 3.1339337825775146 -0.8606628179550171 4.0 1 -0.0075314464047551155
-3.6560282707214355 5.677399158477783 0.35389575362205505 3.0 9 -0.007529142312705517
-2.2900052070617676 3.5574793815612793 -0.8223868608474731 1.0 2 -0.007526838220655918
-3.6440622806549072 5.66315221786499 0.5891727805137634 28.0 10 -0.007524534128606319
-2.68973708152771 4.181666374206543 -0.7874912023544312 1.0 3 -0.007522230036556721
-3.615767478942871 5.621342182159424 0.8206682205200195 27.0 11 -0.007519926410168409
-3.217557430267334 5.00417423248291 -0.7304849028587341 12.0 4 -0.007517622318118811
-3.6035971641540527 5.606715679168701 1.0556198358535767 35.0 12 -0.007515318226069212
-2.9842395782470703 4.6448655128479 -0.48301711678504944 31.0 5 -0.007513014134019613
-3.590144395828247 5.590079307556152 1.2913953065872192 35.0 13 -0.007510710041970015
-3.572190523147583 5.566396713256836 1.5269677639007568 52.0 14 -0.0075061023235321045
-2.9117400646209717 4.537243843078613 -0.0941033735871315 8.0 7 -0.007503798231482506
-3.5527868270874023 5.5382866859436035 1.763075351715088 36.0 15 -0.007501494139432907
-1.772525429725647 2.771620750427246 -0.881537675857544 6.0 0 -0.0074807582423090935
-2.8725814819335938 4.493457794189453 0.09309113770723343 59.0 8 -0.007478454150259495
-2.007408857345581 3.141312837600708 -0.8606628179550171 3.0 1 -0.007476150058209896
-2.9535300731658936 4.623637676239014 0.28753378987312317 1.0 9 -0.007473846431821585
-2.286027431488037 3.578687906265259 -0.8254397511482239 1.0 2 -0.007471542339771986
-3.643571138381958 5.7060651779174805 0.5923104286193848 27.0 10 -0.007469238247722387
-2.690004348754883 4.2143402099609375 -0.7918713688850403 1.0 3 -0.007466934155672789
-3.620767831802368 5.674719333648682 0.8265179991722107 27.0 11 -0.00746463006362319
-3.2088024616241455 5.0309953689575195 -0.7326785326004028 5.0 4 -0.0074623264372348785
-3.6063852310180664 5.65653133392334 1.0625029802322388 33.0 12 -0.00746002234518528
-2.9637248516082764 4.648533344268799 -0.4823198914527893 31.0 5 -0.007457718253135681
-3.6012096405029297 5.6505889892578125 1.3024622201919556 33.0 13 -0.0074554141610860825
-2.8620288372039795 4.492484092712402 -0.2791600227355957 1.0 6 -0.007453110069036484
-3.582049608230591 5.6248555183410645 1.539565086364746 56.0 14 -0.007450805976986885
-2.902608633041382 4.559692859649658 -0.09434770792722702 11.0 7 -0.007448502350598574
-3.5552823543548584 5.587127208709717 1.774463415145874 34.0 15 -0.007446198258548975
-1.7618052959442139 2.7761595249176025 -0.8810200095176697 6.0 0 -0.007425462361425161
-2.852593183517456 4.496704578399658 0.09295151382684708 61.0 8 -0.007423158269375563
-2.003737449645996 3.159820556640625 -0.8638120889663696 3.0 1 -0.007420854177325964
-2.9384427070617676 4.635605335235596 0.28763845562934875 18.0 9 -0.007418550085276365
-2.2756242752075195 3.589961528778076 -0.8262030482292175 1.0 2 -0.007416246458888054
-3.650289297103882 5.760823726654053 0.5966681838035583 31.0 10 -0.007413942366838455
-2.664708375930786 4.2070159912109375 -0.7887426614761353 1.0 3 -0.0074116382747888565
-3.6349191665649414 5.740992546081543 0.8343175649642944 22.0 11 -0.007409334182739258
-3.1912200450897217 5.042166233062744 -0.7326785326004028 3.0 4 -0.007407030090689659
-3.6172471046447754 5.717495441436768 1.0715762376785278 33.0 12 -0.00740472599864006
-2.9677205085754395 4.690840244293213 -0.4856317639350891 11.0 5 -0.007402422372251749
-3.598254442214966 5.68967342376709 1.3085681200027466 33.0 13 -0.00740011828020215
-2.891152858734131 4.573352813720703 -0.2835562229156494 42.0 6 -0.007397814188152552
-3.5884199142456055 5.678508758544922 1.5508127212524414 55.0 14 -0.007395510096102953
-2.9165761470794678 4.617136478424072 -0.0953250452876091 16.0 7 -0.007393206469714642
-3.5522594451904297 5.625639915466309 1.7827457189559937 36.0 15 -0.007390902377665043
-1.7500455379486084 2.779022693634033 -0.8799847960472107 5.0 0 -0.007370166480541229
-2.8390109539031982 4.510018825531006 0.09302133321762085 61.0 8 -0.0073678623884916306
-1.9854295253753662 3.1552507877349854 -0.8606628179550171 3.0 1 -0.007365558296442032
-2.915607213973999 4.6334919929504395 0.2869057357311249 24.0 9 -0.007363254204392433
-2.263077974319458 3.597883701324463 -0.8262030482292175 1.0 2 -0.0073609501123428345
-3.664095878601074 5.8275041580200195 0.6022461652755737 31.0 10 -0.007358646020293236
-2.6331868171691895 4.189533233642578 -0.7837367653846741 1.0 3 -0.007356342393904924
-3.6380889415740967 5.790626049041748 0.8396798372268677 22.0 11 -0.007354038301855326
-3.179935932159424 5.063360691070557 -0.7341409921646118 6.0 4 -0.007351734209805727
-3.6276817321777344 5.776299476623535 1.080336570739746 34.0 12 -0.007349430117756128
-3.2193405628204346 5.128090858459473 -0.5297325849533081 41.0 5 -0.00734712602570653
-3.606546640396118 5.747098922729492 1.3188718557357788 35.0 13 -0.007344822399318218
-2.8656201362609863 4.5681891441345215 -0.28261417150497437 72.0 6 -0.0073425183072686195
-3.597562313079834 5.737229347229004 1.5634099245071411 51.0 14 -0.007340214215219021
-2.917185068130493 4.652194499969482 -0.09584861248731613 20.0 7 -0.007337910123169422
-3.5582096576690674 5.676672458648682 1.7951689958572388 35.0 15 -0.0073356060311198235
-1.7423810958862305 2.7883918285369873 -0.8810200095176697 5.0 0 -0.00731487013399601
-2.821920871734619 4.516016006469727 0.09295151382684708 61.0 8 -0.007312566041946411
-1.9656643867492676 3.1469414234161377 -0.8566136360168457 3.0 1 -0.0073102624155581
-2.8824918270111084 4.616534233093262 0.28523099422454834 15.0 9 -0.007307958323508501
-2.248427391052246 3.6024303436279297 -0.8254397511482239 1.0 2 -0.007305654231458902
-3.6711533069610596 5.884207725524902 0.6067782640457153 31.0 10 -0.007303350139409304
-2.638101100921631 4.228408336639404 -0.7893683910369873 1.0 3 -0.007301046047359705
-3.6440787315368652 5.843082427978516 0.8455295562744141 24.0 11 -0.007298742420971394
-3.147376537322998 5.048609256744385 -0.7304849028587341 2.0 4 -0.007296438328921795
-3.639885425567627 5.840898036956787 1.0900354385375977 33.0 12 -0.007294134236872196
-3.199312448501587 5.135916233062744 -0.5293839573860168 41.0 5 -0.0072918301448225975
-3.618607997894287 5.809019088745117 1.3303203582763672 35.0 13 -0.007289526052772999
-2.8367321491241455 4.5556254386901855 -0.281253457069397 55.0 6 -0.0072872219607234
-3.5980844497680664 5.7805609703063965 1.571958065032959 50.0 14 -0.007284918334335089
-2.9136037826538086 4.6827239990234375 -0.09626747667789459 17.0 7 -0.00728261424228549
-3.57102370262146 5.741552352905273 1.8117334842681885 36.0 15 -0.007280310150235891
-1.743308424949646 2.8105709552764893 -0.886196494102478 5.0 0 -0.007259574253112078
-2.808246612548828 4.529238700866699 0.09302133321762085 59.0 8 -0.007257270161062479
-1.9639078378677368 3.1686911582946777 -0.8606628179550171 3.0 1 -0.00725496606901288
-2.8547873497009277 4.6078925132751465 0.2840796113014221 4.0 9 -0.007252662442624569
-2.2399723529815674 3.6169333457946777 -0.8269662261009216 1.0 2 -0.00725035835057497
-3.6809911727905273 5.943778991699219 0.6116589903831482 34.0 10 -0.0072480542585253716
-2.6150062084198 4.224155426025391 -0.7868654727935791 1.0 3 -0.007245750166475773
-3.654996395111084 5.906408786773682 0.8528417348861694 24.0 11 -0.007243446074426174
-3.1255555152893066 5.052812576293945 -0.7295099496841431 1.0 4 -0.0072411419823765755
-3.6423287391662598 5.89053201675415 1.0969185829162598 26.0 12 -0.007238838355988264
-3.1373696327209473 5.075870990753174 -0.5220628976821899 15.0 5 -0.007236534263938665
-3.624124050140381 5.865667343139648 1.3402423858642578 35.0 13 -0.007234230171889067
-2.761242151260376 4.470832347869873 -0.2753918170928955 72.0 6 -0.007231926079839468
-3.5993869304656982 5.827904224395752 1.5814059972763062 51.0 14 -0.007229622453451157
-2.8415656089782715 4.602683067321777 -0.0944175198674202 35.0 7 -0.007227318361401558
-3.580380439758301 5.801659107208252 1.8267449140548706 24.0 15 -0.007225014269351959
-1.7269209623336792 2.8070695400238037 -0.883090615272522 5.0 0 -0.007204278372228146
-2.791628122329712 4.539500713348389 0.09302133321762085 59.0 8 -0.007201974280178547
-1.95840322971344 3.1858291625976562 -0.8633622527122498 3.0 1 -0.007199670188128948
-2.8274240493774414 4.6013078689575195 0.2830328941345215 1.0 9 -0.0071973660960793495
-2.2297840118408203 3.6301369667053223 -0.8281110525131226 2.0 2 -0.007195062004029751
-3.6842103004455566 5.997974872589111 0.6158424615859985 34.0 10 -0.0071927583776414394
-2.607775926589966 4.247178077697754 -0.7893683910369873 1.0 3 -0.007190454285591841
-3.660323143005371 5.963752746582031 0.859178900718689 20.0 11 -0.007188150193542242
-3.6485989093780518 5.949307441711426 1.1053661108016968 28.0 12 -0.007183542475104332
-2.980250835418701 4.861420154571533 -0.49887949228286743 19.0 5 -0.007181238383054733
-3.632350444793701 5.927454471588135 1.3513094186782837 38.0 13 -0.007178934291005135
-2.7302329540252686 4.45707893371582 -0.27392640709877014 73.0 6 -0.007176630198955536
-3.6136314868927 5.899218559265137 1.597152590751648 56.0 14 -0.007174326106905937
-2.80379319190979 4.578958988189697 -0.09371942281723022 38.0 7 -0.0071720220148563385
-3.577247142791748 5.844400405883789 1.8360624313354492 23.0 15 -0.007169718388468027
-1.7095767259597778 2.8018369674682617 -0.8794671893119812 6.0 0 -0.007148982025682926
-2.769763708114624 4.541166305541992 0.09284680336713791 64.0 8 -0.007146678399294615
-1.9477285146713257 3.1946492195129395 -0.8638120889663696 3.0 1 -0.007144374307245016
-2.808227300643921 4.606032848358154 0.28271886706352234 2.0 9 -0.007142070215195417
-2.220163106918335 3.6429283618927 -0.8292559385299683 1.0 2 -0.007139766123145819
-3.6881144046783447 6.053976535797119 0.6202002167701721 38.0 10 -0.00713746203109622
-2.594247579574585 4.2600812911987305 -0.7899941205978394 1.0 3 -0.007135158404707909
-3.6694042682647705 6.027998447418213 0.8664910793304443 26.0 11 -0.00713285431265831
-2.792050361633301 4.586705207824707 -0.6593132019042969 1.0 4 -0.007130550220608711
-3.6534788608551025 6.004195690155029 1.1131877899169922 30.0 12 -0.0071282461285591125
-2.9539456367492676 4.856472969055176 -0.49731066823005676 26.0 5 -0.007125942036509514
-3.636115074157715 5.980359077453613 1.3604681491851807 38.0 13 -0.0071236384101212025
-2.7146570682525635 4.466582775115967 -0.27392640709877014 76.0 6 -0.007121334318071604
-3.618318796157837 5.953429698944092 1.6084002256393433 51.0 14 -0.007119030226022005
-2.7877910137176514 4.588718891143799 -0.09371942281723022 52.0 7 -0.007116726133972406
-3.5838980674743652 5.901435375213623 1.8500385284423828 24.0 15 -0.007114422041922808
-1.7092835903167725 2.822362184524536 -0.8841258883476257 5.0 0 -0.007093686144798994
-2.7526190280914307 4.546904563903809 0.09277699887752533 52.0 8 -0.007091382052749395
-1.9330874681472778 3.1944222450256348 -0.862012505531311 3.0 1 -0.007089078426361084
-2.792936325073242 4.615320682525635 0.28271886706352234 4.0 9 -0.007086774334311485
-2.2040066719055176 3.6435511112213135 -0.8277294635772705 1.0 2 -0.007084470242261887
-3.6937928199768066 6.108796119689941 0.6245580315589905 34.0 10 -0.007082166150212288
-2.5719306468963623 4.255136966705322 -0.7874912023544312 1.0 3 -0.007079862058162689
-3.6740331649780273 6.0809102058410645 0.8723408579826355 24.0 11 -0.0070775579661130905
-2.7604010105133057 4.568753242492676 -0.6554133892059326 1.0 4 -0.007075254339724779
-3.665207862854004 6.068696022033691 1.1228867769241333 28.0 12 -0.0070729502476751804
-2.952239513397217 4.8901214599609375 -0.4997510015964508 12.0 5 -0.007070646155625582
-3.6406095027923584 6.032724857330322 1.3696271181106567 38.0 13 -0.007068342063575983
-2.693640947341919 4.465298175811768 -0.27329838275909424 71.0 6 -0.007066038437187672
-3.6287550926208496 6.015453815460205 1.6218972206115723 55.0 14 -0.007063734345138073
-2.7694621086120605 4.592800617218018 -0.09361471235752106 52.0 7 -0.007061430253088474
-3.5962228775024414 5.966231346130371 1.8666030168533325 25.0 15 -0.007059126161038876
-1.7019057273864746 2.8313257694244385 -0.8851611614227295 6.0 0 -0.007038390263915062
-2.7385547161102295 4.557722568511963 0.09281189739704132 47.0 8 -0.007036086171865463
-1.917467474937439 3.1924619674682617 -0.8597630262374878 3.0 1 -0.0070337820798158646
-2.7778379917144775 4.626753330230713 0.2828235328197479 1.0 9 -0.007031477987766266
-2.1999974250793457 3.664304733276367 -0.830782413482666 1.0 2 -0.0070291743613779545
-3.701195001602173 6.16713809967041 0.6292644739151001 37.0 10 -0.007026870269328356
-2.5781309604644775 4.297520637512207 -0.7937486171722412 1.0 3 -0.007024566177278757
-3.6814138889312744 6.139025688171387 0.8789218068122864 21.0 11 -0.007022262085229158
-3.669386148452759 6.123813629150391 1.1307084560394287 30.0 12 -0.007017654366791248
-3.0619688034057617 5.1100993156433105 -0.5211913585662842 39.0 5 -0.00701535027474165
-3.643785238265991 6.083503246307373 1.3784042596817017 42.0 13 -0.007013046182692051
-2.6757397651672363 4.469066143035889 -0.2729843556880951 67.0 6 -0.007010742090642452
-3.6287527084350586 6.063198566436768 1.6313451528549194 56.0 14 -0.0070084379985928535
-2.7513587474823 4.599008083343506 -0.09354490041732788 53.0 7 -0.007006134372204542
-3.60016131401062 6.020200252532959 1.8795440196990967 24.0 15 -0.0070038302801549435
-1.6910234689712524 2.83558988571167 -0.8846435546875 6.0 0 -0.00698309438303113
-2.7236533164978027 4.568971157073975 0.09284680336713791 36.0 8 -0.006980790290981531
-1.9152889251708984 3.214202642440796 -0.8638120889663696 3.0 1 -0.0069784861989319324
-2.7555367946624756 4.626126766204834 0.282195508480072 1.0 9 -0.006976182106882334
-2.1952295303344727 3.6854560375213623 -0.8338353633880615 1.0 2 -0.006973878480494022
-3.7163407802581787 6.241648197174072 0.6355396509170532 37.0 10 -0.006971574388444424
-2.548968553543091 4.282729148864746 -0.7893683910369873 1.0 3 -0.006969270296394825
-3.686349391937256 6.19619607925415 0.8852589726448059 21.0 11 -0.006966966204345226
-3.049072265625 5.127065181732178 -0.7324348092079163 1.0 4 -0.006964662112295628
-3.6722116470336914 6.177338123321533 1.1382173299789429 30.0 12 -0.006962358020246029
-3.0634548664093018 5.153296947479248 -0.524503231048584 43.0 5 -0.0069600543938577175
-3.6536192893981934 6.148505210876465 1.390234351158142 41.0 13 -0.006957750301808119
-2.6621644496917725 4.481812953948975 -0.27319371700286865 66.0 6 -0.00695544620975852
-3.6364166736602783 6.124422073364258 1.6443923711776733 56.0 14 -0.006953142117708921
-2.725083351135254 4.591387748718262 -0.0931958481669426 53.0 7 -0.006950838025659323
-3.6067256927490234 6.079249858856201 1.8940378427505493 22.0 15 -0.006948534399271011
-1.6811144351959229 2.8414759635925293 -0.8846435546875 6.0 0 -0.006927798502147198
-1.9070334434509277 3.225900650024414 -0.8651618361473083 3.0 1 -0.006923190318048
-2.7432308197021484 4.6403961181640625 0.2825095057487488 4.0 9 -0.006920886225998402
-2.1683692932128906 3.6694328784942627 -0.8284926414489746 1.0 2 -0.006918582133948803
-3.7239184379577637 6.304330348968506 0.6405947208404541 52.0 10 -0.006916278041899204
-2.5480659008026123 4.315414905548096 -0.7937486171722412 1.0 3 -0.0069139739498496056
-3.7030415534973145 6.273987293243408 0.8945210576057434 31.0 11 -0.006911670323461294
-3.6828248500823975 6.242222309112549 1.1479161977767944 30.0 12 -0.006907062139362097
-3.03330135345459 5.143365859985352 -0.5224115252494812 30.0 5 -0.006904758047312498
-3.6640403270721436 6.215340614318848 1.4024461507797241 41.0 13 -0.006902454420924187
-2.6627285480499268 4.518609523773193 -0.2748684883117676 81.0 6 -0.006900150328874588
-3.644686460494995 6.18745231628418 1.6578893661499023 52.0 14 -0.006897846236824989
-2.6996920108795166 4.583169937133789 -0.09284680336713791 52.0 7 -0.006895542144775391
-3.6159534454345703 6.141117095947266 1.9095669984817505 22.0 15 -0.006893238052725792
-1.6662954092025757 2.8389968872070312 -0.8820553421974182 5.0 0 -0.006872502155601978
-2.6965386867523193 4.594302654266357 0.09298641979694366 7.0 8 -0.00687019806355238
-1.8992830514907837 3.2372500896453857 -0.8665115237236023 3.0 1 -0.006867893971502781
-2.737118721008301 4.667172908782959 0.2835562229156494 4.0 9 -0.0068655903451144695
-2.157531976699829 3.6803677082061768 -0.8292559385299683 1.0 2 -0.006863286253064871
-3.710953712463379 6.332763195037842 0.6421635150909424 99.0 10 -0.006860982161015272
-2.5337400436401367 4.323841094970703 -0.7937486171722412 1.0 3 -0.0068586780689656734
-3.70328426361084 6.322204113006592 0.8996396064758301 84.0 11 -0.006856374442577362
-3.691944122314453 6.307891368865967 1.1576151847839355 56.0 12 -0.006851766258478165
-2.768831491470337 4.732597351074219 -0.47970518469810486 17.0 5 -0.006849462166428566
-3.670175552368164 6.273210525512695 1.4127498865127563 53.0 13 -0.006847158074378967
-2.6608357429504395 4.549828052520752 -0.27622920274734497 72.0 6 -0.006844853982329369
-3.658571481704712 6.258386611938477 1.6736359596252441 61.0 14 -0.006842550355941057
-2.6312155723571777 4.5027852058410645 -0.0910317525267601 33.0 7 -0.0068402462638914585
-3.6227502822875977 6.202078342437744 1.9245785474777222 24.0 15 -0.00683794217184186
-1.6636786460876465 2.856191635131836 -0.8856788277626038 5.0 0 -0.006817206274718046
-2.6804862022399902 4.603686809539795 0.09298641979694366 12.0 8 -0.0068149021826684475
-1.8909127712249756 3.2489123344421387 -0.867861270904541 3.0 1 -0.006812598090618849
-2.7368814945220947 4.704319477081299 0.28523099422454834 1.0 9 -0.006810294464230537
-2.153214454650879 3.7010769844055176 -0.832308828830719 1.0 2 -0.006807990372180939
-3.68692946434021 6.3398661613464355 0.6416406035423279 91.0 10 -0.00680568628013134
-2.5126757621765137 4.322412014007568 -0.7918713688850403 1.0 3 -0.006803382188081741
-3.68019700050354 6.333374977111816 0.8993958234786987 78.0 11 -0.006801078096032143
-3.0160574913024902 5.192520618438721 -0.7373095750808716 2.0 4 -0.006798774003982544
-3.6738712787628174 6.327572345733643 1.1588666439056396 65.0 12 -0.0067964703775942326
-2.982320785522461 5.1385674476623535 -0.5197968482971191 39.0 5 -0.006794166285544634
-3.6650102138519287 6.31484842300415 1.4192373752593994 100.0 13 -0.006791862193495035
-2.6659860610961914 4.595366954803467 -0.2784273028373718 66.0 6 -0.0067895581014454365
-3.6591899394989014 6.309891223907471 1.6839838027954102 63.0 14 -0.006787254475057125
-2.5703539848327637 4.434090614318848 -0.08946103602647781 52.0 7 -0.006784950383007526
-3.6340110301971436 6.271516799926758 1.9421781301498413 24.0 15 -0.006782646290957928
-1.651267409324646 2.858924150466919 -0.8846435546875 5.0 0 -0.006761910393834114
-2.6684019565582275 4.619941711425781 0.09312604367733002 7.0 8 -0.006759606301784515
-1.867867112159729 3.235241413116455 -0.8624624013900757 3.0 1 -0.006757302209734917
-2.989990711212158 5.180905342102051 0.31349241733551025 2.0 9 -0.006754998117685318
-2.1337497234344482 3.6987407207489014 -0.8300192356109619 1.0 2 -0.006752694025635719
-3.663666248321533 6.353337287902832 0.6416406035423279 88.0 10 -0.006750389933586121
-2.502734661102295 4.341861724853516 -0.7937486171722412 1.0 3 -0.006748086307197809
-3.6491434574127197 6.330705642700195 0.89720219373703 71.0 11 -0.0067457822151482105
-2.9771032333374023 5.166896820068359 -0.7321910858154297 6.0 4 -0.006743478123098612
-3.6497881412506104 6.336935043334961 1.1582409143447876 61.0 12 -0.0067411744967103004
-2.967346429824829 5.15412712097168 -0.5203197598457336 31.0 5 -0.006738870404660702
-3.634005308151245 6.314627170562744 1.416184425354004 96.0 13 -0.006736566312611103
-2.6620709896087646 4.6276140213012695 -0.2797880470752716 29.0 6 -0.006734262220561504
-3.5855226516723633 6.235414981842041 1.6605888605117798 56.0 14 -0.006731958128511906
-2.565824270248413 4.4621052742004395 -0.08984498679637909 53.0 7 -0.006729654036462307
-3.620760202407837 6.299238681793213 1.9468369483947754 30.0 15 -0.006727349944412708
-1.6451184749603271 2.8713760375976562 -0.8867141008377075 5.0 0 -0.006706614047288895
-2.6703319549560547 4.662661552429199 0.0937892273068428 4.0 8 -0.006704309955239296
-1.8598703145980835 3.248830556869507 -0.864262044429779 3.0 1 -0.006702006328850985
-2.9382474422454834 5.1346235275268555 0.3100382387638092 7.0 9 -0.006699702236801386
-2.1169240474700928 3.699350595474243 -0.8284926414489746 1.0 2 -0.006697398144751787
-3.6375110149383545 6.359169006347656 0.6409433484077454 88.0 10 -0.0066950940527021885
-2.4914863109588623 4.357430458068848 -0.7950000762939453 1.0 3 -0.006692790426313877
-3.6209914684295654 6.335419178009033 0.8959834575653076 66.0 11 -0.006690486334264278
-2.974884510040283 5.207076072692871 -0.7363346219062805 2.0 4 -0.00668818224221468
-3.6167428493499756 6.333115577697754 1.1551122665405273 55.0 12 -0.006685878150165081
-3.0373342037200928 5.320695400238037 -0.5360077619552612 12.0 5 -0.006683574058115482
-3.6138885021209717 6.33068323135376 1.416947603225708 90.0 13 -0.006681269966065884
-3.6062192916870117 6.3223724365234375 1.6803845167160034 100.0 14 -0.0066766622476279736
-2.5514345169067383 4.4749531745910645 -0.08991479873657227 53.0 7 -0.006674358155578375
-3.5928666591644287 6.304074287414551 1.9442487955093384 30.0 15 -0.006672054063528776
-1.636492371559143 2.8807454109191895 -0.8877493143081665 5.0 0 -0.0066513181664049625
-2.670832633972168 4.701512336730957 0.0943826213479042 6.0 8 -0.006649014074355364
-1.8523681163787842 3.2620809078216553 -0.8660616278648376 3.0 1 -0.0066467104479670525
-2.926220655441284 5.155270576477051 0.3106662631034851 23.0 9 -0.006644406355917454
-2.0994765758514404 3.700254201889038 -0.8269662261009216 1.0 2 -0.006642102263867855
-3.604351282119751 6.355126857757568 0.6392002105712891 82.0 10 -0.006639798171818256
-2.4813432693481445 4.3768439292907715 -0.7968772649765015 1.0 3 -0.006637494079768658
-3.596895456314087 6.344567775726318 0.8954960107803345 59.0 11 -0.006635189987719059
-2.950819253921509 5.207065582275391 -0.7348722219467163 1.0 4 -0.006632886361330748
-3.58487606048584 6.32851505279541 1.1519834995269775 56.0 12 -0.006630582269281149
-3.061936616897583 5.407551288604736 -0.5436775088310242 18.0 5 -0.00662827817723155
-3.589695692062378 6.342176914215088 1.416566014289856 87.0 13 -0.0066259740851819515
-2.573812484741211 4.549199104309082 -0.27392640709877014 1.0 6 -0.00662367045879364
-3.573427677154541 6.3185858726501465 1.6758854389190674 100.0 14 -0.0066213663667440414
-2.547609806060791 4.504720211029053 -0.09033365547657013 83.0 7 -0.006619062274694443
-3.562281370162964 6.301443099975586 1.9395899772644043 45.0 15 -0.006616758182644844
-1.6179438829421997 2.8690454959869385 -0.8825729489326477 5.0 0 -0.006626129150390625
-2.6620993614196777 4.722537517547607 0.09462694823741913 4.0 8 -0.006623825058341026
-1.840583086013794 3.2665083408355713 -0.865611732006073 3.0 1 -0.006621520966291428
-3.575617790222168 6.3482890129089355 0.3818431794643402 6.0 9 -0.006619217339903116
-2.0948991775512695 3.7208828926086426 -0.8300192356109619 2.0 2 -0.0066169132478535175
-3.5736141204833984 6.347322463989258 0.6372827887535095 81.0 10 -0.006614609155803919
-2.452080249786377 4.3570733070373535 -0.7918713688850403 1.0 3 -0.00661230506375432
-3.571943998336792 6.349539279937744 0.8945210576057434 59.0 11 -0.0066100009717047215
-2.7136406898498535 4.825777053833008 -0.6797872185707092 1.0 4 -0.00660769734531641
-3.56000018119812 6.333479404449463 1.1507320404052734 58.0 12 -0.006605393253266811
-3.0732674598693848 5.469784259796143 -0.5489068627357483 18.0 5 -0.006603089161217213
-3.558067560195923 6.335217475891113 1.4123682975769043 90.0 13 -0.006600785069167614
-2.574357271194458 4.585573673248291 -0.27560117840766907 1.0 6 -0.006598480977118015
-3.5516529083251953 6.326381683349609 1.6749857664108276 100.0 14 -0.006596177350729704
-2.538530111312866 4.523605823516846 -0.09054308384656906 72.0 7 -0.006593873258680105
-3.5366408824920654 6.30479621887207 1.9370018243789673 45.0 15 -0.0065915691666305065
-1.613074779510498 2.885073184967041 -0.8856788277626038 5.0 0 -0.006570833269506693
-2.6389200687408447 4.7217888832092285 0.0944175198674202 5.0 8 -0.006568529177457094
-1.8304998874664307 3.276634454727173 -0.8665115237236023 3.0 1 -0.0065662250854074955
-3.545511245727539 6.349144458770752 0.3811104893684387 4.0 9 -0.006563920993357897
-2.0946428775787354 3.7525360584259033 -0.8353618383407593 1.0 2 -0.006561617366969585
-3.5493533611297607 6.358638763427734 0.6371084451675415 85.0 10 -0.006559313274919987
-2.453420400619507 4.39708137512207 -0.7975029945373535 1.0 3 -0.006557009182870388
-3.539947032928467 6.34698486328125 0.8923274278640747 64.0 11 -0.006554705090820789
-3.5348408222198486 6.3430328369140625 1.1501063108444214 58.0 12 -0.006550097372382879
-3.080348253250122 5.529746055603027 -0.5537875890731812 31.0 5 -0.0065477932803332806
-3.5290915966033936 6.337924957275391 1.410078525543213 90.0 13 -0.006545489188283682
-2.5672450065612793 4.612430095672607 -0.2766478955745697 1.0 6 -0.006543185096234083
-3.525597095489502 6.334249496459961 1.6736359596252441 100.0 14 -0.0065408810041844845
-2.5209622383117676 4.531132221221924 -0.09050818532705307 63.0 7 -0.006538577377796173
-3.511629581451416 6.314340591430664 1.9359666109085083 43.0 15 -0.006536273285746574
-1.6099815368652344 2.9044837951660156 -0.8898199200630188 5.0 0 -0.0065155369229614735
-2.523709297180176 4.554766654968262 0.09089213609695435 1.0 8 -0.006513233296573162
-1.8194212913513184 3.285026788711548 -0.8669614195823669 3.0 1 -0.006510929204523563
-3.5078423023223877 6.3335280418396 0.3794357180595398 4.0 9 -0.006508625112473965
-2.075826406478882 3.749518632888794 -0.8330721259117126 1.0 2 -0.006506321020424366
-3.5202372074127197 6.361144542694092 0.6360626220703125 86.0 10 -0.006504016928374767
-2.433461904525757 4.399130344390869 -0.7962515354156494 1.0 3 -0.006501713301986456
-3.508974313735962 6.346019744873047 0.8903774619102478 64.0 11 -0.006499409209936857
-2.6781930923461914 4.845539569854736 -0.6797872185707092 1.0 4 -0.0064971051178872585
-3.5107650756835938 6.351876735687256 1.1494805812835693 61.0 12 -0.00649480102583766
-3.085113048553467 5.58406400680542 -0.5581453442573547 10.0 5 -0.006492496933788061
-3.501253366470337 6.339892864227295 1.407788872718811 90.0 13 -0.00649019330739975
-2.5897395610809326 4.6913042068481445 -0.28083476424217224 1.0 6 -0.006487889215350151
-3.49200177192688 6.328359603881836 1.6686869859695435 100.0 14 -0.006485585123300552
-2.50899338722229 4.546908378601074 -0.09064780175685883 56.0 7 -0.006483281031250954
-3.468108654022217 6.287652969360352 1.9240609407424927 27.0 15 -0.006480976939201355
-1.5998338460922241 2.910085678100586 -0.8898199200630188 5.0 0 -0.006460241042077541
-2.541346311569214 4.622689723968506 0.09207889437675476 1.0 8 -0.006457936950027943
-1.8132110834121704 3.2995810508728027 -0.8692108988761902 3.0 1 -0.006455633323639631
-3.4799444675445557 6.335229873657227 0.3788076937198639 5.0 9 -0.006453329231590033
-2.0570571422576904 3.7464163303375244 -0.830782413482666 1.0 2 -0.006451025139540434
-3.4960951805114746 6.369900226593018 0.6357139348983765 82.0 10 -0.006448721047490835
-2.420762300491333 4.41063928604126 -0.7968772649765015 1.0 3 -0.0064464169554412365
-3.485044479370117 6.352400779724121 0.8896462917327881 59.0 11 -0.006444113329052925
-3.4790778160095215 6.346770286560059 1.146351933479309 61.0 12 -0.006439505144953728
-3.0684733390808105 5.60004186630249 -0.558668315410614 7.0 5 -0.006437201052904129
-3.4792652130126953 6.349747657775879 1.407407283782959 87.0 13 -0.00643489696085453
-2.6317358016967773 4.804969310760498 -0.28711506724357605 1.0 6 -0.006432593334466219
-3.4635117053985596 6.326229095458984 1.6650878190994263 100.0 14 -0.00643028924241662
-2.493105411529541 4.555639266967773 -0.09064780175685883 61.0 7 -0.0064279851503670216
-3.443359136581421 6.294634819030762 1.9225080013275146 30.0 15 -0.006425681058317423
-1.589248776435852 2.9136791229248047 -0.8893022537231445 5.0 0 -0.006404945161193609
-2.517535448074341 4.61748743057251 0.09179966151714325 6.0 8 -0.0064026410691440105
-1.8016830682754517 3.305889844894409 -0.8692108988761902 3.0 1 -0.006400336977094412
-3.4560511112213135 6.341472625732422 0.37849366664886475 5.0 9 -0.0063980333507061005
-2.0615267753601074 3.784250497817993 -0.8376515507698059 1.0 2 -0.006395729258656502
-3.4673285484313965 6.367461204528809 0.6343194842338562 85.0 10 -0.006393425166606903
-2.407241106033325 4.422531604766846 -0.7975029945373535 1.0 3 -0.006391121074557304
-3.4590556621551514 6.357551574707031 0.888671338558197 59.0 11 -0.006388816982507706
-2.5977275371551514 4.776463985443115 -0.6676003336906433 1.0 4 -0.006386513356119394
-3.4504599571228027 6.344390392303467 1.1438488960266113 61.0 12 -0.006384209264069796
-3.0508384704589844 5.611936569213867 -0.5588425993919373 6.0 5 -0.006381905172020197
-3.4552056789398193 6.358403205871582 1.4066439867019653 87.0 13 -0.006379601079970598
-3.440476655960083 6.336569309234619 1.6646379232406616 100.0 14 -0.006374993361532688
-2.483710527420044 4.574425220489502 -0.09085723012685776 58.0 7 -0.0063726892694830894
-3.4261507987976074 6.312811374664307 1.9245785474777222 28.0 15 -0.006370385177433491
-1.5781500339508057 2.9175093173980713 -0.888784646987915 5.0 0 -0.006349649280309677
-2.5126757621765137 4.645157337188721 0.09218360483646393 3.0 8 -0.006347345188260078
-1.791636347770691 3.313560962677002 -0.8696608543395996 3.0 1 -0.00634504109621048
-3.4272451400756836 6.34119987487793 0.37776097655296326 4.0 9 -0.006342737004160881
-2.038973808288574 3.7741496562957764 -0.8338353633880615 1.0 2 -0.006340432912111282
-3.4375083446502686 6.365500450134277 0.6329250335693359 82.0 10 -0.006338129285722971
-2.390683889389038 4.427014350891113 -0.7968772649765015 1.0 3 -0.006335825193673372
-3.4360697269439697 6.365493297576904 0.8881838917732239 59.0 11 -0.006333521101623774
-2.8646647930145264 5.3091535568237305 -0.7407218813896179 1.0 4 -0.006331217009574175
-3.4264187812805176 6.3529181480407715 1.1432232856750488 61.0 12 -0.0063289133831858635
-3.0378501415252686 5.634827136993408 -0.5600627660751343 7.0 5 -0.006326609291136265
-3.427581310272217 6.357728481292725 1.4039726257324219 95.0 13 -0.006324305199086666
-2.598968267440796 4.8227715492248535 -0.28711506724357605 1.0 6 -0.006322001107037067
-3.4157493114471436 6.3410797119140625 1.6628382205963135 100.0 14 -0.006319697014987469
-2.4772090911865234 4.600673675537109 -0.09120627492666245 58.0 7 -0.00631739292293787
-3.395855188369751 6.309421539306641 1.919919729232788 39.0 15 -0.006315089296549559
-1.566638708114624 2.9193224906921387 -0.8877493143081665 5.0 0 -0.006294352933764458
-2.501173257827759 4.662710666656494 0.09235813468694687 6.0 8 -0.006292049307376146
-1.7745343446731567 3.3094899654388428 -0.8669614195823669 3.0 1 -0.006289745215326548
-3.3975393772125244 6.339042663574219 0.3769235908985138 5.0 9 -0.006287441123276949
-2.0357203483581543 3.7981951236724854 -0.8376515507698059 1.0 2 -0.00628513703122735
-3.411677360534668 6.368082523345947 0.6320534348487854 81.0 10 -0.0062828329391777515
-2.380810499191284 4.445781230926514 -0.7987545132637024 1.0 3 -0.00628052931278944
-3.4063327312469482 6.363448143005371 0.886233925819397 63.0 11 -0.0062782252207398415
-2.900432586669922 5.420638084411621 -0.7548587918281555 1.0 4 -0.006275921128690243
-3.400493621826172 6.35787296295166 1.1419717073440552 61.0 12 -0.006273617036640644
-3.0172667503356934 5.641357421875 -0.5597141981124878 6.0 5 -0.006271312944591045
-3.3924074172973633 6.345417022705078 1.3986300230026245 95.0 13 -0.006269009318202734
-2.5632896423339844 4.7965850830078125 -0.2850216329097748 1.0 6 -0.006266705226153135
-3.3899197578430176 6.346089839935303 1.6610386371612549 100.0 14 -0.006264401134103537
-2.4733777046203613 4.632225036621094 -0.0916600376367569 63.0 7 -0.006262097042053938
-3.3738088607788086 6.321238040924072 1.919919729232788 45.0 15 -0.006259792950004339
-1.5591620206832886 2.92988920211792 -0.8893022537231445 5.0 0 -0.006239057052880526
-2.4858198165893555 4.673178672790527 0.09239304065704346 6.0 8 -0.006236752960830927
-1.762055516242981 3.313943862915039 -0.8665115237236023 3.0 1 -0.0062344493344426155
-3.3660190105438232 6.333226203918457 0.37587687373161316 5.0 9 -0.006232145242393017
-2.0224506855010986 3.8052775859832764 -0.8376515507698059 1.0 2 -0.006229841150343418
-3.391295909881592 6.383472442626953 0.6324020624160767 90.0 10 -0.006227537058293819
-2.3652780055999756 4.454064846038818 -0.7987545132637024 1.0 3 -0.006225232966244221
-3.372931957244873 6.3542585372924805 0.8833090662956238 59.0 11 -0.006222929339855909
-3.378281354904175 6.36970329284668 1.1419717073440552 61.0 12 -0.006218321155756712
-2.991023063659668 5.639533519744873 -0.5584940314292908 3.0 5 -0.006216017063707113
-3.3702383041381836 6.357219219207764 1.3986300230026245 95.0 13 -0.006213712971657515
-2.5652356147766113 4.840798377990723 -0.28711506724357605 1.0 6 -0.006211409345269203
-3.3622753620147705 6.347550868988037 1.658339262008667 100.0 14 -0.0062091052532196045
-2.4646799564361572 4.65496826171875 -0.091939277946949 70.0 7 -0.006206801161170006
-3.3472063541412354 6.324438571929932 1.917331576347351 45.0 15 -0.006204497069120407
-1.553433895111084 2.9438564777374268 -0.8918904662132263 5.0 0 -0.0061837611719965935
-2.449901819229126 4.644683837890625 0.0916600376367569 64.0 8 -0.006181457079946995
-1.759566307067871 3.3373122215270996 -0.8710105419158936 3.0 1 -0.006179152987897396
-3.335512399673462 6.329034805297852 0.3749348223209381 5.0 9 -0.006176849361509085
