# .PCD v0.7 - Point Cloud Data file format
VERSION 0.7
FIELDS x y z intensity ring time
SIZE 4 4 4 4 4 4
TYPE F F F F F F
COUNT 1 1 1 1 1 1
WIDTH 546
HEIGHT 1
VIEWPOINT 0 0 0 1 0 0 0
POINTS 546
DATA ascii
-1.8805667161941528 0.999493420124054 -0.03717362508177757 9.0 7 -0.05630126968026161
-3.082242965698242 1.638857364654541 0.9353720545768738 80.0 15 -0.05629896745085716
-2.768294334411621 1.4762687683105469 -0.8406442999839783 10.0 0 -0.056278228759765625
-1.7996001243591309 0.9600900411605835 0.035602912306785583 1.0 8 -0.056275926530361176
-2.793694257736206 1.4910666942596436 -0.7310910224914551 33.0 1 -0.05627362057566643
-1.9186395406723022 1.0244576930999756 0.11398772895336151 51.0 9 -0.05627131834626198
-1.9639060497283936 1.0486277341842651 -0.4327548146247864 3.0 2 -0.05626901239156723
-1.977048397064209 1.056089162826538 0.1961004137992859 39.0 10 -0.05626671016216278
-2.007023811340332 1.0725510120391846 -0.36042505502700806 8.0 3 -0.05626440420746803
-1.9466824531555176 1.0407413244247437 0.2710374593734741 6.0 11 -0.05626210197806358
-1.93330979347229 1.0344598293304443 0.34728455543518066 3.0 12 -0.056257493793964386
-1.9286993741989136 1.032426118850708 -0.19139400124549866 10.0 5 -0.056255191564559937
-1.9068220853805542 1.0211440324783325 -0.11335969716310501 15.0 6 -0.05625058338046074
-3.119439125061035 1.6712268590927124 0.8170222640037537 72.0 14 -0.05624827742576599
-1.8911662101745605 1.0136094093322754 -0.03745286539196968 9.0 7 -0.05624597519636154
-3.0901238918304443 1.656909704208374 0.9395131468772888 78.0 15 -0.056243669241666794
-2.7662670612335205 1.488235592842102 -0.841679573059082 10.0 0 -0.056222934275865555
-1.7962379455566406 0.9663655757904053 0.035602912306785583 1.0 8 -0.05622062832117081
-2.769596576690674 1.4906501770019531 -0.7261420488357544 14.0 1 -0.05621832609176636
-1.9185688495635986 1.033042550086975 0.11419706791639328 51.0 9 -0.05621602013707161
-1.9600493907928467 1.055818796157837 -0.4327548146247864 2.0 2 -0.05621371790766716
-1.976672649383545 1.0652183294296265 0.19644904136657715 28.0 10 -0.05621141567826271
-2.0048177242279053 1.0808377265930176 -0.3607378900051117 8.0 3 -0.05620910972356796
-1.9360482692718506 1.0437626838684082 0.27006247639656067 6.0 11 -0.05620680749416351
-1.919256567955017 1.035574197769165 0.3454073667526245 3.0 12 -0.056202199310064316
-1.9320964813232422 1.042938232421875 -0.19209124147891998 10.0 5 -0.05619989335536957
-2.002129077911377 1.0811928510665894 0.44229528307914734 1.0 13 -0.05619759112596512
-1.8960378170013428 1.0243281126022339 -0.11294099688529968 12.0 6 -0.05619528517127037
-3.1098642349243164 1.6807959079742432 0.8161224722862244 67.0 14 -0.05619298294186592
-1.8946533203125 1.0240079164505005 -0.037592481821775436 9.0 7 -0.05619067698717117
-3.0979161262512207 1.6750370264053345 0.9436542987823486 74.0 15 -0.056188374757766724
-2.767847776412964 1.5015676021575928 -0.8437501192092896 10.0 0 -0.056167636066675186
-1.80674409866333 0.9805735349655151 0.035882145166397095 1.0 8 -0.05616533383727074
-2.7572641372680664 1.4970718622207642 -0.7243424654006958 7.0 1 -0.05616303160786629
-1.9149510860443115 1.0397332906723022 0.11419706791639328 50.0 9 -0.05616072565317154
-1.9339247941970825 1.0504722595214844 -0.42779380083084106 1.0 2 -0.05615842342376709
-1.9886976480484009 1.0806734561920166 0.19801783561706543 15.0 10 -0.05615611746907234
-2.0201234817504883 1.0982071161270142 -0.36417946219444275 6.0 3 -0.05615381523966789
-1.9496482610702515 1.0603352785110474 0.27249985933303833 5.0 11 -0.056151509284973145
-1.9225704669952393 1.0460436344146729 0.3466588258743286 3.0 12 -0.05614690110087395
-1.9354441165924072 1.0534863471984863 -0.1927884966135025 10.0 5 -0.0561445988714695
-1.9535139799118042 1.0637633800506592 0.43237319588661194 1.0 13 -0.05614229291677475
-1.9029738903045654 1.0366735458374023 -0.11356903612613678 11.0 6 -0.0561399906873703
-3.0971333980560303 1.6879109144210815 0.8143228888511658 67.0 14 -0.05613768473267555
-1.8928232192993164 1.0315722227096558 -0.037627387791872025 9.0 7 -0.0561353825032711
-3.0988352298736572 1.6895389556884766 0.9457248449325562 74.0 15 -0.056133076548576355
-2.755810022354126 1.5075116157531738 -0.841679573059082 11.0 0 -0.056112341582775116
-1.8140087127685547 0.9923177361488342 0.036091577261686325 1.0 8 -0.056110039353370667
-2.736898899078369 1.497787356376648 -0.7202933430671692 15.0 1 -0.05610773339867592
-1.9218212366104126 1.052166223526001 0.11482509225606918 50.0 9 -0.05610543116927147
-1.947464942932129 1.0666475296020508 -0.43160995841026306 1.0 2 -0.05610312521457672
-1.972681999206543 1.0809073448181152 0.1967976689338684 1.0 10 -0.05610082298517227
-2.021667242050171 1.10774827003479 -0.3651180863380432 5.0 3 -0.056098517030477524
-1.9757137298583984 1.083016276359558 0.27664345502853394 4.0 11 -0.056096214801073074
-1.9223706722259521 1.054648995399475 0.34728455543518066 4.0 12 -0.05609160661697388
-1.9282619953155518 1.0583182573318481 -0.19243988394737244 9.0 5 -0.05608930066227913
-1.9706287384033203 1.081571102142334 0.4369526505470276 1.0 13 -0.05608699843287468
-1.9065289497375488 1.0468231439590454 -0.11398772895336151 11.0 6 -0.05608469247817993
-3.1085991859436035 1.7075544595718384 0.8188218474388123 67.0 14 -0.05608239024877548
-1.8892109394073486 1.0381728410720825 -0.037627387791872025 10.0 7 -0.056080084294080734
-3.092918634414673 1.7003456354141235 0.9457248449325562 76.0 15 -0.056077782064676285
-2.740645170211792 1.5110455751419067 -0.8385737538337708 12.0 0 -0.056057047098875046
-1.845553994178772 1.0179595947265625 0.036789670586586 1.0 8 -0.0560547411441803
-2.7180042266845703 1.4997998476028442 -0.7166941165924072 30.0 1 -0.05605243891477585
-1.9251309633255005 1.0627292394638062 0.11524379253387451 50.0 9 -0.0560501329600811
-1.9611047506332397 1.0825878381729126 -0.43542614579200745 1.0 2 -0.05604783073067665
-3.1393773555755615 1.7337431907653809 0.3137606680393219 28.0 10 -0.0560455247759819
-2.012601375579834 1.1119322776794434 -0.36417946219444275 6.0 3 -0.056043222546577454
-1.9962444305419922 1.103350043296814 0.2800557613372803 2.0 11 -0.056040916591882706
-1.9290491342544556 1.067089557647705 0.3491617739200592 3.0 12 -0.05603630840778351
-1.9299718141555786 1.0676000118255615 -0.19296279549598694 8.0 5 -0.05603400617837906
-1.9908899068832397 1.101751685142517 0.44229528307914734 1.0 13 -0.05603170022368431
-1.9133468866348267 1.0592764616012573 -0.11461575329303741 11.0 6 -0.05602939799427986
-3.1179628372192383 1.7268919944763184 0.8228710293769836 70.0 14 -0.056027092039585114
-1.8908230066299438 1.0476685762405396 -0.03773210570216179 9.0 7 -0.056024789810180664
-3.0920329093933105 1.7139421701431274 0.9472777247428894 72.0 15 -0.056022487580776215
-2.7454850673675537 1.5262342691421509 -0.841679573059082 10.0 0 -0.05600174888968468
-1.8105320930480957 1.0069016218185425 0.0361613854765892 1.0 8 -0.05599944666028023
-2.6974260807037354 1.5007514953613281 -0.7126449942588806 36.0 1 -0.05599714070558548
-1.9406065940856934 1.0801271200180054 0.11639518290758133 53.0 9 -0.05599483847618103
-1.991622805595398 1.1085224151611328 -0.44305849075317383 1.0 2 -0.05599253252148628
-3.148972511291504 1.7534154653549194 0.31532949209213257 30.0 10 -0.05599023029208183
-2.0276904106140137 1.1295251846313477 -0.3676210343837738 6.0 3 -0.055987924337387085
-3.143765687942505 1.751953125 0.44189828634262085 42.0 11 -0.055985622107982635
-1.940839171409607 1.0824764966964722 0.3519775867462158 4.0 12 -0.05598101392388344
-1.9349340200424194 1.0791829824447632 -0.19383437931537628 9.0 5 -0.05597870796918869
-3.1031301021575928 1.731438398361206 0.6907286047935486 66.0 13 -0.05597640573978424
-1.906149983406067 1.0640015602111816 -0.11440641433000565 12.0 6 -0.05597410351037979
-3.122124433517456 1.7434659004211426 0.8255704045295715 72.0 14 -0.05597179755568504
-1.8906456232070923 1.05621337890625 -0.03780191391706467 8.0 7 -0.055969495326280594
-3.0927772521972656 1.7284942865371704 0.9493483304977417 72.0 15 -0.055967189371585846
-2.730029582977295 1.5301414728164673 -0.8385737538337708 10.0 0 -0.05594645440578461
-1.8593326807022095 1.0425556898117065 0.03720853105187416 1.0 8 -0.05594414845108986
-2.685372829437256 1.506343960762024 -0.7108453512191772 13.0 1 -0.05594184622168541
-1.940307855606079 1.088849425315857 0.1166045218706131 53.0 9 -0.05593954026699066
-1.9534991979599 1.0962520837783813 -0.43542614579200745 1.0 2 -0.05593723803758621
-3.154993772506714 1.7712241411209106 0.3165496587753296 28.0 10 -0.055934932082891464
-2.0426812171936035 1.1472363471984863 -0.37106260657310486 6.0 3 -0.055932629853487015
-3.14109206199646 1.764861822128296 0.442385733127594 59.0 11 -0.055930327624082565
-1.9422142505645752 1.0921493768692017 0.3529161810874939 2.0 12 -0.05592571943998337
-1.9433114528656006 1.0927664041519165 -0.1950545459985733 7.0 5 -0.05592341348528862
-3.1056225299835205 1.7470728158950806 0.6926366686820984 60.0 13 -0.05592111125588417
-1.9059053659439087 1.0726078748703003 -0.11461575329303741 13.0 6 -0.05591880530118942
-3.1160194873809814 1.754353642463684 0.8255704045295715 72.0 14 -0.05591650307178497
-1.8939166069030762 1.066731572151184 -0.03794153034687042 8.0 7 -0.055914197117090225
-3.100189208984375 1.7468664646148682 0.9534894227981567 69.0 15 -0.055911894887685776
-2.7061705589294434 1.5292078256607056 -0.8328797221183777 13.0 0 -0.05589115619659424
-1.8765718936920166 1.0608482360839844 0.037627387791872025 1.0 8 -0.05588885396718979
-2.1678266525268555 1.2259973287582397 -0.5749749541282654 1.0 1 -0.05588655173778534
-1.9382331371307373 1.0965995788574219 0.11670918762683868 58.0 9 -0.05588424578309059
-1.9940874576568604 1.1282005310058594 -0.44534823298454285 1.0 2 -0.05588194355368614
-3.1591956615448 1.7881149053573608 0.31759554147720337 28.0 10 -0.055879637598991394
-2.0558536052703857 1.1640928983688354 -0.3741912841796875 4.0 3 -0.055877335369586945
-3.153911828994751 1.7865780591964722 0.4450668692588806 60.0 11 -0.0558750294148922
-3.117234468460083 1.7672381401062012 0.5675443410873413 57.0 12 -0.055870421230793
-1.9464185237884521 1.1034733057022095 -0.19575178623199463 8.0 5 -0.05586811900138855
-3.1131670475006104 1.7656512260437012 0.6956896185874939 57.0 13 -0.0558658130466938
-1.9021496772766113 1.0792542695999146 -0.11461575329303741 10.0 6 -0.05586351081728935
-3.1115713119506836 1.7661819458007812 0.8260203003883362 73.0 14 -0.055861204862594604
-1.890181541442871 1.073336124420166 -0.03794153034687042 8.0 7 -0.055858902633190155
-3.107510566711426 1.765311360359192 0.9576305150985718 70.0 15 -0.05585659667849541
-2.6588523387908936 1.5147374868392944 -0.8199387788772583 28.0 0 -0.05583586171269417
-1.8728574514389038 1.067392349243164 0.037627387791872025 1.0 8 -0.05583355948328972
-2.1635336875915527 1.2335574626922607 -0.5749749541282654 1.0 1 -0.05583125352859497
-1.948272466659546 1.1112751960754395 0.11754656583070755 56.0 9 -0.05582895129919052
-1.9457981586456299 1.1098637580871582 -0.43542614579200745 1.0 2 -0.05582664534449577
-3.1512045860290527 1.7981435060501099 0.31742119789123535 25.0 10 -0.055824343115091324
-1.9968801736831665 1.13992440700531 -0.36417946219444275 2.0 3 -0.055822037160396576
-3.1562750339508057 1.802498698234558 0.44628557562828064 60.0 11 -0.055819734930992126
-3.1247661113739014 1.785951018333435 0.5700472593307495 76.0 12 -0.05581512674689293
-1.954662799835205 1.1171818971633911 -0.19697196781635284 6.0 5 -0.05581282079219818
-3.117210626602173 1.782354474067688 0.6979793310165405 56.0 13 -0.05581051856279373
-1.9070394039154053 1.0908454656600952 -0.11513911187648773 11.0 6 -0.055808212608098984
-3.113844156265259 1.7818721532821655 0.8282698392868042 72.0 14 -0.055805910378694534
-1.8777462244033813 1.0749601125717163 -0.03776700794696808 7.0 7 -0.055803604423999786
-3.101329803466797 1.7761471271514893 0.9576305150985718 72.0 15 -0.05580130219459534
-2.636796474456787 1.5143883228302002 -0.8147624135017395 34.0 0 -0.0557805672287941
-1.8691201210021973 1.0739233493804932 0.037627387791872025 1.0 8 -0.05577826127409935
-2.074738025665283 1.192545771598816 -0.5524798035621643 1.0 1 -0.0557759590446949
-1.9547703266143799 1.1240425109863281 0.11817460507154465 58.0 9 -0.05577365309000015
-3.148362398147583 1.8111193180084229 0.3177698254585266 25.0 10 -0.055769044905900955
-1.9809041023254395 1.1399909257888794 -0.36198940873146057 2.0 3 -0.055766742676496506
-3.167168140411377 1.8234089612960815 0.4487229585647583 64.0 11 -0.05576443672180176
-3.121936082839966 1.7988201379776 0.5706729888916016 67.0 12 -0.05575982853770256
-1.9438459873199463 1.1200194358825684 -0.19627472758293152 7.0 5 -0.05575752630829811
-3.1228768825531006 1.8000872135162354 0.700650691986084 66.0 13 -0.05575522035360336
-1.9170613288879395 1.1054779291152954 -0.1159764900803566 9.0 6 -0.055752918124198914
-3.126173496246338 1.803442358970642 0.8332187533378601 69.0 14 -0.055750612169504166
-1.8878384828567505 1.0895041227340698 -0.03804624453186989 7.0 7 -0.055748309940099716
-3.098456621170044 1.7888946533203125 0.9586657881736755 70.0 15 -0.05574600398540497
-2.6214630603790283 1.517775535583496 -0.8116565346717834 36.0 0 -0.05567312240600586
-1.8653596639633179 1.0804418325424194 0.037627387791872025 1.0 8 -0.05567082017660141
-2.097540855407715 1.2154126167297363 -0.5596782565116882 1.0 1 -0.05566851422190666
-1.9612023830413818 1.136868953704834 0.11880263686180115 50.0 9 -0.05566621199250221
-3.1506385803222656 1.8270965814590454 0.31864139437675476 22.0 10 -0.055661603808403015
-1.9820390939712524 1.1498719453811646 -0.36292800307273865 2.0 3 -0.05565929785370827
-3.153916358947754 1.8304674625396729 0.44774800539016724 66.0 11 -0.05565699562430382
-1.9656330347061157 1.141271948814392 -0.2790808379650116 2.0 4 -0.05565468966960907
-3.1275954246520996 1.8166512250900269 0.5728631019592285 65.0 12 -0.05565238744020462
-1.9450933933258057 1.129799723625183 -0.1967976689338684 5.0 5 -0.05565008148550987
-3.1114816665649414 1.8080180883407593 0.6995058059692383 60.0 13 -0.05564777925610542
-1.9097373485565186 1.110155463218689 -0.11576715111732483 9.0 6 -0.055645473301410675
-3.1316516399383545 1.8212007284164429 0.8363680839538574 72.0 14 -0.055643171072006226
-1.8961228132247925 1.103126883506775 -0.03829057887196541 6.0 7 -0.05564086511731148
-3.100541353225708 1.8045581579208374 0.9612540006637573 78.0 15 -0.05563856288790703
-2.609475612640381 1.5230211019515991 -0.8095860481262207 36.0 0 -0.05561782792210579
-1.861577033996582 1.0869461297988892 0.037627387791872025 1.0 8 -0.05561552196741104
-2.5812697410583496 1.507767677307129 -0.6901498436927795 7.0 1 -0.05561321973800659
-1.9503241777420044 1.1396772861480713 0.11838394403457642 44.0 9 -0.055610913783311844
-3.1597225666046143 1.8471320867538452 0.32021018862724304 22.0 10 -0.055606305599212646
-1.97630774974823 1.1557862758636475 -0.3626151382923126 1.0 3 -0.0556040033698082
-3.157787322998047 1.84748113155365 0.44921043515205383 66.0 11 -0.05560169741511345
-1.958210825920105 1.1461204290390015 -0.2785933315753937 3.0 4 -0.055599395185709
-3.131463050842285 1.8335461616516113 0.5747402906417847 63.0 12 -0.05559708923101425
-1.9566117525100708 1.145642876625061 -0.1983664631843567 3.0 5 -0.0555947870016098
-3.1153154373168945 1.8248226642608643 0.7017955183982849 63.0 13 -0.055592481046915054
-1.9110203981399536 1.11984384059906 -0.11608116328716278 9.0 6 -0.055590178817510605
-3.125275135040283 1.8321211338043213 0.8363680839538574 72.0 14 -0.05558787286281586
-1.890535593032837 1.1087273359298706 -0.03825567662715912 5.0 7 -0.05558557063341141
-3.1075539588928223 1.8231903314590454 0.9653950929641724 78.0 15 -0.05558326467871666
-2.6008126735687256 1.53016197681427 -0.8085507154464722 34.0 0 -0.05556252971291542
-2.5726325511932373 1.514791488647461 -0.6892500519752502 22.0 1 -0.05555792152881622
-1.9430921077728271 1.1441118717193604 0.11817460507154465 45.0 9 -0.055555619299411774
-3.1704208850860596 1.8682655096054077 0.32195332646369934 22.0 10 -0.055551011115312576
-1.9926815032958984 1.1747159957885742 -0.3663695454597473 2.0 3 -0.05554870516061783
-3.1547393798828125 1.860508680343628 0.44969791173934937 64.0 11 -0.05554640293121338
-2.0020699501037598 1.1811925172805786 -0.28541800379753113 1.0 4 -0.05554409697651863
-3.1253652572631836 1.8439205884933472 0.5747402906417847 65.0 12 -0.05554179474711418
-2.0349602699279785 1.2010761499404907 -0.20673342049121857 1.0 5 -0.055539488792419434
-3.119070291519165 1.8416744470596313 0.7040852308273315 63.0 13 -0.055537186563014984
-1.9139782190322876 1.130570888519287 -0.11649984866380692 9.0 6 -0.055534880608320236
-3.1188604831695557 1.8430202007293701 0.8363680839538574 72.0 14 -0.05553257837891579
-1.8902915716171265 1.1170251369476318 -0.038325484842061996 4.0 7 -0.05553027614951134
-3.108142852783203 1.8374176025390625 0.9674656391143799 78.0 15 -0.05552797019481659
-2.5771777629852295 1.5283915996551514 -0.8028567433357239 24.0 0 -0.05550723522901535
-2.5625669956207275 1.5203312635421753 -0.6879003643989563 12.0 1 -0.05550262704491615
-1.9459564685821533 1.1549649238586426 0.11859328299760818 45.0 9 -0.055500321090221405
-3.1690189838409424 1.8823736906051636 0.32247623801231384 22.0 10 -0.05549571290612221
-1.9785852432250977 1.1752649545669556 -0.36449235677719116 1.0 3 -0.05549341067671776
-3.1553783416748047 1.875016450881958 0.45067286491394043 64.0 11 -0.05549110472202301
-1.970840573310852 1.1715954542160034 -0.28151822090148926 1.0 4 -0.05548880249261856
-3.1223056316375732 1.856838583946228 0.5753660202026367 65.0 12 -0.05548650026321411
-3.133192777633667 1.8640533685684204 0.7086646556854248 61.0 13 -0.055481892079114914
-1.9205162525177002 1.143040657043457 -0.11712788045406342 9.0 6 -0.055479586124420166
-3.1261274814605713 1.8613275289535522 0.8399673104286194 72.0 14 -0.05547728389501572
-1.893253207206726 1.1277095079421997 -0.03846510127186775 3.0 7 -0.05547497794032097
-3.1050291061401367 1.8502336740493774 0.9685009121894836 76.0 15 -0.05547267571091652
-2.552194833755493 1.5250383615493774 -0.7966450452804565 14.0 0 -0.05545193701982498
-2.5605897903442383 1.5312670469284058 -0.6888001561164856 10.0 1 -0.055447328835725784
-1.9643999338150024 1.1747374534606934 0.11995401978492737 30.0 9 -0.055445026606321335
-3.157630443572998 1.8898026943206787 0.32195332646369934 16.0 10 -0.05544041842222214
-1.9439641237258911 1.1638985872268677 -0.35886070132255554 1.0 3 -0.05543811619281769
-3.1658437252044678 1.8962196111679077 0.4531102478504181 64.0 11 -0.05543581023812294
-3.1296863555908203 1.8753046989440918 0.5778689980506897 65.0 12 -0.05543120205402374
-1.9891419410705566 1.1923636198043823 -0.2028985619544983 1.0 5 -0.05542889982461929
-3.1300342082977295 1.8769983053207397 0.7094278931617737 64.0 13 -0.055426593869924545
-1.9233653545379639 1.1538474559783936 -0.11754656583070755 5.0 6 -0.055424291640520096
-3.131307363510132 1.8792481422424316 0.8431165814399719 69.0 14 -0.05542198568582535
-1.8929325342178345 1.1360398530960083 -0.03853491693735123 2.0 7 -0.0554196834564209
-3.102189064025879 1.8625092506408691 0.9695361852645874 80.0 15 -0.05541737750172615
-2.5617499351501465 1.5429083108901978 -0.8013038039207458 11.0 0 -0.05539664253592491
-2.6055731773376465 1.5699212551116943 -0.7022972702980042 20.0 1 -0.055392034351825714
-1.9739714860916138 1.1898362636566162 0.12079139798879623 17.0 9 -0.055389732122421265
-3.1714870929718018 1.913162350654602 0.3240450322628021 17.0 10 -0.05538512393832207
-1.9265620708465576 1.1621758937835693 -0.35635775327682495 1.0 3 -0.05538281798362732
-3.147641181945801 1.899527907371521 0.4514040946960449 58.0 11 -0.05538051575422287
-3.140031099319458 1.8964297771453857 0.5809977054595947 65.0 12 -0.05537590757012367
-3.1170713901519775 1.8833067417144775 0.7079014182090759 60.0 13 -0.055371299386024475
-1.9434585571289062 1.1746834516525269 -0.11901197582483292 1.0 6 -0.05536899343132973
-3.133396625518799 1.894662618637085 0.8453661203384399 67.0 14 -0.05536669120192528
-1.9026434421539307 1.1509205102920532 -0.038814153522253036 1.0 7 -0.05536438524723053
-3.1088905334472656 1.8813278675079346 0.9736772775650024 82.0 15 -0.05536208301782608
-2.682137966156006 1.6275616884231567 -0.8406442999839783 7.0 0 -0.05534134805202484
-2.7299976348876953 1.6579067707061768 -0.7373896241188049 55.0 1 -0.055336739867925644
-3.1753408908843994 1.9298778772354126 0.3250909149646759 23.0 10 -0.0553298257291317
-3.1528632640838623 1.9177249670028687 0.4531102478504181 52.0 11 -0.0553252175450325
-3.1435155868530273 1.91354238986969 0.5828748941421509 65.0 12 -0.055320609360933304
-2.084794044494629 1.2690701484680176 -0.21353155374526978 3.0 5 -0.055318307131528854
-3.1305997371673584 1.9064292907714844 0.7124808430671692 63.0 13 -0.055316001176834106
-1.9529920816421509 1.1897728443145752 -0.11984935402870178 1.0 6 -0.05531369894742966
-3.1334197521209717 1.9096461534500122 0.8471657633781433 63.0 14 -0.05531139299273491
-1.915688395500183 1.1679646968841553 -0.03916320204734802 1.0 7 -0.05530909076333046
-3.1089024543762207 1.8961917161941528 0.97574782371521 78.0 15 -0.05530678480863571
-2.6995136737823486 1.6510250568389893 -0.8478912711143494 7.0 0 -0.05528604984283447
-2.735827922821045 1.6745481491088867 -0.7405388951301575 56.0 1 -0.055281441658735275
-2.7475390434265137 1.6823744773864746 -0.6262351274490356 1.0 2 -0.05527683347463608
-3.158390998840332 1.9347057342529297 0.3240450322628021 1.0 10 -0.05527453124523163
-2.656118154525757 1.627671480178833 -0.4933943450450897 2.0 3 -0.05527222529053688
-2.861522912979126 1.7549169063568115 -0.4121621549129486 1.0 4 -0.05526761710643768
-3.1368167400360107 1.9245039224624634 0.5828748941421509 63.0 12 -0.055265314877033234
-2.0888423919677734 1.281549334526062 -0.21440312266349792 25.0 5 -0.055263008922338486
-3.1406588554382324 1.9276145696640015 0.7162970304489136 61.0 13 -0.055260706692934036
-2.0441408157348633 1.2551054954528809 -0.12571097910404205 6.0 6 -0.05525840073823929
-3.1250741481781006 1.9195524454116821 0.8467158079147339 66.0 14 -0.05525609850883484
-1.9184149503707886 1.1788318157196045 -0.03930281847715378 1.0 7 -0.05525379627943039
-3.1187217235565186 1.9171500205993652 0.9809242486953735 80.0 15 -0.05525149032473564
-2.6871557235717773 1.6563832759857178 -0.8458206653594971 7.0 0 -0.0552307553589344
-2.729966402053833 1.6840872764587402 -0.7405388951301575 55.0 1 -0.055226147174835205
-2.9693000316619873 1.8324452638626099 0.18286184966564178 5.0 9 -0.05522384122014046
-2.7216007709503174 1.6795824766159058 -0.6216557621955872 24.0 2 -0.05522153899073601
-2.960045576095581 1.8274482488632202 0.30434784293174744 2.0 10 -0.05521923303604126
-2.700840950012207 1.6680728197097778 -0.5027804374694824 51.0 3 -0.05521693080663681
-2.973900556564331 1.8374347686767578 0.4292238652706146 2.0 11 -0.05521462485194206
-2.7371790409088135 1.6918367147445679 -0.3951004445552826 7.0 4 -0.05521232262253761
-3.1334404945373535 1.937518835067749 0.5835006237030029 65.0 12 -0.055210016667842865
-2.0826621055603027 1.2877848148345947 -0.2142288237810135 29.0 5 -0.055207714438438416
-3.1439287662506104 1.9447625875473022 0.7185867428779602 63.0 13 -0.055205412209033966
-2.0584287643432617 1.273794412612915 -0.12686236202716827 46.0 6 -0.05520310625433922
-3.129953622817993 1.9376287460327148 0.8498651385307312 60.0 14 -0.05520080402493477
-1.9448896646499634 1.2044727802276611 -0.03993110731244087 1.0 7 -0.05519849807024002
-3.1120104789733887 1.9280248880386353 0.9809242486953735 80.0 15 -0.05519619584083557
-2.6747937202453613 1.6616754531860352 -0.8437501192092896 7.0 0 -0.055175457149744034
-2.7406210899353027 1.7038958072662354 -0.7450379729270935 51.0 1 -0.055170848965644836
-2.9730615615844727 1.8491278886795044 0.18348988890647888 6.0 9 -0.05516854673624039
-2.725724220275879 1.695293664932251 -0.6239454746246338 48.0 2 -0.05516624078154564
-2.9739491939544678 1.8503999710083008 0.306439608335495 7.0 10 -0.05516393855214119
-2.696678876876831 1.6785342693328857 -0.5030933022499084 59.0 3 -0.05516163259744644
-2.9742090702056885 1.8520017862319946 0.4301988184452057 4.0 11 -0.05515933036804199
-2.70935320854187 1.6877357959747314 -0.39193183183670044 12.0 4 -0.05515702813863754
-3.1367173194885254 1.9547133445739746 0.5853778123855591 63.0 12 -0.055154722183942795
-2.081536054611206 1.2971543073654175 -0.21457743644714355 28.0 5 -0.055152419954538345
-3.1471168994903564 1.9619576930999756 0.7208763957023621 64.0 13 -0.0551501139998436
-2.0726120471954346 1.2925976514816284 -0.1280137598514557 68.0 6 -0.05514781177043915
-3.1446642875671387 1.9619522094726562 0.8557138442993164 66.0 14 -0.0551455058157444
-1.9983505010604858 1.247253656387329 -0.041117873042821884 1.0 7 -0.05514320358633995
-3.111815929412842 1.9429686069488525 0.9829947352409363 80.0 15 -0.0551408976316452
-2.6820766925811768 1.6792027950286865 -0.8478912711143494 7.0 0 -0.055120162665843964
-2.734656572341919 1.7134519815444946 -0.7450379729270935 51.0 1 -0.055115554481744766
-2.986896276473999 1.8722236156463623 0.18474595248699188 7.0 9 -0.05511324852705002
-2.733097791671753 1.713139533996582 -0.6269984245300293 55.0 2 -0.05511094629764557
-2.975911855697632 1.8660619258880615 0.30731114745140076 7.0 10 -0.05510864406824112
-2.692476511001587 1.688987135887146 -0.5034061670303345 63.0 3 -0.05510633811354637
-2.967726230621338 1.862372636795044 0.4301988184452057 4.0 11 -0.05510403588414192
-2.7135326862335205 1.7035157680511475 -0.39339426159858704 21.0 4 -0.055101729929447174
-3.141584634780884 1.9730048179626465 0.587567925453186 62.0 12 -0.055099427700042725
-2.0733935832977295 1.3026549816131592 -0.2142288237810135 22.0 5 -0.05509712174534798
-3.1369247436523438 1.9708417654037476 0.7201131582260132 60.0 13 -0.05509481951594353
-2.0494861602783203 1.2881335020065308 -0.12686236202716827 42.0 6 -0.05509251356124878
-3.1443958282470703 1.9770666360855103 0.8575134873390198 66.0 14 -0.05509021133184433
-2.0532283782958984 1.2914862632751465 -0.04233953729271889 32.0 7 -0.05508790537714958
-3.118095874786377 1.9620493650436401 0.9871358871459961 76.0 15 -0.05508560314774513
-2.6693692207336426 1.6848978996276855 -0.8458206653594971 7.0 0 -0.05506486818194389
-2.7286593914031982 1.7229868173599243 -0.7450379729270935 51.0 1 -0.055060259997844696
-2.9803426265716553 1.8826385736465454 0.18474595248699188 7.0 9 -0.05505795404314995
-2.73675799369812 1.729438066482544 -0.6292880773544312 51.0 2 -0.0550556518137455
-2.9842095375061035 1.886537790298462 0.30887994170188904 7.0 10 -0.05505334585905075
-2.686267852783203 1.6988441944122314 -0.5034061670303345 57.0 3 -0.0550510436296463
-2.954496145248413 1.8684765100479126 0.4292238652706146 4.0 11 -0.05504873767495155
-2.692471742630005 1.7034252882003784 -0.39120060205459595 28.0 4 -0.055046435445547104
-3.151370048522949 1.9945234060287476 0.5906966328620911 61.0 12 -0.055044129490852356
-2.447587013244629 1.5496927499771118 -0.2534489035606384 18.0 5 -0.055041827261447906
-3.146265745162964 1.9928311109542847 0.7239293456077576 60.0 13 -0.05503952130675316
-2.0531861782073975 1.3009822368621826 -0.1273857206106186 23.0 6 -0.05503721907734871
-3.1371281147003174 1.988578200340271 0.8575134873390198 66.0 14 -0.05503491312265396
-3.1308059692382812 1.9853366613388062 0.9933475852012634 76.0 15 -0.055030304938554764
-2.6732521057128906 1.7004261016845703 -0.8489265441894531 7.0 0 -0.055009569972753525
-3.2020938396453857 2.037602663040161 0.06624933332204819 2.0 8 -0.055007267743349075
-2.738764524459839 1.7434417009353638 -0.7495369911193848 52.0 1 -0.05500496178865433
-2.976792097091675 1.8956942558288574 0.18495528399944305 6.0 9 -0.05500265955924988
-2.7307050228118896 1.7389799356460571 -0.6292880773544312 51.0 2 -0.05500035360455513
-2.9860074520111084 1.9022963047027588 0.3097515106201172 7.0 10 -0.05499805137515068
-2.690316677093506 1.7145806550979614 -0.5052834153175354 56.0 3 -0.05499574542045593
-2.969388246536255 1.8931652307510376 0.4323924481868744 5.0 11 -0.05499344319105148
-2.68118953704834 1.7100800275802612 -0.39046943187713623 34.0 4 -0.054991137236356735
-3.1457035541534424 2.007122755050659 0.5910094976425171 60.0 12 -0.054988835006952286
-2.7209789752960205 1.7361263036727905 -0.28238460421562195 54.0 5 -0.05498652905225754
-3.155839204788208 2.0143637657165527 0.727745532989502 59.0 13 -0.05498422682285309
-2.0587329864501953 1.3145902156829834 -0.1280137598514557 8.0 6 -0.05498192086815834
-3.131809949874878 2.000565767288208 0.8579633831977844 67.0 14 -0.05497961863875389
-2.771864891052246 1.7713189125061035 -0.05741841718554497 6.0 7 -0.05497731268405914
-3.1332740783691406 2.0030415058135986 0.9964533448219299 74.0 15 -0.054975010454654694
-2.659168004989624 1.7045344114303589 -0.8463383316993713 6.0 0 -0.054954275488853455
-3.157928466796875 2.025019884109497 0.06548143178224564 25.0 8 -0.05495196953415871
-2.7392234802246094 1.7571994066238403 -0.7513365745544434 51.0 1 -0.05494966730475426
-2.9970507621765137 1.923333764076233 0.1866300404071808 6.0 9 -0.05494736135005951
-2.7262701988220215 1.749562382698059 -0.629669725894928 49.0 2 -0.05494505912065506
-2.99611496925354 1.9234716892242432 0.3114946186542511 7.0 10 -0.05494275316596031
-2.6976122856140137 1.732500433921814 -0.5077863335609436 57.0 3 -0.05494045093655586
-2.9677717685699463 1.9067387580871582 0.4331236779689789 4.0 11 -0.054938144981861115
-2.6835532188415527 1.7247953414916992 -0.39168810844421387 39.0 4 -0.054935842752456665
-3.1420018672943115 2.0202271938323975 0.5916352272033691 60.0 12 -0.05493353679776192
-2.711550712585449 1.7434580326080322 -0.2820359766483307 53.0 5 -0.05493123456835747
-3.1586952209472656 2.03174090385437 0.7300352454185486 56.0 13 -0.05492892861366272
-3.169375419616699 2.0393927097320557 -0.19751591980457306 53.0 6 -0.05492662638425827
-3.1428325176239014 2.023087739944458 0.8629122972488403 66.0 14 -0.05492432415485382
-2.8850343227386475 1.8578523397445679 -0.05989665910601616 11.0 7 -0.05492201820015907
-3.127887010574341 2.015012741088867 0.9969710111618042 72.0 15 -0.05491971597075462
-2.6402194499969482 1.7054213285446167 -0.8421972393989563 7.0 0 -0.054898977279663086
-3.1357250213623047 2.0262625217437744 0.06516728550195694 26.0 8 -0.054896675050258636
-2.752711772918701 1.7794456481933594 -0.7567353844642639 50.0 1 -0.05489436909556389
-3.000720500946045 1.9397668838500977 0.1872580647468567 6.0 9 -0.05489206686615944
-2.7267403602600098 1.7633326053619385 -0.6311962008476257 49.0 2 -0.05488976091146469
-2.986037492752075 1.9317532777786255 0.31114599108695984 7.0 10 -0.05488745868206024
-2.6915483474731445 1.7419062852859497 -0.5077863335609436 56.0 3 -0.054885152727365494
-2.9810938835144043 1.9300326108932495 0.4360485374927521 4.0 11 -0.054882850497961044
-2.6861507892608643 1.739079236984253 -0.3929068148136139 45.0 4 -0.054880544543266296
-3.15020751953125 2.040299892425537 0.5944510698318481 62.0 12 -0.05487824231386185
-2.7054479122161865 1.7529131174087524 -0.2820359766483307 47.0 5 -0.0548759400844574
-3.1416988372802734 2.0363473892211914 0.727745532989502 55.0 13 -0.05487363412976265
-3.184022903442383 2.0645697116851807 -0.19887664914131165 56.0 6 -0.0548713319003582
-3.155726909637451 2.046221971511841 0.8683111071586609 69.0 14 -0.05486902594566345
-2.9291868209838867 1.9000563621520996 -0.06094380095601082 48.0 7 -0.054866723716259
-3.1276700496673584 2.029580593109131 0.9990415573120117 72.0 15 -0.054864417761564255
-2.6458847522735596 1.7215417623519897 -0.8458206653594971 7.0 0 -0.054843682795763016
-2.7435295581817627 1.7864375114440918 -0.7558355927467346 50.0 1 -0.05483907461166382
-3.0076611042022705 1.9584256410598755 0.18809543550014496 5.0 9 -0.05483676865696907
-2.730748176574707 1.778794765472412 -0.6334859132766724 49.0 2 -0.05483446642756462
-2.994638204574585 1.95143461227417 0.3127147853374481 6.0 10 -0.05483216419816017
-2.695686101913452 1.7572948932647705 -0.5096635222434998 56.0 3 -0.054829858243465424
-2.9879791736602783 1.9485825300216675 0.4379984438419342 4.0 11 -0.054827556014060974
-2.6936707496643066 1.7566521167755127 -0.394856721162796 48.0 4 -0.054825250059366226
-3.15169620513916 2.0561318397521973 0.5960153937339783 60.0 12 -0.05482294782996178
-2.712968349456787 1.7705857753753662 -0.28343045711517334 52.0 5 -0.05482064187526703
-3.1398606300354004 2.049974203109741 0.7288904190063477 59.0 13 -0.05481833964586258
-3.173814535140991 2.072932720184326 -0.19866731762886047 55.0 6 -0.05481603369116783
-3.1587133407592773 2.0630695819854736 0.8710105419158936 69.0 14 -0.05481373146176338
-2.934589147567749 1.9174154996871948 -0.06118813902139664 52.0 7 -0.054811425507068634
-3.130624771118164 2.046283006668091 1.0021474361419678 70.0 15 -0.054809123277664185
-2.6401615142822266 1.7303065061569214 -0.8458206653594971 7.0 0 -0.05478838458657265
-3.164025068283081 2.074425458908081 0.06603990495204926 1.0 8 -0.0547860823571682
-2.7375903129577637 1.7955256700515747 -0.7558355927467346 50.0 1 -0.05478378012776375
-3.0108261108398438 1.9754865169525146 0.18872347474098206 6.0 9 -0.054781474173069
-2.7412495613098145 1.7986098527908325 -0.6373021006584167 49.0 2 -0.05477917194366455
-2.9981441497802734 1.9679142236709595 0.3137606680393219 6.0 10 -0.0547768659889698
-2.696448802947998 1.770561695098877 -0.5109150409698486 54.0 3 -0.05477456375956535
-2.988138198852539 1.9628392457962036 0.43897342681884766 2.0 11 -0.054772257804870605
-2.6875224113464355 1.7660441398620605 -0.394856721162796 47.0 4 -0.054769955575466156
-3.159355401992798 2.0768868923187256 0.5988311767578125 61.0 12 -0.05476764962077141
-2.716758966445923 1.7866142988204956 -0.2844763398170471 52.0 5 -0.05476534739136696
-3.147808313369751 2.0700840950012207 0.7323249578475952 60.0 13 -0.05476304143667221
-3.170259952545166 2.085641384124756 -0.19887664914131165 50.0 6 -0.05476073920726776
-3.1547486782073975 2.0762248039245605 0.8719103336334229 69.0 14 -0.05475843325257301
-2.9262073040008545 1.9265486001968384 -0.06115323305130005 38.0 7 -0.054756131023168564
-3.134756326675415 2.064636707305908 1.0057708024978638 74.0 15 -0.054753825068473816
-2.6418609619140625 1.745295763015747 -0.8484088778495789 7.0 0 -0.05473309010267258
-3.1300690174102783 2.0678212642669678 0.06548143178224564 1.0 8 -0.05473078787326813
-2.7475638389587402 1.8158153295516968 -0.7603346109390259 48.0 1 -0.05472848191857338
-3.000579833984375 1.9837814569473267 0.18851414322853088 5.0 9 -0.05472617968916893
-2.736276388168335 1.8097280263900757 -0.6376836895942688 51.0 2 -0.05472387373447418
-3.005866050720215 1.9887843132019043 0.31532949209213257 5.0 10 -0.05472157150506973
-2.7080602645874023 1.7924264669418335 -0.5143565535545349 54.0 3 -0.054719265550374985
-2.9845786094665527 1.975450038909912 0.4394609034061432 2.0 11 -0.054716963320970535
-2.687962293624878 1.7797977924346924 -0.3958316743373871 48.0 4 -0.05471465736627579
-3.1553804874420166 2.0900843143463135 0.5994569659233093 62.0 12 -0.05471235513687134
-2.720471143722534 1.802690029144287 -0.2855222225189209 52.0 5 -0.05471004918217659
-3.156564235687256 2.092453956604004 0.7361411452293396 60.0 13 -0.05470774695277214
-3.1759111881256104 2.106076955795288 -0.1997140347957611 57.0 6 -0.05470544099807739
-3.1471171379089355 2.0877745151519775 0.8719103336334229 69.0 14 -0.05470313876867294
-2.9294626712799072 1.9433839321136475 -0.06136266514658928 17.0 7 -0.054700832813978195
-3.137188673019409 2.0819754600524902 1.0088766813278198 76.0 15 -0.054698530584573746
-2.6357526779174805 1.7545069456100464 -0.8484088778495789 7.0 0 -0.05467779561877251
-2.757108449935913 1.8366774320602417 -0.7648336291313171 46.0 1 -0.05467318743467331
-3.013232707977295 2.008056879043579 0.1897701919078827 6.0 9 -0.05467088147997856
-2.7315762042999268 1.8203572034835815 -0.6380652785301208 49.0 2 -0.05466857925057411
-2.9989049434661865 1.9992656707763672 0.31532949209213257 5.0 10 -0.054666273295879364
-2.7116479873657227 1.8084439039230347 -0.5162338018417358 54.0 3 -0.054663971066474915
-2.9938316345214844 1.9973920583724976 0.44189828634262085 2.0 11 -0.05466166511178017
-2.694629669189453 1.7984542846679688 -0.3977815806865692 47.0 4 -0.05465936288237572
-3.1542699337005615 2.106022834777832 0.6007084250450134 62.0 12 -0.05465705692768097
-2.7141623497009277 1.812174677848816 -0.2855222225189209 54.0 5 -0.05465475469827652
-3.1623013019561768 2.1121833324432373 0.7391940951347351 59.0 13 -0.05465244874358177
-3.183485269546509 2.1271374225616455 -0.20065607130527496 59.0 6 -0.05465014651417732
-3.1511518955230713 2.1063270568847656 0.8750596642494202 63.0 14 -0.054647840559482574
-2.9173336029052734 1.9507726430892944 -0.061257947236299515 63.0 7 -0.054645538330078125
-3.1327474117279053 2.095608711242676 1.0099120140075684 76.0 15 -0.054643236100673676
-2.62640380859375 1.7615442276000977 -0.8473736047744751 7.0 0 -0.05462249740958214
-3.133457899093628 2.1024224758148193 0.06586538255214691 4.0 8 -0.05462019518017769
-2.7490622997283936 1.845204472541809 -0.7643837332725525 43.0 1 -0.05461788922548294
-3.0128378868103027 2.0230157375335693 0.19018888473510742 5.0 9 -0.05461558699607849
-2.7382450103759766 1.838636040687561 -0.6411182284355164 49.0 2 -0.05461328104138374
-2.9985239505767822 2.014164686203003 0.3160267174243927 5.0 10 -0.054610978811979294
-2.703679084777832 1.8167965412139893 -0.5159209370613098 55.0 3 -0.054608672857284546
-3.00002121925354 2.0166893005371094 0.443848192691803 2.0 11 -0.054606370627880096
-2.6982195377349854 1.814495325088501 -0.3992440104484558 50.0 4 -0.05460406467318535
-3.164928436279297 2.1291494369506836 0.6041499972343445 63.0 12 -0.0546017624437809
-2.7111265659332275 1.8238623142242432 -0.28587085008621216 54.0 5 -0.05459945648908615
-3.1581661701202393 2.1254019737243652 0.739957332611084 60.0 13 -0.0545971542596817
-3.18101167678833 2.141582489013672 -0.20097008347511292 55.0 6 -0.05459485203027725
-3.161559820175171 2.129288673400879 0.8800085783004761 66.0 14 -0.054592546075582504
-2.90387225151062 1.9564753770828247 -0.06111832708120346 67.0 7 -0.054590243846178055
-3.1334238052368164 2.111929178237915 1.0125001668930054 72.0 15 -0.05458793789148331
-2.6218395233154297 1.7717829942703247 -0.8478912711143494 7.0 0 -0.05456720292568207
-3.136039972305298 2.1200671195983887 0.06607481092214584 24.0 8 -0.05456489697098732
-2.7490618228912354 1.8591554164886475 -0.7661833167076111 41.0 1 -0.05456259474158287
-3.018991470336914 2.0424740314483643 0.1910262554883957 4.0 9 -0.05456028878688812
-2.749696731567383 1.8602850437164307 -0.6453160643577576 51.0 2 -0.05455798655748367
-2.999725103378296 2.030202865600586 0.31689828634262085 3.0 10 -0.054555680602788925
-2.708770751953125 1.8339756727218628 -0.5181110501289368 51.0 3 -0.054553378373384476
-2.9962501525878906 2.029376268386841 0.4443356692790985 2.0 11 -0.054551076143980026
-2.708303213119507 1.8350378274917603 -0.40168139338493347 47.0 4 -0.05454877018928528
-3.1656527519226074 2.145725727081299 0.6057143211364746 62.0 12 -0.05454646795988083
-2.7179372310638428 1.8422577381134033 -0.2872653305530548 54.0 5 -0.05454416200518608
-3.1539783477783203 2.1386160850524902 0.7407205700874329 61.0 13 -0.05454185977578163
-3.183434009552002 2.159400463104248 -0.20159812271595 61.0 6 -0.054539553821086884
-3.163783311843872 2.1468770503997803 0.8827080130577087 66.0 14 -0.054537251591682434
-2.8821351528167725 1.9564913511276245 -0.06080418452620506 75.0 7 -0.054534945636987686
-3.140416145324707 2.1326217651367188 1.01715886592865 74.0 15 -0.05453264340758324
-2.6252193450927734 1.7874482870101929 -0.8509970307350159 9.0 0 -0.0545119047164917
-3.1335792541503906 2.1343777179718018 0.06617952883243561 24.0 8 -0.05450960248708725
-2.752218008041382 1.8753241300582886 -0.7688827514648438 37.0 1 -0.0545073002576828
-3.01184344291687 2.052999973297119 0.1910262554883957 4.0 9 -0.05450499430298805
-2.7545418739318848 1.8776124715805054 -0.6479873657226562 49.0 2 -0.0545026920735836
-2.999204397201538 2.045151472091675 0.31759554147720337 3.0 10 -0.054500386118888855
-2.710512399673462 1.848985195159912 -0.5196753740310669 50.0 3 -0.054498083889484406
-2.998986005783081 2.046536684036255 0.4457980990409851 2.0 11 -0.05449577793478966
-2.701881170272827 1.8444805145263672 -0.40168139338493347 47.0 4 -0.05449347570538521
-3.1728248596191406 2.1667892932891846 0.6085301041603088 65.0 12 -0.05449116975069046
-2.718071222305298 1.8562284708023071 -0.28796255588531494 52.0 5 -0.05448886752128601
-3.1594622135162354 2.1584725379943848 0.7437735199928284 57.0 13 -0.05448656156659126
-3.1791749000549316 2.1727535724639893 -0.20180746912956238 55.0 6 -0.05448425933718681
-3.159487247467041 2.160107374191284 0.883607804775238 66.0 14 -0.054481953382492065
-2.880239725112915 1.9699267148971558 -0.06090889871120453 77.0 7 -0.054479651153087616
-3.1425187587738037 2.150116205215454 1.020264744758606 80.0 15 -0.05447734519839287
-2.6173713207244873 1.7955079078674316 -0.8504794239997864 6.0 0 -0.05445661023259163
-3.1442463397979736 2.1577494144439697 0.06656347960233688 21.0 8 -0.05445430800318718
-2.7617204189300537 1.8959499597549438 -0.773381769657135 25.0 1 -0.05445200204849243
-3.0145370960235596 2.0702850818634033 0.1916542947292328 3.0 9 -0.05444969981908798
-2.752825975418091 1.8905504941940308 -0.649132251739502 51.0 2 -0.054447393864393234
-2.9920475482940674 2.055607557296753 0.31759554147720337 3.0 10 -0.054445091634988785
-2.7121810913085938 1.8640304803848267 -0.521239697933197 47.0 3 -0.05444278568029404
-3.008181571960449 2.068239212036133 0.44823548197746277 3.0 11 -0.05444048345088959
-2.7019686698913574 1.858399748802185 -0.40265634655952454 48.0 4 -0.05443817749619484
-3.16849684715271 2.180091142654419 0.6091558933258057 63.0 12 -0.05443587526679039
-2.7279889583587646 1.8769986629486084 -0.28970569372177124 54.0 5 -0.05443356931209564
-3.1680805683135986 2.180619478225708 0.7475897073745728 61.0 13 -0.05443126708269119
-3.1847317218780518 2.1928985118865967 -0.20264483988285065 57.0 6 -0.054428961127996445
-3.1583471298217773 2.1755447387695312 0.8854073882102966 66.0 14 -0.054426658898591995
-2.8502933979034424 1.9640834331512451 -0.06042023003101349 70.0 7 -0.05442435294389725
-3.1445376873016357 2.167651414871216 1.0233705043792725 78.0 15 -0.0544220507144928
-2.598374128341675 1.7958463430404663 -0.8463383316993713 6.0 0 -0.05440131574869156
-3.1547882556915283 2.1812214851379395 0.06694743037223816 20.0 8 -0.05439900979399681
-2.798358917236328 1.9355090856552124 -0.7855291366577148 14.0 1 -0.05439670756459236
-3.0171470642089844 2.087613105773926 0.19228233397006989 3.0 9 -0.054394401609897614
-2.751053810119629 1.903498888015747 -0.6502770781517029 45.0 2 -0.054392099380493164
-3.0110647678375244 2.0841829776763916 0.32038450241088867 4.0 10 -0.054389793425798416
-2.7186498641967773 1.8824825286865234 -0.5237426161766052 45.0 3 -0.05438749119639397
-3.0172626972198486 2.0900299549102783 0.45067286491394043 3.0 11 -0.05438518524169922
-2.7117810249328613 1.8791271448135376 -0.4050937294960022 48.0 4 -0.05438288301229477
-3.1706080436706543 2.197890043258667 0.6110330820083618 63.0 12 -0.05438057705760002
-2.7181453704833984 1.8842394351959229 -0.28935706615448 49.0 5 -0.05437827482819557
-3.166903018951416 2.196139097213745 0.7491161227226257 60.0 13 -0.054375968873500824
-3.218082904815674 2.2324635982513428 -0.20526163280010223 59.0 6 -0.054373666644096375
-3.161940574645996 2.194333553314209 0.888556718826294 60.0 14 -0.05437136068940163
-2.8253512382507324 1.9614758491516113 -0.060036275535821915 67.0 7 -0.05436905845999718
-3.1401257514953613 2.180818796157837 1.024405837059021 78.0 15 -0.05436675250530243
-2.5847902297973633 1.798484444618225 -0.8437501192092896 6.0 0 -0.0543513298034668
-3.1364314556121826 2.1831250190734863 0.06670309603214264 29.0 8 -0.05434902757406235
-2.920203924179077 2.0333757400512695 -0.8215212821960449 5.0 1 -0.0543467216193676
-3.0269615650177 2.1084980964660645 0.19332905113697052 3.0 9 -0.05434441938996315
-3.2831170558929443 2.28692889213562 -0.7777374982833862 27.0 2 -0.0543421134352684
-3.012676239013672 2.0993270874023438 0.32125604152679443 4.0 10 -0.05433981120586395
-2.7159640789031982 1.893273115158081 -0.524368405342102 33.0 3 -0.054337505251169205
-3.0171942710876465 2.104041337966919 0.4516478180885315 3.0 11 -0.054335203021764755
-2.7123770713806152 1.8921798467636108 -0.40606871247291565 48.0 4 -0.05433289706707001
-3.1734073162078857 2.2146222591400146 0.6129103302955627 63.0 12 -0.05433059483766556
-2.7265851497650146 1.9035075902938843 -0.29092586040496826 28.0 5 -0.05432828888297081
-3.172865629196167 2.215068817138672 0.7521690726280212 63.0 13 -0.05432598665356636
-3.227428436279297 2.253997564315796 -0.20630836486816406 59.0 6 -0.05432368069887161
-3.1678109169006348 2.2131850719451904 0.8921559453010559 57.0 14 -0.05432137846946716
-2.810979127883911 1.9646153450012207 -0.05986175313591957 65.0 7 -0.054319072514772415
-3.139592170715332 2.1951000690460205 1.0264763832092285 76.0 15 -0.054316770285367966
-2.5845084190368652 1.8123822212219238 -0.8458206653594971 6.0 0 -0.05429603531956673
-3.125516891479492 2.1917636394500732 0.06663328409194946 25.0 8 -0.05429372936487198
-2.9162793159484863 2.0457944869995117 -0.8224210739135742 5.0 1 -0.05429142713546753
-3.0392019748687744 2.1328182220458984 0.19458509981632233 4.0 9 -0.05428912118077278
-3.2972090244293213 2.3147382736206055 -0.7830801606178284 27.0 2 -0.05428681895136833
-3.0082218647003174 2.1126458644866943 0.3216046690940857 2.0 10 -0.054284512996673584
-2.8027548789978027 1.9690780639648438 -0.5425148010253906 41.0 3 -0.054282210767269135
-3.013080358505249 2.116842269897461 0.4521353244781494 3.0 11 -0.05427990481257439
-2.7171242237091064 1.9096261262893677 -0.4077748656272888 42.0 4 -0.05427760258316994
-3.1834325790405273 2.2381844520568848 0.6163519024848938 62.0 12 -0.05427529662847519
-3.2169747352600098 2.2626049518585205 -0.34409087896347046 42.0 5 -0.05427299439907074
-3.1711487770080566 2.231201410293579 0.7536956071853638 57.0 13 -0.05427068844437599
-3.2305779457092285 2.2738592624664307 -0.20704105496406555 57.0 6 -0.05426838621497154
-3.175612449645996 2.235999345779419 0.8966549634933472 60.0 14 -0.054266080260276794
-2.794294595718384 1.9675073623657227 -0.05965232849121094 63.0 7 -0.054263778030872345
-3.147704601287842 2.2171709537506104 1.031652808189392 76.0 15 -0.0542614720761776
-2.5750107765197754 1.8191627264022827 -0.8447853922843933 6.0 0 -0.05424073711037636
-3.137059211730957 2.2170541286468506 0.06705214828252792 25.0 8 -0.05423843488097191
-2.9087610244750977 2.0564701557159424 -0.8224210739135742 4.0 1 -0.05423612892627716
-3.025214910507202 2.1388022899627686 0.1941664218902588 3.0 9 -0.05423382669687271
-3.2907121181488037 2.3273675441741943 -0.7834618091583252 22.0 2 -0.05423152074217796
-3.0333588123321533 2.146148204803467 0.3250909149646759 2.0 10 -0.054229218512773514
-3.236043930053711 2.290398597717285 -0.6279280781745911 45.0 3 -0.054226912558078766
-3.0182623863220215 2.1370484828948975 0.45408520102500916 3.0 11 -0.054224610328674316
-3.233337163925171 2.2901771068573 -0.48650243878364563 45.0 4 -0.05422230437397957
