# .PCD v0.7 - Point Cloud Data file format
VERSION 0.7
FIELDS x y z intensity ring time
SIZE 4 4 4 4 4 4
TYPE F F F F F F
COUNT 1 1 1 1 1 1
WIDTH 555
HEIGHT 1
VIEWPOINT 0 0 0 1 0 0 0
POINTS 555
DATA ascii
2.973762035369873 6.027547836303711 1.5517125129699707 68.0 14 -0.019960137084126472
2.817173719406128 5.707639217376709 -0.11110201478004456 3.0 7 -0.019957832992076874
2.9851479530334473 6.045299530029297 1.806557059288025 47.0 15 -0.019955528900027275
1.8306742906570435 3.695965051651001 -1.1051572561264038 1.0 0 -0.019934792071580887
2.911372184753418 5.875217437744141 0.11445287615060806 50.0 8 -0.019932487979531288
2.149195909500122 4.335226058959961 -1.1171070337295532 2.0 1 -0.01993018388748169
2.917720317840576 5.885446071624756 0.34426596760749817 31.0 9 -0.01992787979543209
2.3299612998962402 4.697793960571289 -1.0193017721176147 1.0 2 -0.019925575703382492
2.935680389404297 5.9164838790893555 0.5778425335884094 47.0 10 -0.019923271611332893
2.546254873275757 5.129398822784424 -0.9070071578025818 9.0 3 -0.019920967519283295
2.9455277919769287 5.9311299324035645 0.8131123185157776 40.0 11 -0.019918663427233696
2.9593887329101562 5.956430435180664 1.0534298419952393 51.0 12 -0.019914057105779648
2.9695186614990234 5.971587181091309 1.2963563203811646 60.0 13 -0.01990944892168045
2.974639415740967 5.979267597198486 1.5418145656585693 73.0 14 -0.019904840737581253
2.8262832164764404 5.678574562072754 -0.11071807146072388 64.0 7 -0.019902536645531654
2.989677667617798 6.004239559173584 1.7972395420074463 48.0 15 -0.019900232553482056
1.8411953449249268 3.6864173412323 -1.1041221618652344 1.0 0 -0.019879495725035667
2.9183242321014404 5.840487957000732 0.11396421492099762 50.0 8 -0.01987719163298607
2.1740176677703857 4.348991870880127 -1.122505784034729 1.0 1 -0.01987488754093647
2.9256131649017334 5.852513313293457 0.3429052233695984 33.0 9 -0.01987258344888687
2.3578224182128906 4.714624404907227 -1.024644374847412 1.0 2 -0.019870281219482422
2.9356703758239746 5.867516994476318 0.5740077495574951 45.0 10 -0.019867975264787674
2.5827043056488037 5.159788131713867 -0.9138903021812439 1.0 3 -0.019865673035383224
2.952737808227539 5.896479606628418 0.8097000122070312 42.0 11 -0.019863368943333626
2.3456578254699707 4.684168815612793 -0.6432264447212219 28.0 4 -0.019861064851284027
2.959657907485962 5.907729625701904 1.0465466976165771 51.0 12 -0.01985876075923443
2.9796268939971924 5.942401885986328 1.292158603668213 62.0 13 -0.01985415257513523
2.9804697036743164 5.941501617431641 1.534616231918335 68.0 14 -0.019849544391036034
2.820882558822632 5.620914459228516 -0.10977564007043839 6.0 7 -0.019847240298986435
2.9887702465057373 5.952856540679932 1.7848162651062012 46.0 15 -0.019844936206936836
1.8599106073379517 3.689995050430298 -1.1072279214859009 1.0 0 -0.021146297454833984
2.9181010723114014 5.786900520324707 0.11312650144100189 51.0 8 -0.021143993362784386
2.1881864070892334 4.337514877319336 -1.1216059923171997 2.0 1 -0.021141689270734787
2.936363458633423 5.818057537078857 0.341544508934021 36.0 9 -0.02113938517868519
2.5997674465179443 5.151132106781006 -1.1215753555297852 1.0 2 -0.02113708108663559
2.9418914318084717 5.826481819152832 0.5710444450378418 48.0 10 -0.02113477699458599
2.615847587585449 5.1784987449646 -0.9188961386680603 1.0 3 -0.021132472902536392
2.960002899169922 5.857270240783691 0.805800199508667 44.0 11 -0.021130168810486794
2.379746913909912 4.707015514373779 -0.6476137042045593 48.0 4 -0.021127864718437195
2.9680566787719727 5.868117809295654 1.0415408611297607 49.0 12 -0.021125560626387596
2.658196449279785 5.255496501922607 -0.5152647495269775 2.0 5 -0.021123256534337997
2.9783384799957275 5.885895729064941 1.2822364568710327 63.0 13 -0.021120954304933548
2.99269700050354 5.90915060043335 1.5292173624038696 67.0 14 -0.02111634612083435
2.771043300628662 5.469122409820557 -0.10701815783977509 1.0 7 -0.021114042028784752
2.997629165649414 5.913767337799072 1.7765339612960815 47.0 15 -0.021111737936735153
1.88678777217865 3.711034059524536 -1.1155102252960205 1.0 0 -0.021091001108288765
2.9165267944335938 5.733901500701904 0.11228878796100616 49.0 8 -0.021088697016239166
2.2121529579162598 4.347217559814453 -1.1261049509048462 1.0 1 -0.021086392924189568
2.942155361175537 5.779294967651367 0.33986973762512207 36.0 9 -0.02108408883213997
2.6177313327789307 5.142026901245117 -1.1215753555297852 1.0 2 -0.02108178474009037
2.9495513439178467 5.791322708129883 0.568604052066803 51.0 10 -0.02107948064804077
2.633909225463867 5.16933536529541 -0.9188961386680603 1.0 3 -0.021077176555991173
2.9605958461761475 5.807994365692139 0.8004379272460938 49.0 11 -0.021074874326586723
2.4006712436676025 4.707523345947266 -0.6488324403762817 42.0 4 -0.021072570234537125
2.973262071609497 5.827807426452637 1.0362221002578735 46.0 12 -0.021070266142487526
2.691014051437378 5.274580478668213 -0.5180537104606628 26.0 5 -0.021067962050437927
2.9792323112487793 5.8369927406311035 1.2738409042358398 60.0 13 -0.02106565795838833
2.9982364177703857 5.869165897369385 1.521569013595581 66.0 14 -0.02106104977428913
2.768278121948242 5.416679859161377 -0.10618043690919876 1.0 7 -0.021058745682239532
3.004181385040283 5.875747203826904 1.7682517766952515 49.0 15 -0.021056441590189934
1.899731159210205 3.7044248580932617 -1.1155102252960205 1.0 0 -0.021035704761743546
2.92465877532959 5.700555801391602 0.11183502525091171 48.0 8 -0.021033400669693947
2.2308707237243652 4.346405982971191 -1.1279046535491943 2.0 1 -0.021031096577644348
2.945890426635742 5.737008094787598 0.337985634803772 35.0 9 -0.0210287943482399
2.658982038497925 5.17826509475708 -1.1314973831176758 1.0 2 -0.0210264902561903
2.9570045471191406 5.756179332733154 0.5661637187004089 48.0 10 -0.0210241861641407
2.6519341468811035 5.160111904144287 -0.9188961386680603 1.0 3 -0.021021882072091103
2.959068536758423 5.755253791809082 0.7945882081985474 49.0 11 -0.021019577980041504
2.4343421459198 4.732653617858887 -0.6534634828567505 23.0 4 -0.021017273887991905
2.980024814605713 5.791048526763916 1.0315289497375488 43.0 12 -0.021014969795942307
2.713052272796631 5.272243499755859 -0.5187509655952454 44.0 5 -0.021012665703892708
2.987905502319336 5.803865909576416 1.2688798904418945 60.0 13 -0.02101036161184311
3.000849723815918 5.8240203857421875 1.5125709772109985 71.0 14 -0.021005753427743912
3.010507583618164 5.837751865386963 1.7599695920944214 50.0 15 -0.021001145243644714
1.930402159690857 3.732088088989258 -1.125862956047058 1.0 0 -0.020980410277843475
2.932591199874878 5.667224407196045 0.11138126254081726 51.0 8 -0.020978106185793877
2.240654706954956 4.3282084465026855 -1.1252052783966064 1.0 1 -0.020975802093744278
2.9447741508483887 5.685898303985596 0.33557817339897156 33.0 9 -0.02097349800169468
2.673431634902954 5.161978244781494 -1.129970908164978 1.0 2 -0.02097119390964508
2.9605798721313477 5.713980674743652 0.5630261301994324 48.0 10 -0.020968889817595482
2.669931411743164 5.150822639465332 -0.9188961386680603 1.0 3 -0.020966585725545883
2.9663476943969727 5.720217704772949 0.7911758422851562 45.0 11 -0.020964281633496284
2.677556276321411 5.161122798919678 -0.713910698890686 33.0 4 -0.020961977541446686
2.9883930683135986 5.757817268371582 1.0274616479873657 48.0 12 -0.020959673449397087
2.740618944168091 5.28042459487915 -0.5204940438270569 44.0 5 -0.02095736935734749
2.9954824447631836 5.769007205963135 1.2635371685028076 58.0 13 -0.02095506526529789
3.002291440963745 5.777195930480957 1.5031230449676514 73.0 14 -0.020950457081198692
3.0094714164733887 5.786075592041016 1.7475463151931763 50.0 15 -0.020945848897099495
1.9255449771881104 3.691072702407837 -1.1155102252960205 1.0 0 -0.020925113931298256
2.9412546157836914 5.635678768157959 0.1109623983502388 53.0 8 -0.020922809839248657
2.2647697925567627 4.337634563446045 -1.129704236984253 2.0 1 -0.02092050574719906
2.9498043060302734 5.647261142730713 0.333903431892395 32.0 9 -0.02091820165514946
2.6877944469451904 5.145655632019043 -1.1284445524215698 1.0 2 -0.02091589756309986
2.9611308574676514 5.666528701782227 0.5593655109405518 45.0 10 -0.020913593471050262
2.706200122833252 5.176482677459717 -0.9251535534858704 1.0 3 -0.020911289379000664
2.97709321975708 5.692239761352539 0.7887384295463562 45.0 11 -0.020908985286951065
2.7084414958953857 5.176368713378906 -0.7173230051994324 33.0 4 -0.020906681194901466
2.9837403297424316 5.700097560882568 1.0190142393112183 51.0 12 -0.020904377102851868
2.7627317905426025 5.277885913848877 -0.5211913585662842 44.0 5 -0.02090207301080227
3.0037574768066406 5.735908031463623 1.2585761547088623 60.0 13 -0.02089976891875267
3.006157159805298 5.735611438751221 1.4950248003005981 73.0 14 -0.020895160734653473
3.013498544692993 5.744740962982178 1.7382287979125977 47.0 15 -0.020890552550554276
2.9404141902923584 5.58644962310791 0.11019448935985565 53.0 8 -0.020867513492703438
2.2926077842712402 4.353842735290527 -1.1360028982162476 6.0 1 -0.02086520940065384
2.9583301544189453 5.615725040435791 0.3326473832130432 34.0 9 -0.02086290530860424
2.7057414054870605 5.136241912841797 -1.1284445524215698 1.0 2 -0.02086060121655464
2.9604578018188477 5.617379665374756 0.5555306673049927 46.0 10 -0.020858297124505043
2.7058258056640625 5.132057189941406 -0.9188961386680603 1.0 3 -0.020855993032455444
2.980275869369507 5.650207996368408 0.7843511700630188 45.0 11 -0.020853688940405846
2.7357592582702637 5.184438705444336 -0.7197603583335876 35.0 4 -0.020851384848356247
2.991629123687744 5.666938304901123 1.0149469375610352 54.0 12 -0.020849080756306648
2.7922987937927246 5.289353847503662 -0.523283064365387 43.0 5 -0.02084677666425705
3.001758575439453 5.683722972869873 1.2494174242019653 62.0 13 -0.02084447257220745
2.6376953125 4.9922661781311035 -0.29590752720832825 1.0 6 -0.020842170342803
3.014320135116577 5.702686786651611 1.4891760349273682 71.0 14 -0.020839866250753403
3.019080877304077 5.706864356994629 1.7299466133117676 45.0 15 -0.020835258066654205
2.9430220127105713 5.544357776641846 0.10956621170043945 53.0 8 -0.02081221714615822
2.3013949394226074 4.333765506744385 -1.132853627204895 10.0 1 -0.02080991305410862
2.9676060676574707 5.585962772369385 0.3314959704875946 36.0 9 -0.02080760896205902
2.3165323734283447 4.360438346862793 -0.9597693085670471 15.0 2 -0.020805304870009422
2.9697585105895996 5.587660789489746 0.5536132454872131 48.0 10 -0.020803000777959824
2.7237250804901123 5.122580528259277 -0.9188961386680603 1.0 3 -0.020800696685910225
2.9776055812835693 5.597709655761719 0.7785014510154724 52.0 11 -0.020798392593860626
2.7612969875335693 5.188878536224365 -0.7217103242874146 35.0 4 -0.020796090364456177
2.995612859725952 5.6268181800842285 1.009628176689148 51.0 12 -0.020793786272406578
2.8163509368896484 5.287876129150391 -0.5241546630859375 47.0 5 -0.02079148218035698
3.004969596862793 5.642019271850586 1.2425482273101807 62.0 13 -0.02078917808830738
2.5949935913085938 4.87022066116333 -0.2892085313796997 1.0 6 -0.020786873996257782
3.024125814437866 5.67321252822876 1.484227180480957 73.0 14 -0.020784569904208183
3.0262484550476074 5.672430515289307 1.7226996421813965 47.0 15 -0.020779961720108986
2.9491469860076904 5.509368419647217 0.10907754302024841 50.0 8 -0.020756920799613
2.309147834777832 4.311963081359863 -1.1292544603347778 11.0 1 -0.0207546167075634
2.968224287033081 5.540359020233154 0.32940253615379333 36.0 9 -0.0207523126155138
2.324152708053589 4.3363447189331055 -0.9563347101211548 16.0 2 -0.020750008523464203
2.977038860321045 5.552155494689941 0.5511729121208191 48.0 10 -0.020747706294059753
2.3400261402130127 4.362303256988525 -0.7840496301651001 11.0 3 -0.020745402202010155
2.982114553451538 5.559291839599609 0.7746016383171082 52.0 11 -0.020743098109960556
2.7850258350372314 5.18970251083374 -0.7231727838516235 37.0 4 -0.020740794017910957
3.001218795776367 5.590220928192139 1.0049351453781128 46.0 12 -0.02073848992586136
2.843275308609009 5.2938103675842285 -0.525723397731781 41.0 5 -0.02073618583381176
3.0107593536376953 5.603297710418701 1.2364424467086792 61.0 13 -0.02073388174176216
2.656327247619629 4.941598415374756 -0.29402342438697815 9.0 6 -0.020731577649712563
3.025515079498291 5.626049041748047 1.4747792482376099 71.0 14 -0.020729273557662964
3.0295569896698 5.631208419799805 1.7133821249008179 51.0 15 -0.020724665373563766
2.954115629196167 5.470370292663574 0.1085190698504448 49.0 8 -0.02070162631571293
2.3240110874176025 4.301754951477051 -1.1288044452667236 10.0 1 -0.02069932222366333
2.968560218811035 5.494818687438965 0.32730910181999207 38.0 9 -0.02069701813161373
2.324338436126709 4.300570964813232 -0.9502288103103638 17.0 2 -0.020694714039564133
2.983133316040039 5.5171942710876465 0.548732578754425 51.0 10 -0.020692409947514534
2.3420827388763428 4.3297834396362305 -0.779669463634491 11.0 3 -0.020690105855464935
2.9873528480529785 5.52039098739624 0.7707018256187439 52.0 11 -0.020687801763415337
2.8087525367736816 5.1881890296936035 -0.7243914604187012 38.0 4 -0.020685497671365738
3.0056657791137695 5.551917552947998 0.9999291896820068 45.0 12 -0.02068319357931614
2.8598406314849854 5.280348777770996 -0.5253748297691345 33.0 5 -0.02068088948726654
3.017204761505127 5.568587779998779 1.2310997247695923 62.0 13 -0.020678585395216942
2.661186456680298 4.909471035003662 -0.29266270995140076 14.0 6 -0.020676281303167343
3.0256285667419434 5.579477787017822 1.4653313159942627 73.0 14 -0.020673977211117744
3.0353758335113525 5.595128536224365 1.7056175470352173 52.0 15 -0.020669369027018547
2.9588570594787598 5.4359540939331055 0.10803039371967316 50.0 8 -0.02064632996916771
2.3205556869506836 4.261507987976074 -1.1202563047409058 12.0 1 -0.02064402587711811
2.9743454456329346 5.459869384765625 0.3258436918258667 34.0 9 -0.020641721785068512
2.3130316734313965 4.2441630363464355 -0.9395435452461243 27.0 2 -0.020639417693018913
2.9833006858825684 5.471761226654053 0.5452463626861572 51.0 10 -0.020637113600969315
2.352644681930542 4.315055847167969 -0.7784180045127869 17.0 3 -0.020634809508919716
2.9942374229431152 5.489541053771973 0.7677769064903259 49.0 11 -0.020632505416870117
2.836402654647827 5.198012828826904 -0.727072536945343 37.0 4 -0.02063020132482052
3.0089380741119385 5.51191520690918 0.9946104288101196 49.0 12 -0.02062789723277092
2.8954432010650635 5.301809310913086 -0.5285124182701111 50.0 5 -0.02062559314072132
3.023422956466675 5.53615140914917 1.2261385917663574 58.0 13 -0.020623289048671722
2.672665596008301 4.891854763031006 -0.29213932156562805 29.0 6 -0.020620984956622124
3.0328972339630127 5.548894882202148 1.4599324464797974 78.0 14 -0.020618680864572525
2.8225018978118896 5.161821365356445 -0.1026899591088295 1.0 7 -0.020616376772522926
3.0326383113861084 5.543822288513184 1.6931942701339722 52.0 15 -0.020614072680473328
2.963381052017212 5.399298191070557 0.10750682651996613 56.0 8 -0.02059103362262249
2.3175957202911377 4.220926761627197 -1.111708164215088 36.0 1 -0.02058872953057289
2.9741692543029785 5.416712760925293 0.323854923248291 33.0 9 -0.020586425438523293
2.3072431087493896 4.200334072113037 -0.9315295815467834 35.0 2 -0.020584121346473694
2.9812803268432617 5.425168514251709 0.5415857434272766 47.0 10 -0.020581817254424095
2.325819253921509 4.230652332305908 -0.7646517157554626 31.0 3 -0.020579513162374496
2.9980740547180176 5.451226234436035 0.7638770937919617 49.0 11 -0.020577209070324898
2.316734790802002 4.210640907287598 -0.5900914072990417 2.0 4 -0.0205749049782753
3.009108781814575 5.46902322769165 0.9886659383773804 54.0 12 -0.0205726008862257
2.9168508052825928 5.299161434173584 -0.5292096734046936 26.0 5 -0.0205702967941761
3.0266289710998535 5.496328830718994 1.2196511030197144 60.0 13 -0.020567992702126503
2.680088996887207 4.8650007247924805 -0.2910926043987274 22.0 6 -0.020565688610076904
3.035316228866577 5.507554054260254 1.4518342018127441 73.0 14 -0.020563386380672455
3.033284902572632 5.501590728759766 1.683359146118164 51.0 15 -0.020558778196573257
2.9609415531158447 5.352696418762207 0.10677383095026016 53.0 8 -0.02053573727607727
2.322145462036133 4.1961669921875 -1.1072092056274414 36.0 1 -0.020533433184027672
2.981451988220215 5.385329246520996 0.3225988745689392 34.0 9 -0.020531129091978073
2.3123779296875 4.175081253051758 -0.9277134537696838 35.0 2 -0.020528824999928474
2.986679792404175 5.390330791473389 0.5391454100608826 45.0 10 -0.020526520907878876
2.3264338970184326 4.198725700378418 -0.7602715492248535 37.0 3 -0.020524216815829277
2.9949636459350586 5.40305757522583 0.7585148811340332 52.0 11 -0.02052191272377968
2.335495710372925 4.2116169929504395 -0.5913100838661194 31.0 4 -0.02051960863173008
3.0205132961273193 5.444667816162109 0.9861630201339722 52.0 12 -0.02051730453968048
2.333956003189087 4.205373764038086 -0.42078790068626404 9.0 5 -0.02051500231027603
3.0219757556915283 5.44506311416626 1.2104923725128174 63.0 13 -0.020512698218226433
2.3539695739746094 4.239690780639648 -0.25414344668388367 35.0 6 -0.020510394126176834
3.0422096252441406 5.477014541625977 1.4464353322982788 73.0 14 -0.020508090034127235
2.3388965129852295 4.209080696105957 -0.08405079692602158 1.0 7 -0.020505785942077637
3.041205883026123 5.470707893371582 1.6771475076675415 60.0 15 -0.020503481850028038
2.9688947200775146 5.323116302490234 0.10638986527919769 56.0 8 -0.02048044092953205
2.321585178375244 4.1608076095581055 -1.1000107526779175 36.0 1 -0.020478136837482452
2.9846954345703125 5.3492512702941895 0.32102879881858826 38.0 9 -0.020475832745432854
2.320470094680786 4.157103538513184 -0.9254236817359924 38.0 2 -0.020473528653383255
2.9948232173919678 5.363002777099609 0.537402331829071 47.0 10 -0.020471224561333656
2.3266239166259766 4.164711952209473 -0.7555785775184631 34.0 3 -0.020468922331929207
2.9983091354370117 5.364845275878906 0.754615068435669 57.0 11 -0.020466618239879608
2.3327465057373047 4.172250747680664 -0.586922824382782 31.0 4 -0.02046431414783001
3.0211985111236572 5.403585910797119 0.9805313348770142 54.0 12 -0.02046201005578041
2.3469173908233643 4.195871829986572 -0.4206136167049408 27.0 5 -0.020459705963730812
3.027541399002075 5.410496711730957 1.20514976978302 63.0 13 -0.020457401871681213
2.363875389099121 4.222734451293945 -0.25362005829811096 75.0 6 -0.020455097779631615
3.040362596511841 5.428955078125 1.436537504196167 68.0 14 -0.020452793687582016
2.3714075088500977 4.234450340270996 -0.08471398055553436 48.0 7 -0.020450489595532417
3.049887180328369 5.443739891052246 1.6719712018966675 61.0 15 -0.02044818550348282
2.9728143215179443 5.288836479187012 0.10590120404958725 55.0 8 -0.02042514458298683
2.3277299404144287 4.139496326446533 -1.0964114665985107 37.0 1 -0.020422842353582382
2.985722303390503 5.307468414306641 0.31914469599723816 39.0 9 -0.020420538261532784
2.317636489868164 4.118181228637695 -0.9185545444488525 38.0 2 -0.020418234169483185
2.9998421669006348 5.328209400177002 0.5349619388580322 47.0 10 -0.020415930077433586
2.328793525695801 4.136317253112793 -0.751824140548706 33.0 3 -0.020413625985383987
3.006340265274048 5.337577819824219 0.7521776556968689 60.0 11 -0.02041132189333439
2.3387744426727295 4.150655746459961 -0.5849729180335999 33.0 4 -0.02040901780128479
3.0245232582092285 5.36547327041626 0.9755253791809082 52.0 12 -0.02040671370923519
2.35371732711792 4.17377233505249 -0.41921913623809814 28.0 5 -0.020404409617185593
3.031964063644409 5.376485824584961 1.199807047843933 63.0 13 -0.020402105525135994
2.374922513961792 4.209652900695801 -0.2533060610294342 56.0 6 -0.020399801433086395
3.041106939315796 5.388296127319336 1.4284392595291138 67.0 14 -0.020397497341036797
2.3802719116210938 4.215700626373291 -0.08450455218553543 67.0 7 -0.020395193248987198
3.055570363998413 5.409511089324951 1.6647241115570068 63.0 15 -0.0203928891569376
2.9784395694732666 5.255810737609863 0.1054474413394928 53.0 8 -0.02036985009908676
2.3325536251068115 4.114393711090088 -1.0919125080108643 36.0 1 -0.020367546007037163
2.992408037185669 5.27616548538208 0.31788864731788635 39.0 9 -0.020365241914987564
2.316751003265381 4.084857940673828 -0.9128302931785583 37.0 2 -0.020362937822937965
3.0027480125427246 5.292237758636475 0.5323472619056702 49.0 10 -0.020360633730888367
2.3373661041259766 4.117856025695801 -0.7499468922615051 33.0 3 -0.020358329638838768
3.015152931213379 5.309788703918457 0.7497403025627136 60.0 11 -0.02035602554678917
2.34344482421875 4.125205993652344 -0.5825355052947998 33.0 4 -0.02035372145473957
3.023712396621704 5.320535659790039 0.9692680239677429 48.0 12 -0.020351417362689972
2.353764057159424 4.141692161560059 -0.4167787432670593 28.0 5 -0.020349113270640373
3.0390706062316895 5.345388412475586 1.1952276229858398 61.0 13 -0.020346809178590775
2.400465726852417 4.220434188842773 -0.2544574439525604 55.0 6 -0.020344505086541176
3.0454397201538086 5.3522419929504395 1.4216907024383545 76.0 14 -0.020342200994491577
3.050536632537842 5.356842994689941 1.6517832279205322 65.0 15 -0.02033759281039238
2.9808952808380127 5.217601776123047 0.10488896071910858 49.0 8 -0.020314553752541542
2.334331512451172 4.084231853485107 -1.0860637426376343 35.0 1 -0.020312249660491943
2.996926784515381 5.241414546966553 0.316423237323761 39.0 9 -0.020309945568442345
2.325147867202759 4.066520690917969 -0.9105405807495117 39.0 2 -0.020307641476392746
2.9994354248046875 5.243678092956543 0.5285124182701111 49.0 10 -0.020305337384343147
2.336029052734375 4.082239151000977 -0.744940996170044 33.0 3 -0.02030303329229355
3.0208492279052734 5.276834011077881 0.7465716600418091 60.0 11 -0.02030072920024395
2.3489482402801514 4.101498126983643 -0.5803418159484863 34.0 4 -0.02029842510819435
3.02950119972229 5.287665843963623 0.9652007222175598 51.0 12 -0.020296121016144753
2.353351354598999 4.107519149780273 -0.41416409611701965 31.0 5 -0.020293816924095154
3.0440444946289062 5.3109002113342285 1.189884901046753 60.0 13 -0.020291512832045555
2.4261085987091064 4.2310895919799805 -0.25560882687568665 57.0 6 -0.020289208739995956
3.051499843597412 5.319602966308594 1.4158419370651245 78.0 14 -0.020286904647946358
2.420595645904541 4.218057632446289 -0.0848885104060173 1.0 7 -0.02028460055589676
3.0519001483917236 5.316007137298584 1.6424657106399536 66.0 15 -0.02028229832649231
2.3300862312316895 4.043978214263916 -1.077515721321106 32.0 1 -0.020256953313946724
3.0052316188812256 5.213616847991943 0.31537652015686035 38.0 9 -0.020254649221897125
2.33050537109375 4.043070316314697 -0.9071059823036194 38.0 2 -0.020252345129847527
3.0097601413726807 5.219367504119873 0.527117908000946 49.0 10 -0.020250041037797928
2.336442470550537 4.050106525421143 -0.7405608296394348 35.0 3 -0.02024773694574833
3.016427993774414 5.22671365737915 0.7409656643867493 60.0 11 -0.02024543285369873
2.3533265590667725 4.076082229614258 -0.577904462814331 37.0 4 -0.020243128761649132
3.036080837249756 5.256534576416016 0.9614463448524475 51.0 12 -0.020240824669599533
2.363405466079712 4.090240955352783 -0.4132925271987915 19.0 5 -0.020238520577549934
3.0448834896087646 5.2696452140808105 1.1830158233642578 60.0 13 -0.020236218348145485
2.440864324569702 4.222594738006592 -0.25560882687568665 56.0 6 -0.020233914256095886
3.0573692321777344 5.2869873046875 1.409993290901184 76.0 14 -0.020231610164046288
2.4373061656951904 4.2130446434021 -0.08495831489562988 1.0 7 -0.02022930607199669
3.060762405395508 5.288600444793701 1.63728928565979 65.0 15 -0.02022700197994709
2.907804012298584 5.008166313171387 0.10108433663845062 1.0 8 -0.020203961059451103
2.32950758934021 4.010542869567871 -1.0707670450210571 30.0 1 -0.020201656967401505
3.0053510665893555 5.1720099449157715 0.31349241733551025 47.0 9 -0.020199352875351906
2.3314943313598633 4.010739803314209 -0.901763379573822 38.0 2 -0.020197048783302307
3.012842893600464 5.180744647979736 0.5243289470672607 49.0 10 -0.02019474469125271
2.343327522277832 4.027854919433594 -0.7380579113960266 35.0 3 -0.02019244059920311
3.014690637588501 5.181834697723389 0.736090898513794 57.0 11 -0.02019013836979866
2.3525617122650146 4.042108535766602 -0.5742484331130981 39.0 4 -0.02018783427774906
3.0414910316467285 5.2237114906311035 0.9573790431022644 52.0 12 -0.020185530185699463
2.3646326065063477 4.059584617614746 -0.4110264480113983 12.0 5 -0.020183226093649864
3.04836106300354 5.23130989074707 1.1769099235534668 62.0 13 -0.020180922001600266
2.459341049194336 4.218797206878662 -0.2559228539466858 60.0 6 -0.020178617909550667
3.061999797821045 5.2504963874816895 1.4032447338104248 78.0 14 -0.020176313817501068
2.4741616249084473 4.242513656616211 -0.08572622388601303 2.0 7 -0.02017400972545147
3.0655744075775146 5.254524230957031 1.6300424337387085 65.0 15 -0.02017170563340187
2.9342246055603027 5.011279106140137 0.10136357694864273 1.0 8 -0.020148664712905884
2.3274459838867188 3.973393201828003 -1.063118815422058 33.0 1 -0.020146360620856285
3.0052123069763184 5.13046932220459 0.31160831451416016 49.0 9 -0.020144056528806686
2.332577705383301 3.9805562496185303 -0.8968023657798767 37.0 2 -0.020141754299402237
3.020833969116211 5.153007507324219 0.5225858092308044 48.0 10 -0.020139450207352638
2.3523736000061035 4.01113224029541 -0.7364935278892517 37.0 3 -0.02013714611530304
3.025625467300415 5.1570539474487305 0.7341409921646118 57.0 11 -0.02013484202325344
2.357313632965088 4.016338348388672 -0.5718110203742981 38.0 4 -0.020132537931203842
3.0417098999023438 5.18239688873291 0.9517473578453064 54.0 12 -0.020130233839154243
2.370716094970703 4.037562370300293 -0.40963199734687805 4.0 5 -0.020127929747104645
3.0546717643737793 5.20032262802124 1.1723304986953735 63.0 13 -0.020125625655055046
2.4841723442077637 4.227405071258545 -0.2569695711135864 58.0 6 -0.020123321563005447
3.0605556964874268 5.206177711486816 1.3942468166351318 73.0 14 -0.02012101747095585
2.495035171508789 4.244194984436035 -0.08593565225601196 1.0 7 -0.02011871337890625
3.075084686279297 5.2288031578063965 1.6253836154937744 62.0 15 -0.02011640928685665
2.946761131286621 4.994632720947266 0.10122395306825638 1.0 8 -0.020093370229005814
2.333677053451538 3.9539051055908203 -1.059969425201416 35.0 1 -0.020091066136956215
3.0129494667053223 5.102748870849609 0.3105615973472595 49.0 9 -0.020088762044906616
2.3384711742401123 3.9588661193847656 -0.8937493562698364 39.0 2 -0.020086457952857018
3.0225841999053955 5.114987373352051 0.5197968482971191 49.0 10 -0.02008415386080742
2.3536036014556885 3.982900857925415 -0.7327390909194946 37.0 3 -0.02008184976875782
3.0336174964904785 5.131613731384277 0.7319473624229431 60.0 11 -0.02007954567670822
2.3615260124206543 3.9931204319000244 -0.5696173906326294 34.0 4 -0.020077241584658623
3.041674852371216 5.141146183013916 0.9461157917976379 54.0 12 -0.020074937492609024
2.3614556789398193 3.9898266792297363 -0.40562281012535095 4.0 5 -0.020072633400559425
3.0578994750976562 5.1665120124816895 1.1669878959655762 61.0 13 -0.020070329308509827
2.5053017139434814 4.231173992156982 -0.2577022612094879 63.0 6 -0.020068025216460228
3.0658841133117676 5.175879955291748 1.3888479471206665 68.0 14 -0.02006572112441063
2.509834051132202 4.23546028137207 -0.08593565225601196 1.0 7 -0.02006341703236103
3.0765721797943115 5.189785957336426 1.6165838241577148 65.0 15 -0.020061112940311432
2.9559996128082275 4.970567226409912 0.10094472020864487 1.0 8 -0.020038073882460594
2.3404910564422607 3.9340107440948486 -1.0568201541900635 36.0 1 -0.020035769790410995
3.0205271244049072 5.075038433074951 0.3095148801803589 51.0 9 -0.020033465698361397
2.341542959213257 3.934220552444458 -0.889933168888092 39.0 2 -0.020031161606311798
3.027296781539917 5.08439302444458 0.5177050828933716 49.0 10 -0.0200288575142622
2.3482866287231445 3.942415237426758 -0.7267946600914001 34.0 3 -0.0200265534222126
3.0372843742370605 5.0971198081970215 0.728534996509552 62.0 11 -0.020024249330163002
2.3622353076934814 3.962686777114868 -0.5664487481117249 33.0 4 -0.020021945238113403
3.0474624633789062 5.110137462615967 0.9423612952232361 52.0 12 -0.020019641146063805
2.372633457183838 3.978550672531128 -0.4052741825580597 59.0 5 -0.020017337054014206
3.057811737060547 5.125457763671875 1.160118818283081 61.0 13 -0.020015032961964607
2.5272200107574463 4.234408855438232 -0.2584349811077118 58.0 6 -0.02001272886991501
3.0729451179504395 5.146740913391113 1.3838989734649658 71.0 14 -0.02001042477786541
2.530757188796997 4.236974239349365 -0.0861450806260109 1.0 7 -0.02000812068581581
3.0748493671417236 5.145848751068115 1.6062310934066772 66.0 15 -0.020005816593766212
2.9424898624420166 4.908763408660889 0.09989757835865021 1.0 8 -0.019982777535915375
2.340176820755005 3.902419328689575 -1.0505214929580688 36.0 1 -0.019980473443865776
3.0238406658172607 5.04048490524292 0.3080494701862335 49.0 9 -0.019978169351816177
2.349203109741211 3.915921688079834 -0.8876435160636902 42.0 2 -0.01997586525976658
3.032724618911743 5.053294658660889 0.5156133770942688 51.0 10 -0.01997356116771698
2.352881908416748 3.918952703475952 -0.7239788174629211 33.0 3 -0.01997125707566738
3.036661386489868 5.055854320526123 0.7241477370262146 65.0 11 -0.019968952983617783
2.367873430252075 3.940804958343506 -0.5644989013671875 33.0 4 -0.019966648891568184
3.0520505905151367 5.077459812164307 0.938293993473053 59.0 12 -0.019964344799518585
2.3741884231567383 3.9497532844543457 -0.4031824767589569 35.0 5 -0.019962040707468987
3.058483362197876 5.086151599884033 1.153631329536438 60.0 13 -0.019959736615419388
2.5399250984191895 4.22213888168335 -0.25822561979293823 60.0 6 -0.01995743438601494
3.0798370838165283 5.117616653442383 1.3789499998092651 73.0 14 -0.01995513029396534
2.5579075813293457 4.2486724853515625 -0.08656392991542816 1.0 7 -0.01995282620191574
3.0748512744903564 5.105297565460205 1.5969135761260986 67.0 15 -0.019950522109866142
2.9554686546325684 4.891615867614746 0.09975795447826385 1.0 8 -0.019927481189370155
2.338665008544922 3.8692102432250977 -1.0437729358673096 35.0 1 -0.019925177097320557
3.026949882507324 5.0059709548950195 0.30658406019210815 49.0 9 -0.019922873005270958
2.355747699737549 3.8959364891052246 -0.8849721550941467 41.0 2 -0.01992056891322136
3.0379695892333984 5.022221088409424 0.5135216116905212 51.0 10 -0.01991826482117176
2.360412120819092 3.9005749225616455 -0.7221015691757202 26.0 3 -0.019915960729122162
3.0419561862945557 5.024845123291016 0.7212228178977966 62.0 11 -0.019913656637072563
2.3661890029907227 3.90704607963562 -0.560842752456665 33.0 4 -0.019911352545022964
3.059520959854126 5.049879550933838 0.9351653456687927 59.0 12 -0.019909050315618515
2.3745410442352295 3.9192888736724854 -0.4009164273738861 34.0 5 -0.019906746223568916
3.064008951187134 5.055295944213867 1.1490517854690552 58.0 13 -0.019904442131519318
2.5018351078033447 4.126147270202637 -0.2528873682022095 15.0 6 -0.01990213803946972
3.0744385719299316 5.068511962890625 1.3686022758483887 76.0 14 -0.01989983394742012
2.5913965702056885 4.27048921585083 -0.08719222247600555 1.0 7 -0.01989752985537052
3.084632635116577 5.08132266998291 1.5927724838256836 69.0 15 -0.019895225763320923
2.968366861343384 4.8744378089904785 0.0996183380484581 1.0 8 -0.019872184842824936
2.343031406402588 3.8460452556610107 -1.0397238731384277 36.0 1 -0.019869880750775337
3.027773857116699 4.968087196350098 0.3049093186855316 44.0 9 -0.01986757665872574
2.354006290435791 3.8625435829162598 -0.8792479038238525 42.0 2 -0.01986527442932129
3.0451114177703857 4.994573593139648 0.5117785334587097 49.0 10 -0.01986296847462654
2.3647549152374268 3.877134084701538 -0.7192857265472412 35.0 3 -0.01986066624522209
3.0470693111419678 4.993861675262451 0.7182979583740234 62.0 11 -0.019858362153172493
2.369471311569214 3.8818185329437256 -0.5584053993225098 35.0 4 -0.019856058061122894
3.060656785964966 5.012195587158203 0.9301593899726868 65.0 12 -0.019853753969073296
2.38197660446167 3.9007744789123535 -0.39987054467201233 31.0 5 -0.019851449877023697
3.0724241733551025 5.029491424560547 1.1456172466278076 61.0 13 -0.019849145784974098
2.474564790725708 4.049220085144043 -0.24870049953460693 10.0 6 -0.0198468416929245
3.078896999359131 5.036135673522949 1.3627535104751587 78.0 14 -0.0198445376008749
2.5916800498962402 4.237534999847412 -0.08670356124639511 1.0 7 -0.019842233508825302
3.0882370471954346 5.047452926635742 1.5855255126953125 67.0 15 -0.019839929416775703
3.0033395290374756 4.895247459411621 0.1002466231584549 1.0 8 -0.021139224991202354
2.363926410675049 3.851541519165039 -1.043323040008545 48.0 1 -0.021136920899152756
3.033780813217163 4.940999507904053 0.303862601518631 47.0 9 -0.021134616807103157
2.3585829734802246 3.841331720352173 -0.8761948943138123 52.0 2 -0.02113231271505356
3.043931245803833 4.9555864334106445 0.5088152289390564 46.0 10 -0.02113000862300396
2.372429370880127 3.8608553409576416 -0.7177214026451111 44.0 3 -0.02112770453095436
3.0573740005493164 4.973583698272705 0.7168355584144592 62.0 11 -0.021125400438904762
2.3771326541900635 3.8654842376708984 -0.5571866631507874 38.0 4 -0.021123096346855164
3.060701608657837 4.975098133087158 0.9251535534858704 65.0 12 -0.021120792254805565
2.384460210800171 3.8758833408355713 -0.3981274366378784 31.0 5 -0.021118488162755966
3.080852508544922 5.005900859832764 1.142564296722412 66.0 13 -0.021116185933351517
2.4712257385253906 4.013779163360596 -0.2470257431268692 11.0 6 -0.021113881841301918
3.085361957550049 5.009304523468018 1.3582545518875122 78.0 14 -0.02111157774925232
2.6141088008880615 4.242537498474121 -0.08698279410600662 1.0 7 -0.02110927365720272
3.08671236038208 5.00758171081543 1.5762079954147339 66.0 15 -0.021106969565153122
2.9678213596343994 4.799694538116455 0.09850137680768967 1.0 8 -0.021083928644657135
2.378382921218872 3.844923734664917 -1.0437729358673096 46.0 1 -0.021081624552607536
3.0405008792877197 4.913394927978516 0.30281588435173035 48.0 9 -0.021079320460557938
2.37404465675354 3.836413860321045 -0.8769581913948059 55.0 2 -0.02107701636850834
3.042330741882324 4.914440155029297 0.5056775808334351 46.0 10 -0.02107471227645874
2.3723700046539307 3.830718755722046 -0.713654100894928 46.0 3 -0.02107240818440914
3.0621724128723145 4.942630290985107 0.713910698890686 62.0 11 -0.021070105955004692
2.3801510334014893 3.840291738510132 -0.5547492504119873 38.0 4 -0.021067801862955093
3.064516067504883 4.942559719085693 0.9210862517356873 69.0 12 -0.021065497770905495
2.3843255043029785 3.8455240726470947 -0.3958613872528076 35.0 5 -0.021063193678855896
3.075542449951172 4.958410739898682 1.1341687440872192 70.0 13 -0.021060889586806297
2.475742816925049 3.9898550510406494 -0.24608369171619415 12.0 6 -0.0210585854947567
3.087411642074585 4.973669528961182 1.351505994796753 76.0 14 -0.0210562814027071
2.643672466278076 4.257169246673584 -0.08747146278619766 1.0 7 -0.0210539773106575
3.088883399963379 4.972161293029785 1.5684435367584229 63.0 15 -0.021051673218607903
2.9951350688934326 4.806276321411133 0.09885042905807495 2.0 8 -0.021028632298111916
2.394883394241333 3.8415584564208984 -1.045122742652893 45.0 1 -0.021026328206062317
3.0419864654541016 4.879556655883789 0.301350474357605 51.0 9 -0.021024025976657867
2.3936548233032227 3.838099241256714 -0.8792479038238525 55.0 2 -0.02102172188460827
3.0468125343322754 4.883505344390869 0.5035858750343323 46.0 10 -0.02101941779255867
2.38782000541687 3.8257648944854736 -0.71427983045578 30.0 3 -0.02101711370050907
3.052070379257202 4.888132572174072 0.7075734734535217 65.0 11 -0.021014809608459473
2.3998525142669678 3.8420610427856445 -0.5562117099761963 45.0 4 -0.021012505516409874
3.071469783782959 4.917291641235352 0.9182704091072083 65.0 12 -0.021010201424360275
2.397735357284546 3.837177038192749 -0.3958613872528076 39.0 5 -0.021007897332310677
3.0761804580688477 4.921009540557861 1.1280628442764282 68.0 13 -0.021005593240261078
2.4769465923309326 3.960869073867798 -0.24482764303684235 15.0 6 -0.02100328914821148
3.096487045288086 4.949644565582275 1.3479067087173462 76.0 14 -0.02100098505616188
2.6556556224823 4.244988441467285 -0.08740165829658508 2.0 7 -0.020998680964112282
3.0940775871276855 4.943879127502441 1.5627493858337402 66.0 15 -0.020996376872062683
3.006805181503296 4.7895426750183105 0.0987108126282692 2.0 8 -0.020973337814211845
2.4096813201904297 3.8368964195251465 -1.0460224151611328 45.0 1 -0.020971033722162247
3.0409348011016846 4.840160846710205 0.29957106709480286 52.0 9 -0.020968729630112648
2.4174857139587402 3.846341848373413 -0.8830640912055969 55.0 2 -0.02096642553806305
3.053236722946167 4.8559722900390625 0.501842737197876 47.0 10 -0.02096412144601345
3.0576932430267334 4.86118221282959 0.7051360607147217 65.0 11 -0.020959513261914253
2.4104669094085693 3.830721139907837 -0.5557242631912231 42.0 4 -0.020957209169864655
3.077040910720825 4.888150215148926 0.9148288369178772 63.0 12 -0.020954905077815056
2.4111123085021973 3.8287856578826904 -0.3958613872528076 42.0 5 -0.020952600985765457
3.0778346061706543 4.887524127960205 1.1227202415466309 68.0 13 -0.02095029689371586
2.482616662979126 3.940802812576294 -0.24409490823745728 17.0 6 -0.02094799280166626
3.095219373703003 4.911322593688965 1.3402584791183472 67.0 14 -0.02094568870961666
2.6811187267303467 4.252609729766846 -0.08775070309638977 1.0 7 -0.020943384617567062
3.1010115146636963 4.916707992553711 1.5575730800628662 69.0 15 -0.020941080525517464
3.0106770992279053 4.758738040924072 0.09829195588827133 3.0 8 -0.020918041467666626
2.4366073608398438 3.8498687744140625 -1.0518711805343628 46.0 1 -0.020915737375617027
3.040717840194702 4.802515506744385 0.29789629578590393 52.0 9 -0.02091343328356743
2.4323270320892334 3.8416221141815186 -0.8838273286819458 55.0 2 -0.02091112919151783
3.0575969219207764 4.827304840087891 0.49992531538009644 48.0 10 -0.02090882509946823
3.0597658157348633 4.827005863189697 0.7017237544059753 67.0 11 -0.020904216915369034
2.4312663078308105 3.8340182304382324 -0.5574304461479187 4.0 4 -0.020901912823319435
3.0750372409820557 4.847355842590332 0.909197211265564 61.0 12 -0.020899608731269836
2.431936740875244 3.832120895385742 -0.39708155393600464 41.0 5 -0.020897304639220238
3.0843584537506104 4.860173225402832 1.1189039945602417 68.0 13 -0.02089500054717064
2.5017106533050537 3.9405431747436523 -0.2446182817220688 21.0 6 -0.02089269645512104
3.0956268310546875 4.874168395996094 1.3330600261688232 73.0 14 -0.02089039236307144
2.6980926990509033 4.2465996742248535 -0.08782050758600235 1.0 7 -0.020888088271021843
3.1057214736938477 4.886288166046143 1.5513614416122437 113.0 15 -0.020885784178972244
3.028341770172119 4.7498884201049805 0.09832686185836792 4.0 8 -0.020862745121121407
2.4573676586151123 3.8528401851654053 -1.0550204515457153 45.0 1 -0.020860441029071808
3.0499422550201416 4.780086994171143 0.29716360569000244 51.0 9 -0.02085813693702221
2.450615644454956 3.839301347732544 -0.8853538036346436 55.0 2 -0.02085583284497261
3.0559675693511963 4.7858405113220215 0.4967877268791199 51.0 10 -0.020853528752923012
2.0598132610321045 3.2245583534240723 -0.6060271859169006 1.0 3 -0.020851224660873413
3.0637741088867188 4.796220302581787 0.6987988948822021 64.0 11 -0.020848920568823814
3.0727882385253906 4.806632995605469 0.9035655856132507 61.0 12 -0.020844312384724617
2.447446346282959 3.826965093612671 -0.3974302113056183 37.0 5 -0.02084200829267502
3.0894534587860107 4.828991413116455 1.1143245697021484 67.0 13 -0.02083970420062542
2.503216028213501 3.911161422729492 -0.2433622181415558 9.0 6 -0.02083740197122097
3.104015350341797 4.848019123077393 1.3290109634399414 76.0 14 -0.02083509787917137
2.727996587753296 4.260732650756836 -0.08830918371677399 1.0 7 -0.020832793787121773
3.1019163131713867 4.842884540557861 1.541008710861206 115.0 15 -0.020830489695072174
3.02518892288208 4.706794261932373 0.09766366332769394 6.0 8 -0.020807448774576187
2.48095703125 3.858560800552368 -1.0590696334838867 48.0 1 -0.02080514468252659
3.0544774532318115 4.74871826171875 0.29590752720832825 49.0 9 -0.02080284059047699
2.4724996089935303 3.8439321517944336 -0.8884066939353943 49.0 2 -0.02080053649842739
3.0575599670410156 4.751688003540039 0.49434736371040344 48.0 10 -0.020798232406377792
2.0710558891296387 3.2173492908477783 -0.6060271859169006 1.0 3 -0.020795928314328194
3.0705835819244385 4.768269062042236 0.6963614821434021 61.0 11 -0.020793624222278595
3.0828933715820312 4.783715724945068 0.9013754725456238 65.0 12 -0.020789017900824547
3.0913989543914795 4.795076370239258 1.108981966972351 66.0 13 -0.02078440971672535
3.1040139198303223 4.81095552444458 1.3218125104904175 76.0 14 -0.020779801532626152
2.7522690296173096 4.26414680480957 -0.0885884165763855 1.0 7 -0.020777497440576553
3.102882146835327 4.805513381958008 1.532726526260376 111.0 15 -0.020775193348526955
3.029641628265381 4.677743911743164 0.09727971255779266 9.0 8 -0.020752152428030968
2.4975905418395996 3.8547825813293457 -1.0604193210601807 45.0 1 -0.02074984833598137
3.0601706504821777 4.7212677001953125 0.2948608100414276 48.0 9 -0.02074754424393177
2.496580123901367 3.8517534732818604 -0.8922228813171387 33.0 2 -0.02074524015188217
3.0622029304504395 4.722597599029541 0.4924299120903015 47.0 10 -0.020742937922477722
2.0715248584747314 3.1935272216796875 -0.6028984785079956 1.0 3 -0.020740633830428123
3.072080135345459 4.7342095375061035 0.6929491758346558 59.0 11 -0.020738329738378525
3.088815450668335 4.756357669830322 0.8982467651367188 67.0 12 -0.020733721554279327
1.4671002626419067 2.2591357231140137 -0.23566913604736328 1.0 5 -0.02073141746222973
3.0931437015533447 4.7612080574035645 1.1036393642425537 67.0 13 -0.02072911337018013
3.113354444503784 4.788653373718262 1.318663239479065 78.0 14 -0.020724505186080933
3.1090986728668213 4.7784624099731445 1.5275501012802124 111.0 15 -0.020719897001981735
3.039395570755005 4.6570916175842285 0.09707028418779373 12.0 8 -0.020696857944130898
2.5142264366149902 3.8509371280670166 -1.0617690086364746 46.0 1 -0.0206945538520813
3.0605251789093018 4.687680244445801 0.29339540004730225 47.0 9 -0.0206922497600317
2.518599510192871 3.8561644554138184 -0.895275890827179 42.0 2 -0.0206899456679821
3.0699522495269775 4.698535442352295 0.49103546142578125 46.0 10 -0.020687641575932503
2.0934667587280273 3.2028119564056396 -0.6060271859169006 1.0 3 -0.020685337483882904
3.0712060928344727 4.696873188018799 0.6890493035316467 61.0 11 -0.020683033391833305
2.0804245471954346 3.1816458702087402 -0.4667596220970154 1.0 4 -0.020680729299783707
3.0926754474639893 4.7279052734375 0.8948052525520325 69.0 12 -0.020678425207734108
1.4837042093276978 2.267338275909424 -0.23706360161304474 32.0 5 -0.02067612111568451
3.0989928245544434 4.733954906463623 1.0998231172561646 68.0 13 -0.02067381702363491
1.4914063215255737 2.2773730754852295 -0.14266782999038696 14.0 6 -0.020671512931585312
3.108930826187134 4.747328281402588 1.310115098953247 76.0 14 -0.020669208839535713
1.5122530460357666 2.3083267211914062 -0.048168644309043884 9.0 7 -0.020666904747486115
3.116457462310791 4.755198955535889 1.5234088897705078 104.0 15 -0.020664600655436516
3.0438387393951416 4.630276203155518 0.09672123938798904 14.0 8 -0.020641561597585678
2.537689685821533 3.858860731124878 -1.0662680864334106 46.0 1 -0.02063925750553608
3.0584938526153564 4.650805950164795 0.2917206585407257 48.0 9 -0.02063695341348648
2.531372308731079 3.8477916717529297 -0.895275890827179 45.0 2 -0.020634649321436882
3.072373867034912 4.668356895446777 0.4889436960220337 45.0 10 -0.020632345229387283
1.4881693124771118 2.2603607177734375 -0.4286305010318756 6.0 3 -0.020630041137337685
3.079120635986328 4.6750593185424805 0.687343180179596 66.0 11 -0.020627737045288086
1.5013443231582642 2.279505968093872 -0.33514073491096497 1.0 4 -0.020625432953238487
3.0909485816955566 4.691229820251465 0.8897993564605713 71.0 12 -0.02062312886118889
1.4890214204788208 2.2590789794921875 -0.23671498894691467 40.0 5 -0.02062082476913929
3.1049466133117676 4.708901882171631 1.096388578414917 71.0 13 -0.02061852067708969
1.4846543073654175 2.2507410049438477 -0.14130708575248718 40.0 6 -0.020616216585040092
3.112854480743408 4.71909761428833 1.3051660060882568 73.0 14 -0.020613912492990494
1.5121891498565674 2.2916159629821777 -0.047924306243658066 37.0 7 -0.020611608400940895
3.1183724403381348 4.723879814147949 1.5166796445846558 102.0 15 -0.020609304308891296
3.0536532402038574 4.611822128295898 0.0965467095375061 7.0 8 -0.02058626525104046
2.5601584911346436 3.8650453090667725 -1.070317268371582 42.0 1 -0.02058396115899086
3.061471700668335 4.620121479034424 0.2904645800590515 51.0 9 -0.02058165706694126
2.548456907272339 3.845921754837036 -0.8968023657798767 42.0 2 -0.020579352974891663
3.070221185684204 4.6315741539001465 0.486154705286026 45.0 10 -0.020577048882842064
1.495657205581665 2.2554128170013428 -0.4286305010318756 22.0 3 -0.020574744790792465
3.081439256668091 4.6449713706970215 0.684418261051178 66.0 11 -0.020572440698742867
1.4983159303665161 2.2577106952667236 -0.3327033221721649 21.0 4 -0.020570136606693268
3.092007875442505 4.657372951507568 0.8854191899299622 69.0 12 -0.02056783251464367
1.48697829246521 2.2389299869537354 -0.2351461946964264 42.0 5 -0.02056552842259407
3.1107707023620605 4.683859825134277 1.0929539203643799 70.0 13 -0.020563224330544472
1.496530532836914 2.252459764480591 -0.1417257934808731 46.0 6 -0.020560920238494873
3.1152842044830322 4.687106132507324 1.299317479133606 71.0 14 -0.020558618009090424
1.5102150440216064 2.271336317062378 -0.047610167413949966 28.0 7 -0.020556313917040825
3.118795394897461 4.688837051391602 1.5089151859283447 108.0 15 -0.020554009824991226
1.4982433319091797 2.2456729412078857 0.04712149500846863 2.0 8 -0.02053096890449524
2.585533618927002 3.873915672302246 -1.0752661228179932 41.0 1 -0.02052866481244564
3.070924997329712 4.599441051483154 0.2898365557193756 51.0 9 -0.020526360720396042
2.5723490715026855 3.8512489795684814 -0.9002369046211243 48.0 2 -0.020524056628346443
3.0727877616882324 4.598753452301025 0.4838886559009552 48.0 10 -0.020521752536296844
1.487446904182434 2.2252817153930664 -0.42393743991851807 26.0 3 -0.020519448444247246
3.086602210998535 4.6176838874816895 0.6819809079170227 66.0 11 -0.020517144352197647
1.5106010437011719 2.259068012237549 -0.33367830514907837 35.0 4 -0.02051484026014805
3.1016554832458496 4.636700630187988 0.8835419416427612 71.0 12 -0.02051253616809845
1.4936758279800415 2.232070207595825 -0.23497188091278076 41.0 5 -0.020510233938694
3.1071650981903076 4.641430377960205 1.0857032537460327 71.0 13 -0.0205079298466444
1.5058878660202026 2.2486186027526855 -0.1418304443359375 54.0 6 -0.020505625754594803
3.1205124855041504 4.657845973968506 1.2943683862686157 68.0 14 -0.020503321662545204
1.5136828422546387 2.2594051361083984 -0.047470543533563614 34.0 7 -0.020501017570495605
3.116858720779419 4.650641441345215 1.5001152753829956 115.0 15 -0.020498713478446007
1.5086956024169922 2.243485689163208 0.0471913106739521 35.0 8 -0.02047567255795002
2.593189239501953 3.854710817337036 -1.0725666284561157 41.0 1 -0.02047336846590042
3.0777275562286377 4.573241710662842 0.28889450430870056 52.0 9 -0.020471064373850822
2.5945467948913574 3.855275869369507 -0.9032898545265198 38.0 2 -0.020468760281801224
