# .PCD v0.7 - Point Cloud Data file format
VERSION 0.7
FIELDS x y z intensity ring time
SIZE 4 4 4 4 4 4
TYPE F F F F F F
COUNT 1 1 1 1 1 1
WIDTH 542
HEIGHT 1
VIEWPOINT 0 0 0 1 0 0 0
POINTS 542
DATA ascii
-9.168769836425781 -3.466418743133545 2.263007640838623 1.0 14 -0.07847829163074493
-2.1865909099578857 -0.8266801238059998 -0.04080372676253319 12.0 7 -0.07847598940134048
-2.4210336208343506 -0.9109717011451721 -0.6931174397468567 37.0 0 -0.0784529447555542
-2.2571353912353516 -0.8493010997772217 0.042095206677913666 11.0 8 -0.07845064252614975
-2.414999008178711 -0.9082193374633789 -0.5956704616546631 39.0 1 -0.0784483402967453
-2.875372886657715 -1.080782175064087 0.16098542511463165 2.0 9 -0.07844603806734085
-2.418602228164673 -0.9086109399795532 -0.5022093057632446 58.0 2 -0.0784437283873558
-2.3578739166259766 -0.8853272199630737 -0.39890795946121216 51.0 3 -0.0784391239285469
-21.16493797302246 -7.942737579345703 2.775696277618408 2.0 11 -0.07843682169914246
-2.3939435482025146 -0.8979172706604004 -0.31393545866012573 38.0 4 -0.07843451201915741
-2.5803020000457764 -0.966789722442627 -0.24107277393341064 8.0 5 -0.07842990756034851
-2.2070844173431396 -0.8265125155448914 -0.1235128715634346 13.0 6 -0.07842529565095901
-2.191335916519165 -0.8197435140609741 -0.040838632732629776 16.0 7 -0.07842069119215012
-2.418610095977783 -0.9009151458740234 -0.6915645003318787 32.0 0 -0.07839765399694443
-2.291945219039917 -0.8532772660255432 0.04268858581781387 3.0 8 -0.07839534431695938
-2.416327953338623 -0.8991047143936157 -0.5952205061912537 36.0 1 -0.07839304208755493
-2.8340163230895996 -1.0545246601104736 0.15847328305244446 2.0 9 -0.07839073985815048
-2.4068808555603027 -0.8951113224029541 -0.4991563558578491 46.0 2 -0.07838843762874603
-2.357246160507202 -0.8757159113883972 -0.39828217029571533 50.0 3 -0.07838382571935654
-2.404507637023926 -0.8923178315162659 -0.3149104118347168 31.0 4 -0.07837922126054764
-2.628326654434204 -0.974856436252594 -0.24525626003742218 8.0 5 -0.07837460935115814
-2.198719024658203 -0.8146398067474365 -0.1228848323225975 13.0 6 -0.07837000489234924
-2.1884164810180664 -0.8103889226913452 -0.04073391854763031 22.0 7 -0.07836539298295975
-2.4217400550842285 -0.8924670219421387 -0.6915645003318787 25.0 0 -0.07834235578775406
-2.7769806385040283 -1.0233813524246216 0.05165912210941315 2.0 8 -0.07834005355834961
-2.4083242416381836 -0.8870455622673035 -0.5925211310386658 26.0 1 -0.07833774387836456
-2.813314199447632 -1.0356559753417969 0.15711255371570587 6.0 9 -0.07833544164896011
-2.4136760234832764 -0.8880594968795776 -0.499919593334198 46.0 2 -0.07833313941955566
-2.3601372241973877 -0.8678940534591675 -0.39828217029571533 48.0 3 -0.07832852751016617
-2.398136615753174 -0.8809168338775635 -0.3136917054653168 26.0 4 -0.07832392305135727
-17.6923828125 -6.495512008666992 2.9850828647613525 1.0 12 -0.07832162082195282
-2.672863245010376 -0.9807752966880798 -0.24909110367298126 8.0 5 -0.07831931114196777
-2.1957828998565674 -0.8052810430526733 -0.12257081270217896 13.0 6 -0.07831470668315887
-2.1968648433685303 -0.8048086166381836 -0.040838632732629776 34.0 7 -0.07831010222434998
-2.4284708499908447 -0.8853314518928528 -0.6925997734069824 21.0 0 -0.07828855514526367
-2.795743942260742 -1.018673062324524 0.051938362419605255 7.0 8 -0.07828625291585922
-2.4152214527130127 -0.8795462846755981 -0.5934209227561951 23.0 1 -0.07828395068645477
-2.794569730758667 -1.0171403884887695 0.15585649013519287 20.0 9 -0.07828164100646973
-2.411226272583008 -0.8776147961616516 -0.4987747371196747 32.0 2 -0.07827933877706528
-2.3670156002044678 -0.8605878949165344 -0.39890795946121216 45.0 3 -0.07827473431825638
-2.395751714706421 -0.8700889348983765 -0.31296050548553467 23.0 4 -0.07827012240886688
-17.6975040435791 -6.423878192901611 2.9819540977478027 1.0 12 -0.07826782017946243
-2.717473268508911 -0.9863942861557007 -0.25292596220970154 8.0 5 -0.07826551795005798
-2.204352378845215 -0.7992705702781677 -0.1228848323225975 11.0 6 -0.07826090604066849
-2.190399408340454 -0.7933464050292969 -0.040664106607437134 27.0 7 -0.07825630158185959
-2.4242773056030273 -0.8742277026176453 -0.6905292868614197 15.0 0 -0.0782332569360733
-2.7936389446258545 -1.0068737268447876 0.05183364450931549 24.0 8 -0.07823095470666885
-2.4311110973358154 -0.8757332563400269 -0.5965702533721924 18.0 1 -0.0782286524772644
-2.798103094100952 -1.0073792934417725 0.15585649013519287 22.0 9 -0.07822635024785995
-2.4031922817230225 -0.8652025461196899 -0.49648505449295044 29.0 2 -0.07822404056787491
-2.371863842010498 -0.852988600730896 -0.3992207944393158 42.0 3 -0.07821943610906601
-2.3987741470336914 -0.861720860004425 -0.31296050548553467 18.0 4 -0.07821482419967651
-2.7677793502807617 -0.9937346577644348 -0.2572837471961975 9.0 5 -0.07821021974086761
-2.2108891010284424 -0.7929194569587708 -0.12309417873620987 9.0 6 -0.07820560783147812
-2.196920394897461 -0.7870442867279053 -0.04073391854763031 18.0 7 -0.07820100337266922
-2.4163966178894043 -0.8618659973144531 -0.6874234080314636 11.0 0 -0.07817796617746353
-2.7839515209198 -0.9924163818359375 0.05158931389451027 13.0 8 -0.07817565649747849
-2.4304816722869873 -0.8659336566925049 -0.5956704616546631 12.0 1 -0.07817335426807404
-2.827943801879883 -1.0069855451583862 0.15732190012931824 9.0 9 -0.07817105203866959
-2.4080467224121094 -0.857466995716095 -0.4968666434288025 22.0 2 -0.07816874980926514
-2.367382287979126 -0.8420560359954834 -0.3979693353176117 38.0 3 -0.07816413789987564
-2.3998970985412598 -0.8526776432991028 -0.3127167820930481 14.0 4 -0.07815953344106674
-2.8144142627716064 -0.9994014501571655 -0.2612929046154022 51.0 5 -0.07815492153167725
-2.211761474609375 -0.7845290303230286 -0.12298951297998428 10.0 6 -0.07815031707286835
-2.1958847045898438 -0.7780351638793945 -0.040664106607437134 11.0 7 -0.07814570516347885
-2.430321216583252 -0.8572824001312256 -0.6905292868614197 9.0 0 -0.07812266796827316
-2.7987143993377686 -0.9866810441017151 0.0517987422645092 10.0 8 -0.07812036573886871
-2.4334895610809326 -0.8574443459510803 -0.5956704616546631 9.0 1 -0.07811805605888367
-2.820138454437256 -0.9931282997131348 0.15669387578964233 12.0 9 -0.07811575382947922
-2.4184324741363525 -0.851665198802948 -0.49839314818382263 19.0 2 -0.07811345160007477
-2.360989809036255 -0.830509603023529 -0.3964049816131592 33.0 3 -0.07810883969068527
-2.4197142124176025 -0.8502177000045776 -0.3149104118347168 10.0 4 -0.07810423523187637
-2.829164981842041 -0.993532121181488 -0.262338787317276 16.0 5 -0.07809963077306747
-2.2031781673431396 -0.7728375196456909 -0.12236147373914719 9.0 6 -0.07809501886367798
-2.19858717918396 -0.7703647613525391 -0.040664106607437134 15.0 7 -0.07809041440486908
-2.4442431926727295 -0.852611243724823 -0.6936350464820862 6.0 0 -0.0780673697590828
-2.80025315284729 -0.976247251033783 0.05176383629441261 14.0 8 -0.07806506752967834
-2.441988229751587 -0.8508687019348145 -0.597020149230957 7.0 1 -0.0780627653002739
-2.8198158740997314 -0.9819636940956116 0.15648452937602997 11.0 9 -0.07806045562028885
-2.4250991344451904 -0.8445087671279907 -0.4991563558578491 12.0 2 -0.0780581533908844
-2.3732030391693115 -0.8255085945129395 -0.3979693353176117 28.0 3 -0.0780535489320755
-2.4395437240600586 -0.8476299047470093 -0.3171040713787079 9.0 4 -0.078048937022686
-2.8495547771453857 -0.9895334243774414 -0.2639075815677643 19.0 5 -0.0780443325638771
-2.1888797283172607 -0.7592515349388123 -0.12141943722963333 9.0 6 -0.07803972065448761
-2.1993730068206787 -0.7620313167572021 -0.040629200637340546 10.0 7 -0.07803511619567871
-2.452683687210083 -0.845963180065155 -0.6951879858970642 5.0 0 -0.07801207154989243
-2.790410041809082 -0.9619053602218628 0.05151950567960739 11.0 8 -0.07800976932048798
-2.441258430480957 -0.8410698175430298 -0.596120297908783 4.0 1 -0.07800746709108353
-2.8213376998901367 -0.9714643359184265 0.1563798487186432 21.0 9 -0.07800516486167908
-2.4168941974639893 -0.8322032690048218 -0.4968666434288025 9.0 2 -0.07800286263227463
-2.3798060417175293 -0.8185043931007385 -0.39859506487846375 22.0 3 -0.07799825072288513
-2.46126127243042 -0.845559298992157 -0.31954145431518555 7.0 4 -0.07799364626407623
-2.858644962310791 -0.9815208315849304 -0.26443052291870117 13.0 5 -0.07798903435468674
-2.210408926010132 -0.7580860257148743 -0.12246615439653397 6.0 6 -0.07798442989587784
-2.1849937438964844 -0.7485167980194092 -0.040315061807632446 11.0 7 -0.07797981798648834
-2.4537925720214844 -0.8367734551429749 -0.6946703195571899 3.0 0 -0.07795678079128265
-2.3811235427856445 -0.8115285634994507 0.043910253793001175 6.0 8 -0.0779544785618782
-2.4552478790283203 -0.836312472820282 -0.5988197326660156 3.0 1 -0.07795216888189316
-2.862525463104248 -0.9744836091995239 0.15847328305244446 11.0 9 -0.07794986665248871
-2.403057813644409 -0.8180680274963379 -0.49343210458755493 7.0 2 -0.07794756442308426
-2.3807787895202637 -0.8095557689666748 -0.39828217029571533 18.0 3 -0.07794295251369476
-2.4848740100860596 -0.8439851999282837 -0.3222225606441498 5.0 4 -0.07793834805488586
-2.856393814086914 -0.9696149826049805 -0.2639075815677643 9.0 5 -0.07793373614549637
-2.2206077575683594 -0.7529309391975403 -0.1228848323225975 6.0 6 -0.07792913168668747
-2.1913814544677734 -0.7421680092811584 -0.040384870022535324 11.0 7 -0.07792451977729797
-2.4438843727111816 -0.8238829970359802 -0.6910468935966492 1.0 0 -0.07790148258209229
-2.3574116230010986 -0.7942731380462646 0.04342158883810043 6.0 8 -0.07789918035268784
-2.4692330360412598 -0.8314687609672546 -0.6015191078186035 2.0 1 -0.07789687812328339
-2.920804977416992 -0.9829598665237427 0.16150878369808197 3.0 9 -0.07789456844329834
-2.4207844734191895 -0.814684271812439 -0.49648505449295044 4.0 2 -0.07789226621389389
-2.3761003017425537 -0.7987232804298401 -0.39703071117401123 17.0 3 -0.07788766175508499
-2.4915690422058105 -0.8365694284439087 -0.3227100670337677 3.0 4 -0.0778830498456955
-2.855983018875122 -0.9583705067634583 -0.263558954000473 8.0 5 -0.0778784453868866
-2.2383720874786377 -0.7502522468566895 -0.12372221052646637 2.0 6 -0.0778738334774971
-2.1825809478759766 -0.7307055592536926 -0.040175437927246094 10.0 7 -0.0778692290186882
-2.4614076614379883 -0.8202332258224487 -0.6951879858970642 1.0 0 -0.07784618437290192
-2.432265043258667 -0.8100501894950867 0.0447479709982872 2.0 8 -0.07784388214349747
-2.9242184162139893 -0.9727582931518555 0.16150878369808197 3.0 9 -0.07783927768468857
-2.4403793811798096 -0.8118064403533936 -0.499919593334198 2.0 2 -0.07783696800470352
-2.3732502460479736 -0.7885555624961853 -0.39609211683273315 10.0 3 -0.07783236354589462
-2.4963576793670654 -0.8284922242164612 -0.3229537904262543 2.0 4 -0.07782775163650513
-2.8593108654022217 -0.9483960270881653 -0.263558954000473 6.0 5 -0.07782314717769623
-2.2003061771392822 -0.7281075716018677 -0.0404546782374382 15.0 7 -0.07781393080949783
-2.9143147468566895 -0.9581773281097412 0.1607760637998581 2.0 9 -0.0777839794754982
-2.437603235244751 -0.8014426827430725 -0.4987747371196747 1.0 2 -0.07778167724609375
-2.379741668701172 -0.7814990878105164 -0.3967178463935852 8.0 3 -0.07777706533670425
-2.8720703125 -0.9415125846862793 -0.26443052291870117 4.0 5 -0.07776784896850586
-2.2104368209838867 -0.7229089736938477 -0.040594298392534256 11.0 7 -0.07775863260030746
-2.9113612174987793 -0.9470822811126709 0.053439266979694366 3.0 8 -0.07773329317569733
-2.900546073913574 -0.9424446821212769 0.15983402729034424 2.0 9 -0.07772868126630783
-2.374939441680908 -0.7707489132881165 -0.3954663872718811 2.0 3 -0.07772177457809448
-2.8886072635650635 -0.9357788562774658 -0.2656506896018982 3.0 5 -0.07771255820989609
-2.195821523666382 -0.7096546292304993 -0.04028015583753586 14.0 7 -0.07770334184169769
-2.91845703125 -0.9381386041641235 0.05350907891988754 3.0 8 -0.07767799496650696
-2.924736261367798 -0.9390301704406738 0.16098542511463165 2.0 9 -0.07767339050769806
-2.876675844192505 -0.9208314418792725 -0.26425620913505554 3.0 5 -0.07765726000070572
-2.2020950317382812 -0.703201949596405 -0.040349964052438736 5.0 7 -0.07764804363250732
-2.8988430500030518 -0.9206816554069519 0.05309021845459938 2.0 8 -0.07762269675731659
-2.9165735244750977 -0.9251922965049744 0.16035738587379456 2.0 9 -0.07761809229850769
-2.857076644897461 -0.9035748243331909 -0.26216447353363037 2.0 5 -0.07760196179151535
-2.9140677452087402 -0.9132140874862671 0.1600433737039566 2.0 9 -0.07756279408931732
-2.907698154449463 -0.9000826478004456 0.1595200151205063 2.0 9 -0.07750749588012695
-1.8169026374816895 -0.5558299422264099 -0.4386545717716217 2.0 1 -0.07745450735092163
-2.9261021614074707 -0.8945989012718201 0.16035738587379456 2.0 9 -0.07745220512151718
-2.8761444091796875 -0.8738402724266052 0.8054448962211609 3.0 15 -0.077424556016922
-1.837486743927002 -0.5551196932792664 -0.44315361976623535 4.0 1 -0.07739920914173126
-2.9100866317749023 -0.8786073327064514 0.15931066870689392 2.0 9 -0.07739690691232681
-2.8477210998535156 -0.854357123374939 0.7966450452804565 7.0 15 -0.07736925780773163
-1.8431479930877686 -0.5498167276382446 -0.44405341148376465 2.0 1 -0.07734391838312149
-2.9418463706970215 -0.8770027756690979 0.16088074445724487 2.0 9 -0.07734160870313644
-2.906583786010742 -0.8637294769287109 0.4802538752555847 1.0 12 -0.07732778787612915
-2.9340648651123047 -0.8713386654853821 0.5949424505233765 1.0 13 -0.07732317596673965
-2.8358676433563232 -0.840022087097168 0.7925038933753967 7.0 15 -0.07731395959854126
-2.9294114112854004 -0.8627284169197083 0.1600433737039566 3.0 9 -0.07728631794452667
-2.9031777381896973 -0.851148784160614 0.5880733728408813 1.0 13 -0.07726788520812988
-2.8479080200195312 -0.8333258628845215 0.7950921058654785 6.0 15 -0.07725866883993149
-2.9322562217712402 -0.8530091643333435 0.1600433737039566 3.0 9 -0.0772310197353363
-2.9097557067871094 -0.8426095247268677 0.5888366103172302 1.0 13 -0.07721258699893951
-2.8640549182891846 -0.8288337588310242 0.688350260257721 1.0 14 -0.07720798254013062
-2.8449642658233643 -0.8227710127830505 -0.051694028079509735 2.0 7 -0.07720567286014557
-2.8599352836608887 -0.826559841632843 0.7976803779602051 7.0 15 -0.07720337063074112
-2.9236977100372314 -0.8394613862037659 0.1594153493642807 4.0 9 -0.07717572152614594
-2.880993604660034 -0.8244794607162476 0.4746222198009491 1.0 12 -0.07716190069913864
-2.8785572052001953 -0.823238730430603 0.5819674730300903 1.0 13 -0.07715728878974915
-2.8628032207489014 -0.8165717124938965 0.7976803779602051 7.0 15 -0.07714807242155075
-2.92276668548584 -0.8281622529029846 0.15920598804950714 2.0 9 -0.07712043076753616
-2.903482437133789 -0.8210561275482178 0.37048283219337463 1.0 11 -0.07711121439933777
-2.9456543922424316 -0.831316351890564 0.5949424505233765 1.0 13 -0.07710199803113937
-2.8600573539733887 -0.8050033450126648 0.796127438545227 6.0 15 -0.07709278166294098
-2.9448747634887695 -0.8233324885368347 0.16025270521640778 2.0 9 -0.0770651325583458
-2.922060489654541 -0.8136553764343262 0.5895998477935791 1.0 13 -0.077046699821949
-2.8591268062591553 -0.7939810156822205 0.7950921058654785 6.0 15 -0.07703748345375061
-2.9400296211242676 -0.8109229803085327 0.15983402729034424 2.0 9 -0.07700983434915543
-2.9513864517211914 -0.8107308149337769 0.5949424505233765 1.0 13 -0.07699140161275864
-2.871196985244751 -0.7865486741065979 0.7976803779602051 7.0 15 -0.07698218524456024
-2.921642541885376 -0.7948883175849915 0.15868262946605682 2.0 9 -0.07695698738098145
-2.91629958152771 -0.7901557683944702 0.5873100757598877 1.0 13 -0.07693855464458466
-2.8720600605010986 -0.7760175466537476 0.7971627116203308 6.0 15 -0.07692933827638626
-2.926328659057617 -0.7852026224136353 0.1587873101234436 2.0 9 -0.07690169662237167
-2.956974506378174 -0.7901071906089783 0.5949424505233765 1.0 13 -0.07688326388597488
-2.874751567840576 -0.7659866809844971 0.7971627116203308 6.0 15 -0.07687404751777649
-2.9290518760681152 -0.7749829888343811 0.1587873101234436 2.0 9 -0.0768463984131813
-2.9150118827819824 -0.7680030465126038 -0.26373329758644104 1.0 5 -0.07683026790618896
-2.959714412689209 -0.7797805666923523 0.5949424505233765 1.0 13 -0.07682796567678452
-2.873671054840088 -0.7549654841423035 0.796127438545227 4.0 15 -0.07681874930858612
-2.939469337463379 -0.7667710185050964 0.15920598804950714 3.0 9 -0.07679110020399094
-2.8945343494415283 -0.7518117427825928 -0.2616415321826935 1.0 5 -0.0767749771475792
-2.962552785873413 -0.7689273953437805 0.5949424505233765 1.0 13 -0.07677266746759415
-2.870678186416626 -0.7434774041175842 0.794574499130249 4.0 15 -0.07676345109939575
-2.949997901916504 -0.7579796314239502 0.15962468087673187 4.0 9 -0.07673580199480057
-2.4434146881103516 -0.6278168559074402 -0.4903791546821594 1.0 2 -0.07673349976539612
-2.8778393268585205 -0.7367625832557678 -0.25989842414855957 2.0 5 -0.07671967893838882
-2.9652185440063477 -0.7585813403129578 0.5949424505233765 1.0 13 -0.07671737670898438
-2.8733839988708496 -0.7329500913619995 0.794574499130249 5.0 15 -0.07670816034078598
-2.929392099380493 -0.7417948246002197 0.15836863219738007 5.0 9 -0.0766805112361908
-2.4455912113189697 -0.619284451007843 -0.4903791546821594 1.0 2 -0.07667820900678635
-2.9324123859405518 -0.7398366332054138 0.4790023863315582 1.0 12 -0.0766666829586029
-2.8881211280822754 -0.7286620736122131 -0.2605956792831421 3.0 5 -0.07666438072919846
-2.967848300933838 -0.7482268214225769 0.5949424505233765 1.0 13 -0.076662078499794
-2.9008119106292725 -0.7302486896514893 0.690599799156189 1.0 14 -0.07665746659040451
-2.879672050476074 -0.7238582372665405 0.7956097722053528 4.0 15 -0.07665286213159561
-2.92795991897583 -0.7311086654663086 0.1581592708826065 5.0 9 -0.07662521302700043
-2.4324991703033447 -0.6069415807723999 -0.4873262047767639 2.0 2 -0.07662291079759598
-2.6140947341918945 -0.6503133773803711 -0.3307534456253052 1.0 4 -0.07661369442939758
-2.931015968322754 -0.7291544675827026 0.4783766567707062 1.0 12 -0.07661139219999313
-2.8906471729278564 -0.7185761332511902 -0.2605956792831421 3.0 5 -0.07660908252000809
-2.970442295074463 -0.7378617525100708 0.5949424505233765 1.0 13 -0.07660678029060364
-2.9033432006835938 -0.7201184630393982 0.690599799156189 1.0 14 -0.07660217583179474
-2.882056713104248 -0.7143048048019409 0.7956097722053528 4.0 15 -0.07659756392240524
-2.419351100921631 -0.5946971774101257 -0.4842732548713684 3.0 2 -0.07656761258840561
-2.622020721435547 -0.6430595517158508 -0.3314846158027649 4.0 4 -0.07655839622020721
-2.902845859527588 -0.711395800113678 0.473370760679245 1.0 12 -0.07655609399080276
-2.897007942199707 -0.709429919719696 -0.26094430685043335 4.0 5 -0.07655379176139832
-2.5394885540008545 -0.6214088201522827 -0.13701553642749786 1.0 6 -0.07654917985200882
-2.8905715942382812 -0.7067837119102478 0.687000572681427 1.0 14 -0.07654687762260437
-2.8620119094848633 -0.6987418532371521 0.7893981337547302 6.0 15 -0.07654227316379547
-1.796563982963562 -0.43629464507102966 -0.49537965655326843 0.0 0 -0.07652153074741364
-1.8540881872177124 -0.4495790898799896 -0.4404541850090027 0.0 1 -0.07651692628860474
-2.655303955078125 -0.6438578367233276 0.14319118857383728 1.0 9 -0.07651462405920029
-2.4289417266845703 -0.5885207056999207 -0.4857997000217438 3.0 2 -0.07651231437921524
-2.633897304534912 -0.6362335085868835 -0.3327033221721649 9.0 4 -0.07650309801101685
-2.8917477130889893 -0.6985188126564026 0.47118064761161804 1.0 12 -0.0765007957816124
-2.879976749420166 -0.6951442360877991 -0.25920116901397705 7.0 5 -0.07649849355220795
-2.543583869934082 -0.6130084991455078 -0.13712021708488464 1.0 6 -0.07649388909339905
-2.8930208683013916 -0.696690022945404 0.687000572681427 1.0 14 -0.076491579413414
-2.8605566024780273 -0.6883431673049927 0.7883628606796265 8.0 15 -0.0764869749546051
-1.7755297422409058 -0.42462867498397827 -0.4891680181026459 0.0 0 -0.07646623998880386
-2.643051862716675 -0.632101833820343 0.047435641288757324 2.0 8 -0.07646393030881882
-1.8176614046096802 -0.43436938524246216 -0.43145614862442017 1.0 1 -0.07646162807941437
-2.655592918395996 -0.6341212391853333 0.1430865228176117 2.0 9 -0.07645932585000992
-2.4290716648101807 -0.5795822739601135 -0.4854181110858917 3.0 2 -0.07645702362060547
-2.9583685398101807 -0.7047831416130066 0.3734076917171478 1.0 11 -0.07645010948181152
-2.6572351455688477 -0.6325523257255554 -0.33538445830345154 18.0 4 -0.07644780725240707
-2.8980119228363037 -0.6893353462219238 0.4718063771724701 2.0 12 -0.07644550502300262
-2.884324312210083 -0.6855476498603821 -0.2593754827976227 8.0 5 -0.07644319534301758
-2.9777591228485107 -0.7077553272247314 0.5949424505233765 1.0 13 -0.07644089311361313
-2.870666265487671 -0.6812429428100586 0.681151807308197 3.0 14 -0.07643628865480423
-2.864821672439575 -0.678799033164978 0.788880467414856 9.0 15 -0.07643167674541473
-1.7731671333312988 -0.41785258054733276 -0.4881327152252197 0.0 0 -0.0764109417796135
-2.6316168308258057 -0.6196635961532593 0.0471913106739521 2.0 8 -0.07640863955020905
-1.8210636377334595 -0.4284681975841522 -0.4319060444831848 2.0 1 -0.076406329870224
-2.630570411682129 -0.618448793888092 0.14162111282348633 3.0 9 -0.07640402764081955
-2.4309802055358887 -0.5715250372886658 -0.4854181110858917 4.0 2 -0.0764017254114151
-2.933753728866577 -0.6881052851676941 0.3699953854084015 1.0 11 -0.07639481127262115
-2.624638080596924 -0.6151202917098999 -0.33099716901779175 24.0 4 -0.0763925090432167
-2.9023237228393555 -0.6796654462814331 0.4721192717552185 6.0 12 -0.07639020681381226
-2.8807616233825684 -0.6746160984039307 -0.2588525414466858 9.0 5 -0.0763879045844078
-2.9802117347717285 -0.6973559260368347 0.5949424505233765 1.0 13 -0.07638559490442276
-2.869231700897217 -0.6703315377235413 0.6802520155906677 7.0 14 -0.07638099044561386
-2.8558855056762695 -0.666162371635437 0.7857747077941895 9.0 15 -0.07637637853622437
-1.736977458000183 -0.4029292166233063 -0.47777998447418213 0.0 0 -0.07635564357042313
-2.610387086868286 -0.6050552725791931 0.04677245020866394 4.0 8 -0.07635334134101868
-1.8263449668884277 -0.4229886829853058 -0.4328058660030365 2.0 1 -0.07635103911161423
-2.6327133178710938 -0.6092619895935059 0.14162111282348633 5.0 9 -0.07634873688220978
-2.381317377090454 -0.5510839819908142 -0.4751144051551819 1.0 2 -0.07634642720222473
-2.922598123550415 -0.6747351288795471 0.36828917264938354 2.0 11 -0.07633952051401138
-2.593886375427246 -0.5983692407608032 -0.32685360312461853 35.0 4 -0.07633721083402634
-2.891204357147217 -0.6664244532585144 0.46992918848991394 7.0 12 -0.07633490860462189
-2.8889236450195312 -0.6658987402915955 -0.2593754827976227 15.0 5 -0.07633260637521744
-2.9214065074920654 -0.6728491187095642 0.5827307105064392 1.0 13 -0.07633030414581299
-2.865856647491455 -0.6590010523796082 0.6789023280143738 13.0 14 -0.07632569223642349
-2.861959457397461 -0.6570539474487305 0.7868099212646484 13.0 15 -0.0763210877776146
-1.7421401739120483 -0.3977234661579132 -0.4788152575492859 0.0 0 -0.07630035281181335
-2.6222312450408936 -0.5981638431549072 0.046946972608566284 6.0 8 -0.07629804313182831
-1.8468105792999268 -0.42094114422798157 -0.43730488419532776 8.0 1 -0.07629574090242386
-2.63482403755188 -0.6000682711601257 0.14162111282348633 6.0 9 -0.07629343867301941
-2.2568869590759277 -0.5139949917793274 -0.4499276280403137 1.0 2 -0.07629113644361496
-2.9171926975250244 -0.6627700328826904 0.36731424927711487 2.0 11 -0.07628422230482101
-2.446899652481079 -0.5554729700088501 -0.30808573961257935 27.0 4 -0.07628192007541656
-2.895439386367798 -0.6567650437355042 0.47024205327033997 13.0 12 -0.07627961039543152
-2.8737435340881348 -0.651843786239624 -0.2578066885471344 18.0 5 -0.07627730816602707
-2.8931021690368652 -0.6557040214538574 0.5766248106956482 2.0 13 -0.07627500593662262
-2.6511385440826416 -0.6003780364990234 -0.1424584835767746 1.0 6 -0.07627270370721817
-2.892848253250122 -0.6545850038528442 0.684751033782959 31.0 14 -0.07627039402723312
-2.8566977977752686 -0.6453568935394287 0.7847393751144409 22.0 15 -0.07626578956842422
-1.6869711875915527 -0.37893834710121155 -0.4632861018180847 0.0 0 -0.07624505460262299
-2.6125965118408203 -0.5863792896270752 0.04673754796385765 8.0 8 -0.07624275237321854
-1.8596776723861694 -0.4170505106449127 -0.44000428915023804 13.0 1 -0.07624044269323349
-2.6388516426086426 -0.5913040637969971 0.1417257934808731 8.0 9 -0.07623814046382904
-2.185868740081787 -0.4898013472557068 -0.43542614579200745 1.0 2 -0.07623583823442459
-2.915613889694214 -0.6517168879508972 0.36682677268981934 3.0 11 -0.07622892409563065
-2.452698230743408 -0.5477935671806335 -0.3085731863975525 31.0 4 -0.0762266218662262
-2.9150657653808594 -0.650526225566864 0.47305789589881897 23.0 12 -0.07622431963682175
-2.868222951889038 -0.640072762966156 -0.2571094334125519 23.0 5 -0.0762220099568367
-2.881960153579712 -0.6426103115081787 0.5739535093307495 2.0 13 -0.07621970772743225
-2.672712802886963 -0.5954633951187134 -0.14350520074367523 1.0 6 -0.0762174054980278
-2.9122352600097656 -0.6482939720153809 0.6888001561164856 43.0 14 -0.07621510326862335
-2.843846559524536 -0.6320282220840454 0.7805982232093811 27.0 15 -0.07621049135923386
-1.7033746242523193 -0.37638187408447266 -0.46742722392082214 1.0 0 -0.07618975639343262
-2.6009585857391357 -0.574237585067749 0.04649320989847183 9.0 8 -0.07618745416402817
-1.8554131984710693 -0.40929707884788513 -0.4386545717716217 20.0 1 -0.07618515193462372
-2.6428496837615967 -0.58251953125 0.1418304443359375 8.0 9 -0.07618284225463867
-2.6870975494384766 -0.5917799472808838 0.24072414636611938 1.0 10 -0.07617823779582977
-1.6379092931747437 -0.36041736602783203 -0.2656257450580597 0.0 3 -0.07617593556642532
-2.9004218578338623 -0.6376997232437134 0.36463311314582825 7.0 11 -0.07617362588644028
-2.462351083755493 -0.5409324169158936 -0.30954816937446594 10.0 4 -0.07617132365703583
-2.9250364303588867 -0.6420406699180603 0.47430935502052307 38.0 12 -0.07616902142763138
-2.8646016120910645 -0.6287752985954285 -0.2565865218639374 26.0 5 -0.07616671919822693
-2.882267713546753 -0.63212651014328 0.5735718607902527 3.0 13 -0.07616441696882248
-2.6045403480529785 -0.5707394480705261 -0.13973701000213623 2.0 6 -0.07616210728883743
-2.910673141479492 -0.6372907757759094 0.6879003643989563 53.0 14 -0.07615980505943298
-2.6254982948303223 -0.5743716955184937 -0.046912070363759995 1.0 7 -0.07615750283002853
-2.8516972064971924 -0.6233350038528442 0.7821511626243591 31.0 15 -0.07615520060062408
-1.7197803258895874 -0.37371546030044556 -0.47156834602355957 2.0 0 -0.07613445818424225
-2.6107640266418457 -0.5668521523475647 0.046632830053567886 12.0 8 -0.0761321559548378
-1.8568305969238281 -0.40281838178634644 -0.4386545717716217 25.0 1 -0.07612985372543335
-2.633155584335327 -0.5707521438598633 0.1412024199962616 9.0 9 -0.0761275514960289
-2.6930413246154785 -0.5832399725914001 0.24107277393341064 1.0 10 -0.0761229395866394
-1.6198503971099854 -0.3505202829837799 -0.26249706745147705 0.0 3 -0.07612063735723495
-2.8929288387298584 -0.6254732012748718 0.3634144067764282 12.0 11 -0.0761183351278305
-2.6601979732513428 -0.5746690630912781 -0.3341657519340515 7.0 4 -0.07611603289842606
-2.91760516166687 -0.6297432780265808 0.47274500131607056 48.0 12 -0.07611372321844101
-2.870673894882202 -0.6196134686470032 -0.25693511962890625 26.0 5 -0.07611142098903656
-2.8767805099487305 -0.620405375957489 0.5720453858375549 6.0 13 -0.07610911875963211
-2.594802141189575 -0.5591201186180115 -0.13910898566246033 2.0 6 -0.07610681653022766
-2.865252733230591 -0.6168735027313232 0.6766527891159058 31.0 14 -0.07610450685024261
-2.613802194595337 -0.5622596144676208 -0.046667732298374176 2.0 7 -0.07610220462083817
-2.853855609893799 -0.6133768558502197 0.7821511626243591 44.0 15 -0.07609990239143372
-1.7324097156524658 -0.37013137340545654 -0.47467416524887085 5.0 0 -0.07607916742563248
-2.6088156700134277 -0.5569010972976685 0.04656302183866501 13.0 8 -0.07607686519622803
-1.854413628578186 -0.395521342754364 -0.4377547800540924 28.0 1 -0.07607455551624298
-2.631225109100342 -0.5607239603996277 0.14099308848381042 9.0 9 -0.07607225328683853
-2.6872658729553223 -0.5721768736839294 0.24037553369998932 1.0 10 -0.07606764882802963
-1.6403855085372925 -0.34897419810295105 -0.2656257450580597 0.0 3 -0.07606533914804459
-2.9009199142456055 -0.6166092753410339 0.3641456365585327 21.0 11 -0.07606303691864014
-2.794229030609131 -0.5934224724769592 -0.350739985704422 12.0 4 -0.07606073468923569
-2.904326915740967 -0.6162747740745544 0.47024205327033997 55.0 12 -0.07605843245983124
-2.8747684955596924 -0.6100026965141296 -0.2571094334125519 25.0 5 -0.07605612277984619
-2.898134231567383 -0.6144314408302307 0.5758615732192993 11.0 13 -0.07605382055044174
-2.5947840213775635 -0.5496458411216736 -0.13900431990623474 3.0 6 -0.07605151832103729
-2.899799108505249 -0.6137268543243408 0.6843011379241943 78.0 14 -0.07604921609163284
-2.590315580368042 -0.5477540493011475 -0.04621397331357002 3.0 7 -0.0760469064116478
-2.872990608215332 -0.6070060729980469 0.7868099212646484 52.0 15 -0.07604460418224335
-1.7166756391525269 -0.36050891876220703 -0.47001540660858154 7.0 0 -0.07602386921644211
-2.6185717582702637 -0.5494336485862732 0.046702638268470764 14.0 8 -0.07602156698703766
-1.8519686460494995 -0.3882456421852112 -0.4368549883365631 27.0 1 -0.07601926475763321
-2.639030933380127 -0.5527647733688354 0.14130708575248718 10.0 9 -0.07601695507764816
-2.669745445251465 -0.5587118268013 0.2386324256658554 2.0 10 -0.07601235061883926
-1.6299923658370972 -0.3408198654651642 -0.26374855637550354 1.0 3 -0.07601004838943481
-2.9069406986236572 -0.6072919368743896 0.36463311314582825 31.0 11 -0.07600773870944977
-2.8720686435699463 -0.5994837284088135 -0.36024579405784607 59.0 4 -0.07600543648004532
-2.8929243087768555 -0.6033092737197876 0.4680519700050354 50.0 12 -0.07600313425064087
-2.863227367401123 -0.5971160531044006 -0.25588926672935486 26.0 5 -0.07600083202123642
-2.900261163711548 -0.6043119430541992 0.5758615732192993 18.0 13 -0.07599852234125137
-2.596686840057373 -0.540584921836853 -0.13900431990623474 3.0 6 -0.07599622011184692
-2.8923845291137695 -0.6016166806221008 0.6820515990257263 83.0 14 -0.07599391788244247
-2.5824222564697266 -0.5366749167442322 -0.04603944718837738 2.0 7 -0.07599161565303802
-2.861851453781128 -0.5942244529724121 0.7831864953041077 55.0 15 -0.07598930597305298
-1.7103556394577026 -0.35295259952545166 -0.467944860458374 8.0 0 -0.07596857100725174
-2.6028473377227783 -0.5366554856300354 0.046388499438762665 17.0 8 -0.07596626877784729
-1.857129693031311 -0.382565438747406 -0.4377547800540924 28.0 1 -0.07596396654844284
-2.6370317935943604 -0.5427441596984863 0.141097754240036 10.0 9 -0.07596166431903839
-2.6404545307159424 -0.5429682731628418 0.23584343492984772 4.0 10 -0.0759570524096489
-1.666001319885254 -0.3422841429710388 -0.2693801820278168 6.0 3 -0.07595475018024445
-2.8915419578552246 -0.5935486555099487 0.36243945360183716 30.0 11 -0.07595244795084
-2.8838672637939453 -0.5914480090141296 -0.3614645004272461 54.0 4 -0.07595013827085495
-2.9143640995025635 -0.597173273563385 0.47118064761161804 82.0 12 -0.0759478360414505
-2.86334228515625 -0.5867186188697815 -0.25571495294570923 30.0 5 -0.07594553381204605
-2.9004294872283936 -0.593790590763092 0.5754799246788025 30.0 13 -0.0759432315826416
-2.6063849925994873 -0.5331177115440369 -0.13942299783229828 6.0 6 -0.07594092190265656
-2.904013156890869 -0.593468189239502 0.6843011379241943 95.0 14 -0.0759386196732521
-2.584280014038086 -0.5276572108268738 -0.04603944718837738 2.0 7 -0.07593631744384766
-2.852551221847534 -0.5819134712219238 0.7800806164741516 56.0 15 -0.0759340152144432
-1.71536386013031 -0.347747802734375 -0.4689801037311554 10.0 0 -0.07591328024864197
-2.598824977874756 -0.5263756513595581 0.0462837815284729 18.0 8 -0.07591097056865692
-1.8584538698196411 -0.3760804831981659 -0.4377547800540924 30.0 1 -0.07590866833925247
-2.648698568344116 -0.535514771938324 0.14162111282348633 11.0 9 -0.07590636610984802
-2.6560041904449463 -0.5365093946456909 0.23706360161304474 6.0 10 -0.07590175420045853
-1.6458861827850342 -0.33216792345046997 -0.2659386098384857 7.0 3 -0.07589945197105408
-2.9033257961273193 -0.58541339635849 0.3636581599712372 54.0 11 -0.07589714974164963
-2.891751766204834 -0.5825545191764832 -0.3621957302093506 66.0 4 -0.07589484751224518
-2.908684730529785 -0.5854374766349792 0.46992918848991394 80.0 12 -0.07589253783226013
-2.873185634613037 -0.5782924890518188 -0.25641217827796936 79.0 5 -0.07589023560285568
-2.8909363746643066 -0.5813403129577637 0.5731902718544006 45.0 13 -0.07588793337345123
-2.5847325325012207 -0.5192962288856506 -0.13816693425178528 6.0 6 -0.07588563114404678
-2.90797758102417 -0.5837111473083496 0.684751033782959 100.0 14 -0.07588332891464233
-2.5919880867004395 -0.5198121070861816 -0.046144161373376846 3.0 7 -0.07588101923465729
-2.869718551635742 -0.5749894976615906 0.7842217683792114 55.0 15 -0.07587871700525284
-1.7184618711471558 -0.3421355187892914 -0.46949777007102966 12.0 0 -0.0758579820394516
-2.6084916591644287 -0.5188612341880798 0.046423401683568954 21.0 8 -0.07585567981004715
-1.8406416177749634 -0.365792453289032 -0.43325576186180115 30.0 1 -0.0758533701300621
-2.636838436126709 -0.523543655872345 0.14088840782642365 10.0 9 -0.07585106790065765
-2.671541213989258 -0.5299486517906189 0.23828379809856415 7.0 10 -0.07584646344184875
-1.666412591934204 -0.33026087284088135 -0.26906731724739075 14.0 3 -0.07584415376186371
-2.897562265396118 -0.5737329721450806 0.36268317699432373 60.0 11 -0.07584185153245926
-2.8898730278015137 -0.571686327457428 -0.36170825362205505 71.0 4 -0.07583954930305481
-2.9165241718292236 -0.5764296650886536 0.4708678126335144 93.0 12 -0.07583724707365036
-2.8751866817474365 -0.568259596824646 -0.25641217827796936 61.0 5 -0.07583494484424591
-2.887169599533081 -0.5701044201850891 0.5720453858375549 49.0 13 -0.07583263516426086
-2.4611217975616455 -0.48553016781806946 -0.13146793842315674 7.0 6 -0.07583033293485641
-2.883230209350586 -0.5682809352874756 0.6784523725509644 90.0 14 -0.07582803070545197
-2.6035969257354736 -0.5126935839653015 -0.04631868749856949 2.0 7 -0.07582572847604752
-2.8792901039123535 -0.5664604306221008 0.7862922549247742 53.0 15 -0.07582341879606247
-1.7196458578109741 -0.3361344337463379 -0.46949777007102966 13.0 0 -0.07580268383026123
-2.6161749362945557 -0.510902464389801 0.04652811586856842 22.0 8 -0.07580038160085678
-1.75966215133667 -0.3433191180229187 -0.4139099419116974 18.0 1 -0.07579807937145233
-2.6366894245147705 -0.5139533877372742 0.14078372716903687 11.0 9 -0.07579577714204788
-2.6577296257019043 -0.5175731182098389 0.2368893027305603 7.0 10 -0.07579116523265839
-1.6694942712783813 -0.3248196244239807 -0.2693801820278168 15.0 3 -0.07578886300325394
-2.909290313720703 -0.5655088424682617 0.36390188336372375 73.0 11 -0.07578656077384949
-2.8782105445861816 -0.5589461922645569 -0.3600020706653595 67.0 4 -0.07578425109386444
-2.908822536468506 -0.5643649697303772 0.4693034589290619 87.0 12 -0.07578194886445999
-2.8810644149780273 -0.5589793920516968 -0.2567608058452606 59.0 5 -0.07577964663505554
-2.8987791538238525 -0.5618907809257507 0.5739535093307495 61.0 13 -0.07577734440565109
-2.4529976844787598 -0.4750376045703888 -0.13094457983970642 29.0 6 -0.07577503472566605
-2.8909361362457275 -0.5593228340148926 0.6798021197319031 86.0 14 -0.0757727324962616
-2.5994808673858643 -0.5024636387825012 -0.04621397331357002 3.0 7 -0.07577043026685715
-2.8831467628479004 -0.5567725896835327 0.7868099212646484 51.0 15 -0.0757681280374527
-1.7113224267959595 -0.3283097743988037 -0.46690958738327026 14.0 0 -0.07574739307165146
-2.6140143871307373 -0.5010149478912354 0.04645830765366554 24.0 8 -0.07574508339166641
-1.6728074550628662 -0.32031548023223877 -0.39321446418762207 34.0 1 -0.07574278116226196
-2.63846755027771 -0.5047463774681091 0.14078372716903687 11.0 9 -0.07574047893285751
-2.6556060314178467 -0.5075452923774719 0.23654069006443024 7.0 10 -0.07573586702346802
-1.6706180572509766 -0.3189896047115326 -0.2693801820278168 17.0 3 -0.07573356479406357
-2.907346725463867 -0.554606020450592 0.3634144067764282 76.0 11 -0.07573126256465912
-2.887943744659424 -0.5503830313682556 -0.36097702383995056 67.0 4 -0.07572896033525467
-2.906893730163574 -0.5534681081771851 0.46867769956588745 82.0 12 -0.07572665065526962
-2.8712551593780518 -0.546682596206665 -0.25571495294570923 63.0 5 -0.07572434842586517
-2.902651786804199 -0.5521355271339417 0.5743350982666016 66.0 13 -0.07572204619646072
-2.4585649967193604 -0.46721842885017395 -0.1311539113521576 39.0 6 -0.07571974396705627
-2.900529146194458 -0.550682783126831 0.6816017627716064 86.0 14 -0.07571743428707123
-2.6051480770111084 -0.4941318929195404 -0.0462837815284729 4.0 7 -0.07571513205766678
-2.875582218170166 -0.5449073910713196 0.7842217683792114 53.0 15 -0.07571282982826233
-1.6896758079528809 -0.3180462121963501 -0.4606979191303253 15.0 0 -0.07569209486246109
-2.6019906997680664 -0.48930028080940247 0.04621397331357002 25.0 8 -0.07568979263305664
-1.668169617652893 -0.3133948743343353 -0.3918647766113281 37.0 1 -0.0756874829530716
-2.65395450592041 -0.4981129467487335 0.14151644706726074 11.0 9 -0.07568518072366714
-2.6495285034179688 -0.4968035817146301 0.23584343492984772 7.0 10 -0.07568057626485825
-1.6581300497055054 -0.3106100559234619 -0.2671900987625122 20.0 3 -0.0756782665848732
-2.9092650413513184 -0.5444547533988953 0.3634144067764282 78.0 11 -0.07567596435546875
-2.882042407989502 -0.5388388633728027 -0.3600020706653595 32.0 4 -0.0756736621260643
-2.914633274078369 -0.5444058179855347 0.4696163237094879 96.0 12 -0.07567135989665985
-2.871187448501587 -0.5362908244132996 -0.2555406391620636 54.0 5 -0.0756690502166748
-2.9007012844085693 -0.5412803292274475 0.5735718607902527 73.0 13 -0.07566674798727036
-2.471961736679077 -0.46082910895347595 -0.1317819505929947 43.0 6 -0.0756644457578659
-2.9024338722229004 -0.5405545830726624 0.6816017627716064 86.0 14 -0.07566214352846146
-2.600959062576294 -0.48393842577934265 -0.046179067343473434 3.0 7 -0.075659841299057
-2.879366159439087 -0.5352185964584351 0.7847393751144409 49.0 15 -0.07565753161907196
-1.6451817750930786 -0.30372875928878784 -0.4482746124267578 31.0 0 -0.07561588287353516
-2.6036829948425293 -0.48021399974823 0.04621397331357002 26.0 8 -0.0756135806441307
-1.6175084114074707 -0.29803600907325745 -0.3797174096107483 17.0 1 -0.07561127841472626
-2.645855665206909 -0.48703792691230774 0.14099308848381042 11.0 9 -0.07560896873474121
-1.6238155364990234 -0.2989051043987274 -0.3209407329559326 0.0 2 -0.07560666650533676
-2.6473276615142822 -0.48683059215545654 0.23549480736255646 7.0 10 -0.07560436427593231
-1.6242326498031616 -0.2983957827091217 -0.2615584433078766 18.0 3 -0.07560206204652786
-2.907243013381958 -0.5335794687271118 0.3629269301891327 78.0 11 -0.07559975236654282
-2.9204020500183105 -0.5349409580230713 0.47024205327033997 96.0 12 -0.07559514790773392
-2.9083666801452637 -0.5322118401527405 0.5747166872024536 82.0 13 -0.07559053599834442
-2.4598021507263184 -0.4496832489967346 -0.131049245595932 50.0 6 -0.07558823376893997
-2.9100539684295654 -0.5314708948135376 0.6829514503479004 78.0 14 -0.07558593153953552
-2.616403102874756 -0.47736817598342896 -0.046423401683568954 3.0 7 -0.07558362931013107
-2.879316568374634 -0.5248180627822876 0.7842217683792114 45.0 15 -0.07558131963014603
-1.6177175045013428 -0.2928226888179779 -0.44051000475883484 21.0 0 -0.07556058466434479
-2.609278678894043 -0.4718346893787384 0.0462837815284729 29.0 8 -0.07555828243494034
-1.6031973361968994 -0.28961652517318726 -0.37611818313598633 22.0 1 -0.07555598020553589
-2.6495048999786377 -0.4781538248062134 0.141097754240036 11.0 9 -0.07555367797613144
-2.6646969318389893 -0.4804152846336365 0.2368893027305603 7.0 10 -0.07554906606674194
-1.6019352674484253 -0.28852251172065735 -0.2578040361404419 14.0 3 -0.0755467638373375
-2.9051806926727295 -0.5227242708206177 0.36243945360183716 82.0 11 -0.07554446160793304
-1.6196839809417725 -0.2911355793476105 -0.20205938816070557 12.0 4 -0.075542151927948
-2.9241960048675537 -0.5250926613807678 0.470554918050766 98.0 12 -0.07553984969854355
-1.6276499032974243 -0.29227420687675476 -0.14467853307724 7.0 5 -0.0755375474691391
-2.9102067947387695 -0.5220556855201721 0.5747166872024536 83.0 13 -0.07553524523973465
-2.89654541015625 -0.5185621976852417 0.6793522238731384 67.0 14 -0.07553063333034515
-2.6377382278442383 -0.471752792596817 -0.04677245020866394 5.0 7 -0.0755283311009407
-2.8773276805877686 -0.51408451795578 0.7831864953041077 41.0 15 -0.07552602887153625
-1.6073168516159058 -0.2851492762565613 -0.43740418553352356 21.0 0 -0.07550529390573502
-2.624692916870117 -0.4651663899421692 0.04652811586856842 37.0 8 -0.07550298422574997
-1.5984418392181396 -0.28299930691719055 -0.3747684955596924 27.0 1 -0.07550068199634552
-2.6373093128204346 -0.4669276475906372 0.14036504924297333 10.0 9 -0.07549837976694107
-1.6258625984191895 -0.28756144642829895 -0.3209407329559326 0.0 2 -0.07549607753753662
-2.664395570755005 -0.4707641005516052 0.23671498894691467 8.0 10 -0.07549376785755157
-1.606823205947876 -0.2836156487464905 -0.25842976570129395 20.0 3 -0.07549146562814713
-2.9226267337799072 -0.5153383016586304 0.3643893897533417 85.0 11 -0.07548916339874268
-1.5972304344177246 -0.2813476026058197 -0.19913452863693237 35.0 4 -0.07548686116933823
-2.916193723678589 -0.5136792659759521 0.46899059414863586 74.0 12 -0.07548455148935318
-1.6345471143722534 -0.287626713514328 -0.14520147442817688 21.0 5 -0.07548224925994873
-2.9158782958984375 -0.5125736594200134 0.5754799246788025 87.0 13 -0.07547994703054428
-1.6091351509094238 -0.2825760245323181 -0.08562163263559341 5.0 6 -0.07547764480113983
-2.890660285949707 -0.5071005821228027 0.6775525808334351 56.0 14 -0.07547534257173538
-2.593986988067627 -0.45505598187446594 -0.0459696389734745 2.0 7 -0.07547303289175034
-2.8847246170043945 -0.5055404305458069 0.7847393751144409 29.0 15 -0.07547073066234589
-1.5949794054031372 -0.2772212028503418 -0.4337807595729828 27.0 0 -0.07544999569654465
-2.624250650405884 -0.4561174511909485 0.04649320989847183 38.0 8 -0.0754476934671402
-1.6089715957641602 -0.2793639302253723 -0.377018004655838 34.0 1 -0.07544538378715515
-2.646794557571411 -0.4590841233730316 0.14078372716903687 9.0 9 -0.0754430815577507
-1.5959057807922363 -0.2765215039253235 -0.314834862947464 0.0 2 -0.07544077932834625
-2.6699488162994385 -0.4621402621269226 0.23706360161304474 8.0 10 -0.0754384770989418
-1.6058083772659302 -0.27794867753982544 -0.2581169009208679 21.0 3 -0.07543616741895676
-2.9164953231811523 -0.504289984703064 0.3634144067764282 83.0 11 -0.07543386518955231
-1.596198558807373 -0.2757115066051483 -0.1988907903432846 18.0 4 -0.07543156296014786
-2.914076089859009 -0.5028249025344849 0.4683648645877838 76.0 12 -0.07542926073074341
-1.6041260957717896 -0.27650386095046997 -0.1424124836921692 23.0 5 -0.07542695850133896
-2.92143177986145 -0.5035683512687683 0.5762432217597961 83.0 13 -0.07542464882135391
-1.6317145824432373 -0.28096649050712585 -0.08677302300930023 27.0 6 -0.07542234659194946
-2.8961668014526367 -0.4981732964515686 0.6784523725509644 52.0 14 -0.07542004436254501
-2.8731439113616943 -0.49318060278892517 0.7811158895492554 27.0 15 -0.07541543245315552
-1.5920809507369995 -0.27128148078918457 -0.43274545669555664 30.0 0 -0.07539469748735428
-2.6080849170684814 -0.4439343512058258 0.046179067343473434 32.0 8 -0.07539239525794983
-1.5945675373077393 -0.2711328864097595 -0.37341877818107605 36.0 1 -0.07539009302854538
-2.648380994796753 -0.4498421847820282 0.14078372716903687 8.0 9 -0.07538778334856033
-1.5891188383102417 -0.2696353495121002 -0.31330838799476624 0.0 2 -0.07538548111915588
-2.655752658843994 -0.4506174921989441 0.23566913604736328 8.0 10 -0.07538317888975143
-1.597030758857727 -0.270691454410553 -0.2565525472164154 28.0 3 -0.07538087666034698
-2.922152280807495 -0.4947698414325714 0.36390188336372375 85.0 11 -0.07537857443094254
-1.5756211280822754 -0.2664964497089386 -0.19620966911315918 21.0 4 -0.07537626475095749
-2.9236044883728027 -0.4939653277397156 0.4696163237094879 82.0 12 -0.07537396252155304
-1.579541563987732 -0.26659250259399414 -0.1401464343070984 47.0 5 -0.07537166029214859
-2.9193856716156006 -0.4922052323818207 0.5754799246788025 83.0 13 -0.07536935806274414
-1.6307640075683594 -0.2746519446372986 -0.08666835725307465 35.0 6 -0.0753670483827591
-2.8998100757598877 -0.4883836507797241 0.6789023280143738 37.0 14 -0.07536474615335464
-1.591389536857605 -0.2677353024482727 -0.02816818468272686 10.0 7 -0.0753624439239502
-2.8691322803497314 -0.48218780755996704 0.7795630097389221 23.0 15 -0.07536014169454575
-1.5987813472747803 -0.26639729738235474 -0.4342983663082123 40.0 0 -0.07533939927816391
-2.6215298175811768 -0.43634214997291565 0.046388499438762665 31.0 8 -0.07533709704875946
-1.5840165615081787 -0.26336851716041565 -0.37071937322616577 40.0 1 -0.07533479481935501
-2.646071434020996 -0.43947848677635193 0.1405743956565857 6.0 9 -0.07533249258995056
-1.6288321018218994 -0.2702355980873108 -0.3209407329559326 0.0 2 -0.07533019036054611
-2.6672139167785645 -0.44251105189323425 0.23654069006443024 7.0 10 -0.07532788068056107
-1.5668315887451172 -0.2596682906150818 -0.2515466511249542 29.0 3 -0.07532557845115662
-2.9161126613616943 -0.48276013135910034 0.3629269301891327 83.0 11 -0.07532327622175217
-1.5648361444473267 -0.2587764263153076 -0.1947472244501114 23.0 4 -0.07532097399234772
-2.9253952503204346 -0.48324713110923767 0.4696163237094879 72.0 12 -0.07531866431236267
-1.576576590538025 -0.2601526081562042 -0.13979780673980713 21.0 5 -0.07531636208295822
-2.913421869277954 -0.480224609375 0.5739535093307495 83.0 13 -0.07531405985355377
-1.610081672668457 -0.2651040554046631 -0.08551695942878723 40.0 6 -0.07531175762414932
-2.90350341796875 -0.4780692756175995 0.6793522238731384 31.0 14 -0.07530944794416428
-1.5667088031768799 -0.25768139958381653 -0.027714421972632408 45.0 7 -0.07530714571475983
-2.8785057067871094 -0.4729214608669281 0.7816335558891296 17.0 15 -0.07530484348535538
-1.5978403091430664 -0.26022475957870483 -0.4337807595729828 54.0 0 -0.07528410851955414
-2.654691219329834 -0.43186888098716736 0.046946972608566284 7.0 8 -0.07528180629014969
-1.5811240673065186 -0.256936252117157 -0.3698195517063141 48.0 1 -0.07527949661016464
-1.5755045413970947 -0.2557404339313507 -0.3102554380893707 9.0 2 -0.07527489215135574
-1.5814224481582642 -0.256134569644928 -0.2537367343902588 36.0 3 -0.07527028024196625
-2.93157958984375 -0.4742872714996338 0.36463311314582825 14.0 11 -0.0752679780125618
-1.5520126819610596 -0.2510932683944702 -0.19304105639457703 25.0 4 -0.07526567578315735
-2.9348647594451904 -0.47429317235946655 0.4708678126335144 60.0 12 -0.0752633735537529
-1.5519050359725952 -0.2505200207233429 -0.13753175735473633 29.0 5 -0.07526106387376785
-2.9150803089141846 -0.4700518548488617 0.5739535093307495 85.0 13 -0.0752587616443634
-1.573532223701477 -0.2534477114677429 -0.08352819085121155 51.0 6 -0.07525645941495895
-2.893610715866089 -0.46607181429862976 0.6766527891159058 20.0 14 -0.0752541571855545
-1.571547269821167 -0.2528466284275055 -0.027784232050180435 52.0 7 -0.07525184750556946
