# .PCD v0.7 - Point Cloud Data file format
VERSION 0.7
FIELDS x y z intensity ring time
SIZE 4 4 4 4 4 4
TYPE F F F F F F
COUNT 1 1 1 1 1 1
WIDTH 548
HEIGHT 1
VIEWPOINT 0 0 0 1 0 0 0
POINTS 548
DATA ascii
3.0608932971954346 0.7648683786392212 0.7283915877342224 68.0 14 -0.07130282372236252
2.999436378479004 0.7489566802978516 -0.053962841629981995 84.0 7 -0.07130052149295807
3.0440022945404053 0.7595204710960388 0.8406442999839783 72.0 15 -0.07129821926355362
2.9643054008483887 0.7357878088951111 -0.8183858394622803 65.0 0 -0.07127748429775238
2.9986681938171387 0.7437616586685181 0.053927935659885406 76.0 8 -0.07127518206834793
2.958322525024414 0.733208179473877 -0.7036469578742981 78.0 1 -0.07127287238836288
3.020345687866211 0.7485803961753845 0.16307885944843292 78.0 9 -0.07127057015895844
2.9690511226654053 0.73531574010849 -0.5945608615875244 79.0 2 -0.07126826792955399
3.0383851528167725 0.7519242763519287 0.27384334802627563 72.0 10 -0.07126596570014954
2.966547966003418 0.7335984110832214 -0.4840082824230194 52.0 3 -0.07126365602016449
3.0159554481506348 0.7452564239501953 0.3814510703086853 71.0 11 -0.07126135379076004
3.0531041622161865 0.7538706660270691 0.49808740615844727 76.0 12 -0.07125674933195114
2.9982869625091553 0.7397816181182861 -0.2701827883720398 16.0 5 -0.0712544396519661
3.0498788356781006 0.7519448399543762 0.610588788986206 62.0 13 -0.07125213742256165
2.9942386150360107 0.7376725077629089 -0.16161344945430756 100.0 6 -0.0712498351931572
3.048405885696411 0.7504546642303467 0.7247923612594604 68.0 14 -0.07124753296375275
3.0019032955169678 0.7390066385269165 -0.053962841629981995 83.0 7 -0.0712452232837677
3.0558841228485107 0.7517285346984863 0.8432324528694153 74.0 15 -0.07124292105436325
2.9631025791168213 0.724518895149231 -0.8173506259918213 65.0 0 -0.07122218608856201
3.008887767791748 0.7357140183448792 0.05406755208969116 71.0 8 -0.07121988385915756
2.964524030685425 0.7243182063102722 -0.7045467495918274 81.0 1 -0.07121758162975311
3.0132393836975098 0.7356635332107544 0.1625555008649826 76.0 9 -0.07121527194976807
2.967785120010376 0.724017322063446 -0.5937976241111755 79.0 2 -0.07121296972036362
3.0332484245300293 0.739426851272583 0.2731460928916931 69.0 10 -0.07121066749095917
1.738772988319397 0.42386749386787415 -0.28345927596092224 19.0 3 -0.07120836526155472
3.0241963863372803 0.7366610765457153 0.3821823000907898 75.0 11 -0.07120605558156967
1.778334140777588 0.4328530430793762 -0.2247270941734314 22.0 4 -0.07120375335216522
3.0518782138824463 0.7422757148742676 0.4974616467952728 76.0 12 -0.07120145112276077
1.7947027683258057 0.436174601316452 -0.16158674657344818 12.0 5 -0.07119914889335632
3.0599863529205322 0.7436821460723877 0.6121153235435486 61.0 13 -0.07119683921337128
3.0546655654907227 0.7412599325180054 0.7256921529769897 67.0 14 -0.07119223475456238
3.0603673458099365 0.7415109872817993 0.8437501192092896 72.0 15 -0.07118763029575348
2.9617321491241455 0.7137842178344727 -0.8163152933120728 65.0 0 -0.07116688787937164
2.9670345783233643 0.7139648795127869 -0.7045467495918274 81.0 1 -0.07116228342056274
2.962534189224243 0.7123364806175232 -0.5922711491584778 79.0 2 -0.07115767151117325
3.0318093299865723 0.7284339070320129 0.27279746532440186 72.0 10 -0.0711553692817688
1.7652124166488647 0.4237898588180542 -0.28752657771110535 43.0 3 -0.07115306705236435
3.03640079498291 0.7284162044525146 0.38340097665786743 73.0 11 -0.0711507648229599
1.7798339128494263 0.42664405703544617 -0.2247270941734314 90.0 4 -0.07114845514297485
3.046766757965088 0.7297767996788025 0.4962101876735687 73.0 12 -0.0711461529135704
1.7671493291854858 0.42295125126838684 -0.15897206962108612 90.0 5 -0.07114385068416595
3.062563419342041 0.732996940612793 0.6121153235435486 62.0 13 -0.0711415484547615
1.818161964416504 0.43482518196105957 -0.09797292202711105 45.0 6 -0.07113924622535706
3.0553393363952637 0.730138897895813 0.7252422571182251 71.0 14 -0.07113693654537201
1.8010817766189575 0.43007487058639526 -0.032321859151124954 27.0 7 -0.07113463431596756
3.0572996139526367 0.7294793725013733 0.8421972393989563 74.0 15 -0.07113233208656311
2.960569143295288 0.7020319104194641 -0.815280020236969 65.0 0 -0.07111159712076187
1.7939720153808594 0.4253998100757599 0.0321822389960289 40.0 8 -0.07110928744077682
2.9808857440948486 0.7063000798225403 -0.7072461247444153 78.0 1 -0.07110698521137238
1.8152568340301514 0.4297778606414795 0.09776357561349869 45.0 9 -0.07110468298196793
2.9689462184906006 0.7023767232894897 -0.5930343866348267 79.0 2 -0.07110238075256348
1.7629088163375854 0.4164094030857086 -0.2869008481502533 52.0 3 -0.07109776884317398
3.0408573150634766 0.7182682752609253 0.3836447298526764 76.0 11 -0.07109546661376953
1.7697205543518066 0.41769224405288696 -0.2232646644115448 82.0 4 -0.07109316438436508
3.05314040184021 0.7200445532798767 0.4968359172344208 73.0 12 -0.07109086215496063
1.7686150074005127 0.41677969694137573 -0.15897206962108612 86.0 5 -0.07108855247497559
3.0575854778289795 0.7199664115905762 0.610588788986206 62.0 13 -0.07108625024557114
1.8197435140609741 0.4281579256057739 -0.09797292202711105 100.0 6 -0.07108394801616669
3.063685894012451 0.7202743291854858 0.7265920042991638 67.0 14 -0.07108164578676224
1.7831058502197266 0.41920918226242065 -0.03197281062602997 71.0 7 -0.07107933610677719
3.0504238605499268 0.7165946364402771 0.8396090269088745 72.0 15 -0.07107703387737274
2.9630014896392822 0.6916939616203308 -0.815280020236969 65.0 0 -0.0710562989115715
1.7877295017242432 0.41700512170791626 0.032042618840932846 90.0 8 -0.07105399668216705
2.972067356109619 0.692715048789978 -0.7045467495918274 78.0 1 -0.071051687002182
1.8168197870254517 0.4231221079826355 0.09776357561349869 100.0 9 -0.07104938477277756
2.9713797569274902 0.692009449005127 -0.5930343866348267 79.0 2 -0.07104708254337311
1.8124637603759766 0.4217741787433624 0.1628069132566452 19.0 10 -0.07104478031396866
1.7489593029022217 0.4066736102104187 -0.2843979001045227 58.0 3 -0.07104247808456421
3.0357346534729004 0.7053218483924866 0.3826697766780853 75.0 11 -0.07104016840457916
1.7751069068908691 0.4121004641056061 -0.22375212609767914 77.0 4 -0.07103786617517471
3.0557591915130615 0.7088486552238464 0.4968359172344208 73.0 12 -0.07103556394577026
1.7681183815002441 0.4101528525352478 -0.15879777073860168 77.0 5 -0.07103326171636581
3.052429676055908 0.7075164914131165 0.6090623736381531 63.0 13 -0.07103095203638077
1.7920407056808472 0.41504302620887756 -0.0964028462767601 96.0 6 -0.07102864980697632
3.0585873126983643 0.7078173160552979 0.7247923612594604 67.0 14 -0.07102634757757187
1.811906099319458 0.4189785420894623 -0.03246147558093071 100.0 7 -0.07102404534816742
3.0586767196655273 0.7067133784294128 0.8411619663238525 74.0 15 -0.07102173566818237
2.969163656234741 0.6822113394737244 -0.8163152933120728 65.0 0 -0.07100100070238113
1.7755314111709595 0.4076295793056488 0.031798284500837326 80.0 8 -0.07099869847297668
2.9706685543060303 0.6814655661582947 -0.7036469578742981 81.0 1 -0.07099639624357224
1.8066051006317139 0.414099782705307 0.09713554382324219 90.0 9 -0.07099409401416779
2.977604627609253 0.6825096607208252 -0.5937976241111755 79.0 2 -0.07099178433418274
1.8236356973648071 0.4176684617996216 0.16367848217487335 63.0 10 -0.07098948210477829
1.7657729387283325 0.40409183502197266 -0.2869008481502533 92.0 3 -0.07098717987537384
3.0285027027130127 0.6925075054168701 0.3814510703086853 71.0 11 -0.07098487764596939
1.7610527276992798 0.4023647606372833 -0.221802219748497 73.0 4 -0.07098256796598434
3.0620665550231934 0.6990576982498169 0.4974616467952728 76.0 12 -0.0709802657365799
1.7734240293502808 0.40486571192741394 -0.15914638340473175 82.0 5 -0.07097796350717545
3.058709144592285 0.6977296471595764 0.6098255515098572 63.0 13 -0.070975661277771
1.7934784889221191 0.40878549218177795 -0.0964028462767601 99.0 6 -0.07097335159778595
3.057239055633545 0.6962717771530151 0.7238925695419312 68.0 14 -0.0709710493683815
1.786059856414795 0.4064388573169708 -0.03197281062602997 100.0 7 -0.07096874713897705
3.064892292022705 0.6968895792961121 0.8421972393989563 74.0 15 -0.0709664449095726
2.9752957820892334 0.6726955771446228 -0.8173506259918213 65.0 0 -0.07094570994377136
1.7847453355789185 0.40319228172302246 0.03193790465593338 83.0 8 -0.07094340026378632
2.973029375076294 0.6710910201072693 -0.7036469578742981 78.0 1 -0.07094109803438187
1.7963496446609497 0.40515485405921936 0.09650751203298569 90.0 9 -0.07093879580497742
2.9761385917663574 0.6712484955787659 -0.5930343866348267 84.0 2 -0.07093649357557297
1.8367441892623901 0.413928747177124 0.16472434997558594 65.0 10 -0.07093418389558792
1.7575372457504272 0.39575549960136414 -0.2853364944458008 93.0 3 -0.07093188166618347
3.0367119312286377 0.6832382678985596 0.3821823000907898 77.0 11 -0.07092957943677902
1.762446403503418 0.3962154686450958 -0.221802219748497 75.0 4 -0.07092727720737457
3.056778907775879 0.6866323351860046 0.4962101876735687 73.0 12 -0.07092496752738953
1.7787144184112549 0.39954569935798645 -0.15949499607086182 85.0 5 -0.07092266529798508
3.064957618713379 0.6879076361656189 0.610588788986206 62.0 13 -0.07092036306858063
1.8046386241912842 0.40470823645591736 -0.09692620486021042 100.0 6 -0.07091806083917618
3.0558478832244873 0.6847427487373352 0.7229927778244019 68.0 14 -0.07091575115919113
1.7757594585418701 0.39757996797561646 -0.03176337853074074 91.0 7 -0.07091344892978668
3.0691914558410645 0.6866092681884766 0.8427148461341858 72.0 15 -0.07091114670038223
2.96631121635437 0.6597883105278015 -0.8142447471618652 67.0 0 -0.070890411734581
1.790046215057373 0.3978271186351776 0.03200771287083626 83.0 8 -0.07088810950517654
2.975353479385376 0.6607111692428589 -0.7036469578742981 83.0 1 -0.0708857998251915
1.8016526699066162 0.39974671602249146 0.09671685099601746 90.0 9 -0.07088349759578705
2.966963768005371 0.6583033800125122 -0.59074467420578 84.0 2 -0.0708811953663826
1.8245618343353271 0.4044956564903259 0.16350416839122772 67.0 10 -0.07087889313697815
1.7685508728027344 0.3917554020881653 -0.2869008481502533 100.0 3 -0.0708765834569931
3.042954444885254 0.6734926104545593 0.3826697766780853 76.0 11 -0.07087428122758865
1.7638188600540161 0.39006051421165466 -0.221802219748497 77.0 4 -0.0708719789981842
3.04758358001709 0.6734028458595276 0.4943329691886902 76.0 12 -0.07086967676877975
1.7645343542099 0.38989660143852234 -0.15810051560401917 85.0 5 -0.07086736708879471
3.0635056495666504 0.6763588786125183 0.6098255515098572 63.0 13 -0.07086506485939026
1.8040900230407715 0.3979756832122803 -0.09682153165340424 99.0 6 -0.07086276262998581
3.0582194328308105 0.6740723252296448 0.7229927778244019 68.0 14 -0.07086046040058136
1.7966653108596802 0.39568018913269043 -0.032112427055835724 100.0 7 -0.07085815817117691
3.0583624839782715 0.6729846000671387 0.8390913605690002 76.0 15 -0.07085584849119186
2.9648220539093018 0.6486033797264099 -0.8132094740867615 65.0 0 -0.07083511352539062
1.7797024250030518 0.3890145421028137 0.031798284500837326 75.0 8 -0.07083281129598618
2.9814493656158447 0.6511520147323608 -0.7045467495918274 78.0 1 -0.07083050906658173
1.8029682636260986 0.39377036690711975 0.09671685099601746 88.0 9 -0.07082819938659668
2.9769163131713867 0.6496161818504333 -0.5922711491584778 84.0 2 -0.07082589715719223
1.810389518737793 0.3947291672229767 0.16210968792438507 65.0 10 -0.07082359492778778
1.7544666528701782 0.382215291261673 -0.2843979001045227 90.0 3 -0.07082129269838333
3.0433473587036133 0.6624435782432556 0.38242605328559875 70.0 11 -0.07081898301839828
1.7612234354019165 0.3833644390106201 -0.22131474316120148 79.0 4 -0.07081668078899384
3.0536603927612305 0.664131760597229 0.49495869874954224 76.0 12 -0.07081437855958939
1.767831563949585 0.3841574490070343 -0.1582748293876648 79.0 5 -0.07081207633018494
3.0581741333007812 0.6639940738677979 0.6082991361618042 63.0 13 -0.07080977410078049
1.811323642730713 0.3929464817047119 -0.09713554382324219 100.0 6 -0.07080746442079544
3.0680553913116455 0.6655803918838501 0.7247923612594604 67.0 14 -0.07080516219139099
1.8057847023010254 0.3914148807525635 -0.03225204721093178 100.0 7 -0.07080285996198654
3.0643539428710938 0.6636559963226318 0.840126633644104 76.0 15 -0.07080055773258209
2.970733642578125 0.6395819187164307 -0.8142447471618652 67.0 0 -0.07077981531620026
1.773162841796875 0.38142889738082886 0.03165866807103157 80.0 8 -0.0707775130867958
2.972161054611206 0.6388038396835327 -0.7018473148345947 81.0 1 -0.07077521085739136
1.8159804344177246 0.3903070092201233 0.09734489023685455 88.0 9 -0.07077290862798691
2.9790539741516113 0.6397414207458496 -0.5922711491584778 84.0 2 -0.07077060639858246
1.8175324201583862 0.3899778127670288 0.16263261437416077 71.0 10 -0.07076829671859741
1.7499302625656128 0.37515246868133545 -0.28345927596092224 93.0 3 -0.07076599448919296
3.041645050048828 0.651516854763031 0.38193854689598083 81.0 11 -0.07076369225978851
1.7702491283416748 0.37918534874916077 -0.22228971123695374 79.0 4 -0.07076139003038406
3.059709310531616 0.654829204082489 0.4955844581127167 80.0 12 -0.07075908035039902
1.7651991844177246 0.3774592876434326 -0.15792620182037354 85.0 5 -0.07075677812099457
3.058439254760742 0.6534395813941956 0.6079174876213074 65.0 13 -0.07075447589159012
1.7950375080108643 0.3831854462623596 -0.09619349241256714 90.0 6 -0.07075217366218567
3.0721514225006104 0.6558101177215576 0.7252422571182251 66.0 14 -0.07074986398220062
1.7894715070724487 0.38166987895965576 -0.03193790465593338 97.0 7 -0.07074756175279617
3.0589799880981445 0.6518806219100952 0.8380560874938965 78.0 15 -0.07074525952339172
2.9728376865386963 0.629729151725769 -0.8142447471618652 65.0 0 -0.07072452455759048
1.7822433710098267 0.37720248103141785 0.031798284500837326 78.0 8 -0.07072222232818604
2.9742629528045654 0.6289448738098145 -0.7018473148345947 81.0 1 -0.07071991264820099
1.8016988039016724 0.3806622326374054 0.09650751203298569 86.0 9 -0.07071761041879654
2.9830801486968994 0.6302640438079834 -0.5926527976989746 87.0 2 -0.07071530818939209
1.8207652568817139 0.38435956835746765 0.1628069132566452 67.0 10 -0.07071300595998764
1.7608288526535034 0.3713861405849457 -0.28502362966537476 97.0 3 -0.0707106962800026
3.0340769290924072 0.6393793225288391 0.3807198405265808 77.0 11 -0.07070839405059814
1.7599068880081177 0.37055009603500366 -0.22082726657390594 73.0 4 -0.0707060918211937
3.065842628479004 0.644957423210144 0.4962101876735687 76.0 12 -0.07070378959178925
1.7821043729782104 0.37457334995269775 -0.15932069718837738 91.0 5 -0.0707014799118042
3.06058931350708 0.6432929635047913 0.6079174876213074 65.0 13 -0.07069917768239975
1.7962983846664429 0.37723031640052795 -0.09619349241256714 96.0 6 -0.0706968754529953
3.0648860931396484 0.6430806517601013 0.7229927778244019 73.0 14 -0.07069457322359085
1.7907929420471191 0.3754206597805023 -0.03193790465593338 97.0 7 -0.0706922635436058
3.0650181770324707 0.6419914960861206 0.8390913605690002 74.0 15 -0.07068996131420135
2.982691526412964 0.6204002499580383 -0.8163152933120728 65.0 0 -0.07066922634840012
1.7835493087768555 0.37097853422164917 0.031798284500837326 78.0 8 -0.07066692411899567
2.9726240634918213 0.6177665591239929 -0.7009475231170654 83.0 1 -0.07066462188959122
1.795194149017334 0.37274786829948425 0.09608882665634155 88.0 9 -0.07066231220960617
2.981525182723999 0.6185293793678284 -0.5918895602226257 87.0 2 -0.07066000998020172
1.831916332244873 0.3797058165073395 0.16367848217487335 78.0 10 -0.07065770775079727
1.7718498706817627 0.3669331967830658 -0.28658798336982727 100.0 3 -0.07065540552139282
3.044065237045288 0.630396842956543 0.38169482350349426 76.0 11 -0.07065309584140778
1.761189579963684 0.3644041419029236 -0.22082726657390594 75.0 4 -0.07065079361200333
3.0564684867858887 0.6318514347076416 0.4943329691886902 80.0 12 -0.07064849138259888
1.781449556350708 0.36794859170913696 -0.15914638340473175 93.0 5 -0.07064618915319443
3.070617437362671 0.6336588263511658 0.6094439625740051 65.0 13 -0.07064387947320938
1.7976690530776978 0.3706435561180115 -0.09619349241256714 90.0 6 -0.07064157724380493
3.0634047985076904 0.6310572028160095 0.7220929265022278 67.0 14 -0.07063927501440048
1.7764239311218262 0.3659408986568451 -0.03165866807103157 88.0 7 -0.07063697278499603
3.0748095512390137 0.6328456997871399 0.8411619663238525 74.0 15 -0.07063466310501099
2.9772677421569824 0.6084398627281189 -0.8142447471618652 67.0 0 -0.07061392813920975
1.7927340269088745 0.36603957414627075 0.03193790465593338 83.0 8 -0.0706116259098053
2.986325263977051 0.6092035174369812 -0.7036469578742981 81.0 1 -0.07060932368040085
1.8082261085510254 0.3688739836215973 0.09671685099601746 84.0 9 -0.0706070214509964
2.97597074508667 0.6065517663955688 -0.5903630256652832 87.0 2 -0.07060471177101135
1.8176120519638062 0.37012794613838196 0.1622839868068695 74.0 10 -0.0706024095416069
1.769248604774475 0.35995790362358093 -0.28596222400665283 93.0 3 -0.07060010731220245
3.0483007431030273 0.6196301579475403 0.38193854689598083 81.0 11 -0.070597805082798
1.762450933456421 0.3582545816898346 -0.22082726657390594 75.0 4 -0.07059549540281296
3.0567197799682617 0.6207860112190247 0.49402010440826416 82.0 12 -0.07059319317340851
1.7710076570510864 0.3593502640724182 -0.15810051560401917 84.0 5 -0.07059089094400406
3.072810411453247 0.6229372024536133 0.6094439625740051 65.0 13 -0.07058858871459961
1.8067818880081177 0.3659525513648987 -0.09661218523979187 96.0 6 -0.07058627903461456
3.065480947494507 0.6208943128585815 0.7220929265022278 68.0 14 -0.07058397680521011
1.7992501258850098 0.3641001880168915 -0.032042618840932846 100.0 7 -0.07058167457580566
3.0694258213043213 0.6205765604972839 0.8390913605690002 76.0 15 -0.07057937234640121
2.9754810333251953 0.5978016257286072 -0.8132094740867615 67.0 0 -0.07055863738059998
1.7782533168792725 0.3569446802139282 0.03165866807103157 83.0 8 -0.07055632770061493
2.9883289337158203 0.5992963314056396 -0.7036469578742981 86.0 1 -0.07055402547121048
1.8094394207000732 0.36287516355514526 0.09671685099601746 86.0 9 -0.07055172324180603
2.981815814971924 0.597450315952301 -0.5911262631416321 92.0 2 -0.07054942101240158
1.8129684925079346 0.36292561888694763 0.1617610603570938 84.0 10 -0.07054711133241653
1.7646214962005615 0.3529261648654938 -0.28502362966537476 97.0 3 -0.07054480910301208
3.0483922958374023 0.6091299057006836 0.38169482350349426 75.0 11 -0.07054250687360764
1.7675224542617798 0.3531864285469055 -0.22131474316120148 73.0 4 -0.07054020464420319
3.0606982707977295 0.6110334992408752 0.4943329691886902 77.0 12 -0.07053789496421814
1.766327977180481 0.3523057997226715 -0.15757757425308228 91.0 5 -0.07053559273481369
3.067157506942749 0.6112098097801208 0.6079174876213074 65.0 13 -0.07053329050540924
1.804067850112915 0.35917943716049194 -0.0964028462767601 88.0 6 -0.07053098827600479
3.0751678943634033 0.6122480630874634 0.7238925695419312 73.0 14 -0.07052868604660034
1.7984864711761475 0.35774102807044983 -0.03200771287083626 95.0 7 -0.0705263763666153
3.063887357711792 0.6088904738426208 0.8370208144187927 78.0 15 -0.07052407413721085
2.977447032928467 0.5879319310188293 -0.8132094740867615 67.0 0 -0.0705033391714096
1.7735415697097778 0.34988415241241455 0.031553950160741806 90.0 8 -0.07050103694200516
2.975004196166992 0.5863692164421082 -0.7000477313995361 83.0 1 -0.07049872726202011
1.8146144151687622 0.35732901096343994 0.09692620486021042 88.0 9 -0.07049642503261566
2.9914863109588623 0.5890754461288452 -0.5926527976989746 87.0 2 -0.07049412280321121
1.81025230884552 0.3561418950557709 0.16141243278980255 84.0 10 -0.07049182057380676
1.771596908569336 0.34821584820747375 -0.28596222400665283 100.0 3 -0.07048951089382172
3.046499729156494 0.5982518792152405 0.38120734691619873 77.0 11 -0.07048720866441727
1.7687445878982544 0.34701400995254517 -0.22131474316120148 75.0 4 -0.07048490643501282
3.0666894912719727 0.6011050343513489 0.49495869874954224 80.0 12 -0.07048260420560837
1.7694416046142578 0.3468300998210907 -0.1577518880367279 89.0 5 -0.07048030197620392
3.0537543296813965 0.5980161428451538 0.6048645377159119 67.0 13 -0.07047799229621887
1.8013288974761963 0.3524274528026581 -0.09619349241256714 99.0 6 -0.07047569006681442
3.0772864818573 0.6015092134475708 0.7238925695419312 68.0 14 -0.07047338783740997
1.8056118488311768 0.35261112451553345 -0.032112427055835724 100.0 7 -0.07047108560800552
3.0659942626953125 0.59819096326828 0.8370208144187927 76.0 15 -0.07046877592802048
2.9832746982574463 0.5782695412635803 -0.8142447471618652 67.0 0 -0.07044804096221924
1.7767152786254883 0.34407180547714233 0.031588856130838394 85.0 8 -0.07044573873281479
2.973206043243408 0.575241208076477 -0.6991478800773621 78.0 1 -0.07044343650341034
1.8040847778320312 0.3487187623977661 0.09629816561937332 88.0 9 -0.07044113427400589
2.98966908454895 0.577885091304779 -0.5918895602226257 87.0 2 -0.07043882459402084
1.8212658166885376 0.35170912742614746 0.1622839868068695 90.0 10 -0.0704365223646164
1.7669827938079834 0.34090742468833923 -0.28502362966537476 100.0 3 -0.07043422013521194
3.044670820236206 0.5868631601333618 0.3807198405265808 77.0 11 -0.0704319179058075
1.7621480226516724 0.3393358588218689 -0.2203397899866104 71.0 4 -0.07042960822582245
3.072648763656616 0.5911436676979065 0.4955844581127167 77.0 12 -0.070427305996418
1.7784675359725952 0.3421575129032135 -0.15844914317131042 87.0 5 -0.07042500376701355
3.0673909187316895 0.5895769596099854 0.6071542501449585 65.0 13 -0.0704227015376091
1.794702410697937 0.3446304500102997 -0.095774807035923 90.0 6 -0.07042039185762405
3.0736255645751953 0.5896629691123962 0.7225428223609924 71.0 14 -0.0704180896282196
1.7911202907562256 0.34329524636268616 -0.031833190470933914 94.0 7 -0.07041578739881516
3.0718584060668945 0.5882108211517334 0.8380560874938965 76.0 15 -0.0704134851694107
2.9871726036071777 0.5682141184806824 -0.8147624135017395 72.0 0 -0.07039275020360947
1.7779055833816528 0.3378673195838928 0.031588856130838394 85.0 8 -0.07039044052362442
2.9828543663024902 0.5663124322891235 -0.7009475231170654 83.0 1 -0.07038813829421997
1.8013664484024048 0.34167519211769104 0.09608882665634155 86.0 9 -0.07038583606481552
2.983952045440674 0.5659828186035156 -0.5903630256652832 87.0 2 -0.07038353383541107
1.8303126096725464 0.3468337953090668 0.16298124194145203 92.0 10 -0.07038122415542603
1.770103096961975 0.33510440587997437 -0.2853364944458008 100.0 3 -0.07037892192602158
3.0467007160186768 0.5762323141098022 0.3807198405265808 77.0 11 -0.07037661969661713
1.75942063331604 0.33244597911834717 -0.21985231339931488 73.0 4 -0.07037431746721268
3.066929340362549 0.5789480209350586 0.4943329691886902 77.0 12 -0.07037200778722763
1.7835667133331299 0.3366861045360565 -0.15879777073860168 98.0 5 -0.07036970555782318
3.069430351257324 0.5788654088973999 0.6071542501449585 65.0 13 -0.07036740332841873
1.7978572845458984 0.33873385190963745 -0.09587948024272919 93.0 6 -0.07036510109901428
3.0660898685455322 0.57712721824646 0.7202933430671692 67.0 14 -0.07036279141902924
1.776585578918457 0.33408400416374207 -0.031553950160741806 94.0 7 -0.07036048918962479
3.08528470993042 0.5796252489089966 0.8411619663238525 74.0 15 -0.07035818696022034
2.981541633605957 0.5563651323318481 -0.8126918077468872 73.0 0 -0.0703374519944191
1.7830058336257935 0.33239254355430603 0.03165866807103157 88.0 8 -0.07033514976501465
2.992475986480713 0.5573247075080872 -0.702747106552124 81.0 1 -0.0703328400850296
1.810402512550354 0.33684608340263367 0.09650751203298569 86.0 9 -0.07033053785562515
2.9859097003936768 0.5555626749992371 -0.5903630256652832 92.0 2 -0.0703282356262207
1.8197588920593262 0.33825838565826416 0.16193535923957825 90.0 10 -0.07032593339681625
1.7829149961471558 0.3310879170894623 -0.2872137129306793 100.0 3 -0.07032362371683121
3.0584523677825928 0.5674034953117371 0.38193854689598083 81.0 11 -0.07032132148742676
1.7644739151000977 0.3270263075828552 -0.2203397899866104 77.0 4 -0.07031901925802231
3.065046787261963 0.5675202012062073 0.49370723962783813 76.0 12 -0.07031671702861786
1.7768946886062622 0.3290075957775116 -0.15810051560401917 89.0 5 -0.07031440734863281
3.0791542530059814 0.569576621055603 0.6086807250976562 65.0 13 -0.07031210511922836
1.8049205541610718 0.3335452973842621 -0.09619349241256714 90.0 6 -0.07030980288982391
3.0757510662078857 0.5678368210792542 0.7220929265022278 68.0 14 -0.07030750066041946
1.779707431793213 0.32824358344078064 -0.031588856130838394 100.0 7 -0.07030519843101501
3.0720903873443604 0.566052258014679 0.8370208144187927 76.0 15 -0.07030288875102997
2.977764844894409 0.544910192489624 -0.811138927936554 77.0 0 -0.0702674388885498
1.7782536745071411 0.3250882029533386 0.031553950160741806 90.0 8 -0.07026513665914536
2.9905693531036377 0.5461746454238892 -0.7018473148345947 86.0 1 -0.0702628344297409
1.8154969215393066 0.33124101161956787 0.09671685099601746 88.0 9 -0.07026052474975586
2.983968496322632 0.5444309711456299 -0.5895998477935791 92.0 2 -0.07025822252035141
1.813088297843933 0.33047547936439514 0.16123811900615692 92.0 10 -0.07025592029094696
1.7743427753448486 0.3230924606323242 -0.2856493592262268 100.0 3 -0.07025361806154251
3.0565085411071777 0.5560126304626465 0.3814510703086853 83.0 11 -0.07025130838155746
1.7656047344207764 0.32086554169654846 -0.2203397899866104 75.0 4 -0.07024900615215302
3.068952798843384 0.5571698546409607 0.49402010440826416 82.0 12 -0.07024670392274857
1.7663261890411377 0.32035893201828003 -0.15705464780330658 93.0 5 -0.07024440169334412
3.073396921157837 0.5574225783348083 0.6071542501449585 66.0 13 -0.07024209201335907
1.806073784828186 0.32724329829216003 -0.09619349241256714 90.0 6 -0.07023978978395462
3.077714443206787 0.5570961236953735 0.7220929265022278 67.0 14 -0.07023748755455017
1.7828102111816406 0.3223845958709717 -0.031623758375644684 100.0 7 -0.07023518532514572
3.0664427280426025 0.5539520978927612 0.8349502682685852 76.0 15 -0.07023287564516068
2.9835450649261475 0.5346747040748596 -0.8121742010116577 77.0 0 -0.07021214067935944
1.771504282951355 0.31746751070022583 0.03141433000564575 90.0 8 -0.07020983844995499
2.9847846031188965 0.5343592762947083 -0.7000477313995361 86.0 1 -0.07020753622055054
1.8166420459747314 0.32490211725234985 0.09671685099601746 84.0 9 -0.07020523399114609
2.9898087978363037 0.5341817140579224 -0.5903630256652832 92.0 2 -0.07020292431116104
1.828016996383667 0.32627809047698975 0.16245830059051514 100.0 10 -0.07020062208175659
1.765791416168213 0.31485360860824585 -0.2840850353240967 100.0 3 -0.07019831985235214
3.052567958831787 0.5442953705787659 0.3807198405265808 77.0 11 -0.07019601762294769
1.7588967084884644 0.3133074939250946 -0.21936483681201935 82.0 4 -0.07019370794296265
3.0767130851745605 0.5474926233291626 0.49495869874954224 77.0 12 -0.0701914057135582
1.7792035341262817 0.31628403067588806 -0.15810051560401917 89.0 5 -0.07018910348415375
3.0638210773468018 0.5440952777862549 0.6048645377159119 67.0 13 -0.0701868012547493
1.7954620122909546 0.3185269236564636 -0.09556546807289124 90.0 6 -0.07018449157476425
3.0874109268188477 0.547173023223877 0.7238925695419312 73.0 14 -0.0701821893453598
1.7858937978744507 0.31650885939598083 -0.03165866807103157 100.0 7 -0.07017988711595535
3.0797715187072754 0.545264720916748 0.8380560874938965 74.0 15 -0.0701775848865509
2.983490228652954 0.5239234566688538 -0.8116565346717834 75.0 0 -0.07015684992074966
1.7825042009353638 0.3127005100250244 0.031588856130838394 93.0 8 -0.07015454024076462
2.9905622005462646 0.5240878462791443 -0.7009475231170654 83.0 1 -0.07015223801136017
1.8098961114883423 0.3171793520450592 0.09629816561937332 82.0 9 -0.07014993578195572
2.9993910789489746 0.5250955820083618 -0.5918895602226257 92.0 2 -0.07014763355255127
1.8232569694519043 0.3188658058643341 0.16193535923957825 95.0 10 -0.07014532387256622
1.7785552740097046 0.31072723865509033 -0.28596222400665283 100.0 3 -0.07014302164316177
3.050631523132324 0.5324200987815857 0.38023239374160767 80.0 11 -0.07014071941375732
1.75612211227417 0.3061772286891937 -0.21887736022472382 79.0 4 -0.07013841718435287
3.0786054134368896 0.5367501974105835 0.49495869874954224 77.0 12 -0.07013610750436783
1.780296802520752 0.31007105112075806 -0.15810051560401917 87.0 5 -0.07013380527496338
3.065701723098755 0.5333964228630066 0.6048645377159119 66.0 13 -0.07013150304555893
1.7945950031280518 0.31191685795783997 -0.09546079486608505 93.0 6 -0.07012920081615448
3.077782154083252 0.5343915224075317 0.7211931347846985 67.0 14 -0.07012689858675003
1.7948685884475708 0.31164082884788513 -0.031798284500837326 100.0 7 -0.07012458890676498
3.085463047027588 0.5351704955101013 0.8390913605690002 76.0 15 -0.07012228667736053
2.9967246055603027 0.5154700875282288 -0.8147624135017395 75.0 0 -0.0701015517115593
1.7992974519729614 0.30949923396110535 0.031868092715740204 94.0 8 -0.07009924948215485
2.992283582687378 0.5141685009002686 -0.7009475231170654 86.0 1 -0.0700969398021698
1.8031182289123535 0.30950939655303955 0.09587948024272919 88.0 9 -0.07009463757276535
2.991530418395996 0.5129641890525818 -0.5899814367294312 100.0 2 -0.0700923353433609
1.8282865285873413 0.31317177414894104 0.1622839868068695 95.0 10 -0.07009003311395645
1.7717876434326172 0.3034939467906952 -0.28471076488494873 100.0 3 -0.0700877234339714
3.0543367862701416 0.5226378440856934 0.38047611713409424 83.0 11 -0.07008542120456696
1.7493009567260742 0.2990136742591858 -0.21790240705013275 89.0 4 -0.0700831189751625
3.076566219329834 0.5253348350524902 0.4943329691886902 80.0 12 -0.07008081674575806
1.7794042825698853 0.30351927876472473 -0.15792620182037354 88.0 5 -0.07007851451635361
3.0790657997131348 0.5252071022987366 0.6071542501449585 66.0 13 -0.07007620483636856
1.8034950494766235 0.3073055148124695 -0.09587948024272919 100.0 6 -0.07007390260696411
3.0776162147521973 0.523855984210968 0.7207432389259338 71.0 14 -0.07007160037755966
1.7900313138961792 0.3043675720691681 -0.03169357031583786 100.0 7 -0.07006929814815521
3.0873122215270996 0.5243975520133972 0.8390913605690002 76.0 15 -0.07006698846817017
2.9850826263427734 0.5032821297645569 -0.811138927936554 77.0 0 -0.07004625350236893
1.800366759300232 0.3032161593437195 0.031868092715740204 94.0 8 -0.07004395127296448
2.9940600395202637 0.5037209987640381 -0.7009475231170654 83.0 1 -0.07004164904356003
1.808073878288269 0.3041905462741852 0.09608882665634155 88.0 9 -0.07003933936357498
2.9951510429382324 0.503367006778717 -0.5903630256652832 92.0 2 -0.07003703713417053
1.825385332107544 0.30644699931144714 0.16193535923957825 92.0 10 -0.07003473490476608
1.7728362083435059 0.2973077595233917 -0.28471076488494873 100.0 3 -0.07003243267536163
3.060058355331421 0.5126281976699829 0.38096359372138977 83.0 11 -0.07003013044595718
1.773828387260437 0.296836793422699 -0.22082726657390594 94.0 4 -0.07002782076597214
3.0685501098632812 0.5134986639022827 0.49276861548423767 82.0 12 -0.07002551853656769
1.77254056930542 0.2963041365146637 -0.1572289615869522 88.0 5 -0.07002321630716324
3.08862566947937 0.5157514810562134 0.6086807250976562 66.0 13 -0.07002091407775879
1.8084969520568848 0.3016650080680847 -0.09608882665634155 100.0 6 -0.07001860439777374
3.081348180770874 0.5134307742118835 0.7211931347846985 68.0 14 -0.0700163021683693
1.7791956663131714 0.2964591383934021 -0.03148414194583893 91.0 7 -0.07001399993896484
3.0776004791259766 0.5122542977333069 0.8359856009483337 78.0 15 -0.0700116977095604
2.9811031818389893 0.4919147789478302 -0.8095860481262207 75.0 0 -0.06999095529317856
1.7895244359970093 0.2952911853790283 0.03165866807103157 92.0 8 -0.06998865306377411
2.9995594024658203 0.4944240152835846 -0.7018473148345947 83.0 1 -0.06998635083436966
1.8130661249160767 0.2985258102416992 0.09629816561937332 88.0 9 -0.06998404860496521
2.993015766143799 0.49227094650268555 -0.5895998477935791 87.0 2 -0.06998174637556076
1.8185795545578003 0.2987825870513916 0.16123811900615692 95.0 10 -0.06997943669557571
1.7679647207260132 0.2904668152332306 -0.28377217054367065 97.0 3 -0.06997713446617126
3.0656590461730957 0.5031198859214783 0.3814510703086853 83.0 11 -0.06997483223676682
1.7748029232025146 0.29095327854156494 -0.22082726657390594 94.0 4 -0.06997253000736237
3.0781211853027344 0.5040633678436279 0.49402010440826416 80.0 12 -0.06997022032737732
1.7656989097595215 0.2888279855251312 -0.15653172135353088 88.0 5 -0.06996791809797287
3.074819326400757 0.5029701590538025 0.6056278347969055 66.0 13 -0.06996561586856842
1.8114583492279053 0.2959885597229004 -0.09619349241256714 99.0 6 -0.06996331363916397
3.0868802070617676 0.503838300704956 0.7220929265022278 67.0 14 -0.06996100395917892
1.803903341293335 0.29410767555236816 -0.03190299868583679 100.0 7 -0.06995870172977448
3.06792950630188 0.49964436888694763 0.8328797221183777 78.0 15 -0.06995639950037003
2.986531972885132 0.48264193534851074 -0.8106213212013245 75.0 0 -0.06993566453456879
1.7905441522598267 0.2890431880950928 0.03165866807103157 94.0 8 -0.06993336230516434
2.9935715198516846 0.4827089011669159 -0.7000477313995361 86.0 1 -0.06993105262517929
1.8200128078460693 0.29314756393432617 0.09661218523979187 92.0 9 -0.06992875039577484
3.0004465579986572 0.4832787811756134 -0.59074467420578 96.0 2 -0.06992644816637039
1.8313630819320679 0.2946487069129944 0.1622839868068695 95.0 10 -0.06992414593696594
1.7611664533615112 0.28303948044776917 -0.28252068161964417 90.0 3 -0.0699218362569809
3.0595569610595703 0.49115630984306335 0.38047611713409424 81.0 11 -0.06991953402757645
1.7738476991653442 0.28444236516952515 -0.22058352828025818 99.0 4 -0.069917231798172
3.079862117767334 0.49331483244895935 0.49402010440826416 80.0 12 -0.06991492956876755
1.7804181575775146 0.2851772606372833 -0.1577518880367279 82.0 5 -0.0699126198887825
3.072679042816162 0.4916127622127533 0.6048645377159119 66.0 13 -0.06991031765937805
1.8085360527038574 0.2890336215496063 -0.09598415344953537 96.0 6 -0.0699080154299736
3.096317768096924 0.49428799748420715 0.7238925695419312 67.0 14 -0.06990571320056915
1.7910959720611572 0.28560441732406616 -0.03165866807103157 97.0 7 -0.0699034035205841
3.0791938304901123 0.49045228958129883 0.8354679346084595 72.0 15 -0.06990110129117966
2.997739315032959 0.473723828792572 -0.8132094740867615 77.0 0 -0.06988036632537842
1.7915422916412354 0.28279078006744385 0.03165866807103157 90.0 8 -0.06987806409597397
2.9913880825042725 0.47165006399154663 -0.6991478800773621 86.0 1 -0.06987576186656952
1.8111600875854492 0.28524041175842285 0.09608882665634155 90.0 9 -0.06987345218658447
3.004054069519043 0.47310981154441833 -0.5911262631416321 92.0 2 -0.06987114995718002
1.8343485593795776 0.28856340050697327 0.16245830059051514 98.0 10 -0.06986884772777557
1.7660466432571411 0.2775028944015503 -0.2831464111804962 97.0 3 -0.06986654549837112
3.0553691387176514 0.47955217957496643 0.37974491715431213 80.0 11 -0.06986423581838608
1.766985297203064 0.2770184576511383 -0.21960857510566711 99.0 4 -0.06986193358898163
3.0854685306549072 0.4831714630126953 0.4946458339691162 77.0 12 -0.06985963135957718
1.777466058731079 0.2783437669277191 -0.15740327537059784 85.0 5 -0.06985732913017273
3.08213472366333 0.4820998013019562 0.6063910126686096 65.0 13 -0.06985501945018768
1.8016407489776611 0.2814851403236389 -0.09556546807289124 99.0 6 -0.06985271722078323
3.0826210975646973 0.48107215762138367 0.7202933430671692 68.0 14 -0.06985041499137878
1.7940574884414673 0.27965977787971497 -0.03169357031583786 100.0 7 -0.06984811276197433
3.0904314517974854 0.4811861217021942 0.8380560874938965 76.0 15 -0.06984581053256989
3.0108299255371094 0.4650253355503082 -0.8163152933120728 77.0 0 -0.06982506811618805
1.8004236221313477 0.27775534987449646 0.031798284500837326 94.0 8 -0.0698227658867836
2.99686861038208 0.4617980718612671 -0.7000477313995361 83.0 1 -0.06982046365737915
1.8101707696914673 0.2786122262477875 0.09598415344953537 95.0 9 -0.0698181614279747
3.00374698638916 0.46232137084007263 -0.59074467420578 96.0 2 -0.06981585174798965
1.8294368982315063 0.2812507152557373 0.16193535923957825 92.0 10 -0.0698135495185852
1.7728619575500488 0.2722364068031311 -0.2840850353240967 93.0 3 -0.06981124728918076
3.066835403442383 0.4703879952430725 0.38096359372138977 81.0 11 -0.0698089450597763
1.7699036598205566 0.2711498439311981 -0.21985231339931488 96.0 4 -0.06980663537979126
3.075420379638672 0.4706060588359833 0.49276861548423767 80.0 12 -0.06980433315038681
1.7863045930862427 0.27334338426589966 -0.15810051560401917 88.0 5 -0.06980203092098236
3.0876803398132324 0.4719306528568268 0.6071542501449585 65.0 13 -0.06979972869157791
1.8026124238967896 0.27519407868385315 -0.09556546807289124 99.0 6 -0.06979742646217346
3.0804283618927 0.4697219729423523 0.7193935513496399 63.0 14 -0.06979511678218842
1.7831614017486572 0.27158859372138977 -0.03148414194583893 100.0 7 -0.06979281455278397
3.0978221893310547 0.47126641869544983 0.8396090269088745 72.0 15 -0.06979051232337952
2.9971530437469482 0.4522077143192291 -0.8121742010116577 77.0 0 -0.06976977735757828
1.8092916011810303 0.2726612985134125 0.03193790465593338 92.0 8 -0.06976746767759323
3.002316474914551 0.4519135653972626 -0.7009475231170654 83.0 1 -0.06976516544818878
1.8111321926116943 0.27229222655296326 0.09598415344953537 95.0 9 -0.06976286321878433
2.9975764751434326 0.4506665766239166 -0.5892181992530823 96.0 2 -0.06976056098937988
1.8264669179916382 0.27427172660827637 0.16158674657344818 95.0 10 -0.06975825130939484
1.7718480825424194 0.2657528221607208 -0.28377217054367065 97.0 3 -0.06975594907999039
3.0723845958709717 0.46026867628097534 0.3814510703086853 87.0 11 -0.06975364685058594
1.7708393335342407 0.26497042179107666 -0.21985231339931488 96.0 4 -0.06975134462118149
3.080951690673828 0.4604511260986328 0.4933943450450897 80.0 12 -0.06974904239177704
1.7714838981628418 0.2647499442100525 -0.15670602023601532 85.0 5 -0.06974673271179199
3.089308738708496 0.4611504375934601 0.6071542501449585 65.0 13 -0.06974443048238754
1.8134390115737915 0.27037307620048523 -0.09608882665634155 100.0 6 -0.0697421282529831
3.089759349822998 0.4601137340068817 0.7211931347846985 68.0 14 -0.06973982602357864
1.786076545715332 0.26565712690353394 -0.031519047915935516 100.0 7 -0.0697375163435936
3.0898938179016113 0.4590313732624054 0.8370208144187927 76.0 15 -0.06973521411418915
2.9929795265197754 0.44089752435684204 -0.8106213212013245 75.0 0 -0.06971447914838791
1.7944053411483765 0.26401492953300476 0.03165866807103157 92.0 8 -0.06971217691898346
3.011587619781494 0.4425646960735321 -0.702747106552124 78.0 1 -0.06970986723899841
1.8199760913848877 0.26712822914123535 0.0964028462767601 92.0 9 -0.06970756500959396
3.0049588680267334 0.4410548806190491 -0.5903630256652832 87.0 2 -0.06970526278018951
1.8195279836654663 0.26673805713653564 0.16088949143886566 95.0 10 -0.06970296055078506
1.7747193574905396 0.2598528563976288 -0.2840850353240967 100.0 3 -0.06970065832138062
3.0720088481903076 0.44925323128700256 0.38120734691619873 80.0 11 -0.06969834864139557
1.783539056777954 0.26050838828086853 -0.22131474316120148 92.0 4 -0.06969604641199112
3.0805857181549072 0.4494093358516693 0.4930815100669861 82.0 12 -0.06969374418258667
1.7723972797393799 0.2585650682449341 -0.15670602023601532 88.0 5 -0.06969144195318222
3.090899705886841 0.45036306977272034 0.6071542501449585 67.0 13 -0.06968913227319717
1.810418963432312 0.2634665071964264 -0.09587948024272919 100.0 6 -0.06968683004379272
3.091346502304077 0.4493263065814972 0.7211931347846985 68.0 14 -0.06968452781438828
1.7889719009399414 0.2597077488899231 -0.031553950160741806 100.0 7 -0.06968222558498383
3.0800061225891113 0.4465802311897278 0.8339149951934814 76.0 15 -0.06967991590499878
3.0690760612487793 0.4411665201187134 -0.8308091163635254 81.0 0 -0.06965918093919754
1.7814600467681885 0.2557607591152191 0.03141433000564575 100.0 8 -0.06965687870979309
3.07291316986084 0.440624862909317 -0.7166941165924072 70.0 1 -0.06965457648038864
1.8208975791931152 0.2607732117176056 0.0964028462767601 92.0 9 -0.06965227425098419
3.0686702728271484 0.4394684135913849 -0.60257488489151 58.0 2 -0.06964996457099915
1.8263648748397827 0.26123180985450745 0.16141243278980255 100.0 10 -0.0696476623415947
1.7677935361862183 0.25253844261169434 -0.2828335464000702 100.0 3 -0.06964536011219025
3.063732385635376 0.43712443113327026 0.3799886405467987 81.0 11 -0.0696430578827858
1.7883678674697876 0.25484156608581543 -0.221802219748497 90.0 4 -0.06964074820280075
3.0880026817321777 0.4394875168800354 0.49402010440826416 80.0 12 -0.0696384459733963
1.783151626586914 0.2537798583507538 -0.15757757425308228 89.0 5 -0.06963614374399185
3.0807907581329346 0.43791258335113525 0.6048645377159119 66.0 13 -0.0696338415145874
1.7974854707717896 0.2551806569099426 -0.0951467752456665 96.0 6 -0.06963153183460236
3.0909669399261475 0.4382583796977997 0.7207432389259338 66.0 14 -0.0696292296051979
1.789867639541626 0.25346100330352783 -0.031553950160741806 100.0 7 -0.06962692737579346
3.096848249435425 0.437991201877594 0.8380560874938965 74.0 15 -0.06962462514638901
3.08207631111145 0.4320605397224426 -0.8339149951934814 77.0 0 -0.06960389018058777
1.7922439575195312 0.2509266138076782 0.031588856130838394 99.0 8 -0.06960158050060272
3.0763626098632812 0.43016624450683594 -0.7171440124511719 78.0 1 -0.06959927827119827
1.8158624172210693 0.25358715653419495 0.09608882665634155 86.0 9 -0.06959697604179382
3.093517780303955 0.4320131242275238 -0.6071542501449585 100.0 2 -0.06959467381238937
1.8312121629714966 0.2554049789905548 0.1617610603570938 98.0 10 -0.06959236413240433
1.7647511959075928 0.24582147598266602 -0.28220781683921814 100.0 3 -0.06959006190299988
3.061306953430176 0.42588093876838684 0.3795011639595032 87.0 11 -0.06958775967359543
1.7735170125961304 0.24641147255897522 -0.21985231339931488 92.0 4 -0.06958545744419098
3.093430995941162 0.4292493462562561 0.4946458339691162 80.0 12 -0.06958314776420593
1.7919204235076904 0.2486496865749359 -0.1582748293876648 87.0 5 -0.06958084553480148
3.0823004245758057 0.42715656757354736 0.6048645377159119 67.0 13 -0.06957854330539703
1.796386957168579 0.24863038957118988 -0.09504210948944092 93.0 6 -0.06957624107599258
3.0886168479919434 0.4269331991672516 0.7198433876037598 66.0 14 -0.06957393139600754
1.792722463607788 0.24748550355434418 -0.031588856130838394 100.0 7 -0.06957162916660309
3.094531297683716 0.4266500174999237 0.8370208144187927 78.0 15 -0.06956932693719864
3.0873937606811523 0.4218216836452484 -0.8349502682685852 77.0 0 -0.0695485919713974
1.7970716953277588 0.24521008133888245 0.03165866807103157 100.0 8 -0.06954628974199295
3.0759146213531494 0.4191611409187317 -0.7166941165924072 74.0 1 -0.0695439800620079
1.8009045124053955 0.24509194493293762 0.09525144845247269 86.0 9 -0.06954167783260345
3.0891711711883545 0.42041704058647156 -0.6060094237327576 100.0 2 -0.069539375603199
1.83604097366333 0.24954833090305328 0.16210968792438507 100.0 10 -0.06953707337379456
1.7773430347442627 0.24125440418720245 -0.2840850353240967 100.0 3 -0.06953476369380951
3.3007943630218506 0.44745755195617676 0.40899354219436646 100.0 11 -0.06953246146440506
1.7664978504180908 0.23915435373783112 -0.21887736022472382 94.0 4 -0.06953015923500061
3.370927333831787 0.45576828718185425 0.5387603640556335 123.0 12 -0.06952785700559616
1.792777419090271 0.24239356815814972 -0.1582748293876648 89.0 5 -0.06952554732561111
3.194672107696533 0.431368350982666 0.6266167759895325 122.0 13 -0.06952324509620667
1.7992231845855713 0.24262475967407227 -0.0951467752456665 96.0 6 -0.06952094286680222
3.202104091644287 0.4312353730201721 0.7459377646446228 118.0 14 -0.06951864063739777
1.785647988319397 0.2401595413684845 -0.03144923597574234 97.0 7 -0.06951633840799332
3.1189775466918945 0.41893067955970764 0.8432324528694153 78.0 15 -0.06951402872800827
3.077357530593872 0.40951526165008545 -0.8318444490432739 81.0 0 -0.06949329376220703
1.7998988628387451 0.23919858038425446 0.03169357031583786 100.0 8 -0.06949099153280258
3.0812225341796875 0.4089336097240448 -0.7175939083099365 76.0 1 -0.06948868930339813
1.809626817703247 0.24017000198364258 0.09567013382911682 88.0 9 -0.06948637962341309
3.0828347206115723 0.4086015522480011 -0.6044829487800598 100.0 2 -0.06948407739400864
1.8250499963760376 0.2415686994791031 0.1610638052225113 100.0 10 -0.06948177516460419
1.7820911407470703 0.23556609451770782 -0.28471076488494873 100.0 3 -0.06947947293519974
3.575890302658081 0.4720466136932373 0.4428732097148895 104.0 11 -0.06947716325521469
1.7751530408859253 0.23433464765548706 -0.21985231339931488 92.0 4 -0.06947486102581024
3.5721802711486816 0.4709208607673645 0.5706729888916016 116.0 12 -0.06947255879640579
1.781760811805725 0.23457331955432892 -0.1572289615869522 98.0 5 -0.06947025656700134
3.59908390045166 0.4731913208961487 0.7056117057800293 106.0 13 -0.0694679543375969
1.804019808769226 0.23686321079730988 -0.09535612165927887 99.0 6 -0.06946564465761185
3.609269380569458 0.47388792037963867 0.8404171466827393 115.0 14 -0.0694633424282074
1.7884172201156616 0.23449712991714478 -0.03148414194583893 100.0 7 -0.06946104019880295
3.595393419265747 0.47079119086265564 0.9716067314147949 120.0 15 -0.0694587379693985
3.074867010116577 0.3988102674484253 -0.8308091163635254 77.0 0 -0.06943799555301666
1.788783311843872 0.2316877841949463 0.03148414194583893 100.0 8 -0.06943569332361221
3.0844945907592773 0.39896276593208313 -0.7180438041687012 81.0 1 -0.06943339109420776
1.8222979307174683 0.2357044219970703 0.09629816561937332 90.0 9 -0.06943108886480331
3.088067054748535 0.39887842535972595 -0.6052461862564087 96.0 2 -0.06942878663539886
1.8218889236450195 0.23500588536262512 0.16071519255638123 100.0 10 -0.06942647695541382
1.7789442539215088 0.2291499674320221 -0.2840850353240967 100.0 3 -0.06942417472600937
3.5892493724823 0.4617045223712921 0.4443356692790985 100.0 11 -0.06942187249660492
1.7759203910827637 0.22844624519348145 -0.21985231339931488 94.0 4 -0.06941957026720047
3.571762800216675 0.45882150530815125 0.5703601241111755 100.0 12 -0.06941726058721542
1.778576374053955 0.2281559705734253 -0.15688033401966095 91.0 5 -0.06941495835781097
3.5967392921447754 0.46075379848480225 0.7048484683036804 100.0 13 -0.06941265612840652
1.8147008419036865 0.23214709758758545 -0.09587948024272919 100.0 6 -0.06941035389900208
3.614687204360962 0.4624118506908417 0.8413169980049133 100.0 14 -0.06940804421901703
1.7911686897277832 0.2288181632757187 -0.031519047915935516 100.0 7 -0.06940574198961258
3.6065165996551514 0.46008723974227905 0.9741949439048767 124.0 15 -0.06940343976020813
3.0780892372131348 0.38885417580604553 -0.8313267827033997 69.0 0 -0.06938270479440689
1.791525959968567 0.2260044813156128 0.031519047915935516 99.0 8 -0.06938040256500244
3.080000162124634 0.388001948595047 -0.7166941165924072 74.0 1 -0.0693780928850174
1.8191462755203247 0.22884468734264374 0.09608882665634155 88.0 9 -0.06937579065561295
3.093268394470215 0.3891265094280243 -0.6060094237327576 96.0 2 -0.0693734884262085
1.8187044858932495 0.22846581041812897 0.16036656498908997 100.0 10 -0.06937118619680405
1.7738142013549805 0.22251224517822266 -0.2831464111804962 100.0 3 -0.069368876516819
