# .PCD v0.7 - Point Cloud Data file format
VERSION 0.7
FIELDS x y z intensity ring time
SIZE 4 4 4 4 4 4
TYPE F F F F F F
COUNT 1 1 1 1 1 1
WIDTH 548
HEIGHT 1
VIEWPOINT 0 0 0 1 0 0 0
POINTS 548
DATA ascii
0.9101018309593201 -1.8430702686309814 -0.399554044008255 7.0 2 -0.09291108697652817
1.0652567148208618 -2.1582274436950684 0.21056827902793884 7.0 10 -0.09290878474712372
1.0933692455291748 -2.216157913208008 -0.391399085521698 111.0 3 -0.09290648251771927
1.0641164779663086 -2.1578147411346436 0.29541128873825073 6.0 11 -0.09290417283773422
1.093580722808838 -2.218538522720337 -0.30369842052459717 100.0 4 -0.09290187060832977
1.0599050521850586 -2.151167392730713 0.3798229396343231 6.0 12 -0.09289956837892532
1.0582319498062134 -2.1487174034118652 0.4655739665031433 6.0 13 -0.09289495646953583
1.0620657205581665 -2.157451868057251 -0.1260250061750412 13.0 6 -0.09289265424013138
1.0556867122650146 -2.1454384326934814 0.5520299673080444 7.0 14 -0.09289035201072693
1.054664134979248 -2.1443049907684326 -0.04171125218272209 9.0 7 -0.09288804978132248
1.0577276945114136 -2.1514816284179688 0.6423888802528381 7.0 15 -0.09288574010133743
0.6068267226219177 -1.23868727684021 -0.36959362030029297 8.0 0 -0.0928650051355362
1.0530540943145752 -2.149550676345825 0.04178106039762497 8.0 8 -0.09286270290613174
0.7301825881004333 -1.4911465644836426 -0.38331663608551025 7.0 1 -0.0928604006767273
1.0589240789413452 -2.1634438037872314 0.12623433768749237 7.0 9 -0.09285809844732285
0.9085172414779663 -1.8569746017456055 -0.401843786239624 6.0 2 -0.0928557887673378
1.0564640760421753 -2.160327196121216 0.21039395034313202 7.0 10 -0.09285348653793335
1.085239291191101 -2.2201502323150635 -0.391399085521698 111.0 3 -0.0928511843085289
1.0548344850540161 -2.157949209213257 0.2949238419532776 6.0 11 -0.09284888207912445
1.0840870141983032 -2.2187752723693848 -0.30321094393730164 99.0 4 -0.0928465723991394
1.0471885204315186 -2.1442039012908936 0.3779457211494446 6.0 12 -0.09284427016973495
1.0610737800598145 -2.173597812652588 -0.21161414682865143 1.0 5 -0.0928419679403305
1.0546540021896362 -2.1614036560058594 0.4674820601940155 6.0 13 -0.09283966571092606
1.0576531887054443 -2.1685104370117188 -0.12644368410110474 13.0 6 -0.09283735603094101
1.0461081266403198 -2.145789861679077 0.5511301159858704 6.0 14 -0.09283505380153656
1.0436675548553467 -2.1407835483551025 -0.041571635752916336 10.0 7 -0.09283275157213211
1.0451335906982422 -2.1447408199310303 0.6392830610275269 7.0 15 -0.09283044934272766
0.6024991273880005 -1.240797996520996 -0.36959362030029297 8.0 0 -0.09280971437692642
1.0408027172088623 -2.1444008350372314 0.041606537997722626 9.0 8 -0.09280740469694138
0.7289655208587646 -1.5025792121887207 -0.3855661451816559 6.0 1 -0.09280510246753693
1.054853081703186 -2.174314498901367 0.1266530305147171 7.0 9 -0.09280280023813248
0.9020295739173889 -1.8601346015930176 -0.401843786239624 6.0 2 -0.09280049800872803
1.0454405546188354 -2.1568305492401123 0.2096967101097107 7.0 10 -0.09279818832874298
1.074898600578308 -2.2185919284820557 -0.39046046137809753 100.0 3 -0.09279588609933853
1.053839921951294 -2.176093816757202 0.2968737483024597 7.0 11 -0.09279358386993408
1.0742179155349731 -2.2191600799560547 -0.3027234971523285 100.0 4 -0.09279128164052963
1.0396974086761475 -2.147846221923828 0.3779457211494446 6.0 12 -0.09278897196054459
1.0239754915237427 -2.116309881210327 -0.20568755269050598 1.0 5 -0.09278666973114014
1.042829155921936 -2.1562347412109375 0.4655739665031433 5.0 13 -0.09278436750173569
1.0483388900756836 -2.168592691421509 -0.12623433768749237 12.0 6 -0.09278206527233124
1.0403072834014893 -2.152937889099121 0.5520299673080444 6.0 14 -0.09277976304292679
1.0379284620285034 -2.148014783859253 -0.041641443967819214 9.0 7 -0.09277745336294174
1.034279704093933 -2.1414177417755127 0.6372125148773193 7.0 15 -0.09277515113353729
0.5981643795967102 -1.2428934574127197 -0.36959362030029297 8.0 0 -0.09275441616773605
1.031084418296814 -2.14243483543396 0.04150182008743286 8.0 8 -0.0927521139383316
0.7163756489753723 -1.4891834259033203 -0.3815170228481293 7.0 1 -0.09274980425834656
1.0489875078201294 -2.1815836429595947 0.12686236202716827 7.0 9 -0.09274750202894211
0.8989328145980835 -1.8703498840332031 -0.4033702313899994 6.0 2 -0.09274519979953766
1.0413564443588257 -2.1676502227783203 0.21039395034313202 7.0 10 -0.09274289757013321
1.0658249855041504 -2.21858286857605 -0.3898347318172455 100.0 3 -0.09274058789014816
1.031150460243225 -2.1473660469055176 0.2924864590167999 7.0 11 -0.09273828566074371
1.0711477994918823 -2.2316582202911377 -0.30394217371940613 100.0 4 -0.09273598343133926
1.0373203754425049 -2.1621484756469727 0.3798229396343231 6.0 12 -0.09273368120193481
1.0148591995239258 -2.1162781715393066 -0.20533892512321472 2.0 5 -0.09273137897253036
1.0331262350082397 -2.1543703079223633 0.46442911028862 6.0 13 -0.09272906929254532
1.0342353582382202 -2.157648801803589 -0.1253969669342041 13.0 6 -0.09272676706314087
1.0297938585281372 -2.149345874786377 0.5502303242683411 7.0 14 -0.09272446483373642
1.0295605659484863 -2.1498208045959473 -0.041606537997722626 10.0 7 -0.09272216260433197
1.0284665822982788 -2.1484999656677246 0.6382477879524231 7.0 15 -0.09271985292434692
0.5957033634185791 -1.2483571767807007 -0.37062889337539673 8.0 0 -0.09269911795854568
1.023599624633789 -2.1460208892822266 0.04150182008743286 8.0 8 -0.09269681572914124
0.7103342413902283 -1.4899159669876099 -0.3810671269893646 7.0 1 -0.09269451349973679
1.0293371677398682 -2.159990072250366 0.1253969669342041 7.0 9 -0.09269220381975174
0.8910365104675293 -1.8697760105133057 -0.4026069939136505 6.0 2 -0.09268990159034729
1.0341624021530151 -2.1710915565490723 0.21039395034313202 7.0 10 -0.09268759936094284
1.0563758611679077 -2.2187230587005615 -0.38920900225639343 100.0 3 -0.09268529713153839
1.020236611366272 -2.143782377243042 0.29151150584220886 6.0 11 -0.09268299490213394
1.0556766986846924 -2.219250202178955 -0.30174851417541504 100.0 4 -0.0926806852221489
1.0272220373153687 -2.1604042053222656 0.37888431549072266 7.0 12 -0.09267838299274445
1.0100314617156982 -2.125206470489502 -0.2058618664741516 3.0 5 -0.09267608076334
1.025599718093872 -2.157963514328003 0.46442911028862 6.0 13 -0.09267377853393555
1.025840401649475 -2.1594419479370117 -0.12529228627681732 12.0 6 -0.0926714688539505
1.0222852230072021 -2.1529273986816406 0.5502303242683411 6.0 14 -0.09266916662454605
1.0211923122406006 -2.1515953540802 -0.041571635752916336 9.0 7 -0.0926668643951416
1.022616982460022 -2.1555676460266113 0.6392830610275269 7.0 15 -0.09266456216573715
0.5927751064300537 -1.2540253400802612 -0.3716641664505005 9.0 0 -0.09264381974935532
1.0169569253921509 -2.1513888835906982 0.04153672605752945 9.0 8 -0.09264151751995087
0.701799213886261 -1.4853384494781494 -0.37926751375198364 6.0 1 -0.09263921529054642
1.021790862083435 -2.1635701656341553 0.1253969669342041 8.0 9 -0.09263691306114197
0.8774727582931519 -1.8588261604309082 -0.399554044008255 7.0 2 -0.09263461083173752
1.0278987884521484 -2.178471326828003 0.21074259281158447 7.0 10 -0.09263230115175247
1.0516071319580078 -2.229726552963257 -0.39046046137809753 100.0 3 -0.09262999892234802
1.0161339044570923 -2.154512405395508 0.2924864590167999 6.0 11 -0.09262769669294357
1.0445377826690674 -2.2157392501831055 -0.300773561000824 99.0 4 -0.09262539446353912
1.0171486139297485 -2.158616065979004 0.3779457211494446 6.0 12 -0.09262308478355408
1.0068516731262207 -2.1377315521240234 -0.20673342049121857 7.0 5 -0.09262078255414963
1.017683506011963 -2.161708116531372 0.46442911028862 6.0 13 -0.09261848032474518
1.01706862449646 -2.1613800525665283 -0.12518762052059174 13.0 6 -0.09261617809534073
1.0094108581542969 -2.1460793018341064 0.5475308895111084 7.0 14 -0.09261386841535568
1.011122465133667 -2.1497182846069336 -0.04146691784262657 10.0 7 -0.09261156618595123
1.0134425163269043 -2.155627489089966 0.6382477879524231 7.0 15 -0.09260926395654678
0.5801991820335388 -1.2385926246643066 -0.3664877712726593 8.0 0 -0.09258852899074554
1.0124566555023193 -2.1623456478118896 0.041676346212625504 9.0 8 -0.0925862267613411
0.7004806399345398 -1.4967257976531982 -0.3815170228481293 7.0 1 -0.09258391708135605
1.0155469179153442 -2.1709184646606445 0.12560631334781647 7.0 9 -0.0925816148519516
0.8726425170898438 -1.865434169769287 -0.4003172814846039 6.0 2 -0.09257931262254715
1.0152246952056885 -2.1712169647216797 0.2096967101097107 7.0 10 -0.0925770103931427
1.0421448945999146 -2.229804277420044 -0.3898347318172455 100.0 3 -0.09257470071315765
1.0115915536880493 -2.1654162406921387 0.293461412191391 6.0 11 -0.0925723984837532
1.0380892753601074 -2.2231502532958984 -0.3012610375881195 100.0 4 -0.09257009625434875
1.004217267036438 -2.1515891551971436 0.37606850266456604 6.0 12 -0.0925677940249443
0.9842159748077393 -2.1087353229522705 -0.2035958170890808 8.0 5 -0.09256548434495926
1.0117915868759155 -2.1688058376312256 0.46519237756729126 6.0 13 -0.09256318211555481
1.0103615522384644 -2.1667275428771973 -0.12529228627681732 12.0 6 -0.09256087988615036
1.0019134283065796 -2.149589776992798 0.5475308895111084 6.0 14 -0.09255857765674591
1.0015475749969482 -2.149784803390503 -0.041397109627723694 10.0 7 -0.09255626797676086
1.0006418228149414 -2.148819923400879 0.6351419687271118 7.0 15 -0.09255396574735641
0.5774989128112793 -1.2441149950027466 -0.36752307415008545 8.0 0 -0.09253323078155518
0.998169481754303 -2.151355266571045 0.041397109627723694 9.0 8 -0.09253092855215073
0.6952519416809082 -1.499161720275879 -0.3815170228481293 7.0 1 -0.09252862632274628
1.013002634048462 -2.1853227615356445 0.12623433768749237 7.0 9 -0.09252631664276123
0.8677769303321838 -1.872031331062317 -0.40108051896095276 6.0 2 -0.09252401441335678
1.0009385347366333 -2.160285234451294 0.20830221474170685 7.0 10 -0.09252171218395233
1.033524990081787 -2.2316362857818604 -0.38952183723449707 100.0 3 -0.09251940995454788
1.0040265321731567 -2.1689343452453613 0.293461412191391 7.0 11 -0.09251710027456284
1.0336573123931885 -2.233966588973999 -0.30223599076271057 100.0 4 -0.09251479804515839
0.9967003464698792 -2.1550817489624023 0.37606850266456604 7.0 12 -0.09251249581575394
0.9843758344650269 -2.1284332275390625 -0.2051646113395691 8.0 5 -0.09251019358634949
0.9992722272872925 -2.1616318225860596 0.46290263533592224 6.0 13 -0.09250788390636444
1.0069810152053833 -2.1793060302734375 -0.12581564486026764 13.0 6 -0.09250558167695999
0.9993063807487488 -2.163689136505127 0.5502303242683411 7.0 14 -0.09250327944755554
0.9940372705459595 -2.1532676219940186 -0.041397109627723694 10.0 7 -0.09250097721815109
0.9947539567947388 -2.1558079719543457 0.6361772418022156 7.0 15 -0.09249867498874664
0.5763817429542542 -1.253143548965454 -0.36959362030029297 8.0 0 -0.09247793257236481
0.9856421947479248 -2.1439249515533447 0.04118768125772476 9.0 8 -0.09247563034296036
0.6851322650909424 -1.4909552335739136 -0.378817617893219 7.0 1 -0.09247332811355591
0.9986990094184875 -2.174325704574585 0.1253969669342041 8.0 9 -0.09247102588415146
0.8612369894981384 -1.875049114227295 -0.40108051896095276 7.0 2 -0.09246871620416641
0.9933918714523315 -2.1637659072875977 0.20830221474170685 7.0 10 -0.09246641397476196
1.0216093063354492 -2.2262532711029053 -0.38795751333236694 100.0 3 -0.09246411174535751
0.9923112392425537 -2.1634039878845215 0.29224270582199097 7.0 11 -0.09246180951595306
1.0233713388442993 -2.232147455215454 -0.30150479078292847 100.0 4 -0.09245949983596802
0.994109570980072 -2.1693224906921387 0.3779457211494446 6.0 12 -0.09245719760656357
0.9727903008460999 -2.12280011177063 -0.20429305732250214 9.0 5 -0.09245489537715912
0.9868150353431702 -2.1543972492218018 0.4606129229068756 6.0 13 -0.09245259314775467
0.9918846487998962 -2.166464328765869 -0.12487360835075378 13.0 6 -0.09245029091835022
0.98850417137146 -2.160076141357422 0.5484307408332825 7.0 14 -0.09244798123836517
0.9865151047706604 -2.156724214553833 -0.041397109627723694 11.0 7 -0.09244567900896072
0.9856158494949341 -2.1557533740997314 0.6351419687271118 7.0 15 -0.09244337677955627
0.5704016089439392 -1.2516320943832397 -0.3685583174228668 8.0 0 -0.09242264181375504
0.9814678430557251 -2.1546313762664795 0.04132729768753052 9.0 8 -0.09242033213376999
0.6799238324165344 -1.493337631225586 -0.378817617893219 7.0 1 -0.09241802990436554
0.987794041633606 -2.1705267429351807 0.12497827410697937 8.0 9 -0.09241572767496109
0.8514339923858643 -1.870896339416504 -0.399554044008255 6.0 2 -0.09241342544555664
0.987482488155365 -2.1708478927612305 0.2086508423089981 7.0 10 -0.0924111157655716
1.0146498680114746 -2.2316040992736816 -0.38827037811279297 100.0 3 -0.09240881353616714
0.9740766286849976 -2.1433606147766113 0.2890741229057312 7.0 11 -0.0924065113067627
1.0131101608276367 -2.2302842140197754 -0.300773561000824 100.0 4 -0.09240420907735825
0.9824477434158325 -2.163785934448242 0.37638136744499207 7.0 12 -0.0924019068479538
0.9653743505477905 -2.126182794570923 -0.20429305732250214 11.0 5 -0.09239959716796875
0.9809114933013916 -2.161404609680176 0.4613761901855469 6.0 13 -0.0923972949385643
0.9818411469459534 -2.164456605911255 -0.12455958873033524 13.0 6 -0.09239499270915985
0.9769344329833984 -2.154639482498169 0.5461812019348145 7.0 14 -0.0923926904797554
0.9798060655593872 -2.1619760990142822 -0.041432011872529984 11.0 7 -0.09239038079977036
0.9780850410461426 -2.1591806411743164 0.6351419687271118 8.0 15 -0.0923880785703659
0.5692090392112732 -1.2606582641601562 -0.37062889337539673 8.0 0 -0.09236734360456467
0.9722958207130432 -2.1543989181518555 0.04125748947262764 9.0 8 -0.09236504137516022
0.6763095855712891 -1.499254584312439 -0.3797174096107483 7.0 1 -0.09236273169517517
0.9797697067260742 -2.1719701290130615 0.12487360835075378 8.0 9 -0.09236042946577072
0.8416702151298523 -1.8666980266571045 -0.39802759885787964 6.0 2 -0.09235812723636627
0.9831736087799072 -2.181547164916992 0.20934809744358063 7.0 10 -0.09235582500696182
1.0068535804748535 -2.2351324558258057 -0.38827037811279297 100.0 3 -0.09235352277755737
0.9722937345504761 -2.1594185829162598 0.29078027606010437 7.0 11 -0.09235121309757233
1.000430941581726 -2.2229456901550293 -0.2993111312389374 100.0 4 -0.09234891086816788
0.9728350639343262 -2.161628007888794 0.375442773103714 7.0 12 -0.09234660863876343
0.9595813751220703 -2.133173704147339 -0.2046416699886322 18.0 5 -0.09234430640935898
0.9717504978179932 -2.161234140396118 0.4606129229068756 6.0 13 -0.09234199672937393
0.9742799997329712 -2.1678707599639893 -0.12455958873033524 13.0 6 -0.09233969449996948
0.9670117497444153 -2.1527035236358643 0.5448315143585205 6.0 14 -0.09233739227056503
0.9693537354469299 -2.157917022705078 -0.04129239544272423 11.0 7 -0.09233509004116058
0.9725021123886108 -2.1659369468688965 0.6361772418022156 7.0 15 -0.09233278036117554
0.5616496801376343 -1.255583643913269 -0.3685583174228668 8.0 0 -0.0923120453953743
0.9667791724205017 -2.161262035369873 0.04132729768753052 9.0 8 -0.09230974316596985
0.6673571467399597 -1.4925940036773682 -0.37746790051460266 7.0 1 -0.0923074409365654
0.9705522656440735 -2.1717302799224854 0.12466426193714142 8.0 9 -0.09230513870716095
0.8351490497589111 -1.8696247339248657 -0.39802759885787964 6.0 2 -0.0923028290271759
0.9706789255142212 -2.1740498542785645 0.20830221474170685 7.0 10 -0.09230052679777145
1.0002418756484985 -2.240262508392334 -0.3885832726955414 100.0 3 -0.092298224568367
0.9699815511703491 -2.1735074520111084 0.29224270582199097 7.0 11 -0.09229592233896255
0.9930537343025208 -2.2262508869171143 -0.2993111312389374 99.0 4 -0.09229361265897751
0.960456907749176 -2.1541857719421387 0.37356552481651306 7.0 12 -0.09229131042957306
0.9456413984298706 -2.1219513416290283 -0.20324717462062836 23.0 5 -0.09228900820016861
0.9701725244522095 -2.176997423171997 0.46328428387641907 6.0 13 -0.09228670597076416
0.9687109589576721 -2.174738645553589 -0.124768927693367 13.0 6 -0.09228439629077911
0.9590750336647034 -2.154118061065674 0.5443815588951111 7.0 14 -0.09228209406137466
0.958562970161438 -2.153979539871216 -0.041152775287628174 12.0 7 -0.09227979183197021
0.9617952108383179 -2.1622579097747803 0.6341066956520081 7.0 15 -0.09227748960256577
0.5512192249298096 -1.2433106899261475 -0.36441725492477417 8.0 0 -0.09225675463676453
0.9543684124946594 -2.1536543369293213 0.041117873042821884 9.0 8 -0.09225444495677948
0.6652995347976685 -1.5020415782928467 -0.37926751375198364 7.0 1 -0.09225214272737503
0.9645828008651733 -2.1787571907043457 0.12487360835075378 8.0 9 -0.09224984049797058
0.8257656097412109 -1.8652030229568481 -0.3965010941028595 6.0 2 -0.09224753826856613
0.9618517160415649 -2.1736128330230713 0.20795360207557678 7.0 10 -0.09224522858858109
0.9828269481658936 -2.2220618724823 -0.3848288059234619 100.0 3 -0.09224292635917664
0.9607833027839661 -2.1732490062713623 0.29175522923469543 7.0 11 -0.09224062412977219
0.9884860515594482 -2.236966848373413 -0.30028611421585083 99.0 4 -0.09223832190036774
0.9561242461204529 -2.1647531986236572 0.37481701374053955 6.0 12 -0.09223601222038269
0.9361846446990967 -2.119608163833618 -0.20272426307201385 29.0 5 -0.09223370999097824
0.9570171236991882 -2.1677982807159424 0.4606129229068756 6.0 13 -0.09223140776157379
0.9635327458381653 -2.183588743209839 -0.12508295476436615 13.0 6 -0.09222910553216934
0.9507637619972229 -2.155669689178467 0.5439317226409912 7.0 14 -0.0922267958521843
0.9518452882766724 -2.159142255783081 -0.04118768125772476 12.0 7 -0.09222449362277985
0.9511255025863647 -2.1585307121276855 0.6320361495018005 7.0 15 -0.0922221913933754
0.5484294891357422 -1.2487648725509644 -0.36545249819755554 8.0 0 -0.09220145642757416
0.9452373385429382 -2.153310537338257 0.04104805737733841 9.0 8 -0.09219915419816971
0.6592695713043213 -1.5025701522827148 -0.378817617893219 7.0 1 -0.09219684451818466
0.9593778252601624 -2.18759822845459 0.12518762052059174 8.0 9 -0.09219454228878021
0.8208264708518982 -1.871669888496399 -0.3972643315792084 7.0 2 -0.09219224005937576
0.9590574502944946 -2.18790602684021 0.20899945497512817 7.0 10 -0.09218993782997131
0.9742720127105713 -2.2236697673797607 -0.3845159709453583 100.0 3 -0.09218762814998627
0.9468207359313965 -2.1620423793792725 0.2898053228855133 7.0 11 -0.09218532592058182
0.9806714653968811 -2.240403652191162 -0.30028611421585083 100.0 4 -0.09218302369117737
0.9485622048377991 -2.1680774688720703 0.37481701374053955 6.0 12 -0.09218072146177292
0.9327733516693115 -2.1319897174835205 -0.2035958170890808 30.0 5 -0.09217841178178787
0.9462978839874268 -2.163930892944336 0.45908647775650024 6.0 13 -0.09217610955238342
0.9455056190490723 -2.1631476879119873 -0.12372221052646637 14.0 6 -0.09217380732297897
0.9471340775489807 -2.1679041385650635 0.5461812019348145 7.0 14 -0.09217150509357452
0.9459030628204346 -2.166116714477539 -0.04125748947262764 15.0 7 -0.09216920286417007
0.9435851573944092 -2.161837577819824 0.6320361495018005 7.0 15 -0.09216689318418503
0.5440670847892761 -1.250671625137329 -0.36545249819755554 8.0 0 -0.09214615821838379
0.9337281584739685 -2.147427558898926 0.040873534977436066 10.0 8 -0.09214385598897934
0.6493598818778992 -1.4941389560699463 -0.37611818313598633 7.0 1 -0.09214155375957489
0.9465454816818237 -2.177945613861084 0.12445490807294846 8.0 9 -0.09213924407958984
0.8095950484275818 -1.8637197017669678 -0.39497464895248413 7.0 2 -0.0921369418501854
0.9450665712356567 -2.1766200065612793 0.20760498940944672 7.0 10 -0.09213463962078094
0.9649308323860168 -2.223432779312134 -0.3838902413845062 100.0 3 -0.0921323373913765
0.9345285296440125 -2.154407501220703 0.2883428931236267 7.0 11 -0.09213002771139145
0.966528058052063 -2.2292428016662598 -0.2983361780643463 100.0 4 -0.092127725481987
0.9429388046264648 -2.174835681915283 0.375442773103714 6.0 12 -0.09212542325258255
0.9237407445907593 -2.1315762996673584 -0.20324717462062836 35.0 5 -0.0921231210231781
0.9426401257514954 -2.1762285232543945 0.46099457144737244 6.0 13 -0.09212081879377365
0.9395363330841064 -2.170100450515747 -0.12393154948949814 13.0 6 -0.0921185091137886
0.935691237449646 -2.162254810333252 0.5439317226409912 7.0 14 -0.09211620688438416
0.9403029680252075 -2.1729118824005127 -0.04132729768753052 15.0 7 -0.0921139046549797
0.9379448890686035 -2.1685009002685547 0.6330714225769043 7.0 15 -0.09211160242557526
0.545813798904419 -1.266756534576416 -0.36959362030029297 8.0 0 -0.09209086000919342
0.9289758801460266 -2.1560213565826416 0.04097824916243553 10.0 8 -0.09208855777978897
0.6459435224533081 -1.499863624572754 -0.377018004655838 7.0 1 -0.09208625555038452
0.935778796672821 -2.173898220062256 0.12403623014688492 8.0 9 -0.09208395332098007
0.8030844926834106 -1.8665344715118408 -0.39497464895248413 7.0 2 -0.09208165109157562
0.942185640335083 -2.190887451171875 0.2086508423089981 8.0 10 -0.09207934141159058
0.9559916853904724 -2.2229909896850586 -0.3832644820213318 100.0 3 -0.09207703918218613
0.928946852684021 -2.161142110824585 0.28883036971092224 7.0 11 -0.09207473695278168
0.9591301679611206 -2.232435703277588 -0.2983361780643463 94.0 4 -0.09207243472337723
0.9314438700675964 -2.1690385341644287 0.3738784193992615 7.0 12 -0.09207012504339218
0.9178665280342102 -2.1384496688842773 -0.2035958170890808 39.0 5 -0.09206782281398773
0.9377416372299194 -2.1847546100616455 0.46213942766189575 6.0 13 -0.09206552058458328
0.934697151184082 -2.1787109375 -0.12424556910991669 14.0 6 -0.09206321835517883
0.9254436492919922 -2.158181667327881 0.5421320796012878 7.0 14 -0.09206090867519379
0.9295616149902344 -2.1688292026519775 -0.04118768125772476 16.0 7 -0.09205860644578934
0.929608941078186 -2.1699860095977783 0.63255375623703 8.0 15 -0.09205630421638489
0.5355415940284729 -1.2543460130691528 -0.36545249819755554 8.0 0 -0.09203556925058365
0.9222292304039001 -2.16109037399292 0.04101315513253212 11.0 8 -0.0920332670211792
0.6391746997833252 -1.4985243082046509 -0.37611818313598633 7.0 1 -0.09203095734119415
0.9266183972358704 -2.1734769344329834 0.12382689118385315 8.0 9 -0.0920286551117897
0.7953505516052246 -1.8655750751495361 -0.39421138167381287 6.0 2 -0.09202635288238525
0.9247615337371826 -2.1701719760894775 0.2063847929239273 8.0 10 -0.0920240506529808
0.9513224363327026 -2.23358416557312 -0.3845159709453583 100.0 3 -0.09202174097299576
0.9260629415512085 -2.175330400466919 0.29029279947280884 7.0 11 -0.09201943874359131
0.9521088600158691 -2.2375967502593994 -0.2985799014568329 100.0 4 -0.09201713651418686
0.9207746386528015 -2.1650052070617676 0.3726269602775574 7.0 12 -0.09201483428478241
0.904160737991333 -2.126971960067749 -0.20220132172107697 41.0 5 -0.09201252460479736
0.9255012273788452 -2.1771738529205322 0.45984968543052673 6.0 13 -0.09201022237539291
0.9255242347717285 -2.178283929824829 -0.12403623014688492 18.0 6 -0.09200792014598846
0.9171429872512817 -2.1596052646636963 0.5416821837425232 7.0 14 -0.09200561791658401
0.9188595414161682 -2.1646978855133057 -0.04104805737733841 18.0 7 -0.09200330823659897
0.9197649955749512 -2.1678826808929443 0.6310008764266968 8.0 15 -0.09200100600719452
0.5279324054718018 -1.2491825819015503 -0.363381952047348 8.0 0 -0.09198027104139328
0.9131230115890503 -2.1606125831604004 0.04094334691762924 11.0 8 -0.09197796881198883
0.6346984505653381 -1.5025413036346436 -0.376568078994751 7.0 1 -0.09197566658258438
0.9221329689025879 -2.18405818939209 0.12424556910991669 8.0 9 -0.09197335690259933
0.7885075211524963 -1.8684775829315186 -0.39421138167381287 7.0 2 -0.09197105467319489
0.9144785404205322 -2.168039321899414 0.2058618664741516 7.0 10 -0.09196875244379044
0.9385251402854919 -2.226134777069092 -0.38263875246047974 100.0 3 -0.09196645021438599
0.9153789281845093 -2.1712331771850586 0.2893178462982178 7.0 11 -0.09196414053440094
0.9435214996337891 -2.23907732963562 -0.2983361780643463 100.0 4 -0.09196183830499649
0.9147455096244812 -2.171847105026245 0.3732526898384094 7.0 12 -0.09195953607559204
0.8944114446640015 -2.124605894088745 -0.20167838037014008 44.0 5 -0.09195723384618759
0.9167538285255432 -2.178741931915283 0.4594680964946747 6.0 13 -0.09195492416620255
0.9175344705581665 -2.181661367416382 -0.12403623014688492 15.0 6 -0.0919526219367981
0.9122421145439148 -2.170138120651245 0.5434817671775818 7.0 14 -0.09195031970739365
0.9089732766151428 -2.1623616218566895 -0.04094334691762924 19.0 7 -0.0919480174779892
0.9106955528259277 -2.16751766204834 0.6299655437469482 7.0 15 -0.09194570779800415
0.5280436277389526 -1.2617101669311523 -0.3664877712726593 8.0 0 -0.09192497283220291
0.9005676507949829 -2.152876138687134 0.04073391854763031 10.0 8 -0.09192267060279846
0.6284353137016296 -1.5030596256256104 -0.37611818313598633 7.0 1 -0.09192036837339401
0.911422073841095 -2.1798930168151855 0.12382689118385315 8.0 9 -0.09191806614398956
0.7827374935150146 -1.8730303049087524 -0.3945930302143097 7.0 2 -0.09191575646400452
0.9168874621391296 -2.1951181888580322 0.20812790095806122 8.0 10 -0.09191345423460007
0.9277048110961914 -2.2221055030822754 -0.38138729333877563 100.0 3 -0.09191115200519562
0.9051215648651123 -2.169077157974243 0.2885866165161133 7.0 11 -0.09190884977579117
0.9353085160255432 -2.242520570755005 -0.2983361780643463 99.0 4 -0.09190654009580612
0.9101999998092651 -2.1823198795318604 0.3745041489601135 7.0 12 -0.09190423786640167
0.888523280620575 -2.1313931941986084 -0.20202700793743134 50.0 5 -0.09190193563699722
0.9046123027801514 -2.171055316925049 0.45717838406562805 6.0 13 -0.09189963340759277
0.904538094997406 -2.1719446182250977 -0.12330353260040283 18.0 6 -0.09189732372760773
0.9061591029167175 -2.1769073009490967 0.5443815588951111 7.0 14 -0.09189502149820328
0.9006511569023132 -2.163675308227539 -0.040908440947532654 18.0 7 -0.09189271926879883
0.9038659930229187 -2.1724672317504883 0.6304832100868225 8.0 15 -0.09189041703939438
0.5221569538116455 -1.2599765062332153 -0.36545249819755554 9.0 0 -0.09186968207359314
0.8934233784675598 -2.155850648880005 0.04073391854763031 12.0 8 -0.0918673723936081
0.6234474778175354 -1.5051352977752686 -0.37611818313598633 7.0 1 -0.09186507016420364
0.902279257774353 -2.179370641708374 0.12361754477024078 9.0 9 -0.0918627679347992
0.7784466743469238 -1.8811935186386108 -0.395737886428833 6.0 2 -0.09186046570539474
0.906173825263977 -2.190941095352173 0.2074306607246399 8.0 10 -0.0918581560254097
0.9203308820724487 -2.2251696586608887 -0.38138729333877563 100.0 3 -0.09185585379600525
0.8941317200660706 -2.1628944873809814 0.28736793994903564 7.0 11 -0.0918535515666008
0.9248347282409668 -2.2382709980010986 -0.29736122488975525 92.0 4 -0.09185124933719635
0.8995608687400818 -2.178180456161499 0.3732526898384094 7.0 12 -0.0918489396572113
0.884118378162384 -2.141848564147949 -0.20272426307201385 56.0 5 -0.09184663742780685
0.8989059329032898 -2.1776726245880127 0.45794162154197693 6.0 13 -0.0918443351984024
0.8942835927009583 -2.1675469875335693 -0.1228848323225975 18.0 6 -0.09184203296899796
0.8900203108787537 -2.1582813262939453 0.5389827489852905 7.0 14 -0.0918397307395935
0.8953790664672852 -2.1723525524139404 -0.04101315513253212 24.0 7 -0.09183742105960846
0.896277129650116 -2.1756091117858887 0.6304832100868225 8.0 15 -0.09183511883020401
0.520176887512207 -1.2670624256134033 -0.36700543761253357 11.0 0 -0.09181438386440277
0.8889292478561401 -2.166355848312378 0.040873534977436066 11.0 8 -0.09181208163499832
0.6167110204696655 -1.5036964416503906 -0.37521839141845703 7.0 1 -0.09180977195501328
0.8931511044502258 -2.1788105964660645 0.12340819090604782 9.0 9 -0.09180746972560883
0.7662468552589417 -1.8692320585250854 -0.3926849365234375 6.0 2 -0.09180516749620438
0.899658739566803 -2.195777654647827 0.20760498940944672 7.0 10 -0.09180286526679993
0.914055347442627 -2.232024669647217 -0.3820130228996277 100.0 3 -0.09180055558681488
0.8865763545036316 -2.1660022735595703 0.28736793994903564 7.0 11 -0.09179825335741043
0.9140095114707947 -2.2341368198394775 -0.2963862717151642 99.0 4 -0.09179595112800598
0.8919517397880554 -2.181307315826416 0.3732526898384094 7.0 12 -0.09179364889860153
0.8762567043304443 -2.1429243087768555 -0.20254994928836823 59.0 5 -0.09179134666919708
0.8942701816558838 -2.188066244125366 0.4594680964946747 6.0 13 -0.09178903698921204
0.8859570026397705 -2.168806791305542 -0.12278016656637192 19.0 6 -0.09178673475980759
0.8854272365570068 -2.1685917377471924 0.5407823324203491 7.0 14 -0.09178443253040314
0.8825019001960754 -2.1625044345855713 -0.0407688245177269 26.0 7 -0.09178213030099869
0.8886775374412537 -2.1787242889404297 0.6304832100868225 8.0 15 -0.09177982062101364
0.5092040300369263 -1.2527633905410767 -0.36234667897224426 13.0 0 -0.0917590856552124
0.882867157459259 -2.1731512546539307 0.04094334691762924 12.0 8 -0.09175678342580795
0.6114581823348999 -1.5058400630950928 -0.37521839141845703 7.0 1 -0.0917544811964035
0.8840382099151611 -2.1782138347625732 0.12319885194301605 9.0 9 -0.09175217896699905
0.7597174644470215 -1.8718953132629395 -0.3926849365234375 7.0 2 -0.09174986928701401
0.8867461681365967 -2.185980796813965 0.2063847929239273 8.0 10 -0.09174756705760956
0.906258225440979 -2.235201835632324 -0.3820130228996277 100.0 3 -0.09174526482820511
0.8827381134033203 -2.1782824993133545 0.2885866165161133 8.0 11 -0.09174296259880066
0.9076957702636719 -2.2409932613372803 -0.2968737483024597 97.0 4 -0.09174065291881561
0.8784021735191345 -2.1697590351104736 0.37074974179267883 7.0 12 -0.09173835068941116
0.8657807111740112 -2.138582706451416 -0.2018527090549469 61.0 5 -0.09173604846000671
0.8844177722930908 -2.1857149600982666 0.45832324028015137 6.0 13 -0.09173374623060226
0.8798786401748657 -2.175589084625244 -0.12298951297998428 20.0 6 -0.09173143655061722
0.8756612539291382 -2.1662487983703613 0.5394326448440552 7.0 14 -0.09172913432121277
0.8734496235847473 -2.161863327026367 -0.04069900885224342 31.0 7 -0.09172683209180832
0.8723862171173096 -2.1603176593780518 0.6242715716362 8.0 15 -0.09172452986240387
0.506991446018219 -1.2599098682403564 -0.3638995885848999 12.0 0 -0.09170379489660263
0.8730373978614807 -2.170654058456421 0.040838632732629776 12.0 8 -0.09170148521661758
0.610559344291687 -1.518813967704773 -0.3779177963733673 7.0 1 -0.09169918298721313
0.8764294385910034 -2.181286334991455 0.12319885194301605 9.0 9 -0.09169688075780869
0.7568384408950806 -1.8836443424224854 -0.3945930302143097 7.0 2 -0.09169457852840424
0.8731702566146851 -2.174271583557129 0.20499029755592346 8.0 10 -0.09169226884841919
0.8955071568489075 -2.231018543243408 -0.3807615041732788 100.0 3 -0.09168996661901474
0.8751288056373596 -2.1813507080078125 0.2885866165161133 8.0 11 -0.09168766438961029
0.9013451933860779 -2.247832775115967 -0.29736122488975525 94.0 4 -0.09168536216020584
0.8693534731864929 -2.169145107269287 0.3701240122318268 7.0 12 -0.0916830524802208
0.8560870289802551 -2.1360435485839844 -0.20132976770401 67.0 5 -0.09168075025081635
0.8738624453544617 -2.1814987659454346 0.4567967355251312 6.0 13 -0.0916784480214119
0.8745060563087463 -2.1842095851898193 -0.12330353260040283 21.0 6 -0.09167614579200745
0.8673705458641052 -2.16748309135437 0.5389827489852905 7.0 14 -0.0916738361120224
0.8658978939056396 -2.1648991107940674 -0.04069900885224342 28.0 7 -0.09167153388261795
0.867708683013916 -2.170524835586548 0.6263421177864075 8.0 15 -0.0916692316532135
0.5018755197525024 -1.259877324104309 -0.363381952047348 9.0 0 -0.09164849668741226
0.8602771162986755 -2.1606831550598145 0.040594298392534256 13.0 8 -0.09164619445800781
0.5966076254844666 -1.4992082118988037 -0.37251898646354675 7.0 1 -0.09164388477802277
0.8702861666679382 -2.1880440711975098 0.12340819090604782 9.0 9 -0.09164158254861832
0.7480818033218384 -1.880802035331726 -0.393448144197464 6.0 2 -0.09163928031921387
0.8699914216995239 -2.188415050506592 0.20603616535663605 8.0 10 -0.09163697808980942
0.8862549066543579 -2.230459451675415 -0.38013577461242676 100.0 3 -0.09163466840982437
0.8616478443145752 -2.16963267326355 0.28663671016693115 7.0 11 -0.09163236618041992
0.8949581980705261 -2.254655599594116 -0.2978487014770508 97.0 4 -0.09163006395101547
0.8676037788391113 -2.1868555545806885 0.3726269602775574 7.0 12 -0.09162776172161102
0.8486253023147583 -2.139019012451172 -0.20132976770401 67.0 5 -0.09162545204162598
0.8611767292022705 -2.1717607975006104 0.45412543416023254 6.0 13 -0.09162314981222153
0.860989511013031 -2.1723949909210205 -0.12246615439653397 21.0 6 -0.09162084758281708
0.8612344264984131 -2.174121141433716 0.5398825407028198 7.0 14 -0.09161854535341263
0.8583356738090515 -2.1679084300994873 -0.04069900885224342 30.0 7 -0.09161624312400818
0.861548662185669 -2.1771328449249268 0.6273773908615112 8.0 15 -0.09161393344402313
0.49769482016563416 -1.261534571647644 -0.363381952047348 8.0 0 -0.09159207344055176
0.8494398593902588 -2.1542227268218994 0.04041977599263191 12.0 8 -0.09158977121114731
0.5930618047714233 -1.5048044919967651 -0.37341877818107605 7.0 1 -0.09158746898174286
0.8586335778236389 -2.1797685623168945 0.12278016656637192 9.0 9 -0.09158515930175781
0.7432796955108643 -1.8869255781173706 -0.39421138167381287 7.0 2 -0.09158285707235336
0.8641893267631531 -2.194995880126953 0.2063847929239273 8.0 10 -0.09158055484294891
0.8803006410598755 -2.2370622158050537 -0.3807615041732788 100.0 3 -0.09157825261354446
0.8559014797210693 -2.176173210144043 0.2871242165565491 8.0 11 -0.09157594293355942
0.8802140951156616 -2.2391364574432373 -0.29541128873825073 100.0 4 -0.09157364070415497
0.8603472709655762 -2.189720630645752 0.3726269602775574 7.0 12 -0.09157133847475052
0.8378846049308777 -2.132549524307251 -0.20045821368694305 70.0 5 -0.09156903624534607
0.8554053902626038 -2.1782593727111816 0.4548886716365814 6.0 13 -0.09156672656536102
0.8523213267326355 -2.1715197563171387 -0.1222568079829216 23.0 6 -0.09156442433595657
0.8525965809822083 -2.173336982727051 0.5389827489852905 7.0 14 -0.09156212210655212
0.8511421084403992 -2.1707427501678467 -0.04069900885224342 30.0 7 -0.09155981987714767
0.854324221611023 -2.1799778938293457 0.6273773908615112 8.0 15 -0.09155751019716263
0.49188295006752014 -1.2596651315689087 -0.36234667897224426 9.0 0 -0.09153677523136139
0.8455501198768616 -2.1664888858795166 0.040594298392534256 13.0 8 -0.09153447300195694
0.5863890647888184 -1.5032345056533813 -0.37251898646354675 7.0 1 -0.09153217077255249
0.8495686650276184 -2.179030418395996 0.12257081270217896 9.0 9 -0.09152986854314804
0.7338362336158752 -1.8821921348571777 -0.3926849365234375 7.0 2 -0.091527558863163
0.8565220236778259 -2.1979992389678955 0.2063847929239273 8.0 10 -0.09152525663375854
0.8717693090438843 -2.23828125 -0.38044866919517517 100.0 3 -0.0915229544043541
0.8454196453094482 -2.171747922897339 0.2861492335796356 8.0 11 -0.09152065217494965
0.8738322257995605 -2.2458953857421875 -0.29589879512786865 97.0 4 -0.0915183424949646
0.8469709157943726 -2.1779820919036865 0.3701240122318268 8.0 12 -0.09151604026556015
0.8304355144500732 -2.1354610919952393 -0.20045821368694305 70.0 5 -0.0915137380361557
0.847796618938446 -2.18123197555542 0.4548886716365814 7.0 13 -0.09151143580675125
0.8454592823982239 -2.1763434410095215 -0.12236147373914719 21.0 6 -0.0915091261267662
0.8421837687492371 -2.1690332889556885 0.5371831059455872 7.0 14 -0.09150682389736176
0.84211266040802 -2.1699724197387695 -0.040629200637340546 30.0 7 -0.0915045216679573
0.845312237739563 -2.179344654083252 0.6263421177864075 8.0 15 -0.09150221943855286
0.4735548794269562 -1.2253350019454956 -0.3519938886165619 14.0 0 -0.09148148447275162
0.8394235968589783 -2.1731581687927246 0.040664106607437134 13.0 8 -0.09147917479276657
0.5839455127716064 -1.5125439167022705 -0.37431856989860535 7.0 1 -0.09147687256336212
0.8433949947357178 -2.1857097148895264 0.12278016656637192 9.0 9 -0.09147457033395767
0.7216072678565979 -1.8700892925262451 -0.389631986618042 7.0 2 -0.09147226810455322
0.8431090712547302 -2.1861040592193604 0.20499029755592346 8.0 10 -0.09146995842456818
0.8639511466026306 -2.2413105964660645 -0.38044866919517517 100.0 3 -0.09146765619516373
0.8421153426170349 -2.185800313949585 0.2876116633415222 7.0 11 -0.09146535396575928
0.8659874796867371 -2.248931884765625 -0.29589879512786865 99.0 4 -0.09146305173635483
0.8414919376373291 -2.1864559650421143 0.37106260657310486 8.0 12 -0.09146074205636978
0.8222607970237732 -2.1364874839782715 -0.20028388500213623 77.0 5 -0.09145843982696533
0.8444064855575562 -2.1951723098754883 0.45717838406562805 6.0 13 -0.09145613759756088
0.8364237546920776 -2.1755528450012207 -0.12215213477611542 22.0 6 -0.09145383536815643
0.8360056281089783 -2.175597906112671 0.5380829572677612 7.0 14 -0.09145153313875198
0.8316650986671448 -2.1654317378997803 -0.04048958420753479 34.0 7 -0.09144922345876694
0.8363150358200073 -2.1786749362945557 0.6253068447113037 8.0 15 -0.09144692122936249
0.4623735249042511 -1.2089368104934692 -0.3468175232410431 19.0 0 -0.09142618626356125
0.8296905755996704 -2.17047119140625 0.04055939242243767 13.0 8 -0.0914238840341568
0.5800533890724182 -1.5182139873504639 -0.37521839141845703 7.0 1 -0.09142157435417175
0.834335446357727 -2.184908390045166 0.12257081270217896 9.0 9 -0.0914192721247673
0.7192773818969727 -1.883601188659668 -0.3919216990470886 7.0 2 -0.09141696989536285
0.8340520858764648 -2.1853108406066895 0.2046416699886322 9.0 10 -0.0914146676659584
0.8504897952079773 -2.2295472621917725 -0.3779457211494446 100.0 3 -0.09141235798597336
0.8344805836677551 -2.1887264251708984 0.2876116633415222 8.0 11 -0.09141005575656891
0.8581319451332092 -2.251940965652466 -0.29589879512786865 99.0 4 -0.09140775352716446
0.8310419917106628 -2.1819958686828613 0.36981111764907837 8.0 12 -0.09140545129776001
0.8133795261383057 -2.1356210708618164 -0.19993527233600616 85.0 5 -0.09140314906835556
0.8360404968261719 -2.1962716579437256 0.4567967355251312 7.0 13 -0.09140083938837051
0.8316656351089478 -2.1859259605407715 -0.12257081270217896 22.0 6 -0.09139853715896606
0.8284059166908264 -2.1785030364990234 0.5380829572677612 7.0 14 -0.09139623492956161
0.8248118162155151 -2.1701908111572266 -0.04052448645234108 36.0 7 -0.09139393270015717
0.8245887160301208 -2.1707451343536377 0.6222009658813477 8.0 15 -0.09139162302017212
0.45746704936027527 -1.208736777305603 -0.3462998867034912 20.0 0 -0.09137088805437088
0.8171566128730774 -2.160261631011963 0.040315061807632446 13.0 8 -0.09136858582496643
0.5719934701919556 -1.5129382610321045 -0.37341877818107605 7.0 1 -0.09136628359556198
0.8281158208847046 -2.1915442943573 0.12278016656637192 9.0 9 -0.09136397391557693
0.705064594745636 -1.8658987283706665 -0.3877238929271698 7.0 2 -0.09136167168617249
0.8264188170433044 -2.188208818435669 0.2046416699886322 9.0 10 -0.09135936945676804
0.8454923033714294 -2.2398948669433594 -0.3791971802711487 100.0 3 -0.09135706722736359
0.8226310610771179 -2.1804819107055664 0.2861492335796356 8.0 11 -0.09135476499795914
0.8516666293144226 -2.2586376667022705 -0.2963862717151642 97.0 4 -0.09135245531797409
0.8262071013450623 -2.192277431488037 0.37106260657310486 8.0 12 -0.09135015308856964
0.8059200644493103 -2.1384472846984863 -0.19993527233600616 83.0 5 -0.09134785085916519
0.8228325843811035 -2.184478521347046 0.4537437856197357 7.0 13 -0.09134554862976074
0.8226228356361389 -2.185077667236328 -0.12236147373914719 22.0 6 -0.0913432389497757
0.819424033164978 -2.1777334213256836 0.5371831059455872 7.0 14 -0.09134093672037125
0.8172311186790466 -2.1730568408966064 -0.04052448645234108 40.0 7 -0.0913386344909668
0.8170064091682434 -2.1736104488372803 0.6222009658813477 8.0 15 -0.09133633226156235
0.44714733958244324 -1.1940438747406006 -0.3416411578655243 19.0 0 -0.09131558984518051
0.8124149441719055 -2.1705918312072754 0.0404546782374382 14.0 8 -0.09131328761577606
0.5626122951507568 -1.503974437713623 -0.37071937322616577 7.0 1 -0.09131098538637161
0.816263735294342 -2.183197021484375 0.12215213477611542 10.0 9 -0.09130868315696716
0.704734742641449 -1.8848990201950073 -0.39115849137306213 6.0 2 -0.09130638092756271
0.8229600191116333 -2.2022783756256104 0.20568755269050598 9.0 10 -0.09130407124757767
0.8418155908584595 -2.2539355754852295 -0.3810743987560272 100.0 3 -0.09130176901817322
0.8108493685722351 -2.1721818447113037 0.2846868336200714 8.0 11 -0.09129946678876877
0.8382260799407959 -2.246717929840088 -0.29443636536598206 99.0 4 -0.09129716455936432
0.8185498118400574 -2.195147752761841 0.37106260657310486 8.0 12 -0.09129485487937927
0.7998429536819458 -2.1449806690216064 -0.20028388500213623 85.0 5 -0.09129255264997482
0.813831090927124 -2.1836583614349365 0.45298057794570923 7.0 13 -0.09129025042057037
0.810807466506958 -2.176706075668335 -0.12173344939947128 25.0 6 -0.09128794819116592
0.8118170499801636 -2.1805806159973145 0.5371831059455872 7.0 14 -0.09128563851118088
0.8089436292648315 -2.1740219593048096 -0.04048958420753479 42.0 7 -0.09128333628177643
0.8121079206466675 -2.18369197845459 0.6242715716362 8.0 15 -0.09128103405237198
0.44096317887306213 -1.1901627779006958 -0.34008821845054626 17.0 0 -0.09126029908657074
0.8069164752960205 -2.1790406703948975 0.04055939242243767 14.0 8 -0.09125799685716629
0.5627701878547668 -1.5205497741699219 -0.37431856989860535 7.0 1 -0.09125568717718124
0.8065593838691711 -2.180413007736206 0.12183811515569687 10.0 9 -0.0912533849477768
0.689296543598175 -1.8634103536605835 -0.38619744777679443 7.0 2 -0.09125108271837234
0.8138860464096069 -2.2014002799987793 0.20533892512321472 9.0 10 -0.0912487804889679
0.8339424133300781 -2.2568604946136475 -0.3810743987560272 100.0 3 -0.09124647080898285
0.8073886036872864 -2.186171770095825 0.2861492335796356 8.0 11 -0.0912441685795784
0.8290038704872131 -2.2459053993225098 -0.2939488887786865 100.0 4 -0.09124186635017395
0.8067797422409058 -2.1868722438812256 0.3691853880882263 8.0 12 -0.0912395641207695
0.7937295436859131 -2.151498317718506 -0.2006325125694275 83.0 5 -0.09123725444078445
0.8055245280265808 -2.1846439838409424 0.4525989890098572 7.0 13 -0.09123495221138
0.8038948774337769 -2.181396961212158 -0.12183811515569687 24.0 6 -0.09123264998197556
0.801506519317627 -2.176086664199829 0.5353835225105286 7.0 14 -0.0912303477525711
0.7978957891464233 -2.167449474334717 -0.040315061807632446 36.0 7 -0.09122803807258606
0.8098168969154358 -2.2010176181793213 0.628412663936615 8.0 15 -0.09122573584318161
0.43414679169654846 -1.1844394207000732 -0.33801770210266113 12.0 0 -0.09120500087738037
0.7986173033714294 -2.1799662113189697 0.04052448645234108 15.0 8 -0.09120269864797592
0.5500888228416443 -1.5023757219314575 -0.36936965584754944 7.0 1 -0.09120039641857147
0.8016889691352844 -2.190717935562134 0.1222568079829216 10.0 9 -0.09119808673858643
0.6807637214660645 -1.860274076461792 -0.3850525915622711 7.0 2 -0.09119578450918198
0.7993528842926025 -2.185516119003296 0.2035958170890808 9.0 10 -0.09119348227977753
0.8219903707504272 -2.2486259937286377 -0.3791971802711487 100.0 3 -0.09119118005037308
0.7970276474952698 -2.1815185546875 0.28517428040504456 8.0 11 -0.09118887037038803
0.820478081703186 -2.2469208240509033 -0.29370513558387756 100.0 4 -0.09118656814098358
0.7971095442771912 -2.184107780456543 0.36824676394462585 8.0 12 -0.09118426591157913
0.7807501554489136 -2.139282464981079 -0.19923801720142365 83.0 5 -0.09118196368217468
0.8039485216140747 -2.2040419578552246 0.45603352785110474 7.0 13 -0.09117965400218964
0.799011766910553 -2.1916956901550293 -0.1222568079829216 23.0 6 -0.09117735177278519
0.7945730686187744 -2.1807022094726562 0.535833477973938 7.0 14 -0.09117504954338074
0.7903250455856323 -2.1702215671539307 -0.040315061807632446 40.0 7 -0.09117274731397629
0.7968431115150452 -2.1893084049224854 0.6242715716362 8.0 15 -0.09117044508457184
0.4280339479446411 -1.1804991960525513 -0.3364647626876831 10.0 0 -0.09114970266819
0.7882776260375977 -2.175220489501953 0.040384870022535324 17.0 8 -0.09114740043878555
0.5494867563247681 -1.5171126127243042 -0.37251898646354675 7.0 1 -0.0911450982093811
0.7953965663909912 -2.197258949279785 0.12246615439653397 10.0 9 -0.09114279597997665
0.6829531788825989 -1.8866374492645264 -0.39001360535621643 7.0 2 -0.09114048629999161
0.7903633713722229 -2.1845457553863525 0.20324717462062836 9.0 10 -0.09113818407058716
0.8094343543052673 -2.238477945327759 -0.3770070970058441 100.0 3 -0.09113588184118271
0.7948054671287537 -2.1992228031158447 0.2871242165565491 8.0 11 -0.09113357961177826
0.8139786124229431 -2.253505229949951 -0.2941926121711731 100.0 4 -0.09113126993179321
0.7908219695091248 -2.1905932426452637 0.3688724935054779 8.0 12 -0.09112896770238876
0.7719245553016663 -2.138247013092041 -0.19888940453529358 85.0 5 -0.09112666547298431
0.7909197807312012 -2.192060947418213 0.45298057794570923 7.0 13 -0.09112436324357986
0.7906790971755981 -2.1925926208496094 -0.12215213477611542 22.0 6 -0.09112206101417542
0.788938045501709 -2.18896222114563 0.5371831059455872 7.0 14 -0.09111975133419037
0.7827448844909668 -2.172966957092285 -0.040315061807632446 36.0 7 -0.09111744910478592
0.7813435792922974 -2.170264482498169 0.6180598735809326 8.0 15 -0.09111514687538147
0.4239107370376587 -1.1819860935211182 -0.3364647626876831 9.0 0 -0.09109441190958023
0.7779810428619385 -2.170428991317749 0.04024524614214897 16.0 8 -0.09109210222959518
0.541558563709259 -1.5116832256317139 -0.37071937322616577 7.0 1 -0.09108980000019073
0.788395345211029 -2.201902151107788 0.12257081270217896 10.0 9 -0.09108749777078629
0.6796726584434509 -1.8982515335083008 -0.3919216990470886 6.0 2 -0.09108519554138184
0.7813906669616699 -2.183539628982544 0.2028985619544983 10.0 10 -0.09108288586139679
0.7976238131523132 -2.2301294803619385 -0.3751298785209656 100.0 3 -0.09108058363199234
0.7804419994354248 -2.18329119682312 0.2846868336200714 8.0 11 -0.09107828140258789
0.8081110119819641 -2.2619409561157227 -0.2949238419532776 100.0 4 -0.09107597917318344
0.783170759677887 -2.193340301513672 0.3688724935054779 8.0 12 -0.09107367694377899
0.7631162405014038 -2.1371757984161377 -0.19854077696800232 83.0 5 -0.09107136726379395
0.7779842019081116 -2.180016040802002 0.4499276280403137 7.0 13 -0.0910690650343895
0.7789948582649231 -2.184051990509033 -0.12152409553527832 25.0 6 -0.09106676280498505
0.7786751389503479 -2.1843605041503906 0.5353835225105286 7.0 14 -0.0910644605755806
0.7771685123443604 -2.181337594985962 -0.04041977599263191 39.0 7 -0.09106215089559555
0.778947114944458 -2.1875381469726562 0.6222009658813477 8.0 15 -0.0910598486661911
0.41849055886268616 -1.1798171997070312 -0.33542948961257935 8.0 0 -0.09103911370038986
0.7697319388389587 -2.1712467670440674 0.04021034389734268 18.0 8 -0.09103681147098541
0.5330244898796082 -1.5043801069259644 -0.36846986413002014 7.0 1 -0.09103450179100037
0.7773708701133728 -2.1952273845672607 0.12204745411872864 11.0 9 -0.09103219956159592
0.6743529438972473 -1.9043138027191162 -0.3926849365234375 7.0 2 -0.09102989733219147
0.7777520418167114 -2.197523355484009 0.20394444465637207 10.0 10 -0.09102759510278702
0.7924695611000061 -2.240349531173706 -0.37638136744499207 100.0 3 -0.09102529287338257
0.7688460946083069 -2.1747727394104004 0.2832243740558624 9.0 11 -0.09102298319339752
0.7975650429725647 -2.257261276245117 -0.2939488887786865 100.0 4 -0.09102068096399307
