# .PCD v0.7 - Point Cloud Data file format
VERSION 0.7
FIELDS x y z intensity ring time
SIZE 4 4 4 4 4 4
TYPE F F F F F F
COUNT 1 1 1 1 1 1
WIDTH 534
HEIGHT 1
VIEWPOINT 0 0 0 1 0 0 0
POINTS 534
DATA ascii
-2.873699903488159 -0.6244670152664185 -0.2572837471961975 35.0 5 -0.04259751737117767
-2.8835856914520264 -0.626087486743927 0.5735718607902527 5.0 13 -0.042595215141773224
-2.6408631801605225 -0.572905421257019 -0.14162111282348633 2.0 6 -0.042592909187078476
-2.898669958114624 -0.6283039450645447 0.684751033782959 51.0 14 -0.042590606957674026
-2.6032426357269287 -0.5637920498847961 -0.04649320989847183 3.0 7 -0.04258830100297928
-2.8737661838531494 -0.6218557953834534 0.7878451943397522 38.0 15 -0.04258599877357483
-1.7318912744522095 -0.37255018949508667 -0.47467416524887085 4.0 0 -0.04256526380777359
-2.6060802936553955 -0.5601226687431335 0.04652811586856842 12.0 8 -0.04256295785307884
-1.861480712890625 -0.3997471034526825 -0.4395543932914734 25.0 1 -0.04256065562367439
-2.634345293045044 -0.5652357339859009 0.1412024199962616 9.0 9 -0.042558349668979645
-2.670879364013672 -0.5725870728492737 0.23898103833198547 1.0 10 -0.04255374148488045
-1.620581030845642 -0.3471263349056244 -0.26249706745147705 0.0 3 -0.042551439255476
-2.9136438369750977 -0.6235676407814026 0.3658517897129059 16.0 11 -0.04254913330078125
-2.6924548149108887 -0.5757381916046143 -0.33806559443473816 7.0 4 -0.0425468310713768
-2.8938047885894775 -0.6182647943496704 0.46867769956588745 42.0 12 -0.04254452511668205
-2.8680686950683594 -0.6127662658691406 -0.2565865218639374 33.0 5 -0.0425422228872776
-2.8761532306671143 -0.6139693856239319 0.5716637372970581 5.0 13 -0.042539916932582855
-2.627220392227173 -0.5603505373001099 -0.14078372716903687 2.0 6 -0.042537614703178406
-2.9027516841888428 -0.6185872554779053 0.6852009892463684 70.0 14 -0.04253530874848366
-2.5817246437072754 -0.549704909324646 -0.04607435315847397 5.0 7 -0.04253300651907921
-2.8551340103149414 -0.6073987483978271 0.7821511626243591 46.0 15 -0.04253070056438446
-1.7273832559585571 -0.3659067749977112 -0.4731212258338928 5.0 0 -0.0424962043762207
-2.60978364944458 -0.5523466467857361 0.04656302183866501 13.0 8 -0.042493902146816254
-1.868447184562683 -0.39510610699653625 -0.44090408086776733 26.0 1 -0.042491596192121506
-2.6478323936462402 -0.5594345927238464 0.1418304443359375 9.0 9 -0.042489293962717056
-2.6531710624694824 -0.5600781440734863 0.23723793029785156 1.0 10 -0.04248468577861786
-1.6371264457702637 -0.34529510140419006 -0.26500001549720764 1.0 3 -0.04248237982392311
-2.9097611904144287 -0.6131836175918579 0.3651205599308014 21.0 11 -0.04248007759451866
-2.851593255996704 -0.6004052758216858 -0.3578084111213684 31.0 4 -0.042477771639823914
-2.891866683959961 -0.608357846736908 0.4680519700050354 37.0 12 -0.042475469410419464
-2.8681349754333496 -0.6028434038162231 -0.25641217827796936 38.0 5 -0.042473163455724716
-2.885859251022339 -0.606042206287384 0.5731902718544006 12.0 13 -0.04247086122632027
-2.6290640830993652 -0.5516351461410522 -0.14078372716903687 3.0 6 -0.04246855527162552
-2.895144462585449 -0.6074646711349487 0.6829514503479004 76.0 14 -0.04246625304222107
-2.587353229522705 -0.5424112677574158 -0.046144161373376846 5.0 7 -0.04246394708752632
-2.8627007007598877 -0.599614143371582 0.7837041020393372 54.0 15 -0.04246164485812187
-1.7211472988128662 -0.3579990565776825 -0.4710506796836853 7.0 0 -0.04244090989232063
-2.596127510070801 -0.5395231246948242 0.0462837815284729 13.0 8 -0.042438603937625885
-1.862250566482544 -0.3866709768772125 -0.43910449743270874 26.0 1 -0.042436301708221436
-2.645954132080078 -0.5489139556884766 0.14162111282348633 10.0 9 -0.04243399575352669
-2.6591076850891113 -0.5511593818664551 0.23758654296398163 2.0 10 -0.04242938756942749
-1.6422497034072876 -0.34009355306625366 -0.2656257450580597 4.0 3 -0.04242708534002304
-2.896437883377075 -0.5992962718009949 0.36317068338394165 31.0 11 -0.04242477938532829
-2.882934093475342 -0.595978319644928 -0.3614645004272461 53.0 4 -0.04242247715592384
-2.925029754638672 -0.6041475534439087 0.47305789589881897 82.0 12 -0.042420171201229095
-2.8703253269195557 -0.5923264026641846 -0.25641217827796936 42.0 5 -0.042417868971824646
-2.8822922706604004 -0.5942715406417847 0.5720453858375549 16.0 13 -0.0424155630171299
-2.611506462097168 -0.537965714931488 -0.13973701000213623 7.0 6 -0.04241326078772545
-2.9126205444335938 -0.5999947190284729 0.6865506172180176 95.0 14 -0.0424109548330307
-2.603034496307373 -0.5357469320297241 -0.046388499438762665 4.0 7 -0.04240865260362625
-2.8610947132110596 -0.5883394479751587 0.7826688289642334 55.0 15 -0.0424063466489315
-1.7262334823608398 -0.35246166586875916 -0.47208595275878906 8.0 0 -0.042385611683130264
-2.607884407043457 -0.5320020318031311 0.04645830765366554 16.0 8 -0.042383309453725815
-1.8502888679504395 -0.3771185278892517 -0.4359551668167114 27.0 1 -0.04238100349903107
-2.638068914413452 -0.5376807451248169 0.141097754240036 10.0 9 -0.04237870126962662
-2.655252695083618 -0.5402171611785889 0.23706360161304474 6.0 10 -0.04237409308552742
-1.6609071493148804 -0.33761346340179443 -0.2684415876865387 13.0 3 -0.04237178713083267
-2.8908331394195557 -0.5870965719223022 0.3621957302093506 38.0 11 -0.04236948490142822
-2.8831541538238525 -0.5850123763084412 -0.3612207770347595 56.0 4 -0.042367178946733475
-2.9155054092407227 -0.5915766358375549 0.47118064761161804 80.0 12 -0.042364876717329025
-2.8762807846069336 -0.583095133304596 -0.2567608058452606 50.0 5 -0.04236257076263428
-2.8901219367980957 -0.585375964641571 0.5731902718544006 32.0 13 -0.04236026853322983
-2.6094534397125244 -0.5280542373657227 -0.13952767848968506 7.0 6 -0.04235796257853508
-2.9071600437164307 -0.5877706408500671 0.684751033782959 95.0 14 -0.04235566034913063
-2.5931286811828613 -0.5242796540260315 -0.046179067343473434 6.0 7 -0.04235335811972618
-2.868811845779419 -0.5794962644577026 0.7842217683792114 58.0 15 -0.04235105216503143
-1.7179826498031616 -0.3445340692996979 -0.46949777007102966 11.0 0 -0.042330317199230194
-2.6037521362304688 -0.5221713185310364 0.04635359346866608 19.0 8 -0.042328011244535446
-1.8553509712219238 -0.37174633145332336 -0.4368549883365631 27.0 1 -0.042325709015131
-2.6360130310058594 -0.52768474817276 0.14088840782642365 10.0 9 -0.04232340306043625
-2.666891098022461 -0.5328972339630127 0.2379351705312729 7.0 10 -0.04231879487633705
-1.6581435203552246 -0.33132967352867126 -0.26781585812568665 10.0 3 -0.0423164926469326
-2.9005510807037354 -0.5790614485740662 0.36317068338394165 54.0 11 -0.042314186692237854
-2.8811845779418945 -0.5746715664863586 -0.3607332706451416 63.0 4 -0.042311884462833405
-2.90592885017395 -0.5790796875953674 0.4693034589290619 80.0 12 -0.042309582233428955
-2.8763444423675537 -0.5726630687713623 -0.2565865218639374 59.0 5 -0.04230727627873421
-2.8997488021850586 -0.5773227214813232 0.5747166872024536 50.0 13 -0.04230497404932976
-2.5720126628875732 -0.5116050839424133 -0.1374342441558838 6.0 6 -0.04230266809463501
-2.8995361328125 -0.5762275457382202 0.6825015544891357 90.0 14 -0.04230036586523056
-2.583174228668213 -0.5128886699676514 -0.0459696389734745 6.0 7 -0.04229805991053581
-2.8802919387817383 -0.5713581442832947 0.7868099212646484 54.0 15 -0.04229575768113136
-1.715324878692627 -0.33808833360671997 -0.4684624969959259 11.0 0 -0.042275018990039825
-2.6134068965911865 -0.5146253108978271 0.04649320989847183 20.0 8 -0.042272716760635376
-1.8432525396347046 -0.3626343607902527 -0.4337056577205658 25.0 1 -0.04227041080594063
-2.6455869674682617 -0.5204825401306152 0.14130708575248718 10.0 9 -0.04226810857653618
-2.6686434745788574 -0.5240504741668701 0.2379351705312729 8.0 10 -0.04226350039243698
-1.668981909751892 -0.3274415135383606 -0.2693801820278168 12.0 3 -0.04226119816303253
-2.9103469848632812 -0.5704596638679504 0.3641456365585327 58.0 11 -0.042258892208337784
-2.8870692253112793 -0.5653737783432007 -0.3612207770347595 71.0 4 -0.042256589978933334
-2.911710262298584 -0.570199191570282 0.46992918848991394 87.0 12 -0.042254284024238586
-2.8664958477020264 -0.5608261823654175 -0.2555406391620636 61.0 5 -0.04225198179483414
-2.897893190383911 -0.5664432048797607 0.5739535093307495 56.0 13 -0.04224967584013939
-2.479691743850708 -0.4842492341995239 -0.1324099898338318 14.0 6 -0.04224737361073494
-2.903442859649658 -0.566476583480835 0.6829514503479004 95.0 14 -0.04224506765604019
-2.5907490253448486 -0.5054684281349182 -0.04607435315847397 7.0 7 -0.04224276542663574
-2.8745858669281006 -0.560325026512146 0.7847393751144409 53.0 15 -0.042240459471940994
-1.7089078426361084 -0.3306303322315216 -0.466391921043396 12.0 0 -0.042219724506139755
-2.605282783508301 -0.5040561556816101 0.04631868749856949 23.0 8 -0.04221741855144501
-1.6818124055862427 -0.32508400082588196 -0.3954640030860901 25.0 1 -0.04221511632204056
-2.6454267501831055 -0.5108658075332642 0.1412024199962616 11.0 9 -0.04221281409263611
-2.6548056602478027 -0.511715829372406 0.23654069006443024 7.0 10 -0.04220820590853691
-1.6642396450042725 -0.32078346610069275 -0.2684415876865387 13.0 3 -0.04220589995384216
-2.906374454498291 -0.5596798658370972 0.3634144067764282 73.0 11 -0.042203597724437714
-2.8908774852752686 -0.556171715259552 -0.3614645004272461 69.0 4 -0.042201291769742966
-2.907863140106201 -0.5589140057563782 0.46899059414863586 86.0 12 -0.042198989540338516
-2.868436098098755 -0.5508167743682861 -0.2555406391620636 61.0 5 -0.04219668358564377
-2.8997554779052734 -0.556830883026123 0.5739535093307495 63.0 13 -0.04219438135623932
-2.477360725402832 -0.4752708971500397 -0.13220062851905823 24.0 6 -0.04219207540154457
-2.9072189331054688 -0.5572119951248169 0.683401346206665 90.0 14 -0.04218977317214012
-2.600353956222534 -0.49792560935020447 -0.04621397331357002 7.0 7 -0.042187467217445374
-2.872729539871216 -0.5495613813400269 0.7837041020393372 53.0 15 -0.042185164988040924
-1.704301118850708 -0.3238803446292877 -0.46483904123306274 15.0 0 -0.042164430022239685
-2.6070263385772705 -0.4949595332145691 0.04631868749856949 23.0 8 -0.04216212406754494
-1.6714491844177246 -0.31703242659568787 -0.3927645683288574 36.0 1 -0.04215982183814049
-2.655042886734009 -0.5031163692474365 0.14162111282348633 11.0 9 -0.04215751588344574
-2.6486575603485107 -0.5014268159866333 0.23584343492984772 7.0 10 -0.04215290769934654
-1.6537034511566162 -0.3127695918083191 -0.26656436920166016 16.0 3 -0.04215060546994209
-2.908310651779175 -0.5495305061340332 0.3634144067764282 76.0 11 -0.042148299515247345
-2.896702527999878 -0.5468143224716187 -0.3619519770145416 64.0 4 -0.042145997285842896
-2.923384428024292 -0.5513227581977844 0.47118064761161804 87.0 12 -0.04214369133114815
-2.8781731128692627 -0.5422754287719727 -0.25623786449432373 61.0 5 -0.0421413891017437
-2.8844125270843506 -0.5429304838180542 0.570518970489502 60.0 13 -0.04213908314704895
-2.465346097946167 -0.4636044502258301 -0.13146793842315674 31.0 6 -0.0421367809176445
-2.907231330871582 -0.5467002987861633 0.6829514503479004 81.0 14 -0.04213447496294975
-2.6020760536193848 -0.488845556974411 -0.04621397331357002 7.0 7 -0.0421321727335453
-2.8765289783477783 -0.5398873090744019 0.7842217683792114 51.0 15 -0.042129866778850555
-1.6655937433242798 -0.3102032542228699 -0.4539686143398285 22.0 0 -0.042109131813049316
-2.6107888221740723 -0.48576733469963074 0.04635359346866608 25.0 8 -0.04210682958364487
-1.6342816352844238 -0.3037814199924469 -0.3837665319442749 27.0 1 -0.04210452362895012
-2.645087480545044 -0.49119317531585693 0.14099308848381042 11.0 9 -0.04210222139954567
-2.6485185623168945 -0.4913522005081177 0.23566913604736328 8.0 10 -0.04209761321544647
-1.6548386812210083 -0.30670633912086487 -0.26656436920166016 20.0 3 -0.042095307260751724
-2.9024975299835205 -0.5374223589897156 0.36243945360183716 79.0 11 -0.042093005031347275
-2.927328109741211 -0.5409632325172424 0.47149354219436646 93.0 12 -0.04208839684724808
-2.891896963119507 -0.5338937640190125 -0.2572837471961975 13.0 5 -0.04208609089255333
-2.8979671001434326 -0.534490704536438 0.5728086233139038 77.0 13 -0.04208378866314888
-2.4611361026763916 -0.4534796476364136 -0.1311539113521576 31.0 6 -0.04208148270845413
-2.903465986251831 -0.5349817276000977 0.6816017627716064 83.0 14 -0.04207918047904968
-2.6136834621429443 -0.48111578822135925 -0.046388499438762665 7.0 7 -0.04207687824964523
-2.893688440322876 -0.5321351289749146 0.7883628606796265 44.0 15 -0.042074572294950485
-1.6382123231887817 -0.2988952398300171 -0.4462040662765503 29.0 0 -0.042053837329149246
-2.6164863109588623 -0.4769115447998047 0.046423401683568954 29.0 8 -0.0420515313744545
-1.6066259145736694 -0.2925528287887573 -0.377018004655838 17.0 1 -0.04204922914505005
-2.6389260292053223 -0.48052579164505005 0.1405743956565857 10.0 9 -0.0420469231903553
-2.6620631217956543 -0.4837789833545685 0.23671498894691467 8.0 10 -0.042042315006256104
-1.6345720291137695 -0.29675745964050293 -0.2631227970123291 24.0 3 -0.042040012776851654
-2.9122605323791504 -0.5281975269317627 0.3634144067764282 85.0 11 -0.042037706822156906
-1.615369439125061 -0.29268884658813477 -0.20157191157341003 2.0 4 -0.04203540459275246
-2.9117047786712646 -0.5275719165802002 0.46867769956588745 78.0 12 -0.04203309863805771
-1.693898320198059 -0.30661216378211975 -0.15060511231422424 0.0 5 -0.04203079640865326
-2.9172027111053467 -0.5275164246559143 0.5762432217597961 82.0 13 -0.04202849417924881
-2.4627041816711426 -0.44488584995269775 -0.1311539113521576 13.0 6 -0.04202618822455406
-2.8919827938079834 -0.5219135880470276 0.6784523725509644 71.0 14 -0.04202388599514961
-2.6015713214874268 -0.4695032835006714 -0.046144161373376846 7.0 7 -0.042021580040454865
-2.8955283164978027 -0.5220316052436829 0.7883628606796265 44.0 15 -0.042019277811050415
-1.6088188886642456 -0.28773319721221924 -0.43792182207107544 15.0 0 -0.04199853911995888
-2.6239590644836426 -0.4692884385585785 0.04652811586856842 29.0 8 -0.04199623689055443
-1.609505534172058 -0.2875661253929138 -0.37746790051460266 25.0 1 -0.04199393093585968
-2.644519329071045 -0.4720137417316437 0.14078372716903687 10.0 9 -0.04199162870645523
-2.648043632507324 -0.47168847918510437 0.23532049357891083 8.0 10 -0.04198702052235603
-1.6063756942749023 -0.2861391305923462 -0.25842976570129395 12.0 3 -0.041984714567661285
-2.917904853820801 -0.5192326903343201 0.36390188336372375 83.0 11 -0.041982412338256836
-1.6085132360458374 -0.28594064712524414 -0.20059694349765778 23.0 4 -0.041980110108852386
-2.9096391201019287 -0.5167140960693359 0.4680519700050354 82.0 12 -0.04197780415415764
-1.6302201747894287 -0.2892124652862549 -0.14485284686088562 11.0 5 -0.04197550192475319
-2.922801971435547 -0.5185255408287048 0.577006459236145 85.0 13 -0.04197319597005844
-1.6617878675460815 -0.29451364278793335 -0.08844777196645737 0.0 6 -0.04197089374065399
-2.893697738647461 -0.5123204588890076 0.6784523725509644 65.0 14 -0.041968587785959244
-2.595317840576172 -0.4590260684490204 -0.04600454494357109 7.0 7 -0.041966285556554794
-2.880211353302002 -0.5088959336280823 0.7837041020393372 33.0 15 -0.041963979601860046
-1.5907362699508667 -0.2790584862232208 -0.43274545669555664 23.0 0 -0.04194324463605881
-2.605884313583374 -0.45667436718940735 0.046179067343473434 30.0 8 -0.04194093868136406
-1.6104995012283325 -0.28194648027420044 -0.37746790051460266 28.0 1 -0.04193863645195961
-2.650085926055908 -0.46346724033355713 0.14099308848381042 9.0 9 -0.04193633049726486
-1.5877337455749512 -0.27767500281333923 -0.31330838799476624 0.0 2 -0.04193402826786041
-2.6495933532714844 -0.46290454268455505 0.23532049357891083 8.0 10 -0.04193172603845596
-1.5976347923278809 -0.27883225679397583 -0.25686541199684143 18.0 3 -0.041929420083761215
-2.9196994304656982 -0.5090440511703491 0.36390188336372375 82.0 11 -0.041927117854356766
-1.6016790866851807 -0.2789616882801056 -0.1996220052242279 32.0 4 -0.04192481189966202
-2.9172632694244385 -0.5075708627700806 0.46899059414863586 76.0 12 -0.04192250967025757
-1.61350417137146 -0.2807314991950989 -0.14328403770923615 21.0 5 -0.04192020371556282
-2.9091203212738037 -0.5056302547454834 0.5739535093307495 85.0 13 -0.04191790148615837
-1.6332886219024658 -0.2835860252380371 -0.08687769621610641 15.0 6 -0.04191559553146362
-2.899308681488037 -0.5028824806213379 0.6793522238731384 53.0 14 -0.041913293302059174
-2.585082530975342 -0.4479154944419861 -0.04579511284828186 1.0 7 -0.041910987347364426
-2.8724524974823 -0.49719151854515076 0.7811158895492554 30.0 15 -0.041908685117959976
-1.5955086946487427 -0.2741583585739136 -0.4337807595729828 29.0 0 -0.04188795015215874
-2.6074624061584473 -0.4475758969783783 0.046179067343473434 31.0 8 -0.04188564419746399
-1.5980287790298462 -0.2740176022052765 -0.37431856989860535 34.0 1 -0.04188334196805954
-2.64775013923645 -0.45353934168815613 0.14078372716903687 9.0 9 -0.04188103601336479
-1.6273947954177856 -0.27876025438308716 -0.3209407329559326 0.0 2 -0.04187873378396034
-2.662976026535034 -0.45566970109939575 0.2363663762807846 8.0 10 -0.041876427829265594
-1.5830214023590088 -0.27059072256088257 -0.25436246395111084 24.0 3 -0.041874125599861145
-2.915588617324829 -0.4978468716144562 0.36317068338394165 87.0 11 -0.0418718196451664
-1.6026430130004883 -0.2733694016933441 -0.1996220052242279 20.0 4 -0.04186951741576195
-2.9229118824005127 -0.49804744124412537 0.4696163237094879 82.0 12 -0.0418672114610672
-1.5948336124420166 -0.2717505097389221 -0.14154092967510223 21.0 5 -0.04186490923166275
-2.9011900424957275 -0.49382519721984863 0.5720453858375549 81.0 13 -0.041862603276968
-1.6263924837112427 -0.2765442132949829 -0.08645901083946228 29.0 6 -0.04186030104756355
-2.9106526374816895 -0.49439048767089844 0.6816017627716064 47.0 14 -0.041857995092868805
-1.5653843879699707 -0.26560816168785095 -0.027714421972632408 0.0 7 -0.041855692863464355
-2.8836939334869385 -0.4887765645980835 0.7837041020393372 25.0 15 -0.04185338690876961
-1.6078863143920898 -0.2705107033252716 -0.43688657879829407 37.0 0 -0.04183265194296837
-2.6149251461029053 -0.43946561217308044 0.0462837815284729 28.0 8 -0.04183034971356392
-1.5797572135925293 -0.26521092653274536 -0.3698195517063141 36.0 1 -0.04182804375886917
-2.6473476886749268 -0.44396448135375977 0.14067906141281128 7.0 9 -0.04182574152946472
-1.5780162811279297 -0.2646358907222748 -0.3110186755657196 0.0 2 -0.041823435574769974
-2.668480396270752 -0.4470296800136566 0.23671498894691467 8.0 10 -0.041821133345365524
-1.5859044790267944 -0.2653892934322357 -0.25467532873153687 28.0 3 -0.041818827390670776
-2.9173085689544678 -0.48766714334487915 0.36317068338394165 87.0 11 -0.04181652516126633
-1.560511827468872 -0.26058048009872437 -0.19425974786281586 22.0 4 -0.04181421920657158
-2.9285295009613037 -0.4884914755821228 0.47024205327033997 82.0 12 -0.04181191697716713
-1.5879114866256714 -0.2648705542087555 -0.14084367454051971 30.0 5 -0.04180961102247238
-2.91257905960083 -0.4853091537952423 0.5739535093307495 85.0 13 -0.04180730879306793
-1.6135568618774414 -0.2685694694519043 -0.0857263058423996 40.0 6 -0.041805002838373184
-2.8989040851593018 -0.48198994994163513 0.6784523725509644 31.0 14 -0.041802700608968735
-1.6057554483413696 -0.2666953504085541 -0.02841251716017723 31.0 7 -0.04180039465427399
-2.883476972579956 -0.47839072346687317 0.7831864953041077 18.0 15 -0.04179809242486954
-1.6011959314346313 -0.26364102959632874 -0.43481600284576416 48.0 0 -0.0417773574590683
-2.6144700050354004 -0.4300099015235901 0.04624887555837631 25.0 8 -0.04177505150437355
-1.5845192670822144 -0.26032713055610657 -0.37071937322616577 45.0 1 -0.0417727492749691
-2.6469101905822754 -0.43439725041389465 0.1405743956565857 2.0 9 -0.04177044332027435
-1.5983039140701294 -0.2623053789138794 -0.314834862947464 0.0 2 -0.041768141090869904
-2.6700243949890137 -0.4377115070819855 0.23671498894691467 3.0 10 -0.041765835136175156
-1.5809730291366577 -0.25889450311660767 -0.2537367343902588 31.0 3 -0.041763532906770706
-2.9209518432617188 -0.47780120372772217 0.3634144067764282 78.0 11 -0.04176122695207596
-1.5516164302825928 -0.25353068113327026 -0.19304105639457703 24.0 4 -0.04175892472267151
-2.9263174533843994 -0.4776301980018616 0.4696163237094879 70.0 12 -0.04175661876797676
-1.561297059059143 -0.2548331320285797 -0.13840331137180328 25.0 5 -0.04175431653857231
-2.9220058917999268 -0.4764029383659363 0.5754799246788025 82.0 13 -0.041752010583877563
-1.5809725522994995 -0.25747767090797424 -0.08394688367843628 43.0 6 -0.041749708354473114
-2.8871045112609863 -0.46967819333076477 0.6753031015396118 25.0 14 -0.041747406125068665
-1.5573315620422363 -0.2530699074268341 -0.027539897710084915 54.0 7 -0.04174510017037392
-2.892756462097168 -0.4695605933666229 0.7852570414543152 14.0 15 -0.04174279794096947
-1.5944774150848389 -0.25682133436203003 -0.43274545669555664 53.0 0 -0.04172205924987793
-1.5854183435440063 -0.25479450821876526 -0.37071937322616577 53.0 1 -0.04171745106577873
-1.5798252820968628 -0.25361281633377075 -0.3110186755657196 32.0 2 -0.041712842881679535
-1.5779659748077393 -0.25274938344955444 -0.25311097502708435 38.0 3 -0.04170823469758034
-1.5524919033050537 -0.24811333417892456 -0.19304105639457703 26.0 4 -0.04170362651348114
-2.9260165691375732 -0.4671010971069336 0.4693034589290619 65.0 12 -0.04170132428407669
-1.5503723621368408 -0.24749711155891418 -0.1373574435710907 28.0 5 -0.04169902205467224
-2.9255900382995605 -0.46650874614715576 0.5758615732192993 81.0 13 -0.04169671609997749
-1.5779168605804443 -0.2513294816017151 -0.08373753726482391 31.0 6 -0.041694413870573044
-2.9060475826263428 -0.4623531401157379 0.6793522238731384 21.0 14 -0.041692107915878296
-1.5562306642532349 -0.24731798470020294 -0.027504993602633476 44.0 7 -0.041689805686473846
-2.8752987384796143 -0.4564313590526581 0.7800806164741516 12.0 15 -0.0416874997317791
-1.5820059776306152 -0.24915018677711487 -0.4291220009326935 56.0 0 -0.04166676476597786
-1.544764757156372 -0.2430087774991989 0.027295565232634544 8.0 8 -0.04166445881128311
-1.5882232189178467 -0.24956125020980835 -0.3711692690849304 60.0 1 -0.04166215658187866
-1.566644549369812 -0.24589037895202637 0.08310950547456741 21.0 9 -0.041659850627183914
-1.5807009935379028 -0.24809660017490387 -0.3110186755657196 65.0 2 -0.041657548397779465
-1.5490891933441162 -0.24285800755023956 0.13718314468860626 24.0 10 -0.041655246168375015
-1.5827419757843018 -0.2478509098291397 -0.2537367343902588 52.0 3 -0.04165294021368027
-1.5631123781204224 -0.24449752271175385 0.19425974786281586 2.0 11 -0.04165063798427582
-1.5494259595870972 -0.2420797049999237 -0.1925535798072815 27.0 4 -0.04164833202958107
-2.9295806884765625 -0.45718902349472046 0.4696163237094879 55.0 12 -0.04164602980017662
-1.531541347503662 -0.23901163041591644 -0.1356143355369568 30.0 5 -0.04164372384548187
-2.923321008682251 -0.45568951964378357 0.5750983357429504 78.0 13 -0.04164142161607742
-1.5669437646865845 -0.24397629499435425 -0.08310950547456741 31.0 6 -0.041639115661382675
-2.8980157375335693 -0.45070818066596985 0.6771027445793152 13.0 14 -0.041636813431978226
-1.5551084280014038 -0.24157719314098358 -0.027470089495182037 36.0 7 -0.04163450747728348
-2.882601261138916 -0.4472811222076416 0.7816335558891296 11.0 15 -0.04163220524787903
-1.5885940790176392 -0.2445080280303955 -0.4306749105453491 48.0 0 -0.04161146655678749
-1.5495566129684448 -0.23822273313999176 0.027365373447537422 44.0 8 -0.04160916432738304
-1.5890846252441406 -0.2440161406993866 -0.3711692690849304 51.0 1 -0.04160686209797859
-1.5595966577529907 -0.23920904099941254 0.08269082009792328 18.0 9 -0.041604556143283844
-1.58543860912323 -0.24317264556884766 -0.3117819130420685 65.0 2 -0.041602253913879395
-1.5440192222595215 -0.23654399812221527 0.13666020333766937 21.0 10 -0.04159994795918465
-1.5621182918548584 -0.23903776705265045 -0.25029516220092773 61.0 3 -0.0415976457297802
-1.528634786605835 -0.23364105820655823 0.18987245857715607 23.0 11 -0.04159533977508545
-1.552223801612854 -0.2369692325592041 -0.19279730319976807 32.0 4 -0.041593037545681
-2.9389700889587402 -0.4481511116027832 0.4708678126335144 40.0 12 -0.04159073159098625
-1.5343358516693115 -0.23396438360214233 -0.13578864932060242 35.0 5 -0.0415884293615818
-2.9190711975097656 -0.4445955753326416 0.5739535093307495 70.0 13 -0.041586123406887054
-1.542116641998291 -0.23460008203983307 -0.08174876868724823 28.0 6 -0.041583821177482605
-2.907277822494507 -0.441760390996933 0.6789023280143738 10.0 14 -0.04158151522278786
-1.5322175025939941 -0.23254698514938354 -0.027051230892539024 35.0 7 -0.04157921299338341
-2.886054754257202 -0.43750569224357605 0.7821511626243591 9.0 15 -0.04157690703868866
-1.5932586193084717 -0.23953567445278168 -0.4317101836204529 45.0 0 -0.04155617207288742
-1.530603289604187 -0.22984308004379272 0.027016324922442436 33.0 8 -0.04155386984348297
-1.5783636569976807 -0.23673297464847565 -0.36846986413002014 48.0 1 -0.04155156388878822
-1.54264497756958 -0.231100395321846 0.08174876868724823 15.0 9 -0.041549261659383774
-1.578511357307434 -0.2364734560251236 -0.3102554380893707 48.0 2 -0.041546955704689026
-1.5369535684585571 -0.22997388243675232 0.13596294820308685 25.0 10 -0.041544653475284576
-1.5707579851150513 -0.2347513735294342 -0.2515466511249542 51.0 3 -0.04154234752058983
-1.5235509872436523 -0.22742444276809692 0.18914122879505157 18.0 11 -0.04154004529118538
-1.5392978191375732 -0.22950077056884766 -0.1910911500453949 42.0 4 -0.04153773933649063
-2.9307475090026855 -0.43643465638160706 0.4693034589290619 31.0 12 -0.04153543710708618
-1.5371137857437134 -0.22890053689479828 -0.13596294820308685 49.0 5 -0.041533131152391434
-2.9128379821777344 -0.43324801325798035 0.5724270343780518 63.0 13 -0.041530828922986984
-1.533048391342163 -0.2277478128671646 -0.08122541010379791 30.0 6 -0.041528522968292236
-2.908802032470703 -0.43161001801490784 0.6789023280143738 10.0 14 -0.04152622073888779
-1.538954257965088 -0.22807657718658447 -0.02715594507753849 36.0 7 -0.04152391478419304
-2.8722763061523438 -0.42516499757766724 0.7780100703239441 7.0 15 -0.04152161255478859
-1.6017307043075562 -0.23509523272514343 -0.4337807595729828 45.0 0 -0.04150087758898735
-1.5234822034835815 -0.2233382761478424 0.02687670662999153 35.0 8 -0.0414985716342926
-1.5907495021820068 -0.23291589319705963 -0.3711692690849304 41.0 1 -0.04149626940488815
-1.527632474899292 -0.22340241074562073 0.08091139793395996 16.0 9 -0.041493963450193405
-1.5832122564315796 -0.23153047263622284 -0.3110186755657196 57.0 2 -0.041491661220788956
-1.5357756614685059 -0.22431917488574982 0.13578864932060242 29.0 10 -0.04148935526609421
-1.5696130990982056 -0.22898179292678833 -0.2512337863445282 42.0 3 -0.04148705303668976
-1.512549638748169 -0.22038790583610535 0.18767879903316498 22.0 11 -0.04148474708199501
-1.549911618232727 -0.2255551666021347 -0.19230984151363373 46.0 4 -0.04148244485259056
-2.932253122329712 -0.4262016713619232 0.4693034589290619 25.0 12 -0.04148013889789581
-1.5477617979049683 -0.22496648132801056 -0.136834517121315 50.0 5 -0.041477836668491364
-2.9240469932556152 -0.42448854446411133 0.5743350982666016 60.0 13 -0.041475530713796616
-1.5338339805603027 -0.2223954051733017 -0.08122541010379791 42.0 6 -0.041473228484392166
-2.891004800796509 -0.4186607301235199 0.6744033098220825 6.0 14 -0.04147092252969742
-1.5318244695663452 -0.22155854105949402 -0.027016324922442436 39.0 7 -0.04146862030029297
-2.8966870307922363 -0.4184514284133911 0.7842217683792114 7.0 15 -0.04146631807088852
-1.6006289720535278 -0.22922877967357635 -0.4332630932331085 43.0 0 -0.04144557937979698
-1.53019118309021 -0.21886837482452393 0.026981420814990997 36.0 8 -0.04144327715039253
-1.5973402261734009 -0.22818885743618011 -0.37251898646354675 47.0 1 -0.041440971195697784
-1.5244483947753906 -0.2175043672323227 0.0807020515203476 17.0 9 -0.041438668966293335
-1.5859544277191162 -0.22627988457679749 -0.31140029430389404 51.0 2 -0.04143636301159859
-1.5148520469665527 -0.21586507558822632 0.13387121260166168 30.0 10 -0.04143406078219414
-1.5860481262207031 -0.22572840750217438 -0.2537367343902588 45.0 3 -0.04143175482749939
-1.5192056894302368 -0.21594442427158356 0.18841002881526947 25.0 11 -0.04142945259809494
-1.5624817609786987 -0.22181764245033264 -0.19377227127552032 35.0 4 -0.04142714664340019
-2.9278554916381836 -0.4151323139667511 0.4683648645877838 14.0 12 -0.04142484441399574
-1.5327563285827637 -0.21732516586780548 -0.13544002175331116 54.0 5 -0.041422538459300995
-2.929398536682129 -0.4148288667201996 0.5750983357429504 57.0 13 -0.041420236229896545
-1.5405336618423462 -0.2178790122270584 -0.08153942972421646 45.0 6 -0.041417934000492096
-2.9059555530548096 -0.410474568605423 0.6775525808334351 5.0 14 -0.04141562804579735
-1.5207079648971558 -0.21453368663787842 -0.026806894689798355 43.0 7 -0.0414133258163929
-2.896217107772827 -0.408067911863327 0.7837041020393372 6.0 15 -0.04141101986169815
-1.597593069076538 -0.22310534119606018 -0.43222782015800476 41.0 0 -0.04139028489589691
-1.5071794986724854 -0.21021123230457306 0.026562562212347984 36.0 8 -0.041387978941202164
-1.6039173603057861 -0.2234182208776474 -0.3738686740398407 48.0 1 -0.041385676711797714
-1.5291177034378052 -0.21299897134304047 0.08091139793395996 16.0 9 -0.041383370757102966
-1.5886791944503784 -0.22101259231567383 -0.3117819130420685 49.0 2 -0.04138106852769852
-1.511649489402771 -0.21002788841724396 0.13352259993553162 34.0 10 -0.04137876257300377
-1.5809565782546997 -0.21937613189220428 -0.2527981102466583 49.0 3 -0.04137646034359932
-1.5238827466964722 -0.21118506789207458 0.188897505402565 28.0 11 -0.04137415811419487
-1.5573475360870361 -0.21554608643054962 -0.19304105639457703 36.0 4 -0.04137185215950012
-2.9272592067718506 -0.4051499366760254 0.4680519700050354 11.0 12 -0.04136954993009567
-1.5335056781768799 -0.21197348833084106 -0.13544002175331116 46.0 5 -0.041367243975400925
-2.9327733516693115 -0.4048691987991333 0.5754799246788025 47.0 13 -0.041364941745996475
-1.5412847995758057 -0.2125001847743988 -0.08153942972421646 45.0 6 -0.04136263579130173
-2.9073708057403564 -0.40032824873924255 0.6775525808334351 2.0 14 -0.04136033356189728
-1.5214110612869263 -0.20948956906795502 -0.026806894689798355 47.0 7 -0.04135802760720253
-2.8822433948516846 -0.39635586738586426 0.7795630097389221 5.0 15 -0.04135572537779808
-1.6060187816619873 -0.21856972575187683 -0.4342983663082123 38.0 0 -0.04133498668670654
-1.5039055347442627 -0.2046726942062378 0.026492753997445107 41.0 8 -0.041332684457302094
-1.6007875204086304 -0.21757322549819946 -0.3729688823223114 41.0 1 -0.041330382227897644
-1.5338101387023926 -0.20819729566574097 0.08112073689699173 19.0 9 -0.041328076273202896
-1.5933319330215454 -0.2159935086965561 -0.31254515051841736 49.0 2 -0.04132577404379845
-1.5103991031646729 -0.20448262989521027 0.133348286151886 37.0 10 -0.0413234680891037
-1.5699301958084106 -0.21254214644432068 -0.2509209215641022 45.0 3 -0.04132116585969925
-1.5049028396606445 -0.20347072184085846 0.18646010756492615 30.0 11 -0.0413188599050045
-1.567889928817749 -0.21170826256275177 -0.19425974786281586 32.0 4 -0.04131655767560005
-2.93648624420166 -0.39598536491394043 0.4693034589290619 10.0 12 -0.041314251720905304
-1.5500327348709106 -0.20874620974063873 -0.136834517121315 44.0 5 -0.041311949491500854
-2.9263172149658203 -0.3940933644771576 0.5739535093307495 36.0 13 -0.04130964353680611
-1.543960452079773 -0.20765408873558044 -0.08164409548044205 42.0 6 -0.04130734130740166
-2.9048194885253906 -0.39016661047935486 0.6766527891159058 2.0 14 -0.04130503535270691
-1.520151138305664 -0.203911691904068 -0.026771990582346916 50.0 7 -0.04130273312330246
-2.891268491744995 -0.38731852173805237 0.7816335558891296 5.0 15 -0.04130042716860771
-1.6163100004196167 -0.21451352536678314 -0.43688657879829407 29.0 0 -0.04127969220280647
-1.5125401020050049 -0.20047275722026825 0.02663237228989601 46.0 8 -0.04127738997340202
-1.5996053218841553 -0.21172836422920227 -0.37251898646354675 33.0 1 -0.041275084018707275
-1.52261221408844 -0.2015373259782791 0.08049271255731583 20.0 9 -0.041272781789302826
-1.5920929908752441 -0.21045130491256714 -0.3121635317802429 41.0 2 -0.04127047583460808
-1.5150192975997925 -0.1999942809343338 0.13369689881801605 43.0 10 -0.04126817360520363
-1.5941636562347412 -0.21015886962413788 -0.25467532873153687 49.0 3 -0.04126586765050888
-1.4957634210586548 -0.19692081212997437 0.18524141609668732 33.0 11 -0.04126356542110443
-1.5568102598190308 -0.20468176901340485 -0.19279730319976807 32.0 4 -0.04126125946640968
-2.9358246326446533 -0.385987788438797 0.46899059414863586 7.0 12 -0.041258957237005234
-1.56256902217865 -0.20516148209571838 -0.1378803700208664 41.0 5 -0.041256651282310486
-2.9354612827301025 -0.38489699363708496 0.5754799246788025 28.0 13 -0.041254349052906036
-1.5426955223083496 -0.20200440287590027 -0.08153942972421646 28.0 6 -0.04125204309821129
-2.9235544204711914 -0.3822978734970093 0.6807019710540771 1.0 14 -0.04124974086880684
-1.5346986055374146 -0.20068450272083282 -0.027016324922442436 45.0 7 -0.04124743491411209
-2.8963682651519775 -0.37822872400283813 0.7826688289642334 5.0 15 -0.04124513268470764
-1.622796893119812 -0.209612637758255 -0.4384394884109497 26.0 0 -0.0412243977189064
-1.5151798725128174 -0.19571202993392944 0.0266672782599926 45.0 8 -0.041222091764211655
-1.6041641235351562 -0.20692124962806702 -0.37341877818107605 29.0 1 -0.041219789534807205
-1.5252872705459595 -0.1964763104915619 0.08059737831354141 21.0 9 -0.04121748358011246
-1.5889235734939575 -0.20439158380031586 -0.31140029430389404 37.0 2 -0.04121518135070801
-1.5176843404769897 -0.19495846331119537 0.13387121260166168 45.0 10 -0.04121287539601326
-1.588974118232727 -0.20411619544029236 -0.2537367343902588 42.0 3 -0.04121057316660881
-1.5003459453582764 -0.1924646943807602 0.18572889268398285 37.0 11 -0.04120826721191406
-1.5633876323699951 -0.20027472078800201 -0.19352853298187256 28.0 4 -0.04120596498250961
-2.9371540546417236 -0.37573742866516113 0.46899059414863586 5.0 12 -0.041203659027814865
-1.547465205192566 -0.19768565893173218 -0.13648588955402374 39.0 5 -0.041201356798410416
-2.938668966293335 -0.37540921568870544 0.5758615732192993 20.0 13 -0.04119905084371567
-1.537413239479065 -0.19612924754619598 -0.08122541010379791 27.0 6 -0.04119674861431122
-2.9093410968780518 -0.3706313669681549 0.6771027445793152 1.0 14 -0.04119444265961647
-1.5234876871109009 -0.19381198287010193 -0.026806894689798355 39.0 7 -0.04119214043021202
-2.905336380004883 -0.3690906763076782 0.7847393751144409 4.0 15 -0.04118983447551727
-1.613934874534607 -0.2027427703142166 -0.4358513057231903 22.0 0 -0.0411686897277832
-1.5238234996795654 -0.19115321338176727 0.026806894689798355 41.0 8 -0.041166387498378754
-1.6049116849899292 -0.20104028284549713 -0.37341877818107605 24.0 1 -0.041164081543684006
-1.5299606323242188 -0.19138029217720032 0.08080672472715378 18.0 9 -0.041161779314279556
-1.5876792669296265 -0.19860021770000458 -0.3110186755657196 26.0 2 -0.04115947335958481
-1.5124245882034302 -0.1889190375804901 0.133348286151886 49.0 10 -0.04115717113018036
-1.5995124578475952 -0.19951340556144714 -0.2553010880947113 39.0 3 -0.04115486517548561
-1.514830470085144 -0.18868222832679749 0.1874350756406784 46.0 11 -0.04115256294608116
-1.5759305953979492 -0.1960129737854004 -0.19499096274375916 22.0 4 -0.041150256991386414
-2.944392442703247 -0.3657000660896301 0.46992918848991394 3.0 12 -0.041147954761981964
-1.5461686849594116 -0.19203756749629974 -0.1363115906715393 36.0 5 -0.041145648807287216
-2.932232141494751 -0.36367008090019226 0.5743350982666016 15.0 13 -0.04114334657788277
-1.5599253177642822 -0.19319292902946472 -0.08237680792808533 25.0 6 -0.04114104062318802
-2.922283887863159 -0.3614006042480469 0.6798021197319031 1.0 14 -0.04113873839378357
-1.522202968597412 -0.18798205256462097 -0.026771990582346916 37.0 7 -0.04113643243908882
-2.899000644683838 -0.357493132352829 0.7826688289642334 6.0 15 -0.04113413020968437
-1.616550087928772 -0.19734227657318115 -0.4363689422607422 20.0 0 -0.04111339524388313
-1.5145565271377563 -0.184622660279274 0.02663237228989601 32.0 8 -0.041111089289188385
-1.6191447973251343 -0.19708508253097534 -0.376568078994751 22.0 1 -0.041108787059783936
-1.544498085975647 -0.18772579729557037 0.08153942972421646 13.0 9 -0.04110648110508919
-1.5942095518112183 -0.1937679648399353 -0.3121635317802429 26.0 2 -0.04110417887568474
-1.5170305967330933 -0.18411822617053986 0.13369689881801605 47.0 10 -0.04110187292098999
-1.5845109224319458 -0.19202755391597748 -0.2527981102466583 31.0 3 -0.04109957069158554
-1.5194213390350342 -0.18387024104595184 0.18792253732681274 45.0 11 -0.04109726473689079
-1.5825176239013672 -0.19122549891471863 -0.19572217762470245 18.0 4 -0.04109496250748634
-2.9613404273986816 -0.357312947511673 0.4724321663379669 2.0 12 -0.041092656552791595
-1.5547415018081665 -0.18759386241436005 -0.13700881600379944 30.0 5 -0.041090354323387146
-2.925686836242676 -0.3524929881095886 0.5728086233139038 11.0 13 -0.0410880483686924
-1.5586071014404297 -0.18750835955142975 -0.08227212727069855 24.0 6 -0.04108574613928795
-2.931267261505127 -0.3521273732185364 0.6816017627716064 1.0 14 -0.0410834401845932
-1.5327774286270142 -0.18385781347751617 -0.02694651484489441 30.0 7 -0.04108113795518875
-2.881049394607544 -0.34507474303245544 0.7774924635887146 6.0 15 -0.041078832000494
-1.6249028444290161 -0.1926078051328659 -0.4384394884109497 17.0 0 -0.041058097034692764
-1.5171775817871094 -0.17956975102424622 0.0266672782599926 30.0 8 -0.041055794805288315
-1.623693585395813 -0.19188977777957916 -0.37746790051460266 20.0 1 -0.04105348885059357
-1.5510625839233398 -0.18330617249011993 0.08185344934463501 10.0 9 -0.04105118662118912
-1.602675199508667 -0.18912221491336823 -0.3136900067329407 23.0 2 -0.04104888066649437
-1.5255788564682007 -0.17975421249866486 0.13439415395259857 39.0 10 -0.04104657843708992
-1.5812480449676514 -0.18603374063968658 -0.2521723806858063 24.0 3 -0.04104427248239517
-1.508224606513977 -0.17717570066452026 0.18646010756492615 40.0 11 -0.04104197025299072
-1.5812039375305176 -0.18546903133392334 -0.1954784393310547 15.0 4 -0.041039664298295975
-2.950737476348877 -0.34610995650291443 0.470554918050766 2.0 12 -0.041037362068891525
-1.5751757621765137 -0.18448325991630554 -0.13875193893909454 25.0 5 -0.04103505611419678
-2.922999382019043 -0.34182214736938477 0.5720453858375549 9.0 13 -0.04103275388479233
-1.5572682619094849 -0.18183496594429016 -0.08216746151447296 22.0 6 -0.04103044793009758
-2.932478427886963 -0.34189310669898987 0.6816017627716064 1.0 14 -0.04102814570069313
-1.5433098077774048 -0.179932102560997 -0.027121039107441902 32.0 7 -0.04102584347128868
-2.897529125213623 -0.33730587363243103 0.7816335558891296 5.0 15 -0.04102353751659393
-1.6351613998413086 -0.18803773820400238 -0.4410276710987091 15.0 0 -0.041002802550792694
-1.5217379331588745 -0.17499445378780365 0.026737086474895477 25.0 8 -0.041000496596097946
-1.6204488277435303 -0.18605971336364746 -0.376568078994751 17.0 1 -0.0409981943666935
-1.5457401275634766 -0.17720834910869598 0.08153942972421646 8.0 9 -0.04099588841199875
-1.6169792413711548 -0.1850891262292862 -0.31636133790016174 20.0 2 -0.0409935861825943
-1.5321356058120728 -0.17510652542114258 0.13491709530353546 40.0 10 -0.04099128022789955
-1.6014821529388428 -0.1830320805311203 -0.2553010880947113 25.0 3 -0.0409889779984951
-1.5088038444519043 -0.17217357456684113 0.18646010756492615 30.0 11 -0.040986672043800354
-1.5857548713684082 -0.18067391216754913 -0.19596591591835022 14.0 4 -0.040984369814395905
-2.949964761734009 -0.33558449149131775 0.47024205327033997 1.0 12 -0.040982067584991455
-1.569870948791504 -0.17830950021743774 -0.13822901248931885 19.0 5 -0.04097976163029671
-2.926067590713501 -0.33234941959381104 0.5724270343780518 8.0 13 -0.04097745940089226
-1.5578627586364746 -0.17666982114315033 -0.08216746151447296 17.0 6 -0.04097515344619751
-2.933595895767212 -0.3321666717529297 0.6816017627716064 1.0 14 -0.04097285121679306
-1.5419414043426514 -0.17431916296482086 -0.027086134999990463 24.0 7 -0.04097054526209831
-2.9178855419158936 -0.32935628294944763 0.7868099212646484 5.0 15 -0.04096824303269386
-1.653055191040039 -0.1845436841249466 -0.4456864297389984 12.0 0 -0.040947504341602325
-1.5263142585754395 -0.17012451589107513 0.026806894689798355 25.0 8 -0.040945202112197876
-1.6268987655639648 -0.18104872107505798 -0.3779177963733673 15.0 1 -0.04094289615750313
-1.5423791408538818 -0.17137010395526886 0.0813300833106041 7.0 9 -0.04094059392809868
-1.603925347328186 -0.1782083660364151 -0.3136900067329407 16.0 2 -0.04093828797340393
-1.5386486053466797 -0.17068377137184143 0.13544002175331116 35.0 10 -0.04093598574399948
-1.606037974357605 -0.17787598073482513 -0.25592681765556335 21.0 3 -0.04093368351459503
-1.523207187652588 -0.16843265295028687 0.1881662756204605 30.0 11 -0.040931377559900284
-1.5922952890396118 -0.1757909655570984 -0.19669713079929352 10.0 4 -0.040929075330495834
-2.935410261154175 -0.3235543668270111 0.46773913502693176 1.0 12 -0.040926769375801086
-1.5803859233856201 -0.17391784489154816 -0.1391005665063858 15.0 5 -0.04092446714639664
-2.9272100925445557 -0.32213273644447327 0.5724270343780518 7.0 13 -0.04092216119170189
-1.5664112567901611 -0.17210328578948975 -0.0825861468911171 11.0 6 -0.04091985896229744
-2.93473744392395 -0.3219251036643982 0.6816017627716064 1.0 14 -0.04091755300760269
-1.5445283651351929 -0.1691533774137497 -0.027121039107441902 20.0 7 -0.04091525077819824
-2.934380531311035 -0.3208487331867218 0.7909510731697083 3.0 15 -0.040912944823503494
-1.6402755975723267 -0.17703257501125336 -0.44206294417381287 9.0 0 -0.040892209857702255
-1.5487685203552246 -0.16715633869171143 0.02719084918498993 19.0 8 -0.04088990390300751
-1.633333444595337 -0.17599494755268097 -0.37926751375198364 12.0 1 -0.04088760167360306
-1.5469396114349365 -0.1664123684167862 0.08153942972421646 7.0 9 -0.04088529944419861
-1.6143276691436768 -0.17337705194950104 -0.31559810042381287 14.0 2 -0.04088299348950386
-1.533320665359497 -0.16440629959106445 0.13491709530353546 32.0 10 -0.04088069126009941
-1.6086432933807373 -0.17219822108745575 -0.2562396824359894 16.0 3 -0.04087838530540466
-1.5198382139205933 -0.16269202530384064 0.18767879903316498 27.0 11 -0.040876083076000214
-1.586977481842041 -0.169599249958992 -0.19596591591835022 9.0 4 -0.040873777121305466
-2.9443788528442383 -0.3141433894634247 0.46899059414863586 1.0 12 -0.040871474891901016
-1.5790023803710938 -0.168189138174057 -0.13892625272274017 13.0 5 -0.04086916893720627
-2.928370952606201 -0.31140246987342834 0.5724270343780518 5.0 13 -0.04086686670780182
-1.5650454759597778 -0.1661500632762909 -0.08248147368431091 8.0 6 -0.04086456075310707
-2.9436492919921875 -0.31198740005493164 0.683401346206665 1.0 14 -0.04086225852370262
-1.5411323308944702 -0.16333939135074615 -0.027051230892539024 13.0 7 -0.040859952569007874
-2.943167209625244 -0.3114176094532013 0.793021559715271 4.0 15 -0.040857650339603424
-1.6524120569229126 -0.1725093573331833 -0.44516876339912415 9.0 0 -0.040836915373802185
-1.531470537185669 -0.15961270034313202 0.02687670662999153 15.0 8 -0.04083460941910744
-1.639782428741455 -0.17061227560043335 -0.3806172013282776 10.0 1 -0.04083230718970299
-1.5693914890289307 -0.1630115509033203 0.08269082009792328 6.0 9 -0.04083000123500824
-1.6110178232192993 -0.16733524203300476 -0.314834862947464 10.0 2 -0.04082769900560379
-1.5338852405548096 -0.15905261039733887 0.13491709530353546 31.0 10 -0.04082539305090904
-1.6072697639465332 -0.1663789004087448 -0.25592681765556335 15.0 3 -0.04082309082150459
-1.542144536972046 -0.15936535596847534 0.1903599202632904 22.0 11 -0.040820784866809845
-1.6014107465744019 -0.16520707309246063 -0.19767209887504578 7.0 4 -0.040818482637405396
-2.9573004245758057 -0.3045644760131836 0.4708678126335144 1.0 12 -0.04081617668271065
-1.5815616846084595 -0.1628808081150055 -0.1391005665063858 10.0 5 -0.0408138744533062
-2.9352989196777344 -0.30178090929985046 0.5735718607902527 5.0 13 -0.04081156849861145
-1.5715762376785278 -0.1612977236509323 -0.08279548585414886 8.0 6 -0.040809266269207
-2.940843105316162 -0.3013136386871338 0.6825015544891357 1.0 14 -0.04080696031451225
-1.5437098741531372 -0.15789319574832916 -0.027086134999990463 9.0 7 -0.0408046580851078
-2.932757616043091 -0.2994500994682312 0.7899157404899597 3.0 15 -0.040802352130413055
-1.6491599082946777 -0.16635291278362274 -0.4441334903240204 8.0 0 -0.040781617164611816
-1.5300287008285522 -0.15406587719917297 0.026841802522540092 11.0 8 -0.04077931493520737
-1.6403679847717285 -0.16488729417324066 -0.3806172013282776 8.0 1 -0.04077700898051262
-1.571938157081604 -0.15773172676563263 0.08279548585414886 4.0 9 -0.04077470675110817
-1.6311264038085938 -0.16367080807685852 -0.3186510503292084 9.0 2 -0.04077240079641342
-1.532448649406433 -0.15349912643432617 0.13474278151988983 20.0 10 -0.04077009856700897
-1.6039094924926758 -0.16037434339523315 -0.2553010880947113 11.0 3 -0.040767792612314224
-1.5288645029067993 -0.15260076522827148 0.18865376710891724 18.0 11 -0.040765490382909775
-1.617780327796936 -0.1611909717321396 -0.1996220052242279 7.0 4 -0.04076318442821503
-2.970139503479004 -0.29541265964508057 0.47274500131607056 1.0 12 -0.04076088219881058
-1.594016194343567 -0.15854224562644958 -0.1401464343070984 9.0 5 -0.04075857624411583
-2.9285199642181396 -0.29075631499290466 0.5720453858375549 2.0 13 -0.04075627401471138
-1.572129726409912 -0.15581123530864716 -0.08279548585414886 6.0 6 -0.04075396806001663
-2.9573915004730225 -0.29258108139038086 0.6861007809638977 1.0 14 -0.04075166583061218
-1.5561918020248413 -0.15368279814720154 -0.027295565232634544 8.0 7 -0.04074936360120773
-2.9453201293945312 -0.2903487980365753 0.793021559715271 4.0 15 -0.040747057646512985
-1.6593444347381592 -0.16153067350387573 -0.4467216730117798 5.0 0 -0.040726322680711746
-1.5484699010849 -0.15046468377113342 0.02715594507753849 8.0 8 -0.040724016726017
-1.644812822341919 -0.15953655540943146 -0.3815170228481293 7.0 1 -0.04072171449661255
-1.5784164667129517 -0.1530965268611908 0.08310950547456741 2.0 9 -0.0407194085419178
-1.6219173669815063 -0.1570301055908203 -0.3167429566383362 8.0 2 -0.04071710631251335
-1.5448740720748901 -0.14929883182048798 0.13578864932060242 16.0 10 -0.040714800357818604
-1.6103583574295044 -0.1553436517715454 -0.2562396824359894 10.0 3 -0.040712498128414154
-1.5293879508972168 -0.14726343750953674 0.18865376710891724 15.0 11 -0.040710192173719406
-1.622285008430481 -0.15592266619205475 -0.20010948181152344 6.0 4 -0.04070788994431496
-2.998631238937378 -0.28820744156837463 0.4771251976490021 1.0 12 -0.04070558398962021
-1.6104261875152588 -0.15449923276901245 -0.14154092967510223 8.0 5 -0.04070328176021576
-2.9529688358306885 -0.28277847170829773 0.5766248106956482 2.0 13 -0.04070097953081131
-1.5766404867172241 -0.1507025808095932 -0.08300483226776123 5.0 6 -0.04069867357611656
-2.9777939319610596 -0.28410616517066956 0.690599799156189 1.0 14 -0.04069637134671211
-1.5666460990905762 -0.1494709849357605 -0.027470089495182037 7.0 7 -0.040694065392017365
-2.942420482635498 -0.28021374344825745 0.791986346244812 3.0 15 -0.040691763162612915
