# .PCD v0.7 - Point Cloud Data file format
VERSION 0.7
FIELDS x y z intensity ring time
SIZE 4 4 4 4 4 4
TYPE F F F F F F
COUNT 1 1 1 1 1 1
WIDTH 533
HEIGHT 1
VIEWPOINT 0 0 0 1 0 0 0
POINTS 533
DATA ascii
1.9305299520492554 -0.019206272438168526 -0.16890782117843628 47.0 5 -0.007023712154477835
3.657355546951294 -0.03702434152364731 0.7109543085098267 99.0 13 -0.007021408062428236
1.9532159566879272 -0.020113838836550713 -0.10236913710832596 43.0 6 -0.007019103970378637
3.669276714324951 -0.03842597454786301 0.8471657633781433 100.0 14 -0.007016799878329039
3.601247549057007 -0.03834216296672821 -0.06286356598138809 98.0 7 -0.00701449578627944
3.6490542888641357 -0.03948810696601868 0.9778183698654175 117.0 15 -0.0070121921598911285
2.0707948207855225 -0.024939315393567085 -0.554908037185669 31.0 0 -0.006991456262767315
2.3374695777893066 -0.0285590011626482 0.04080372676253319 1.0 8 -0.006989152170717716
2.188267230987549 -0.02711804024875164 -0.5052400827407837 66.0 1 -0.0069868480786681175
2.3605737686157227 -0.029665404930710793 0.12372221052646637 1.0 9 -0.006984543986618519
2.2065236568450928 -0.027729453518986702 -0.4289386570453644 62.0 2 -0.00698223989456892
3.621870279312134 -0.0461483933031559 0.31689828634262085 41.0 10 -0.0069799358025193214
2.2339649200439453 -0.028854232281446457 -0.35385480523109436 74.0 3 -0.006977631710469723
3.6244683265686035 -0.04744689166545868 0.4450668692588806 30.0 11 -0.006975328084081411
2.2608213424682617 -0.02999042719602585 -0.2776183784008026 91.0 4 -0.006973023992031813
3.6560921669006348 -0.049137309193611145 0.5791204571723938 100.0 12 -0.006970719899982214
1.9264668226242065 -0.025891413912177086 -0.1685592085123062 52.0 5 -0.006968415807932615
3.6434624195098877 -0.04960358887910843 0.708283007144928 96.0 13 -0.006966112181544304
1.9391542673110962 -0.026738949120044708 -0.10163643956184387 41.0 6 -0.006963808089494705
3.6710686683654785 -0.051261115819215775 0.8476155996322632 97.0 14 -0.0069615039974451065
3.605090618133545 -0.050969164818525314 -0.06293337792158127 87.0 7 -0.006959199905395508
3.656620740890503 -0.052336033433675766 0.9798889756202698 115.0 15 -0.006956895813345909
2.0764899253845215 -0.03225760534405708 -0.556460976600647 19.0 0 -0.0069361599162220955
2.2993662357330322 -0.03612132743000984 0.040140535682439804 2.0 8 -0.006933855824172497
2.1725714206695557 -0.034508757293224335 -0.5016408562660217 59.0 1 -0.006931551732122898
2.324509859085083 -0.037327930331230164 0.12183811515569687 2.0 9 -0.006929248105734587
2.196598529815674 -0.035273876041173935 -0.4270305633544922 61.0 2 -0.006926944013684988
3.629655599594116 -0.058920156210660934 0.31759554147720337 45.0 10 -0.006924639921635389
2.241750955581665 -0.0367816798388958 -0.35510629415512085 71.0 3 -0.006922335829585791
3.614356279373169 -0.05993378907442093 0.443848192691803 37.0 11 -0.006920032203197479
2.2388699054718018 -0.03751613199710846 -0.274937242269516 85.0 4 -0.0069177281111478806
3.6578736305236816 -0.06193259730935097 0.5794333219528198 100.0 12 -0.006915424019098282
1.9323408603668213 -0.03271706402301788 -0.1690821349620819 57.0 5 -0.006913119927048683
3.658971071243286 -0.06258996576070786 0.7113359570503235 96.0 13 -0.0069108158349990845
1.9470369815826416 -0.03364572674036026 -0.102055124938488 30.0 6 -0.006908511742949486
3.670867443084717 -0.06407522410154343 0.8476155996322632 97.0 14 -0.006906208116561174
3.602891206741333 -0.06351771950721741 -0.06289847195148468 43.0 7 -0.006903904024511576
3.66414213180542 -0.06523725390434265 0.9819594621658325 115.0 15 -0.006901599932461977
2.086022138595581 -0.03968946263194084 -0.559049129486084 10.0 0 -0.006880864035338163
2.2992260456085205 -0.04414739832282066 0.040140535682439804 4.0 8 -0.006878559943288565
2.1724376678466797 -0.04209223389625549 -0.5016408562660217 61.0 1 -0.006876255851238966
2.2984139919281006 -0.04453309625387192 0.12047737836837769 4.0 9 -0.006873952224850655
2.186647891998291 -0.042749352753162384 -0.42512246966362 62.0 2 -0.006871648132801056
3.6453638076782227 -0.07190398871898651 0.31898999214172363 46.0 10 -0.006869344040751457
2.2337088584899902 -0.044449418783187866 -0.35385480523109436 74.0 3 -0.0068670399487018585
3.6319873332977295 -0.07290845364332199 0.4460418224334717 38.0 11 -0.00686473585665226
2.24666428565979 -0.045491769909858704 -0.27591222524642944 71.0 4 -0.006862431764602661
3.6497480869293213 -0.07390223443508148 0.5781818628311157 100.0 12 -0.00686012813821435
1.9361989498138428 -0.039543360471725464 -0.16943076252937317 57.0 5 -0.006857824046164751
3.6587302684783936 -0.07536177337169647 0.7113359570503235 96.0 13 -0.006855519954115152
1.946907639503479 -0.040441952645778656 -0.102055124938488 16.0 6 -0.006853215862065554
3.670621156692505 -0.0768885463476181 0.8476155996322632 97.0 14 -0.006850912235677242
2.3271350860595703 -0.04874652624130249 -0.040629200637340546 7.0 7 -0.006848608143627644
3.663905620574951 -0.07738763093948364 0.9819594621658325 115.0 15 -0.006846304051578045
2.070420265197754 -0.0466228649020195 -0.554908037185669 10.0 0 -0.006825568154454231
2.297067880630493 -0.05172664299607277 0.040105629712343216 10.0 8 -0.006823264062404633
2.1605968475341797 -0.04903079941868782 -0.49894148111343384 61.0 1 -0.006820959970355034
2.3062314987182617 -0.05273843929171562 0.12089607119560242 3.0 9 -0.006818655878305435
2.174708604812622 -0.050110552459955215 -0.42283275723457336 64.0 2 -0.0068163517862558365
3.6351311206817627 -0.08439701795578003 0.31811845302581787 40.0 10 -0.006814047694206238
2.2414486408233643 -0.052039824426174164 -0.35510629415512085 74.0 3 -0.006811744067817926
3.635694980621338 -0.0850449874997139 0.4465293288230896 45.0 11 -0.006809439975768328
2.2405471801757812 -0.05280142277479172 -0.27518099546432495 60.0 4 -0.006807135883718729
3.639594078063965 -0.086407370865345 0.5766174793243408 100.0 12 -0.006804832257330418
1.9300734996795654 -0.0461588054895401 -0.16890782117843628 62.0 5 -0.006802528165280819
3.6663107872009277 -0.08768190443515778 0.7128624320030212 93.0 13 -0.00680022407323122
1.9627362489700317 -0.047282714396715164 -0.10289250314235687 10.0 6 -0.0067979199811816216
3.666449785232544 -0.08896580338478088 0.8467158079147339 91.0 14 -0.006795615889132023
2.2989635467529297 -0.05618545785546303 -0.040140535682439804 16.0 7 -0.006793311797082424
3.6636130809783936 -0.09017657488584518 0.9819594621658325 115.0 15 -0.0067910077050328255
2.052873373031616 -0.0530393049120903 -0.5502493381500244 12.0 0 -0.006770271807909012
2.274883985519409 -0.0591726191341877 0.03972167521715164 21.0 8 -0.006767967715859413
2.172100782394409 -0.0568784661591053 -0.5016408562660217 63.0 1 -0.006765664089471102
2.28408145904541 -0.05981077998876572 0.1197446808218956 2.0 9 -0.006763359997421503
2.1784555912017822 -0.05742533877491951 -0.42359596490859985 75.0 2 -0.006761055905371904
3.624873161315918 -0.09618683904409409 0.3172468841075897 45.0 10 -0.006758751813322306
2.2254559993743896 -0.05944167450070381 -0.35260334610939026 74.0 3 -0.006756448186933994
3.6413285732269287 -0.09789546579122543 0.4472605288028717 64.0 11 -0.006754144094884396
2.2244744300842285 -0.06019250676035881 -0.2732310891151428 53.0 4 -0.006751840002834797
3.6392874717712402 -0.09847622364759445 0.5766174793243408 96.0 12 -0.006749535910785198
1.925926685333252 -0.052450425922870636 -0.1685592085123062 75.0 5 -0.0067472318187355995
3.662057399749756 -0.10037160664796829 0.7120991945266724 96.0 13 -0.006744927726686001
2.0284438133239746 -0.05595095828175545 -0.10634667426347733 36.0 6 -0.0067426241002976894
3.677804946899414 -0.10208799690008163 0.8494152426719666 91.0 14 -0.006740320008248091
2.2767763137817383 -0.06319843977689743 -0.03975658118724823 51.0 7 -0.006738015916198492
3.6594319343566895 -0.1022171825170517 0.9809242486953735 115.0 15 -0.006735711824148893
2.058468818664551 -0.06037475913763046 -0.5518022775650024 18.0 0 -0.00671497592702508
2.274675130844116 -0.06671607494354248 0.03972167521715164 24.0 8 -0.006712671834975481
2.1563169956207275 -0.06362131237983704 -0.49804162979125977 63.0 1 -0.00671036820858717
2.2698841094970703 -0.06736858189105988 0.11901197582483292 2.0 9 -0.006708064116537571
2.1762795448303223 -0.06497063487768173 -0.4232143759727478 78.0 2 -0.006705760024487972
3.634472608566284 -0.10913841426372528 0.31811845302581787 48.0 10 -0.0067034559324383736
2.21932315826416 -0.06664334982633591 -0.3516647219657898 82.0 3 -0.006701151840388775
3.639000177383423 -0.10991008579730988 0.44701680541038513 67.0 11 -0.006698847748339176
2.2163259983062744 -0.06732770055532455 -0.27225613594055176 47.0 4 -0.006696544121950865
3.656691551208496 -0.11172203719615936 0.5794333219528198 100.0 12 -0.006694240029901266
1.9376804828643799 -0.059539999812841415 -0.1696050763130188 72.0 5 -0.006691935937851667
3.6597423553466797 -0.11245458573102951 0.7117176055908203 99.0 13 -0.006689631845802069
2.2917592525482178 -0.07082030922174454 -0.12016335874795914 29.0 6 -0.006687328219413757
3.685237169265747 -0.11452560126781464 0.8512148261070251 97.0 14 -0.006685024127364159
2.2905328273773193 -0.07158272713422775 -0.04000091552734375 62.0 7 -0.00668272003531456
3.670638084411621 -0.11535444855690002 0.9840300679206848 115.0 15 -0.006680415943264961
2.0659568309783936 -0.06817387789487839 -0.5538727641105652 27.0 0 -0.006655931007117033
2.2544162273406982 -0.0747867003083229 0.039372626692056656 33.0 8 -0.006653626915067434
2.148266315460205 -0.07164069265127182 -0.49624204635620117 63.0 1 -0.006651322823017836
2.2576448917388916 -0.07528825849294662 0.11838394403457642 2.0 9 -0.006649019196629524
2.1799511909484863 -0.0730782225728035 -0.4239776134490967 82.0 2 -0.0066467151045799255
3.6440045833587646 -0.12279420346021652 0.31898999214172363 41.0 10 -0.006644411012530327
2.211153745651245 -0.0748969316482544 -0.3504132330417633 85.0 3 -0.006642106920480728
3.632599115371704 -0.12367934733629227 0.44628557562828064 66.0 11 -0.0066398028284311295
2.05336856842041 -0.07026997208595276 -0.25226956605911255 43.0 4 -0.006637499202042818
3.668102502822876 -0.12552908062934875 0.581310510635376 100.0 12 -0.006635195109993219
1.9414316415786743 -0.06677853316068649 -0.16995368897914886 72.0 5 -0.006632891017943621
3.663207530975342 -0.12664178013801575 0.7124808430671692 99.0 13 -0.006630586925894022
2.313427448272705 -0.08038240671157837 -0.12131475657224655 24.0 6 -0.006628282833844423
3.6750328540802 -0.12833496928215027 0.8489653468132019 94.0 14 -0.006625979207456112
2.270270347595215 -0.0792795866727829 -0.039651867002248764 54.0 7 -0.006623675115406513
3.6701905727386475 -0.12880724668502808 0.9840300679206848 113.0 15 -0.0066213710233569145
2.065706253051758 -0.07538499683141708 -0.5538727641105652 31.0 0 -0.006600635126233101
2.244163990020752 -0.0818975567817688 0.03919810429215431 44.0 8 -0.006598331034183502
2.151911735534668 -0.07890702039003372 -0.49714183807373047 64.0 1 -0.0065960269421339035
2.269343852996826 -0.0836096704006195 0.11901197582483292 3.0 9 -0.006593722850084305
2.171834945678711 -0.08039670437574387 -0.42245110869407654 82.0 2 -0.006591419223695993
3.647535800933838 -0.1356615126132965 0.3193386495113373 46.0 10 -0.006589115131646395
2.212867498397827 -0.08230239897966385 -0.35072609782218933 93.0 3 -0.006586811039596796
3.632169246673584 -0.13572479784488678 0.44628557562828064 68.0 11 -0.006584506947547197
1.9896459579467773 -0.07469568401575089 -0.24446991086006165 49.0 4 -0.006582202855497599
3.6557984352111816 -0.1378856748342514 0.5794333219528198 100.0 12 -0.006579899229109287
1.9411866664886475 -0.07355498522520065 -0.16995368897914886 77.0 5 -0.006577595137059689
3.664729356765747 -0.13886304199695587 0.7128624320030212 92.0 13 -0.00657529104501009
2.3071606159210205 -0.08782563358545303 -0.121000736951828 21.0 6 -0.006572986952960491
3.6706924438476562 -0.14037218689918518 0.8480655550956726 94.0 14 -0.0065706828609108925
2.249997615814209 -0.0864361897110939 -0.03930281847715378 43.0 7 -0.006568379234522581
3.685161828994751 -0.14221377670764923 0.9881711006164551 111.0 15 -0.006566075142472982
2.0577237606048584 -0.08192729204893112 -0.5518022775650024 40.0 0 -0.0065453387796878815
2.253854990005493 -0.09013017266988754 0.039372626692056656 48.0 8 -0.00654303515329957
2.159411907196045 -0.0867309495806694 -0.49894148111343384 68.0 1 -0.006540731061249971
2.273045301437378 -0.09129492938518524 0.11922132223844528 3.0 9 -0.006538426969200373
2.167633295059204 -0.08744007349014282 -0.42168790102005005 78.0 2 -0.006536122877150774
3.6331303119659424 -0.1471918523311615 0.31811845302581787 52.0 10 -0.006533818785101175
2.210592746734619 -0.08994592726230621 -0.3504132330417633 83.0 3 -0.006531515158712864
3.6415905952453613 -0.14880786836147308 0.4475042521953583 81.0 11 -0.006529211066663265
1.9735057353973389 -0.08098922669887543 -0.2425200194120407 46.0 4 -0.0065269069746136665
3.6553211212158203 -0.15000799298286438 0.5794333219528198 100.0 12 -0.006524602882564068
1.9369508028030396 -0.0798277035355568 -0.1696050763130188 77.0 5 -0.006522298790514469
3.6759915351867676 -0.15214160084724426 0.7151521444320679 93.0 13 -0.006519995164126158
2.308835506439209 -0.0959615409374237 -0.12110541760921478 29.0 6 -0.006517691072076559
3.683809280395508 -0.15375328063964844 0.8512148261070251 97.0 14 -0.00651538698002696
2.2417068481445312 -0.09356341511011124 -0.03916320204734802 42.0 7 -0.006513082887977362
3.6653683185577393 -0.15362443029880524 0.9829947352409363 115.0 15 -0.006510778795927763
2.0574252605438232 -0.08910959213972092 -0.5518022775650024 52.0 0 -0.006490042898803949
2.2475502490997314 -0.09734413772821426 0.03926791250705719 52.0 8 -0.006487738806754351
2.1727406978607178 -0.09448397904634476 -0.5020908117294312 72.0 1 -0.006485435180366039
2.2727129459381104 -0.09922878444194794 0.11922132223844528 3.0 9 -0.006483131088316441
2.169276237487793 -0.09509198367595673 -0.4220695197582245 75.0 2 -0.006480826996266842
3.6306040287017822 -0.15978536009788513 0.31794413924217224 43.0 10 -0.006478522904217243
2.204362154006958 -0.09701547771692276 -0.34947463870048523 81.0 3 -0.0064762188121676445
3.656942129135132 -0.1615840047597885 0.4494541883468628 91.0 11 -0.006473915185779333
1.9652937650680542 -0.08718127012252808 -0.24154506623744965 50.0 4 -0.006471611093729734
3.658722162246704 -0.1629422903060913 0.5800590515136719 100.0 12 -0.006469307001680136
1.9386506080627441 -0.0866774320602417 -0.16977937519550323 63.0 5 -0.006467002909630537
3.6676218509674072 -0.16398005187511444 0.7136256694793701 93.0 13 -0.006464698817580938
2.3164854049682617 -0.10397560894489288 -0.12152409553527832 47.0 6 -0.006462395191192627
3.6852259635925293 -0.16605612635612488 0.8516647815704346 94.0 14 -0.006460091099143028
2.247359275817871 -0.10165894031524658 -0.03926791250705719 49.0 7 -0.0064577870070934296
3.672529458999634 -0.16676858067512512 0.9850653409957886 111.0 15 -0.006455482915043831
2.0513291358947754 -0.09566178172826767 -0.5502493381500244 51.0 0 -0.006434747017920017
2.2352118492126465 -0.10462794452905655 0.039058487862348557 54.0 8 -0.0064324429258704185
2.1529319286346436 -0.10115310549736023 -0.4975917637348175 77.0 1 -0.00643013883382082
2.2763426303863525 -0.10734959691762924 0.11943066120147705 3.0 9 -0.0064278352074325085
2.1709096431732178 -0.1023775115609169 -0.42245110869407654 82.0 2 -0.00642553111538291
3.6280641555786133 -0.17172980308532715 0.3177698254585266 40.0 10 -0.006423227023333311
2.178359270095825 -0.10349091142416 -0.3454073667526245 53.0 3 -0.006420922931283712
3.644458770751953 -0.17378082871437073 0.4479917287826538 93.0 11 -0.006418618839234114
1.9649773836135864 -0.0940408930182457 -0.24154506623744965 54.0 4 -0.006416315212845802
3.6660232543945312 -0.176091730594635 0.581310510635376 98.0 12 -0.006414011120796204
1.944306492805481 -0.09373187273740768 -0.17030231654644012 70.0 5 -0.006411707028746605
3.6591830253601074 -0.17640329897403717 0.7120991945266724 96.0 13 -0.006409402936697006
2.2941644191741943 -0.11099929362535477 -0.1203727126121521 45.0 6 -0.0064070988446474075
3.690463066101074 -0.17920248210430145 0.8530144691467285 91.0 14 -0.006404795218259096
2.2529826164245605 -0.10979507863521576 -0.039372626692056656 62.0 7 -0.0064024911262094975
3.679642915725708 -0.1799645572900772 0.9871358871459961 111.0 15 -0.006400187034159899
2.052894115447998 -0.10327669978141785 -0.5507669448852539 49.0 0 -0.006379451137036085
2.2388274669647217 -0.11263060569763184 0.039128296077251434 52.0 8 -0.0063771470449864864
2.1506192684173584 -0.10856935381889343 -0.49714183807373047 81.0 1 -0.006374842952936888
2.275954008102417 -0.11529485881328583 0.11943066120147705 3.0 9 -0.006372538860887289
2.1764023303985596 -0.11063259840011597 -0.42359596490859985 86.0 2 -0.006370235234498978
3.651287794113159 -0.18624408543109894 0.3198615610599518 44.0 10 -0.006367931142449379
2.181910753250122 -0.11167623102664948 -0.34603309631347656 82.0 3 -0.00636562705039978
3.6398651599884033 -0.18629838526248932 0.4475042521953583 96.0 11 -0.006363322958350182
1.954724907875061 -0.10039029270410538 -0.24032637476921082 59.0 4 -0.006361018866300583
3.6693320274353027 -0.1890908032655716 0.5819362998008728 100.0 12 -0.006358714774250984
1.9479469060897827 -0.10072396695613861 -0.17065094411373138 70.0 5 -0.006356411147862673
3.670275926589966 -0.19042402505874634 0.714388906955719 93.0 13 -0.006354107055813074
2.2937421798706055 -0.11940708011388779 -0.1203727126121521 42.0 6 -0.006351802963763475
3.681997060775757 -0.19232091307640076 0.8512148261070251 97.0 14 -0.006349498871713877
2.2465946674346924 -0.11734586954116821 -0.03926791250705719 85.0 7 -0.006347195245325565
3.6828505992889404 -0.19301003217697144 0.9881711006164551 111.0 15 -0.006344891153275967
2.0505919456481934 -0.11033821105957031 -0.5502493381500244 48.0 0 -0.006324154790490866
2.2423927783966064 -0.12105114012956619 0.03919810429215431 52.0 8 -0.006321851164102554
2.1540985107421875 -0.11666180193424225 -0.49804162979125977 81.0 1 -0.006319547072052956
2.2675390243530273 -0.12320244312286377 0.11901197582483292 3.0 9 -0.006317242980003357
2.166201114654541 -0.11769643425941467 -0.42168790102005005 78.0 2 -0.006314938887953758
3.646636724472046 -0.19877144694328308 0.3195129334926605 51.0 10 -0.0063126347959041595
2.171645402908325 -0.11875253915786743 -0.34446874260902405 91.0 3 -0.006310331169515848
3.6530325412750244 -0.20039904117584229 0.44921043515205383 100.0 11 -0.0063080270774662495
1.9503796100616455 -0.1073358803987503 -0.2398388832807541 61.0 4 -0.006305722985416651
3.668614387512207 -0.20253829658031464 0.5819362998008728 98.0 12 -0.006303418893367052
1.973445177078247 -0.10895073413848877 -0.17291699349880219 51.0 5 -0.006301114801317453
3.6813502311706543 -0.20388589799404144 0.7166786193847656 92.0 13 -0.006298811174929142
2.3112590312957764 -0.12841014564037323 -0.12131475657224655 31.0 6 -0.006296507082879543
3.6793577671051025 -0.2050638347864151 0.8507649302482605 94.0 14 -0.006294202990829945
2.2241873741149902 -0.1243513748049736 -0.038883961737155914 91.0 7 -0.006291898898780346
3.6821186542510986 -0.20650705695152283 0.9881711006164551 113.0 15 -0.006289594806730747
2.0424795150756836 -0.11705332249403 -0.5481787323951721 48.0 0 -0.006268858909606934
2.247946262359619 -0.129222109913826 0.03930281847715378 49.0 8 -0.006266554817557335
2.157569408416748 -0.1244046688079834 -0.49894148111343384 79.0 1 -0.0062642511911690235
2.2750706672668457 -0.13157816231250763 0.11943066120147705 2.0 9 -0.006261947099119425
2.1677370071411133 -0.1253705471754074 -0.4220695197582245 86.0 2 -0.006259643007069826
3.6379642486572266 -0.21103784441947937 0.3188157081604004 57.0 10 -0.006257338915020227
2.169245481491089 -0.1262175291776657 -0.34415584802627563 83.0 3 -0.006255034822970629
3.6562743186950684 -0.2133805900812149 0.44969791173934937 100.0 11 -0.006252731196582317
1.9717917442321777 -0.11541931331157684 -0.2425200194120407 62.0 4 -0.006250427104532719
3.65999698638916 -0.2148798108100891 0.5806847810745239 100.0 12 -0.00624812301248312
1.9611191749572754 -0.11513804644346237 -0.1718711256980896 47.0 5 -0.006245818920433521
3.6923751831054688 -0.21742741763591766 0.7189683318138123 90.0 13 -0.006243514828383923
2.318772077560425 -0.13694818317890167 -0.12173344939947128 31.0 6 -0.006241211201995611
3.684455394744873 -0.21825164556503296 0.8521146178245544 97.0 14 -0.0062389071099460125
2.2057740688323975 -0.1310471147298813 -0.038569819182157516 57.0 7 -0.006236603017896414
3.68137526512146 -0.21935877203941345 0.9881711006164551 113.0 15 -0.006234298925846815
2.0439870357513428 -0.12429945170879364 -0.5486963987350464 49.0 0 -0.0062135630287230015
2.239497661590576 -0.1365812122821808 0.03916320204734802 45.0 8 -0.006211258936673403
2.1610121726989746 -0.13217318058013916 -0.49984127283096313 81.0 1 -0.006208954844623804
2.3085122108459473 -0.1411946564912796 0.12121009081602097 1.0 9 -0.006206651218235493
2.16336727142334 -0.13269619643688202 -0.421306312084198 89.0 2 -0.006204347126185894
3.6232855319976807 -0.22287914156913757 0.31759554147720337 55.0 10 -0.006202043034136295
2.1569621562957764 -0.1330590844154358 -0.3422786593437195 85.0 3 -0.006199738942086697
3.6594698429107666 -0.22638721764087677 0.4501853883266449 100.0 11 -0.006197434850037098
1.971376895904541 -0.12230145186185837 -0.2425200194120407 59.0 4 -0.0061951312236487865
3.6651790142059326 -0.22738255560398102 0.5816234350204468 96.0 12 -0.006192827131599188
1.962693691253662 -0.1221066415309906 -0.17204543948173523 50.0 5 -0.006190523039549589
3.683756113052368 -0.22982589900493622 0.7174418568611145 90.0 13 -0.0061882189474999905
2.320272922515869 -0.1451660692691803 -0.12183811515569687 33.0 6 -0.006185914855450392
3.6972858905792236 -0.23196564614772797 0.8552640080451965 100.0 14 -0.00618361122906208
2.2312724590301514 -0.13998879492282867 -0.03902358189225197 32.0 7 -0.006181307137012482
3.676771640777588 -0.23132283985614777 0.9871358871459961 113.0 15 -0.006179003044962883
2.0512521266937256 -0.13192950189113617 -0.5507669448852539 54.0 0 -0.006158267147839069
2.245018720626831 -0.14439190924167633 0.03926791250705719 40.0 8 -0.006155963055789471
2.146949291229248 -0.1384606957435608 -0.4966919720172882 77.0 1 -0.006153658963739872
2.3000328540802 -0.14873643219470978 0.12079139798879623 1.0 9 -0.006151354871690273
2.1687679290771484 -0.14062803983688354 -0.42245110869407654 93.0 2 -0.006149050779640675
3.6304378509521484 -0.23604248464107513 0.3182927668094635 60.0 10 -0.006146747153252363
2.1624226570129395 -0.14059560000896454 -0.34321725368499756 93.0 3 -0.0061444430612027645
3.648794651031494 -0.23787550628185272 0.44896671175956726 96.0 11 -0.006142138969153166
1.9868073463439941 -0.12987397611141205 -0.24446991086006165 64.0 4 -0.006139834877103567
3.6742188930511475 -0.24082103371620178 0.5831877589225769 100.0 12 -0.006137531250715256
1.9980412721633911 -0.13130876421928406 -0.1751830279827118 44.0 5 -0.006135227158665657
3.6712193489074707 -0.24126791954040527 0.7151521444320679 96.0 13 -0.006132923066616058
2.31778621673584 -0.15272828936576843 -0.12173344939947128 31.0 6 -0.00613061897456646
3.700385093688965 -0.24448196589946747 0.8561637997627258 94.0 14 -0.006128314882516861
2.258704900741577 -0.14962705969810486 -0.03951225057244301 30.0 7 -0.006126010790467262
3.68365216255188 -0.2446679323911667 0.9892064332962036 113.0 15 -0.006123707164078951
2.0546581745147705 -0.13899175822734833 -0.5518022775650024 54.0 0 -0.00610297080129385
2.252481698989868 -0.15276889503002167 0.03940753638744354 30.0 8 -0.0061006671749055386
2.1386756896972656 -0.14542527496814728 -0.49489232897758484 72.0 1 -0.00609836308285594
2.311455488204956 -0.1575792282819748 0.12141943722963333 1.0 9 -0.006096058990806341
2.1682896614074707 -0.1478191614151001 -0.42245110869407654 97.0 2 -0.0060937548987567425
3.6634268760681152 -0.2503897547721863 0.32125604152679443 100.0 10 -0.006091450806707144
2.1599478721618652 -0.14800795912742615 -0.34290438890457153 87.0 3 -0.006089147180318832
3.6499223709106445 -0.25074678659439087 0.44921043515205383 97.0 11 -0.006086843088269234
1.9823811054229736 -0.13653564453125 -0.2439824491739273 63.0 4 -0.006084538996219635
3.679267644882202 -0.2540532052516937 0.584126353263855 96.0 12 -0.006082234904170036
1.9995824098587036 -0.13807104527950287 -0.17535735666751862 51.0 5 -0.006079930812120438
3.6899404525756836 -0.2554372251033783 0.7189683318138123 92.0 13 -0.006077627185732126
2.3172388076782227 -0.1608179360628128 -0.12173344939947128 28.0 6 -0.0060753230936825275
3.7014529705047607 -0.2575324773788452 0.8566136360168457 100.0 14 -0.006073019001632929
2.2860965728759766 -0.15945850312709808 -0.04000091552734375 38.0 7 -0.00607071490958333
3.69433856010437 -0.258333295583725 0.9923122525215149 108.0 15 -0.0060684108175337315
2.071503162384033 -0.1473970115184784 -0.556460976600647 55.0 0 -0.006047674920409918
2.263902425765991 -0.1614842563867569 0.039616964757442474 24.0 8 -0.006045370828360319
2.140099048614502 -0.15302875638008118 -0.4953422546386719 63.0 1 -0.006043067201972008
2.3387813568115234 -0.1676459163427353 0.1228848323225975 1.0 9 -0.006040763109922409
2.163844108581543 -0.15510627627372742 -0.42168790102005005 97.0 2 -0.00603845901787281
3.6625306606292725 -0.26317599415779114 0.32125604152679443 100.0 10 -0.006036154925823212
2.163358688354492 -0.1558305323123932 -0.3435301184654236 85.0 3 -0.006033850833773613
3.656944751739502 -0.2640577554702759 0.4501853883266449 97.0 11 -0.006031547207385302
1.981892466545105 -0.14345461130142212 -0.2439824491739273 58.0 4 -0.006029243115335703
3.672447919845581 -0.26646581292152405 0.5831877589225769 98.0 12 -0.006026939023286104
2.0288960933685303 -0.14721283316612244 -0.17797201871871948 48.0 5 -0.0060246349312365055
3.6968588829040527 -0.26888564229011536 0.72049480676651 93.0 13 -0.006022330839186907
2.340566873550415 -0.17064839601516724 -0.12298951297998428 27.0 6 -0.006020027212798595
3.6927573680877686 -0.2698831856250763 0.8548140525817871 97.0 14 -0.006017723120748997
2.279542922973633 -0.16699917614459991 -0.039896201342344284 47.0 7 -0.006015419028699398
3.697267770767212 -0.27151036262512207 0.9933475852012634 108.0 15 -0.006013114936649799
2.0613439083099365 -0.15390783548355103 -0.5538727641105652 54.0 0 -0.005992379039525986
2.275289535522461 -0.17028117179870605 0.03982638940215111 12.0 8 -0.005990074947476387
2.1434383392333984 -0.16078972816467285 -0.49624204635620117 64.0 1 -0.005987770855426788
2.338181734085083 -0.17580877244472504 0.1228848323225975 1.0 9 -0.00598546676337719
2.15350079536438 -0.16192252933979034 -0.41977980732917786 86.0 2 -0.005983163136988878
3.663576602935791 -0.2761087417602539 0.32143038511276245 100.0 10 -0.0059808590449392796
2.164771318435669 -0.1635299026966095 -0.343843013048172 81.0 3 -0.005978554952889681
3.659959316253662 -0.27712100744247437 0.45067286491394043 100.0 11 -0.005976250860840082
1.997214913368225 -0.15157361328601837 -0.24593235552310944 49.0 4 -0.005973947234451771
3.669525623321533 -0.2791335880756378 0.5828748941421509 93.0 12 -0.005971643142402172
2.0383028984069824 -0.15504968166351318 -0.17884357273578644 59.0 5 -0.005969339050352573
3.699812650680542 -0.28208696842193604 0.7212580442428589 93.0 13 -0.005967034958302975
2.361862897872925 -0.18049150705337524 -0.1241409033536911 23.0 6 -0.005964730866253376
3.7015082836151123 -0.2835158705711365 0.8570635914802551 100.0 14 -0.005962426774203777
2.2729649543762207 -0.17449605464935303 -0.03979148715734482 26.0 7 -0.005960123147815466
3.7001495361328125 -0.28471100330352783 0.9943828582763672 108.0 15 -0.005957819055765867
2.0588676929473877 -0.16095173358917236 -0.5533550977706909 55.0 0 -0.005937083158642054
2.282655715942383 -0.17884719371795654 0.03996601328253746 9.0 8 -0.005934779066592455
2.140921115875244 -0.1681181639432907 -0.49579212069511414 70.0 1 -0.005932474974542856
2.385340452194214 -0.18773037195205688 0.1253969669342041 1.0 9 -0.0059301708824932575
2.1470508575439453 -0.1689765900373459 -0.41863495111465454 68.0 2 -0.005927867256104946
3.6526591777801514 -0.28811195492744446 0.3205588161945343 100.0 10 -0.0059255631640553474
2.150402545928955 -0.16999565064907074 -0.34165289998054504 73.0 3 -0.005923259072005749
3.6708431243896484 -0.2908356189727783 0.4521353244781494 100.0 11 -0.00592095497995615
2.0164620876312256 -0.1601155549287796 -0.2483697384595871 72.0 4 -0.005918650887906551
3.676405668258667 -0.29256775975227356 0.584126353263855 96.0 12 -0.005916346795856953
2.0357632637023926 -0.1620057076215744 -0.178669273853302 54.0 5 -0.005914043169468641
3.6948916912078857 -0.29468783736228943 0.72049480676651 96.0 13 -0.005911739077419043
2.371173143386841 -0.18953052163124084 -0.12466426193714142 35.0 6 -0.005909434985369444
3.708265781402588 -0.29705721139907837 0.8588631749153137 100.0 14 -0.005907130893319845
3.695282220840454 -0.2973153591156006 0.9933475852012634 111.0 15 -0.005902523174881935
2.0602190494537354 -0.16829486191272736 -0.5538727641105652 57.0 0 -0.005881786812096834
2.297961711883545 -0.1881192922592163 0.04024524614214897 2.0 8 -0.005879483185708523
2.1286680698394775 -0.17463433742523193 -0.49309274554252625 70.0 1 -0.005877179093658924
2.3846707344055176 -0.19605562090873718 0.1253969669342041 1.0 9 -0.005874875001609325
2.140578269958496 -0.17598757147789001 -0.4174901247024536 64.0 2 -0.005872570909559727
3.657588481903076 -0.3013512194156647 0.3210817575454712 99.0 10 -0.005870266817510128
2.1557021141052246 -0.17798854410648346 -0.3425915241241455 86.0 3 -0.005867963191121817
3.657935857772827 -0.3026653826236725 0.45067286491394043 100.0 11 -0.005865659099072218
2.033695697784424 -0.16862967610359192 -0.250563383102417 83.0 4 -0.005863355007022619
3.6832363605499268 -0.3060533404350281 0.5853778123855591 96.0 12 -0.0058610509149730206
2.0550410747528076 -0.17076072096824646 -0.1804123967885971 49.0 5 -0.005858746822923422
3.686014413833618 -0.3069319427013397 0.7189683318138123 92.0 13 -0.0058564431965351105
2.3605453968048096 -0.19697588682174683 -0.1241409033536911 28.0 6 -0.005854139104485512
3.718858242034912 -0.31097400188446045 0.8615626096725464 100.0 14 -0.005851835012435913
3.6347057819366455 -0.30457594990730286 -0.06366638094186783 71.0 7 -0.005849530920386314
3.6942219734191895 -0.31021246314048767 0.9933475852012634 108.0 15 -0.005847226828336716
2.0615439414978027 -0.17564934492111206 -0.5543904304504395 55.0 0 -0.005826490931212902
2.3291702270507812 -0.19886136054992676 0.04080372676253319 2.0 8 -0.005824186839163303
2.124162197113037 -0.1817314773797989 -0.49219295382499695 70.0 1 -0.005821882747113705
3.6535658836364746 -0.3132210969924927 0.1921776533126831 74.0 9 -0.005819579120725393
2.14190673828125 -0.183626189827919 -0.41787171363830566 78.0 2 -0.005817275028675795
3.668424367904663 -0.31513985991477966 0.3221276104450226 96.0 10 -0.005814970936626196
2.1511316299438477 -0.18517345190048218 -0.34196579456329346 75.0 3 -0.005812666844576597
3.6568570137023926 -0.3154321014881134 0.45067286491394043 100.0 11 -0.005810363218188286
2.021228551864624 -0.17470194399356842 -0.2491009682416916 76.0 4 -0.005808059126138687
3.6900177001953125 -0.31959018111228943 0.586629331111908 93.0 12 -0.0058057550340890884
2.064357042312622 -0.17879270017147064 -0.18128395080566406 51.0 5 -0.00580345094203949
3.6907882690429688 -0.3203059136867523 0.7201131582260132 89.0 13 -0.005801146849989891
2.3538742065429688 -0.2046954333782196 -0.12382689118385315 24.0 6 -0.005798842757940292
3.702219009399414 -0.32260003685951233 0.8579633831977844 100.0 14 -0.005796539131551981
3.655533790588379 -0.3191748261451721 -0.0640503317117691 100.0 7 -0.005794235039502382
3.696965456008911 -0.3234425485134125 0.9943828582763672 108.0 15 -0.005791930947452784
2.0666909217834473 -0.18335656821727753 -0.5559433102607727 57.0 0 -0.00577119505032897
3.6351094245910645 -0.32314589619636536 0.06370127946138382 60.0 8 -0.005768890958279371
2.1215736865997314 -0.18897217512130737 -0.4917430281639099 66.0 1 -0.005766586866229773
3.6704115867614746 -0.3269297778606415 0.19311968982219696 102.0 9 -0.005764283239841461
2.1314752101898193 -0.19022908806800842 -0.41596361994743347 86.0 2 -0.0057619791477918625
3.671271324157715 -0.32829806208610535 0.32247623801231384 99.0 10 -0.005759675055742264
2.1662118434906006 -0.19409145414829254 -0.34446874260902405 54.0 3 -0.005757370963692665
3.663642168045044 -0.32890498638153076 0.4516478180885315 100.0 11 -0.005755066871643066
2.0147063732147217 -0.1808711141347885 -0.2483697384595871 67.0 4 -0.005752762779593468
3.681067943572998 -0.33111703395843506 0.5853778123855591 96.0 12 -0.005750459153205156
2.085547924041748 -0.18796484172344208 -0.1832013577222824 80.0 5 -0.005748155061155558
3.6994240283966064 -0.3340700566768646 0.7220212817192078 92.0 13 -0.005745850969105959
2.329275608062744 -0.21075104176998138 -0.12257081270217896 8.0 6 -0.00574354687705636
3.6953065395355225 -0.3343484401702881 0.8566136360168457 91.0 14 -0.005741243250668049
3.630556583404541 -0.32912877202033997 -0.06363147497177124 98.0 7 -0.00573893915861845
3.71126389503479 -0.3370983898639679 0.9985239505767822 104.0 15 -0.0057366350665688515
2.0699191093444824 -0.1905631572008133 -0.5569786429405212 57.0 0 -0.005715899169445038
3.6360089778900146 -0.33538222312927246 0.06373618543148041 53.0 8 -0.005713595077395439
2.113173723220825 -0.19528920948505402 -0.4899434447288513 68.0 1 -0.0057112909853458405
3.655385732650757 -0.33781296014785767 0.19238698482513428 88.0 9 -0.005708986893296242
2.128878355026245 -0.19711530208587646 -0.4155820310115814 78.0 2 -0.005706682801246643
3.662226676940918 -0.3397344946861267 0.3217789828777313 99.0 10 -0.005704379174858332
2.2107951641082764 -0.20547844469547272 -0.3516647219657898 82.0 3 -0.005702075082808733
3.6704370975494385 -0.34178847074508667 0.45262277126312256 100.0 11 -0.005699770990759134
2.049673318862915 -0.19086410105228424 -0.2527570426464081 57.0 4 -0.005697466898709536
3.677982807159424 -0.34313860535621643 0.5850650072097778 98.0 12 -0.005695162806659937
2.0670595169067383 -0.1932109147310257 -0.18163256347179413 66.0 5 -0.0056928591802716255
3.7080698013305664 -0.3472512364387512 0.7239293456077576 89.0 13 -0.005690555088222027
2.2649309635162354 -0.21250374615192413 -0.11922132223844528 26.0 6 -0.005688250996172428
3.707758903503418 -0.3478749096393585 0.8597630262374878 100.0 14 -0.0056859469041228294
3.6214818954467773 -0.340417742729187 -0.06349185854196548 100.0 7 -0.005683642812073231
3.702432155609131 -0.34867897629737854 0.9964533448219299 106.0 15 -0.005681339185684919
2.057737112045288 -0.19632533192634583 -0.5538727641105652 57.0 0 -0.005660602822899818
3.6149709224700928 -0.34553512930870056 0.06338714063167572 52.0 8 -0.00565829873085022
2.11057448387146 -0.2021099179983139 -0.4894935190677643 74.0 1 -0.005655995104461908
3.6621367931365967 -0.35133352875709534 0.1928056925535202 85.0 9 -0.00565369101241231
2.145801067352295 -0.2058611959218979 -0.419016569852829 55.0 2 -0.005651386920362711
3.6610798835754395 -0.35187700390815735 0.3217789828777313 96.0 10 -0.0056490832939744
2.190438985824585 -0.21091526746749878 -0.34853604435920715 77.0 3 -0.005646779201924801
3.6732354164123535 -0.3543393909931183 0.4531102478504181 100.0 11 -0.005644475109875202
2.060850143432617 -0.19916337728500366 -0.2542194724082947 54.0 4 -0.0056421710178256035
3.686593532562256 -0.35692688822746277 0.586629331111908 93.0 12 -0.005639866925776005
2.0782711505889893 -0.2015792280435562 -0.1826784461736679 54.0 5 -0.005637562833726406
3.706897497177124 -0.3595457375049591 0.7239293456077576 89.0 13 -0.005635258741676807
2.266201972961426 -0.22020654380321503 -0.11932599544525146 49.0 6 -0.005632955115288496
3.7123405933380127 -0.36138173937797546 0.861112654209137 97.0 14 -0.005630651023238897
3.6361935138702393 -0.35460975766181946 -0.06377109885215759 100.0 7 -0.005628346931189299
3.701192855834961 -0.361600786447525 0.9964533448219299 108.0 15 -0.0056260428391397
2.066615581512451 -0.20481862127780914 -0.556460976600647 55.0 0 -0.005605306942015886
3.6256821155548096 -0.35933494567871094 0.06359656900167465 64.0 8 -0.005603002849966288
2.105977773666382 -0.209090918302536 -0.488593727350235 72.0 1 -0.005600699223577976
3.6748006343841553 -0.3654983639717102 0.1935383826494217 94.0 9 -0.0055983951315283775
2.189964771270752 -0.21820151805877686 -0.42779380083084106 94.0 2 -0.005596091039478779
3.6637306213378906 -0.3656889498233795 0.3221276104450226 96.0 10 -0.00559378694742918
2.205375909805298 -0.22051453590393066 -0.35103899240493774 74.0 3 -0.0055914828553795815
3.6640753746032715 -0.36636924743652344 0.4521353244781494 100.0 11 -0.005589178763329983
2.0877950191497803 -0.20912569761276245 -0.2576318085193634 57.0 4 -0.005586875136941671
3.6931869983673096 -0.3705822229385376 0.5878807902336121 93.0 12 -0.005584571044892073
2.0914316177368164 -0.2102273553609848 -0.18389861285686493 50.0 5 -0.005582266952842474
3.701648235321045 -0.3727363646030426 0.7231661081314087 89.0 13 -0.005579962860792875
2.267366409301758 -0.2287115454673767 -0.11943066120147705 67.0 6 -0.005577659234404564
3.7206857204437256 -0.37596532702445984 0.8633622527122498 100.0 14 -0.005575355142354965
3.6349334716796875 -0.3673003017902374 -0.06377109885215759 96.0 7 -0.0055730510503053665
3.7075958251953125 -0.37529635429382324 0.9985239505767822 106.0 15 -0.005570746958255768
2.067810297012329 -0.212228462100029 -0.5569786429405212 54.0 0 -0.005550011061131954
3.6322977542877197 -0.37343937158584595 0.06373618543148041 80.0 8 -0.0055477069690823555
2.1032586097717285 -0.21660864353179932 -0.48814380168914795 66.0 1 -0.005545402877032757
3.6615817546844482 -0.37709590792655945 0.1929103434085846 91.0 9 -0.005543098784983158
2.1911427974700928 -0.22604605555534363 -0.4281754195690155 89.0 2 -0.005540795158594847
3.6743228435516357 -0.3797043263912201 0.32317349314689636 99.0 10 -0.005538491066545248
2.202627658843994 -0.228007972240448 -0.35072609782218933 57.0 3 -0.005536186974495649
3.6587588787078857 -0.3793867826461792 0.4516478180885315 100.0 11 -0.005533882882446051
2.0988614559173584 -0.21800698339939117 -0.2590942680835724 43.0 4 -0.005531579256057739
3.697765588760376 -0.3840838074684143 0.5888193845748901 91.0 12 -0.0055292751640081406
2.108520269393921 -0.21938222646713257 -0.1854674071073532 61.0 5 -0.005526971071958542
3.700324773788452 -0.3856552541255951 0.7231661081314087 89.0 13 -0.005524666979908943
2.246689796447754 -0.23455090820789337 -0.11838394403457642 57.0 6 -0.0055223628878593445
3.7096595764160156 -0.38793718814849854 0.861112654209137 97.0 14 -0.005520058795809746
3.6395957469940186 -0.38061025738716125 -0.06387580931186676 93.0 7 -0.005517755169421434
3.710106134414673 -0.38863855600357056 0.999559223651886 106.0 15 -0.005515451077371836
2.0766618251800537 -0.22046490013599396 -0.5595667958259583 51.0 0 -0.005494715180248022
3.642970561981201 -0.38674911856651306 0.06394562125205994 79.0 8 -0.005492411088198423
2.1412851810455322 -0.22770342230796814 -0.49714183807373047 53.0 1 -0.005490106996148825
3.658257246017456 -0.3896633982658386 0.1928056925535202 88.0 9 -0.005487802904099226
2.1825313568115234 -0.2328600436449051 -0.42664891481399536 75.0 2 -0.005485499277710915
3.6769373416900635 -0.39295127987861633 0.3235221207141876 96.0 10 -0.005483195185661316
2.2116804122924805 -0.23636046051979065 -0.35229045152664185 53.0 3 -0.005480891093611717
3.669323444366455 -0.39278528094291687 0.4531102478504181 100.0 11 -0.0054785870015621185
2.119838237762451 -0.22729378938674927 -0.2617753744125366 31.0 4 -0.00547628290951252
3.6885461807250977 -0.3961453139781952 0.587567925453186 91.0 12 -0.005473978817462921
2.1176462173461914 -0.2278064787387848 -0.18633896112442017 67.0 5 -0.0054716747254133224
3.70878529548645 -0.3989737629890442 0.7250742316246033 90.0 13 -0.005469371099025011
2.2359707355499268 -0.24093008041381836 -0.1178605854511261 53.0 6 -0.005467067006975412
3.7102901935577393 -0.4004458785057068 0.8615626096725464 100.0 14 -0.005464762914925814
3.6302926540374756 -0.39245283603668213 -0.06373618543148041 90.0 7 -0.005462459288537502
3.716409206390381 -0.40241870284080505 1.0016297101974487 108.0 15 -0.005460155196487904
2.0759193897247314 -0.2273501455783844 -0.5595667958259583 46.0 0 -0.005439418833702803
3.6495494842529297 -0.40033528208732605 0.06408523768186569 74.0 8 -0.005437115207314491
2.173407793045044 -0.23879465460777283 -0.5047902464866638 81.0 1 -0.005434811115264893
3.6648857593536377 -0.4026649594306946 0.19322437047958374 85.0 9 -0.005432507023215294
2.1778440475463867 -0.23966678977012634 -0.42588570713996887 39.0 2 -0.005430202931165695
3.6716532707214355 -0.40470564365386963 0.32317349314689636 99.0 10 -0.0054278988391160965
2.22851300239563 -0.24603010714054108 -0.35510629415512085 57.0 3 -0.005425594747066498
3.6758222579956055 -0.4064639210700989 0.45408520102500916 100.0 11 -0.005423291120678186
2.1624388694763184 -0.2394995242357254 -0.2671376168727875 42.0 4 -0.005420987028628588
3.6891753673553467 -0.40859225392341614 0.5878807902336121 93.0 12 -0.005418682936578989
2.114899158477783 -0.23460796475410461 -0.18616466224193573 50.0 5 -0.00541637884452939
3.713223695755005 -0.4125678241252899 0.7262190580368042 89.0 13 -0.005414075218141079
2.239086151123047 -0.24917539954185486 -0.11806992441415787 55.0 6 -0.00541177112609148
3.7166171073913574 -0.4142582416534424 0.8633622527122498 94.0 14 -0.0054094670340418816
3.626983880996704 -0.40426763892173767 -0.06370127946138382 98.0 7 -0.005407162941992283
3.711214542388916 -0.4143119156360626 1.0005944967269897 108.0 15 -0.005404858849942684
2.1077468395233154 -0.23828434944152832 -0.5683666467666626 54.0 0 -0.0053841229528188705
3.640253782272339 -0.4115368723869324 0.06394562125205994 81.0 8 -0.005381818860769272
2.178412675857544 -0.24665836989879608 -0.506139874458313 59.0 1 -0.005379514768719673
3.677349805831909 -0.41703078150749207 0.19395707547664642 94.0 9 -0.005377211142331362
2.219910144805908 -0.2521418631076813 -0.43428128957748413 44.0 2 -0.005374907050281763
3.6702182292938232 -0.41751962900161743 0.32317349314689636 99.0 10 -0.005372602958232164
2.227684736251831 -0.25341877341270447 -0.35510629415512085 69.0 3 -0.005370298866182566
3.686288356781006 -0.41999951004981995 0.45554763078689575 100.0 11 -0.005367995239794254
2.244469165802002 -0.25612175464630127 -0.27737462520599365 74.0 4 -0.005365691147744656
3.6936144828796387 -0.42214033007621765 0.5888193845748901 91.0 12 -0.005363387055695057
2.1437594890594482 -0.24538762867450714 -0.1887793391942978 46.0 5 -0.005361082963645458
3.7118353843688965 -0.4248790442943573 0.7262190580368042 85.0 13 -0.0053587788715958595
2.232294797897339 -0.25591665506362915 -0.11775590479373932 51.0 6 -0.005356474779546261
3.724902868270874 -0.427692174911499 0.865611732006073 100.0 14 -0.0053541711531579494
3.637470245361328 -0.4182964563369751 -0.06391071528196335 96.0 7 -0.005351867061108351
3.7059075832366943 -0.42682182788848877 0.999559223651886 106.0 15 -0.005349562969058752
2.1433603763580322 -0.24989092350006104 -0.5782017707824707 69.0 0 -0.005275725852698088
3.642693281173706 -0.42534011602401733 0.06401542574167252 74.0 8 -0.005273421760648489
3.6777803897857666 -0.4307384192943573 0.194061741232872 85.0 9 -0.005268814042210579
2.2287659645080566 -0.2610311210155487 -0.4361893832683563 30.0 2 -0.00526650995016098
3.672696113586426 -0.43079280853271484 0.3235221207141876 93.0 10 -0.0052642058581113815
2.2306647300720215 -0.2620428800582886 -0.3557320237159729 69.0 3 -0.005261901766061783
3.6728951930999756 -0.43211591243743896 0.45408520102500916 100.0 11 -0.005259597674012184
2.2533724308013916 -0.26550787687301636 -0.2785933315753937 69.0 4 -0.005257294047623873
3.7018511295318604 -0.4368327260017395 0.590383768081665 93.0 12 -0.005254989955574274
2.158674478530884 -0.2551139295101166 -0.19017383456230164 47.0 5 -0.005252685863524675
3.694655656814575 -0.43663743138313293 0.7231661081314087 81.0 13 -0.005250381771475077
2.2392754554748535 -0.2650357186794281 -0.11817460507154465 48.0 6 -0.005248077679425478
3.7387917041778564 -0.443176805973053 0.8692108988761902 100.0 14 -0.005245774053037167
3.6418700218200684 -0.4323328137397766 -0.06401542574167252 100.0 7 -0.005243469960987568
3.7158281803131104 -0.4417702257633209 1.0026650428771973 106.0 15 -0.005241165868937969
2.148184061050415 -0.25843727588653564 -0.579754650592804 60.0 0 -0.005220429971814156
3.6451570987701416 -0.4385306239128113 0.06408523768186569 81.0 8 -0.005218125879764557
2.3120243549346924 -0.2785574793815613 -0.5376330614089966 1.0 1 -0.005215821787714958
3.674271583557129 -0.4433344006538391 0.19395707547664642 91.0 9 -0.0052135176956653595
3.682960271835327 -0.4456871449947357 0.324567973613739 99.0 10 -0.005208909977227449
2.229689121246338 -0.2702169120311737 -0.3557320237159729 47.0 3 -0.005206605885177851
3.673335075378418 -0.4451729357242584 0.4543289542198181 93.0 11 -0.005204301793128252
2.252431869506836 -0.27337202429771423 -0.2785933315753937 66.0 4 -0.005201997701078653
3.7061867713928223 -0.45046699047088623 0.5913223624229431 87.0 12 -0.005199694074690342
2.1834821701049805 -0.26577720046043396 -0.19243988394737244 36.0 5 -0.005197389982640743
3.7125186920166016 -0.4525516629219055 0.7269822955131531 86.0 13 -0.0051950858905911446
2.2323415279388428 -0.2725152373313904 -0.1178605854511261 46.0 6 -0.005192781798541546
3.723601818084717 -0.45522186160087585 0.8660616278648376 100.0 14 -0.005190477706491947
3.6502630710601807 -0.44625598192214966 -0.06418995559215546 100.0 7 -0.005188174080103636
3.721933603286743 -0.45567724108695984 1.0047355890274048 106.0 15 -0.005185869988054037
2.1434342861175537 -0.2654593884944916 -0.5787193775177002 67.0 0 -0.005165133625268936
3.651463031768799 -0.45287230610847473 0.06422485411167145 76.0 8 -0.005162829998880625
3.6686580181121826 -0.45630529522895813 0.19374772906303406 91.0 9 -0.005158221814781427
2.367114543914795 -0.29442015290260315 -0.4636658728122711 1.0 2 -0.005155917722731829
3.6892902851104736 -0.4595254063606262 0.32526522874832153 99.0 10 -0.00515361363068223
2.2542150020599365 -0.2811768651008606 -0.359799325466156 42.0 3 -0.005151310004293919
3.681527614593506 -0.4598636031150818 0.45554763078689575 100.0 11 -0.00514900591224432
2.2514147758483887 -0.2816257178783417 -0.2785933315753937 61.0 4 -0.005146701820194721
3.6966705322265625 -0.46306565403938293 0.5900708436965942 91.0 12 -0.0051443977281451225
2.198356866836548 -0.2753784954547882 -0.19383437931537628 30.0 5 -0.005142093636095524
3.71091628074646 -0.46550804376602173 0.7269822955131531 89.0 13 -0.0051397900097072124
2.2393033504486084 -0.2813016474246979 -0.11827926337718964 42.0 6 -0.005137485917657614
3.7219901084899902 -0.4682169556617737 0.8660616278648376 100.0 14 -0.005135181825608015
3.642651081085205 -0.45888206362724304 -0.06408523768186569 100.0 7 -0.005132877733558416
3.727905035018921 -0.4702829420566559 1.0068061351776123 111.0 15 -0.005130573641508818
2.138662099838257 -0.2724515199661255 -0.5776841640472412 60.0 0 -0.005109837744385004
3.66176176071167 -0.46713387966156006 0.06443428248167038 81.0 8 -0.005107533652335405
2.279043436050415 -0.29114362597465515 -0.5304346084594727 1.0 1 -0.005105230025947094
