# .PCD v0.7 - Point Cloud Data file format
VERSION 0.7
FIELDS x y z intensity ring time
SIZE 4 4 4 4 4 4
TYPE F F F F F F
COUNT 1 1 1 1 1 1
WIDTH 530
HEIGHT 1
VIEWPOINT 0 0 0 1 0 0 0
POINTS 530
DATA ascii
0.06278899312019348 -2.290858268737793 0.5290848612785339 9.0 14 -0.0614466555416584
0.06108108162879944 -2.2428269386291504 -0.03916320204734802 100.0 7 -0.061444349586963654
0.06160891801118851 -2.2768197059631348 0.610295295715332 10.0 15 -0.061442047357559204
0.031933438032865524 -1.2359726428985596 -0.3312883973121643 9.0 0 -0.061421312391757965
0.05730142444372177 -2.232924699783325 0.03898867964744568 81.0 8 -0.06141900643706322
0.036643169820308685 -1.4377033710479736 -0.332027792930603 8.0 1 -0.06141670420765877
0.05731234326958656 -2.2641665935516357 0.11869796365499496 47.0 9 -0.06141439825296402
0.04391668364405632 -1.7349611520767212 -0.33735033869743347 5.0 2 -0.06141209602355957
0.05712863430380821 -2.2725985050201416 0.19888940453529358 25.0 10 -0.06140979006886482
0.05516305938363075 -2.2097582817077637 -0.3501003682613373 10.0 3 -0.06140748783946037
0.05612906441092491 -2.2642948627471924 0.27810585498809814 15.0 11 -0.061405181884765625
0.0574435219168663 -2.333761692047119 -0.28663671016693115 100.0 4 -0.061402879655361176
0.05603313446044922 -2.2927279472351074 0.3632408678531647 12.0 12 -0.06140057370066643
0.057148534804582596 -2.338366985321045 -0.2046416699886322 100.0 5 -0.06139827147126198
0.05500585213303566 -2.2668914794921875 0.4407688081264496 9.0 13 -0.06139596551656723
0.0541611909866333 -2.2482614517211914 -0.1178605854511261 94.0 6 -0.06139366328716278
0.054605863988399506 -2.283270835876465 0.5272852778434753 9.0 14 -0.06139135733246803
0.05344129353761673 -2.251023054122925 -0.03930281847715378 100.0 7 -0.06138905510306358
0.053751926869153976 -2.2808837890625 0.6113306283950806 9.0 15 -0.061386749148368835
0.02813795953989029 -1.2399295568466187 -0.33232367038726807 10.0 0 -0.06138753890991211
0.05037613958120346 -2.2370920181274414 0.039058487862348557 76.0 8 -0.06138523668050766
0.03238743543624878 -1.4495009183883667 -0.3347271978855133 8.0 1 -0.06138293072581291
0.05006606876850128 -2.258345127105713 0.11838394403457642 40.0 9 -0.06138062849640846
0.03807423263788223 -1.7174257040023804 -0.3339157700538635 5.0 2 -0.061378322541713715
0.05016419291496277 -2.2807343006134033 0.1995866596698761 24.0 10 -0.061376020312309265
0.048392899334430695 -2.217820167541504 -0.3513518273830414 9.0 3 -0.06137371435761452
0.04910138621926308 -2.2684290409088135 0.2785933315753937 15.0 11 -0.06137141212821007
0.050026461482048035 -2.3299615383148193 -0.2861492335796356 100.0 4 -0.06136910617351532
0.048619650304317474 -2.283017873764038 0.36167651414871216 13.0 12 -0.06136680394411087
0.04943590238690376 -2.340535879135132 -0.20481599867343903 100.0 5 -0.06136449798941612
0.04829841107130051 -2.2866814136505127 0.44458499550819397 9.0 13 -0.06136219576001167
0.0471816286444664 -2.2524139881134033 -0.11806992441415787 88.0 6 -0.061359889805316925
0.04743238911032677 -2.283431053161621 0.5272852778434753 9.0 14 -0.061357587575912476
0.04603995382785797 -2.235185384750366 -0.03902358189225197 100.0 7 -0.06135528162121773
0.046586498618125916 -2.281041383743286 0.6113306283950806 10.0 15 -0.06135297939181328
0.02337283082306385 -1.2284353971481323 -0.3292178511619568 9.0 0 -0.06133224442601204
0.042795367538928986 -2.2492504119873047 0.03926791250705719 79.0 8 -0.06132993847131729
0.02740112878382206 -1.4535020589828491 -0.3356269896030426 8.0 1 -0.06132763624191284
0.04218260571360588 -2.2585060596466064 0.11838394403457642 41.0 9 -0.061325330287218094
0.03163399174809456 -1.7097020149230957 -0.33238929510116577 5.0 2 -0.061323028057813644
0.04154893383383751 -2.266958475112915 0.1983664631843567 23.0 10 -0.061320722103118896
0.040228232741355896 -2.216007709503174 -0.35103899240493774 8.0 3 -0.06131841987371445
0.04136287420988083 -2.278510332107544 0.2798120379447937 15.0 11 -0.0613161139190197
0.041964102536439896 -2.3340914249420166 -0.28663671016693115 100.0 4 -0.06131381168961525
0.040615178644657135 -2.281198501586914 0.3613636791706085 12.0 12 -0.0613115057349205
0.0410902164876461 -2.33073353767395 -0.20394444465637207 100.0 5 -0.06130920350551605
0.040053993463516235 -2.2946949005126953 0.44611144065856934 10.0 13 -0.061306897550821304
0.03906380012631416 -2.2605600357055664 -0.1184886172413826 84.0 6 -0.061304595321416855
0.039163101464509964 -2.2894349098205566 0.5286350250244141 9.0 14 -0.06130228936672211
0.03823762759566307 -2.235332489013672 -0.03902358189225197 100.0 7 -0.06129998713731766
0.03859085217118263 -2.2792584896087646 0.6108129620552063 10.0 15 -0.06129768118262291
0.019144482910633087 -1.232372760772705 -0.33025309443473816 9.0 0 -0.06127694621682167
0.034489706158638 -2.2453930377960205 0.03919810429215431 69.0 8 -0.06127464398741722
0.021955212578177452 -1.445798635482788 -0.3338273763656616 8.0 1 -0.06127233803272247
0.03417424485087395 -2.2766189575195312 0.11932599544525146 38.0 9 -0.061270035803318024
0.025872044265270233 -1.7235431671142578 -0.33506059646606445 5.0 2 -0.061267729848623276
0.03369457274675369 -2.2710742950439453 0.19871510565280914 23.0 10 -0.061265427619218826
0.033650998026132584 -2.2951412200927734 -0.3635537326335907 30.0 3 -0.06126312166452408
0.03312642499804497 -2.2865865230560303 0.28078699111938477 15.0 11 -0.06126081943511963
0.033522821962833405 -2.3421692848205566 -0.2876116633415222 100.0 4 -0.06125851348042488
0.032365553081035614 -2.2892327308654785 0.3626151382923126 12.0 12 -0.06125621125102043
0.03260297700762749 -2.334853172302246 -0.20429305732250214 100.0 5 -0.061253905296325684
0.032043978571891785 -2.294820785522461 0.44611144065856934 9.0 13 -0.061251603066921234
0.03114486113190651 -2.2586851119995117 -0.11838394403457642 78.0 6 -0.061249297112226486
0.031091321259737015 -2.2837119102478027 0.5272852778434753 9.0 14 -0.06124699488282204
0.02996380627155304 -2.229459285736084 -0.038918863981962204 100.0 7 -0.06124469265341759
0.030057284981012344 -2.2658629417419434 0.6071895360946655 9.0 15 -0.06124238669872284
0.014581606723368168 -1.2285711765289307 -0.3292178511619568 9.0 0 -0.0612216517329216
0.0266038179397583 -2.2415008544921875 0.039128296077251434 68.0 8 -0.06121934577822685
0.016954006627202034 -1.4497636556625366 -0.3347271978855133 8.0 1 -0.0612170435488224
0.026250366121530533 -2.278721332550049 0.11943066120147705 36.0 9 -0.061214737594127655
0.019487924873828888 -1.717737078666687 -0.3339157700538635 5.0 2 -0.061212435364723206
0.0253704022616148 -2.2711822986602783 0.19871510565280914 23.0 10 -0.06121012941002846
0.025629857555031776 -2.330803871154785 -0.3691853880882263 100.0 3 -0.06120782718062401
0.02494831010699272 -2.2688233852386475 0.2785933315753937 14.0 11 -0.06120552122592926
0.025389812886714935 -2.3462417125701904 -0.28809913992881775 100.0 4 -0.06120321899652481
0.024374378845095634 -2.2893319129943848 0.3626151382923126 12.0 12 -0.06120091676712036
0.024473140016198158 -2.336944818496704 -0.20446737110614777 100.0 5 -0.06119861081242561
0.02343062497675419 -2.2752912044525146 0.44229528307914734 10.0 13 -0.061196308583021164
0.022765299305319786 -2.248798370361328 -0.1178605854511261 73.0 6 -0.061194002628326416
0.022875940427184105 -2.2993998527526855 0.5308845043182373 9.0 14 -0.06119170039892197
0.022300390526652336 -2.2415478229522705 -0.039128296077251434 100.0 7 -0.06118939444422722
0.022223494946956635 -2.2736809253692627 0.6092600226402283 9.0 15 -0.06118709221482277
0.010325484909117222 -1.232478141784668 -0.33025309443473816 10.0 0 -0.06116635352373123
0.018453968688845634 -2.249581813812256 0.03926791250705719 65.0 8 -0.06116405129432678
0.011514883488416672 -1.434226632118225 -0.33112797141075134 7.0 1 -0.061161745339632034
0.01780409924685955 -2.2668192386627197 0.11880263686180115 36.0 9 -0.061159443110227585
0.013553617522120476 -1.7256475687026978 -0.3354422450065613 5.0 2 -0.06115713715553284
0.017534350976347923 -2.2832109928131104 0.19976095855236053 23.0 10 -0.06115483492612839
0.017582284286618233 -2.342731237411499 -0.37106260657310486 100.0 3 -0.06115253269672394
0.01666155457496643 -2.272869825363159 0.2790808379650116 14.0 11 -0.06115022674202919
0.01667683571577072 -2.3304386138916016 -0.2861492335796356 100.0 4 -0.06114792451262474
0.01602472923696041 -2.2953319549560547 0.3635537326335907 12.0 12 -0.06114561855792999
0.016315743327140808 -2.3370161056518555 -0.20446737110614777 100.0 5 -0.06114331632852554
0.015541624277830124 -2.283212184906006 0.4438217580318451 9.0 13 -0.061141010373830795
0.014981556683778763 -2.258850336074829 -0.11838394403457642 71.0 6 -0.061138708144426346
0.014774100854992867 -2.287773370742798 0.5281850695610046 9.0 14 -0.0611364021897316
0.014109913259744644 -2.2456135749816895 -0.03919810429215431 100.0 7 -0.06113409996032715
0.014031188562512398 -2.296928644180298 0.6154717206954956 9.0 15 -0.0611317940056324
0.006042116787284613 -1.236370325088501 -0.3312883973121643 10.0 0 -0.06111105903983116
0.010638982988893986 -2.257631301879883 0.03940753638744354 68.0 8 -0.061108753085136414
0.0065439315512776375 -1.4420528411865234 -0.3329275846481323 7.0 1 -0.061106450855731964
0.009882538579404354 -2.2648701667785645 0.11869796365499496 31.0 9 -0.061104148626327515
0.007478454615920782 -1.7139047384262085 -0.33315253257751465 5.0 2 -0.06110184267163277
0.009597670286893845 -2.2912280559539795 0.20045821368694305 23.0 10 -0.06109954044222832
0.009396802634000778 -2.3408026695251465 -0.37074974179267883 100.0 3 -0.06109723448753357
0.00873494427651167 -2.2748987674713135 0.27932456135749817 15.0 11 -0.06109493225812912
0.008556193672120571 -2.3344528675079346 -0.28663671016693115 100.0 4 -0.06109262630343437
0.007985054515302181 -2.287472724914551 0.3623022735118866 11.0 12 -0.06109032407402992
0.008192923851311207 -2.3470206260681152 -0.20533892512321472 100.0 5 -0.061088018119335175
0.007610629312694073 -2.295031785964966 0.44611144065856934 9.0 13 -0.061085715889930725
0.00711536779999733 -2.264880657196045 -0.11869796365499496 68.0 6 -0.06108340993523598
0.006788400933146477 -2.287811040878296 0.5281850695610046 9.0 14 -0.06108110770583153
0.0062487744726240635 -2.2376506328582764 -0.039058487862348557 100.0 7 -0.06107880175113678
0.006003419868648052 -2.293100118637085 0.6144364476203918 9.0 15 -0.06107649952173233
0.0017047291621565819 -1.2209291458129883 -0.3271472752094269 10.0 0 -0.06105576455593109
0.002768023172393441 -2.265653371810913 0.0395471528172493 63.0 8 -0.06105345860123634
0.0015144012868404388 -1.4459644556045532 -0.3338273763656616 7.0 1 -0.061051156371831894
0.0019835142884403467 -2.2728800773620605 0.1191166415810585 33.0 9 -0.061048850417137146
0.0014922907575964928 -1.7099940776824951 -0.33238929510116577 5.0 2 -0.0610465481877327
0.0015941051533445716 -2.283277988433838 0.19976095855236053 23.0 10 -0.06104424223303795
0.001225474989041686 -2.3408212661743164 -0.37074974179267883 100.0 3 -0.0610419400036335
0.0007990705198608339 -2.288811206817627 0.28103071451187134 14.0 11 -0.06103963404893875
0.00040828651981428266 -2.3384389877319336 -0.2871242165565491 100.0 4 -0.0610373318195343
-1.0007554607227576e-07 -2.289461612701416 0.3626151382923126 11.0 12 -0.061035025864839554
-1.0224379565215713e-07 -2.3390653133392334 -0.2046416699886322 100.0 5 -0.061032723635435104
-0.0004010483680758625 -2.298970937728882 0.4468746781349182 9.0 13 -0.061030417680740356
-0.0007924686651676893 -2.270883321762085 -0.11901197582483292 64.0 6 -0.06102811545133591
-0.0012020096182823181 -2.2956159114837646 0.529984712600708 9.0 14 -0.06102580949664116
-0.0015649765264242887 -2.2416582107543945 -0.039128296077251434 100.0 7 -0.06102350726723671
-0.001999134663492441 -2.291175603866577 0.6139188408851624 10.0 15 -0.06102120131254196
-0.002548916032537818 -1.2170639038085938 -0.3261120319366455 10.0 0 -0.06100046634674072
-0.0051086340099573135 -2.2516515254974365 0.03930281847715378 58.0 8 -0.06099816411733627
-0.0035331787075847387 -1.4459609985351562 -0.3338273763656616 7.0 1 -0.060995858162641525
-0.005971308331936598 -2.2808620929718018 0.11953534185886383 31.0 9 -0.060993555933237076
-0.0044561997056007385 -1.7021358013153076 -0.330862820148468 5.0 2 -0.06099124997854233
-0.006364695727825165 -2.279284715652466 0.19941233098506927 21.0 10 -0.06098894774913788
-0.00692186551168561 -2.3329098224639893 -0.36949828267097473 100.0 3 -0.06098664179444313
-0.007190440781414509 -2.2888002395629883 0.28103071451187134 14.0 11 -0.06098433956503868
-0.007767621893435717 -2.3423962593078613 -0.2876116633415222 100.0 4 -0.06098203361034393
-0.008012290112674236 -2.2953739166259766 0.3635537326335907 11.0 12 -0.060979731380939484
-0.008150841109454632 -2.335066318511963 -0.20429305732250214 100.0 5 -0.060977425426244736
-0.00841162446886301 -2.2950289249420166 0.44611144065856934 9.0 13 -0.060975123196840286
-0.008711990900337696 -2.268869638442993 -0.11890730261802673 61.0 6 -0.06097281724214554
-0.009261922910809517 -2.3072898387908936 0.5326840877532959 9.0 14 -0.06097051501274109
-0.00949849933385849 -2.267634868621826 -0.039582058787345886 100.0 7 -0.06096821278333664
-0.009980293922126293 -2.287290573120117 0.6128835082054138 10.0 15 -0.06096590682864189
-0.006840437185019255 -1.2247748374938965 -0.32818254828453064 10.0 0 -0.06094517186284065
-0.012945360504090786 -2.2476205825805664 0.0392330102622509 56.0 8 -0.060942865908145905
-0.008534115739166737 -1.4381450414657593 -0.332027792930603 7.0 1 -0.060940563678741455
-0.013510999269783497 -2.2768354415893555 0.11932599544525146 27.0 9 -0.06093825772404671
-0.010397782549262047 -1.702109932899475 -0.330862820148468 5.0 2 -0.06093595549464226
-0.014346218667924404 -2.283233404159546 0.19976095855236053 21.0 10 -0.06093364953994751
-0.015103251673281193 -2.338797092437744 -0.3704368472099304 100.0 3 -0.06093134731054306
-0.015153532847762108 -2.2847909927368164 0.2805432379245758 13.0 11 -0.06092904135584831
-0.015561663545668125 -2.346327543258667 -0.28809913992881775 100.0 4 -0.06092673912644386
-0.015650959685444832 -2.2992851734161377 0.36417946219444275 11.0 12 -0.060924433171749115
-0.01635739579796791 -2.3429927825927734 -0.20499029755592346 100.0 5 -0.060922130942344666
-0.016338493674993515 -2.2832067012786865 0.4438217580318451 9.0 13 -0.060919828712940216
-0.016587641090154648 -2.262833595275879 -0.11859328299760818 54.0 6 -0.06091752275824547
-0.01687035523355007 -2.301400661468506 0.5313344597816467 9.0 14 -0.06091522052884102
-0.017003275454044342 -2.2655913829803467 -0.0395471528172493 100.0 7 -0.06091291457414627
-0.0175501499325037 -2.285313129425049 0.6123659014701843 10.0 15 -0.06091061234474182
-0.010936192236840725 -1.2286089658737183 -0.3292178511619568 9.0 0 -0.060889873653650284
-0.02043505199253559 -2.2515645027160645 0.03930281847715378 58.0 8 -0.060887571424245834
-0.013231080025434494 -1.430314064025879 -0.33022817969322205 7.0 1 -0.060885265469551086
-0.021005844697356224 -2.2707862854003906 0.11901197582483292 28.0 9 -0.06088296324014664
-0.016079196706414223 -1.7059922218322754 -0.3316260576248169 5.0 2 -0.06088065728545189
-0.02201305516064167 -2.2931346893310547 0.2006325125694275 20.0 10 -0.06087835505604744
-0.02291691303253174 -2.3446602821350098 -0.3713754713535309 100.0 3 -0.06087604910135269
-0.022690681740641594 -2.2807583808898926 0.2800557613372803 14.0 11 -0.06087374687194824
-0.02326338179409504 -2.3383233547210693 -0.2871242165565491 100.0 4 -0.06087144464254379
-0.02327539213001728 -2.2992208003997803 0.36417946219444275 11.0 12 -0.060869138687849045
-0.024188309907913208 -2.348902702331543 -0.20551322400569916 100.0 5 -0.060866836458444595
-0.024033227935433388 -2.2949185371398926 0.44611144065856934 9.0 13 -0.06086453050374985
-0.02398514747619629 -2.2527804374694824 -0.11806992441415787 51.0 6 -0.0608622282743454
-0.02448132261633873 -2.2993831634521484 0.5308845043182373 9.0 14 -0.06085992231965065
-0.024515969678759575 -2.2655224800109863 -0.0395471528172493 100.0 7 -0.0608576200902462
-0.02523471973836422 -2.294901132583618 0.6149541139602661 10.0 15 -0.06085531413555145
-0.015010394155979156 -1.22856605052948 -0.3292178511619568 9.0 0 -0.060834579169750214
-0.027876701205968857 -2.2494847774505615 0.03926791250705719 55.0 8 -0.060832273215055466
-0.01797415502369404 -1.4302623271942139 -0.33022817969322205 7.0 1 -0.060829970985651016
-0.02895747870206833 -2.2726962566375732 0.1191166415810585 26.0 9 -0.06082766503095627
-0.02161097712814808 -1.6961140632629395 -0.3297179639339447 4.0 2 -0.06082536280155182
-0.02969452552497387 -2.299025774002075 0.20115545392036438 21.0 10 -0.06082306057214737
-0.030588624998927116 -2.3366706371307373 -0.3701240122318268 100.0 3 -0.06082075461745262
-0.030227305367588997 -2.2786853313446045 0.2798120379447937 13.0 11 -0.06081845238804817
-0.031425297260284424 -2.3382277488708496 -0.2871242165565491 100.0 4 -0.060816146433353424
-0.031301092356443405 -2.2991254329681396 0.36417946219444275 11.0 12 -0.060813844203948975
-0.03247011825442314 -2.354780435562134 -0.20603616535663605 100.0 5 -0.06081153824925423
-0.03191409632563591 -2.3144569396972656 0.4499276280403137 9.0 13 -0.06080923601984978
-0.03173418343067169 -2.2726593017578125 -0.1191166415810585 47.0 6 -0.06080693006515503
-0.03250730782747269 -2.299283981323242 0.5308845043182373 9.0 14 -0.06080462783575058
-0.032166738063097 -2.2474277019500732 -0.0392330102622509 100.0 7 -0.06080232188105583
-0.03324505686759949 -2.2947990894317627 0.6149541139602661 10.0 15 -0.06080001965165138
-0.01939050853252411 -1.2207763195037842 -0.3271472752094269 9.0 0 -0.06077928468585014
-0.036077842116355896 -2.2713675498962402 0.039651867002248764 58.0 8 -0.060776978731155396
-0.02296646311879158 -1.430190920829773 -0.33022817969322205 7.0 1 -0.060774676501750946
-0.03689082711935043 -2.2725813388824463 0.1191166415810585 26.0 9 -0.0607723705470562
-0.027795223519206047 -1.6940605640411377 -0.32933634519577026 0.0 2 -0.06077006831765175
-0.03792251646518707 -2.2869486808776855 0.2001095712184906 20.0 10 -0.060767762362957
-0.039053499698638916 -2.330617666244507 -0.3691853880882263 27.0 3 -0.06076546013355255
-0.03834758326411247 -2.288490056991577 0.28103071451187134 13.0 11 -0.0607631541788578
-0.03965431824326515 -2.342073440551758 -0.2876116633415222 100.0 4 -0.060760851949453354
-0.039326414465904236 -2.299002170562744 0.36417946219444275 11.0 12 -0.060758545994758606
-0.04048287868499756 -2.342700242996216 -0.20499029755592346 100.0 5 -0.060756243765354156
-0.040465082973241806 -2.3182504177093506 0.450690895318985 9.0 13 -0.06075393781065941
-0.040028516203165054 -2.2705307006835938 -0.11901197582483292 39.0 6 -0.06075163558125496
-0.04100380837917328 -2.3030459880828857 0.5317842960357666 9.0 14 -0.06074932962656021
-0.040153712034225464 -2.2552990913391113 -0.039372626692056656 100.0 7 -0.06074702739715576
-0.041255537420511246 -2.2946691513061523 0.6149541139602661 10.0 15 -0.060744721442461014
-0.023577028885483742 -1.2168382406234741 -0.3261120319366455 10.0 0 -0.060723986476659775
-0.04405083507299423 -2.2532262802124023 0.039337724447250366 51.0 8 -0.060721684247255325
-0.028285108506679535 -1.433993935585022 -0.33112797141075134 7.0 1 -0.06071937829256058
-0.045378997921943665 -2.2804183959960938 0.11953534185886383 25.0 9 -0.06071707606315613
-0.04582531750202179 -2.282818555831909 0.19976095855236053 18.0 10 -0.06071246787905693
-0.04697830229997635 -2.3002424240112305 0.28249314427375793 14.0 11 -0.06070785969495773
-0.0483199767768383 -2.345881462097168 -0.28809913992881775 100.0 4 -0.060705553740262985
-0.04783422499895096 -2.302792549133301 0.3648051917552948 11.0 12 -0.060703251510858536
-0.048577215522527695 -2.3385608196258545 -0.2046416699886322 100.0 5 -0.06070094555616379
-0.048145949840545654 -2.298466682434082 0.4468746781349182 9.0 13 -0.06069864332675934
-0.048122670501470566 -2.278364419937134 -0.11943066120147705 38.0 6 -0.06069633737206459
-0.04912601038813591 -2.3067853450775146 0.5326840877532959 9.0 14 -0.06069403514266014
-0.048247866332530975 -2.2471399307250977 -0.0392330102622509 100.0 7 -0.06069172918796539
-0.04949817806482315 -2.286776542663574 0.6128835082054138 10.0 15 -0.060689426958560944
-0.02782433107495308 -1.216748595237732 -0.3261120319366455 10.0 0 -0.060668691992759705
-0.05191585421562195 -2.253058910369873 0.039337724447250366 52.0 8 -0.06066638603806496
-0.033381011337041855 -1.437782883644104 -0.332027792930603 7.0 1 -0.06066408380866051
-0.053712308406829834 -2.296220064163208 0.1203727126121521 25.0 9 -0.06066177785396576
-0.05398111417889595 -2.290611982345581 0.20045821368694305 19.0 10 -0.06065716966986656
-0.044024236500263214 -1.8543564081192017 -0.293783962726593 0.0 3 -0.06065486744046211
-0.054674919694662094 -2.28617262840271 0.28078699111938477 13.0 11 -0.060652561485767365
-0.056747160851955414 -2.355621337890625 -0.2893178462982178 45.0 4 -0.060650259256362915
-0.05587251856923103 -2.3026113510131836 0.3648051917552948 11.0 12 -0.06064795330166817
-0.0569336898624897 -2.346344232559204 -0.20533892512321472 100.0 5 -0.06064565107226372
-0.055977001786231995 -2.2904341220855713 0.44534823298454285 10.0 13 -0.06064334511756897
-0.05607541650533676 -2.2781825065612793 -0.11943066120147705 33.0 6 -0.06064104288816452
-0.05717768147587776 -2.3065998554229736 0.5326840877532959 9.0 14 -0.06063874065876007
-0.05634113773703575 -2.256953239440918 -0.03940753638744354 100.0 7 -0.06063643470406532
-0.05777156725525856 -2.298177480697632 0.6159893274307251 11.0 15 -0.06063413247466087
-0.032274920493364334 -1.2243685722351074 -0.32818254828453064 10.0 0 -0.060613393783569336
-0.06015155091881752 -2.2668569087982178 0.039582058787345886 48.0 8 -0.060611091554164886
-0.03798339143395424 -1.422073245048523 -0.32842856645584106 8.0 1 -0.06060878559947014
-0.061113327741622925 -2.2880430221557617 0.11995401978492737 24.0 9 -0.06060648337006569
-0.06208436191082001 -2.2943928241729736 0.20080682635307312 18.0 10 -0.06060187518596649
-0.05049671232700348 -1.8541914224624634 -0.293783962726593 0.0 3 -0.060599569231271744
-0.0626005008816719 -2.2839837074279785 0.2805432379245758 12.0 11 -0.060597267001867294
-0.06383456289768219 -2.3142614364624023 0.3666824400424957 11.0 12 -0.0605926588177681
-0.06512339413166046 -2.3461313247680664 -0.20533892512321472 100.0 5 -0.06059035658836365
-0.06419110298156738 -2.298074722290039 0.4468746781349182 9.0 13 -0.0605880506336689
-0.06369078904390335 -2.2659943103790283 -0.11880263686180115 29.0 6 -0.06058574840426445
-0.0652286559343338 -2.3063862323760986 0.5326840877532959 9.0 14 -0.0605834424495697
-0.0637684315443039 -2.2547547817230225 -0.039372626692056656 98.0 7 -0.06058114022016525
-0.06572207808494568 -2.3095598220825195 0.6190952062606812 11.0 15 -0.060578834265470505
-0.036318160593509674 -1.2165247201919556 -0.3261120319366455 10.0 0 -0.060558099299669266
-0.06766847521066666 -2.2666449546813965 0.039582058787345886 47.0 8 -0.06055579334497452
-0.04269900172948837 -1.4219393730163574 -0.32842856645584106 7.0 1 -0.06055349111557007
-0.06909950077533722 -2.287815570831299 0.11995401978492737 24.0 9 -0.06055118516087532
-0.07057972997426987 -2.310094118118286 0.20220132172107697 18.0 10 -0.06054658070206642
-0.07047876715660095 -2.2936840057373047 0.28176194429397583 13.0 11 -0.060541972517967224
-0.07166709005832672 -2.306126832962036 0.3654309809207916 12.0 12 -0.06053736433386803
-0.07381075620651245 -2.361821174621582 -0.20673342049121857 100.0 5 -0.06053505837917328
-0.07211814820766449 -2.3076603412628174 0.4487827718257904 10.0 13 -0.06053275614976883
-0.07139277458190918 -2.271759271621704 -0.1191166415810585 23.0 6 -0.06053045019507408
-0.07281509041786194 -2.3042094707489014 0.532234251499176 10.0 14 -0.06052814796566963
-0.07195649296045303 -2.264512062072754 -0.0395471528172493 88.0 7 -0.060525842010974884
-0.07353657484054565 -2.3015928268432617 0.6170246005058289 12.0 15 -0.060523539781570435
-0.040095943957567215 -1.208674430847168 -0.3240414559841156 10.0 0 -0.0605028010904789
-0.07571321725845337 -2.2703919410705566 0.039651867002248764 47.0 8 -0.06050049886107445
-0.04805384948849678 -1.4334676265716553 -0.33112797141075134 7.0 1 -0.06049819663167
-0.07715266197919846 -2.2895567417144775 0.12005870044231415 23.0 9 -0.06049589067697525
-0.07803735136985779 -2.303873300552368 0.20167838037014008 18.0 10 -0.06049128249287605
-0.07875670492649078 -2.3013598918914795 0.2827368974685669 13.0 11 -0.060486674308776855
-0.07957981526851654 -2.3019139766693115 0.3648051917552948 11.0 12 -0.06048206612467766
-0.08071812987327576 -2.3230912685394287 0.4518357217311859 10.0 13 -0.06047745794057846
-0.07953142374753952 -2.277484178543091 -0.11943066120147705 16.0 6 -0.06047515571117401
-0.08092625439167023 -2.3058886528015137 0.5326840877532959 9.0 14 -0.06047284975647926
-0.07936707139015198 -2.250257968902588 -0.03930281847715378 84.0 7 -0.060470547527074814
-0.08115966618061066 -2.289738416671753 0.6139188408851624 10.0 15 -0.060468241572380066
-0.04438330605626106 -1.2046581506729126 -0.32300618290901184 9.0 0 -0.06044750660657883
-0.08341709524393082 -2.2641189098358154 0.0395471528172493 42.0 8 -0.06044520437717438
-0.052913155406713486 -1.4293962717056274 -0.33022817969322205 7.0 1 -0.06044289842247963
-0.08536671847105026 -2.2952611446380615 0.1203727126121521 24.0 9 -0.06044059619307518
-0.08618227392435074 -2.295607805252075 0.20098112523555756 17.0 10 -0.06043598800897598
-0.08686408400535583 -2.3030545711517334 0.28298062086105347 12.0 11 -0.060431379824876785
-0.08761484920978546 -2.301622152328491 0.3648051917552948 11.0 12 -0.06042677164077759
-0.08900608867406845 -2.31689453125 0.450690895318985 9.0 13 -0.06042216345667839
-0.08803237229585648 -2.2811691761016846 -0.11964000016450882 13.0 6 -0.06041985750198364
-0.0896037220954895 -2.3114185333251953 0.5340338349342346 8.0 14 -0.06041755527257919
-0.08760882169008255 -2.259958028793335 -0.03947734460234642 79.0 7 -0.060415249317884445
-0.08900155872106552 -2.2855799198150635 0.6128835082054138 8.0 15 -0.060412947088479996
-0.0488995723426342 -1.2122169733047485 -0.32507672905921936 9.0 0 -0.06039221212267876
-0.09155308455228806 -2.2598016262054443 0.03947734460234642 44.0 8 -0.06038990616798401
-0.057676296681165695 -1.4175100326538086 -0.32752877473831177 7.0 1 -0.06038760393857956
-0.09434956312179565 -2.3089020252227783 0.12110541760921478 23.0 9 -0.06038529798388481
-0.09419471025466919 -2.295293092727661 0.20098112523555756 17.0 10 -0.060380689799785614
-0.09481213241815567 -2.290820598602295 0.28151822090148926 12.0 11 -0.06037608161568642
-0.09670917689800262 -2.31707501411438 0.3673081696033478 11.0 12 -0.06037147343158722
-0.08009417355060577 -1.9189927577972412 -0.16803626716136932 0.0 5 -0.06036917120218277
-0.09627096354961395 -2.296954393386841 0.4468746781349182 9.0 13 -0.06036686524748802
-0.09557446837425232 -2.2708704471588135 -0.1191166415810585 10.0 6 -0.06036456301808357
-0.09734246134757996 -2.3033037185668945 0.532234251499176 7.0 14 -0.060362257063388824
-0.09606100618839264 -2.263617753982544 -0.0395471528172493 79.0 7 -0.060359954833984375
-0.09737779945135117 -2.28523850440979 0.6128835082054138 6.0 15 -0.060357652604579926
-0.05296139046549797 -1.208178997039795 -0.3240414559841156 10.0 0 -0.06033691391348839
-0.09979220479726791 -2.2674596309661865 0.039616964757442474 42.0 8 -0.06033461168408394
-0.06288225203752518 -1.423140525817871 -0.3288784623146057 6.0 1 -0.06033230572938919
-0.10187754780054092 -2.296586751937866 0.12047737836837769 23.0 9 -0.06033000349998474
-0.10282651335000992 -2.3088834285736084 0.20220132172107697 16.0 10 -0.060325395315885544
-0.10245202481746674 -2.282543182373047 0.2805432379245758 11.0 11 -0.060320787131786346
-0.10435016453266144 -2.306856632232666 0.36574381589889526 9.0 12 -0.06031617894768715
-0.10446615517139435 -2.3005268573760986 0.4476379454135895 7.0 13 -0.06031157076358795
-0.10304627567529678 -2.260546922683716 -0.11859328299760818 9.0 6 -0.0603092685341835
-0.10502535849809647 -2.2951629161834717 0.5304346084594727 6.0 14 -0.060306962579488754
-0.10460402071475983 -2.277251720428467 -0.03979148715734482 62.0 7 -0.060304660350084305
-0.10660026967525482 -2.3119022846221924 0.6201304793357849 1.0 15 -0.06030235439538956
-0.05772646889090538 -1.2195649147033691 -0.3271472752094269 9.0 0 -0.06028161942958832
-0.10799151659011841 -2.2730894088745117 0.03972167521715164 36.0 8 -0.06027931347489357
-0.06766379624605179 -1.419019341468811 -0.3279786705970764 1.0 1 -0.06027701124548912
-0.10930231213569641 -2.2922463417053223 0.12026803940534592 22.0 9 -0.06027470529079437
-0.11059895157814026 -2.302539825439453 0.20167838037014008 13.0 10 -0.060270097106695175
-0.11041902005672455 -2.2821717262268066 0.2805432379245758 9.0 11 -0.060265492647886276
-0.11104139685630798 -2.2867672443389893 0.3626151382923126 8.0 12 -0.06026088446378708
-0.11259181052446365 -2.3021087646484375 0.44801953434944153 5.0 13 -0.06025627627968788
-0.1117195412516594 -2.276132345199585 -0.11943066120147705 8.0 6 -0.060253970324993134
-0.11195839196443558 -2.272897481918335 -0.03972167521715164 60.0 7 -0.060249362140893936
-0.11293069273233414 -2.284522771835327 0.6128835082054138 1.0 15 -0.06024705991148949
-0.06159092113375664 -1.2116384506225586 -0.32507672905921936 9.0 0 -0.06022632122039795
-0.11613769829273224 -2.2847018241882324 0.03993110731244087 38.0 8 -0.0602240189909935
-0.07733270525932312 -1.5160976648330688 -0.3504737615585327 0.0 1 -0.06022171676158905
-0.11781386286020279 -2.3018240928649902 0.12079139798879623 20.0 9 -0.0602194108068943
-0.11761006712913513 -2.2822425365448 0.19993527233600616 11.0 10 -0.060214802622795105
-0.11839649826288223 -2.2897229194641113 0.28151822090148926 9.0 11 -0.06021019443869591
-0.11881744116544724 -2.2824203968048096 0.36198940873146057 3.0 12 -0.06020558625459671
-0.12237589806318283 -2.342895269393921 0.45603352785110474 1.0 13 -0.06020097807049751
-0.11895335465669632 -2.269765853881836 -0.1191166415810585 3.0 6 -0.06019867584109306
-0.12003140151500702 -2.2827188968658447 0.5277352333068848 2.0 14 -0.060196369886398315
-0.1196809709072113 -2.2684993743896484 -0.039651867002248764 58.0 7 -0.060194067656993866
-0.11988340318202972 -2.2648231983184814 0.607707142829895 3.0 15 -0.06019176170229912
-0.06498173624277115 -1.1998534202575684 -0.3219709098339081 9.0 0 -0.06017102673649788
-0.12356969714164734 -2.274298667907715 0.03975658118724823 31.0 8 -0.06016872450709343
-0.1247936487197876 -2.289454698562622 0.12016335874795914 14.0 9 -0.06016411632299423
-0.12528681755065918 -2.2838292121887207 0.2001095712184906 9.0 10 -0.060159508138895035
-0.1266070306301117 -2.293259620666504 0.2820056974887848 3.0 11 -0.06015489995479584
-0.1268225908279419 -2.289903163909912 0.3632408678531647 1.0 12 -0.06015029177069664
-0.126292422413826 -2.266005277633667 0.44115039706230164 2.0 13 -0.06014568358659744
-0.12732134759426117 -2.277313470840454 -0.11953534185886383 1.0 6 -0.060143377631902695
-0.12581674754619598 -2.2433722019195557 0.5187371373176575 2.0 14 -0.060141075402498245
-0.12742695212364197 -2.272082805633545 -0.03972167521715164 58.0 7 -0.0601387694478035
-0.13249331712722778 -2.3550667762756348 0.6320361495018005 13.0 15 -0.06013646721839905
-0.06939190626144409 -1.2034765481948853 -0.32300618290901184 9.0 0 -0.06011573225259781
-0.13030491769313812 -2.259901762008667 0.03951225057244301 27.0 8 -0.06011342629790306
-0.08382511138916016 -1.4493895769119263 -0.33517709374427795 0.0 1 -0.06011112406849861
-0.1333632469177246 -2.2989747524261475 0.12068671733140945 11.0 9 -0.060108818113803864
-0.13372249901294708 -2.2913341522216797 0.20080682635307312 3.0 10 -0.060104209929704666
-0.1389671266078949 -2.3740768432617188 0.2919989824295044 1.0 11 -0.06009960174560547
-0.1338861733675003 -2.2736706733703613 0.3607378900051117 8.0 12 -0.06009499356150627
-0.1345006823539734 -2.2773334980010986 0.44344013929367065 4.0 13 -0.060090385377407074
-0.1344001740217209 -2.2689037322998047 -0.1191166415810585 1.0 6 -0.060088083148002625
-0.14018981158733368 -2.359661102294922 0.5457313060760498 8.0 14 -0.06008577719330788
-0.1354759782552719 -2.27362060546875 -0.03975658118724823 45.0 7 -0.06008347496390343
-0.07356588542461395 -1.1993576288223267 -0.3219709098339081 10.0 0 -0.06007862091064453
-0.13959521055221558 -2.269364356994629 0.03968677297234535 22.0 8 -0.06007631868124008
-0.08603012561798096 -1.394595742225647 -0.32257983088493347 1.0 1 -0.060074012726545334
-0.14305293560028076 -2.3123998641967773 0.12141943722963333 1.0 9 -0.060071710497140884
-0.14322982728481293 -2.308725595474243 0.2023756206035614 1.0 10 -0.06006710231304169
-0.1410362422466278 -2.2605950832366943 0.27810585498809814 11.0 11 -0.06006249412894249
-0.14372867345809937 -2.290883779525757 0.3635537326335907 6.0 12 -0.06005788594484329
-0.1110328808426857 -1.7697471380233765 -0.15513722598552704 0.0 5 -0.060055579990148544
-0.1482982188463211 -2.3571348190307617 0.45908647775650024 10.0 13 -0.060053277760744095
-0.14411747455596924 -2.2843172550201416 -0.11995401978492737 1.0 6 -0.06005097180604935
-0.14986413717269897 -2.3688297271728516 0.547980785369873 68.0 14 -0.0600486695766449
-0.1452178955078125 -2.2890491485595703 -0.04003582149744034 49.0 7 -0.06004636362195015
-0.1506117731332779 -2.367528200149536 0.6356595754623413 100.0 15 -0.0600440613925457
-0.07825202494859695 -1.206804871559143 -0.3240414559841156 10.0 0 -0.06002332642674446
-0.08937622606754303 -1.3709516525268555 -0.3171810209751129 2.0 1 -0.060018718242645264
-0.14864833652973175 -2.274019241333008 0.11943066120147705 3.0 9 -0.060016412287950516
-0.09181967377662659 -1.4046554565429688 -0.2736200988292694 0.0 2 -0.060014110058546066
-0.14790025353431702 -2.2565205097198486 0.197843536734581 15.0 10 -0.06001180410385132
-0.14983978867530823 -2.273954391479492 0.2798120379447937 6.0 11 -0.06000719591975212
-0.15694740414619446 -2.3692100048065186 0.37606850266456604 33.0 12 -0.060002587735652924
-0.12221428751945496 -1.8448939323425293 -0.1617610603570938 0.0 5 -0.060000285506248474
-0.1520901322364807 -2.2838001251220703 -0.11995401978492737 1.0 6 -0.05999567732214928
-0.1594303399324417 -2.3877363204956055 0.5524798035621643 100.0 14 -0.05999337136745453
-0.1592629849910736 -2.3727705478668213 0.6372125148773193 100.0 15 -0.05998876318335533
-0.08220064640045166 -1.2026695013046265 -0.32300618290901184 10.0 0 -0.05996802821755409
-0.15666532516479492 -2.286289691925049 0.04000091552734375 3.0 8 -0.05996572598814964
-0.10003796219825745 -1.4561742544174194 -0.33697667717933655 0.0 1 -0.059963420033454895
-0.1553501933813095 -2.255553960800171 0.1184886172413826 7.0 9 -0.059961117804050446
-0.09173106402158737 -1.331857681274414 -0.2595002353191376 1.0 2 -0.0599588118493557
-0.1579717993736267 -2.287792921066284 0.2006325125694275 7.0 10 -0.05995650961995125
-0.16299937665462494 -2.348670244216919 0.2890741229057312 24.0 11 -0.05995190143585205
-0.16535405814647675 -2.3706185817718506 0.37638136744499207 98.0 12 -0.05994729325175285
-0.16748949885368347 -2.3952112197875977 0.4667188227176666 100.0 13 -0.059942685067653656
-0.16006094217300415 -2.2832553386688232 -0.11995401978492737 1.0 6 -0.05994037911295891
-0.16790083050727844 -2.3891093730926514 0.5529297590255737 100.0 14 -0.05993807688355446
-0.15936796367168427 -2.26204776763916 -0.039582058787345886 2.0 7 -0.05993577465415001
-0.16754460334777832 -2.3722000122070312 0.6372125148773193 100.0 15 -0.05993346869945526
-0.08556752651929855 -1.1908140182495117 -0.31990036368370056 8.0 0 -0.05991273373365402
-0.1620587557554245 -2.2498273849487305 0.039372626692056656 9.0 8 -0.059910427778959274
-0.16509713232517242 -2.2808945178985596 0.11984935402870178 6.0 9 -0.05990581959486008
-0.09808040410280228 -1.3550269603729248 -0.26407966017723083 1.0 2 -0.05990351736545563
-0.1711474508047104 -2.3587653636932373 0.206907719373703 44.0 10 -0.05990121141076088
-0.10589688271284103 -1.4559574127197266 -0.2312101572751999 0.0 3 -0.05989890918135643
-0.17492680251598358 -2.3877577781677246 0.3791971802711487 100.0 12 -0.05989199876785278
-0.1746988296508789 -2.378948211669922 0.4636658728122711 95.0 13 -0.059887390583753586
-0.16803036630153656 -2.2826828956604004 -0.11995401978492737 5.0 6 -0.05988508462905884
-0.1749487966299057 -2.3710174560546875 0.5488805770874023 100.0 14 -0.05988278239965439
-0.16564032435417175 -2.2395408153533936 -0.03919810429215431 9.0 7 -0.05988047644495964
-0.17553851008415222 -2.3677477836608887 0.6361772418022156 100.0 15 -0.05987817421555519
-0.0897236168384552 -1.1905081272125244 -0.31990036368370056 5.0 0 -0.059857435524463654
-0.17427974939346313 -2.3070743083953857 0.040384870022535324 12.0 8 -0.059855133295059204
-0.17838995158672333 -2.356013774871826 0.12382689118385315 18.0 9 -0.05985052511096001
-0.1100894957780838 -1.450600028038025 -0.28277894854545593 0.0 2 -0.05984821915626526
-0.18028682470321655 -2.3700735569000244 0.20795360207557678 100.0 10 -0.05984591692686081
-0.10301931202411652 -1.3511868715286255 -0.21462811529636383 1.0 3 -0.05984361469745636
-0.18075327575206757 -2.3652889728546143 0.2912677526473999 100.0 11 -0.05984130874276161
-0.18284401297569275 -2.38716459274292 0.3791971802711487 100.0 12 -0.059836700558662415
-0.18270094692707062 -2.374408721923828 0.46290263533592224 99.0 13 -0.05983209237456322
-0.17369355261325836 -2.2522122859954834 -0.11838394403457642 8.0 6 -0.05982979014515877
-0.18427519500255585 -2.383993148803711 0.5520299673080444 100.0 14 -0.05982748419046402
-0.17784351110458374 -2.300785541534424 -0.04028015583753586 9.0 7 -0.05982518196105957
-0.18324014544487 -2.3652265071868896 0.6356595754623413 100.0 15 -0.05982287600636482
-0.09220776706933975 -1.1690031290054321 -0.3142063319683075 0.0 0 -0.05980214104056358
-0.18633191287517548 -2.362301826477051 0.041362203657627106 100.0 8 -0.059799835085868835
-0.18819041550159454 -2.375286817550659 0.12487360835075378 73.0 9 -0.059795230627059937
-0.18871665000915527 -2.371415615081787 0.20812790095806122 96.0 10 -0.05979062244296074
-0.10922307521104813 -1.3724985122680664 -0.2180696725845337 0.0 3 -0.05978831648826599
-0.18828031420707703 -2.3607189655303955 0.29078027606010437 100.0 11 -0.05978601425886154
-0.11245617270469666 -1.4069135189056396 -0.17329822480678558 0.0 4 -0.059783708304166794
-0.1911754459142685 -2.3865115642547607 0.3791971802711487 100.0 12 -0.059781406074762344
-0.190573588013649 -2.3737900257110596 0.46290263533592224 97.0 13 -0.05977679789066315
-0.1883692741394043 -2.3412108421325684 -0.12309417873620987 18.0 6 -0.0597744919359684
-0.19108349084854126 -2.369771718978882 0.5488805770874023 100.0 14 -0.05977218970656395
-0.1905447542667389 -2.3579535484313965 -0.04129239544272423 87.0 7 -0.0597698837518692
-0.19243066012859344 -2.3761258125305176 0.6387654542922974 100.0 15 -0.05976758152246475
-0.19506941735744476 -2.3676159381866455 0.04146691784262657 100.0 8 -0.059744540601968765
-0.1958218365907669 -2.3666536808013916 0.12445490807294846 78.0 9 -0.05973993241786957
-0.19475431740283966 -2.3537518978118896 -0.45908647775650024 6.0 2 -0.05973763018846512
-0.19789673388004303 -2.3866615295410156 0.20952239632606506 90.0 10 -0.05973532423377037
-0.11826654523611069 -1.4232923984527588 -0.2262042611837387 0.0 3 -0.05973302200436592
-0.19684883952140808 -2.364003896713257 0.2912677526473999 100.0 11 -0.05973071604967117
-0.11604582518339157 -1.3906865119934082 -0.17134830355644226 2.0 4 -0.059728413820266724
-0.19934050738811493 -2.3838613033294678 0.37888431549072266 100.0 12 -0.059726107865571976
-0.19918644428253174 -2.377023220062256 0.4636658728122711 95.0 13 -0.05972149968147278
-0.19968123733997345 -2.372973918914795 0.5497803688049316 100.0 14 -0.05971689149737358
-0.19894245266914368 -2.3592662811279297 -0.04132729768753052 100.0 7 -0.05971458926796913
-0.2005608081817627 -2.373514413833618 0.6382477879524231 100.0 15 -0.059712283313274384
-0.1909198760986328 -2.2269835472106934 -0.5989072918891907 1.0 0 -0.059691548347473145
-0.2028190642595291 -2.360943555831909 0.041362203657627106 100.0 8 -0.059689246118068695
-0.20423667132854462 -2.372586250305176 -0.5497803688049316 4.0 1 -0.05968694016337395
-0.20425350964069366 -2.367945432662964 0.12455958873033524 73.0 9 -0.0596846379339695
-0.20296932756900787 -2.353057622909546 -0.45908647775650024 73.0 2 -0.05968233197927475
-0.2050253301858902 -2.372061252593994 0.20830221474170685 87.0 10 -0.0596800297498703
-0.1259610801935196 -1.4543589353561401 -0.2312101572751999 0.0 3 -0.05967772379517555
-0.205442875623703 -2.367257595062256 0.29175522923469543 100.0 11 -0.0596754215657711
-0.12021183222532272 -1.3823626041412354 -0.1703733652830124 1.0 4 -0.059673115611076355
-0.20714588463306427 -2.3772473335266113 0.3779457211494446 100.0 12 -0.059670813381671906
-0.20816545188426971 -2.384136915206909 0.46519237756729126 93.0 13 -0.05966620519757271
-0.208713099360466 -2.385601043701172 -0.1255016326904297 100.0 6 -0.05966389924287796
-0.2079630345106125 -2.372262477874756 0.5497803688049316 100.0 14 -0.05966159701347351
-0.2078763246536255 -2.366525888442993 -0.04146691784262657 100.0 7 -0.05965929478406906
-0.2085062861442566 -2.3689513206481934 0.6372125148773193 100.0 15 -0.05965698882937431
-0.20899595320224762 -2.3417558670043945 -0.6299655437469482 28.0 0 -0.059636253863573074
-0.210346981883049 -2.3522541522979736 0.04122258722782135 100.0 8 -0.059633947908878326
-0.2133866548538208 -2.381563901901245 -0.5520299673080444 66.0 1 -0.05963164567947388
-0.21323233842849731 -2.3751749992370605 0.12497827410697937 70.0 9 -0.05962933972477913
-0.2111818492412567 -2.35233473777771 -0.45908647775650024 100.0 2 -0.05962703749537468
-0.21294747292995453 -2.3673624992370605 0.20795360207557678 87.0 10 -0.05962473154067993
-0.21153879165649414 -2.347111225128174 -0.3732526898384094 13.0 3 -0.05962242931127548
-0.21406203508377075 -2.3704800605773926 0.29224270582199097 100.0 11 -0.059620123356580734
-0.1325492262840271 -1.464969277381897 -0.18061038851737976 0.0 4 -0.059617821127176285
-0.21544282138347626 -2.376509666442871 0.3779457211494446 100.0 12 -0.05961551517248154
-0.21613124012947083 -2.3794851303100586 0.46442911028862 95.0 13 -0.05961091071367264
-0.21649587154388428 -2.3788909912109375 -0.12518762052059174 100.0 6 -0.05960860475897789
-0.2164195477962494 -2.3734629154205322 0.5502303242683411 100.0 14 -0.05960630252957344
-0.21522648632526398 -2.3558290004730225 -0.04129239544272423 100.0 7 -0.05960399657487869
-0.21642179787158966 -2.364361524581909 0.6361772418022156 100.0 15 -0.05960169434547424
-0.21775633096694946 -2.342897653579712 -0.6304832100868225 87.0 0 -0.059580955654382706
-0.21855638921260834 -2.351505756378174 0.04122258722782135 100.0 8 -0.059578653424978256
-0.21971137821674347 -2.3594605922698975 -0.5470809936523438 100.0 1 -0.05957634747028351
-0.22152172029018402 -2.3744161128997803 0.12497827410697937 76.0 9 -0.05957404524087906
-0.22108089923858643 -2.3652279376983643 -0.4617577791213989 100.0 2 -0.05957173928618431
-0.22236599028110504 -2.3745009899139404 0.2086508423089981 99.0 10 -0.05956943705677986
-0.2199554592370987 -2.344353199005127 -0.372939795255661 60.0 3 -0.059567131102085114
-0.22159358859062195 -2.3618128299713135 0.2912677526473999 100.0 11 -0.059564828872680664
-0.22832195460796356 -2.428971290588379 -0.29955488443374634 1.0 4 -0.059562526643276215
-0.22466318309307098 -2.3855764865875244 0.3795100450515747 100.0 12 -0.05956022068858147
-0.22411231696605682 -2.370858669281006 0.46290263533592224 95.0 13 -0.05955561250448227
-0.22446030378341675 -2.3701279163360596 -0.124768927693367 100.0 6 -0.05955331027507782
-0.2262217253446579 -2.384294033050537 0.5529297590255737 100.0 14 -0.05955100432038307
-0.22477050125598907 -2.3689985275268555 -0.04153672605752945 100.0 7 -0.05954870209097862
-0.22503960132598877 -2.3674378395080566 0.6372125148773193 100.0 15 -0.059546396136283875
-0.22834447026252747 -2.3671212196350098 -0.6372125148773193 100.0 0 -0.059525661170482635
-0.22755838930606842 -2.3546698093414307 0.04129239544272423 100.0 8 -0.05952335521578789
-0.22760634124279022 -2.3508806228637695 -0.5452813506126404 100.0 1 -0.05952105298638344
-0.2298087179660797 -2.3736283779144287 0.12497827410697937 100.0 9 -0.05951874703168869
-0.22933608293533325 -2.3644418716430664 -0.4617577791213989 100.0 2 -0.05951644480228424
-0.23084567487239838 -2.3756935596466064 0.20882515609264374 100.0 10 -0.05951414257287979
-0.2294769436120987 -2.3573336601257324 -0.3751298785209656 100.0 3 -0.05951183661818504
-0.2298632562160492 -2.3570334911346436 0.29078027606010437 100.0 11 -0.059509534388780594
-0.2306339591741562 -2.364936351776123 -0.29175522923469543 26.0 4 -0.059507228434085846
-0.2337571233510971 -2.39264178276062 0.3807615041732788 100.0 12 -0.059504926204681396
-0.23276974260807037 -2.373969793319702 0.4636658728122711 99.0 13 -0.0595003180205822
-0.23292756080627441 -2.3713178634643555 -0.12487360835075378 100.0 6 -0.05949801206588745
-0.23336517810821533 -2.3757729530334473 0.5511301159858704 100.0 14 -0.059495709836483
-0.2334301918745041 -2.3721795082092285 -0.041606537997722626 100.0 7 -0.059493403881788254
-0.23406001925468445 -2.374328136444092 0.6392830610275269 100.0 15 -0.059491101652383804
-0.23657697439193726 -2.3701953887939453 -0.6382477879524231 100.0 0 -0.059470366686582565
-0.23616141080856323 -2.361861228942871 0.041432011872529984 100.0 8 -0.05946806073188782
-0.23598363995552063 -2.3559303283691406 -0.5466310977935791 100.0 1 -0.05946575850248337
-0.2370816171169281 -2.366891622543335 0.12466426193714142 100.0 9 -0.05946345254778862
-0.23658736050128937 -2.3578078746795654 -0.4606129229068756 100.0 2 -0.05946115031838417
-0.23912109434604645 -2.3788795471191406 0.209173783659935 100.0 10 -0.05945884436368942
-0.23848044872283936 -2.3683526515960693 -0.3770070970058441 100.0 3 -0.05945654213428497
-0.23807647824287415 -2.36020827293396 0.2912677526473999 100.0 11 -0.059454236179590225
-0.2382756918668747 -2.3621833324432373 -0.29151150584220886 93.0 4 -0.059451933950185776
-0.2406972497701645 -2.3820266723632812 0.3791971802711487 100.0 12 -0.05944962799549103
-0.15329769253730774 -1.51444673538208 -0.13317397236824036 0.0 5 -0.05944732576608658
-0.24123510718345642 -2.379044532775879 0.46481072902679443 100.0 13 -0.05944501981139183
-0.24139514565467834 -2.376493453979492 -0.12518762052059174 100.0 6 -0.05944271758198738
-0.2404543161392212 -2.3672311305999756 0.5493305325508118 100.0 14 -0.05944041162729263
-0.24008087813854218 -2.3594560623168945 -0.041397109627723694 100.0 7 -0.059438109397888184
-0.24310775101184845 -2.385070323944092 0.6423888802528381 100.0 15 -0.059435803443193436
-0.24304792284965515 -2.3559465408325195 -0.6346243023872375 100.0 0 -0.0594150684773922
-0.24440349638462067 -2.3650431632995605 0.04150182008743286 100.0 8 -0.05941276624798775
-0.24379470944404602 -2.3551347255706787 -0.5466310977935791 100.0 1 -0.059410460293293
-0.24616621434688568 -2.3739960193634033 0.12508295476436615 100.0 9 -0.05940815806388855
-0.24420243501663208 -2.355057716369629 -0.46023133397102356 100.0 2 -0.0594058521091938
-0.2468026727437973 -2.376091718673706 0.20899945497512817 100.0 10 -0.05940354987978935
