# .PCD v0.7 - Point Cloud Data file format
VERSION 0.7
FIELDS x y z intensity ring time
SIZE 4 4 4 4 4 4
TYPE F F F F F F
COUNT 1 1 1 1 1 1
WIDTH 551
HEIGHT 1
VIEWPOINT 0 0 0 1 0 0 0
POINTS 551
DATA ascii
3.2459042072296143 3.5212507247924805 1.2832248210906982 123.0 15 -0.09618901461362839
3.184447765350342 3.4449169635772705 0.08188669383525848 71.0 8 -0.0961659774184227
3.206181049346924 3.4660003185272217 0.24744442105293274 69.0 9 -0.0961613655090332
3.211146354675293 3.4701528549194336 0.41364115476608276 66.0 10 -0.0961567610502243
3.215428113937378 3.4723479747772217 0.5810730457305908 94.0 11 -0.09615214914083481
3.2331225872039795 3.489009380340576 0.753388524055481 88.0 12 -0.09614754468202591
3.233905076980591 3.488635778427124 0.9246604442596436 71.0 13 -0.09614294022321701
2.6386771202087402 2.8455257415771484 -0.20337754487991333 1.0 6 -0.09614063054323196
3.2562673091888428 3.5102977752685547 1.1054095029830933 75.0 14 -0.09613832831382751
2.5993635654449463 2.801168918609619 -0.06670309603214264 49.0 7 -0.09613602608442307
3.252917766571045 3.5042362213134766 1.2811543941497803 123.0 15 -0.09613372385501862
3.1855523586273193 3.422071933746338 0.08160745352506638 74.0 8 -0.09611067920923233
3.2046475410461426 3.4401726722717285 0.2463977038860321 66.0 9 -0.09610607475042343
3.2218809127807617 3.457465887069702 0.41346684098243713 68.0 10 -0.09610146284103394
3.2166996002197266 3.4494874477386475 0.5791231989860535 90.0 11 -0.09609685838222504
0.9708771705627441 1.040774941444397 -0.174760639667511 0.0 4 -0.09609455615282059
3.2412381172180176 3.473370313644409 0.7524498701095581 84.0 12 -0.09609224647283554
3.24338436126709 3.474454641342163 0.9238971471786499 71.0 13 -0.09608764201402664
3.2525367736816406 3.4818217754364014 1.1000107526779175 75.0 14 -0.09608303010463715
2.6241447925567627 2.8081490993499756 -0.06708704680204391 45.0 7 -0.0960807278752327
3.254577159881592 3.4815690517425537 1.2770131826400757 123.0 15 -0.09607842564582825
3.1920087337493896 3.405094623565674 0.08146783709526062 71.0 8 -0.09605538845062256
3.2029709815979004 3.4143993854522705 0.24535098671913147 66.0 9 -0.09605077654123306
3.2216603755950928 3.4331214427948 0.41189804673194885 66.0 10 -0.09604617208242416
0.9450388550758362 1.0067164897918701 -0.21869541704654694 0.0 3 -0.09604386240243912
3.220566987991333 3.4295566082000732 0.5776607394218445 88.0 11 -0.09604156017303467
0.9133431315422058 0.9722718596458435 -0.1637924164533615 9.0 4 -0.09603925794363022
3.2371087074279785 3.444761276245117 0.748695433139801 86.0 12 -0.09603695571422577
0.9387010931968689 0.998916506767273 -0.11992629617452621 6.0 5 -0.09603464603424072
3.2460789680480957 3.453099489212036 0.9212258458137512 70.0 13 -0.09603234380483627
0.9317672848701477 0.9908446669578552 -0.07128158211708069 0.0 6 -0.09603004157543182
3.2513175010681152 3.456254005432129 1.095511794090271 74.0 14 -0.09602773934602737
2.6311895847320557 2.796060085296631 -0.06701724231243134 31.0 7 -0.09602542966604233
3.2614126205444336 3.4645612239837646 1.2749426364898682 123.0 15 -0.09602312743663788
3.1956398487091064 3.3852059841156006 0.08125840127468109 72.0 8 -0.09600009024143219
3.212127923965454 3.4002938270568848 0.2451416254043579 69.0 9 -0.0959954783320427
0.9073256254196167 0.9604765772819519 -0.2568289339542389 4.0 2 -0.09599317610263824
3.2172040939331055 3.4044768810272217 0.4098062813282013 67.0 10 -0.0959908738732338
0.914621889591217 0.9675243496894836 -0.21087367832660675 7.0 3 -0.09598857164382935
3.2297916412353516 3.415408134460449 0.5771732330322266 84.0 11 -0.0959862619638443
0.9208241701126099 0.9734037518501282 -0.16452361643314362 35.0 4 -0.09598395973443985
3.2328195571899414 3.4162240028381348 0.744940996170044 84.0 12 -0.0959816575050354
0.9134235382080078 0.965243935585022 -0.11626576632261276 27.0 5 -0.09597935527563095
3.250016212463379 3.433192491531372 0.9189361929893494 68.0 13 -0.0959770455956459
0.92972731590271 0.9817850589752197 -0.07086289674043655 8.0 6 -0.09597474336624146
3.2553205490112305 3.4363958835601807 1.0928122997283936 75.0 14 -0.095972441136837
2.6450607776641846 2.791212320327759 -0.0671219527721405 15.0 7 -0.09597013890743256
3.2588675022125244 3.437732696533203 1.269248604774475 121.0 15 -0.09596782922744751
3.1964144706726074 3.3624367713928223 0.08097916841506958 68.0 8 -0.09594479203224182
3.215127468109131 3.3809399604797363 0.2445136159658432 63.0 9 -0.09594018757343292
0.8984941840171814 0.9445017576217651 -0.25339436531066895 17.0 2 -0.09593787789344788
3.215332508087158 3.378793478012085 0.4080631732940674 62.0 10 -0.09593557566404343
0.9179937839508057 0.9643256068229675 -0.21087367832660675 28.0 3 -0.09593327343463898
3.2334797382354736 3.395488977432251 0.5757108330726624 84.0 11 -0.09593097120523453
0.9269546866416931 0.9730584621429443 -0.16501110792160034 47.0 4 -0.09592866152524948
3.2414064407348633 3.4026236534118652 0.7443153262138367 84.0 12 -0.09592635929584503
0.9140385985374451 0.9591646790504456 -0.1159171313047409 40.0 5 -0.09592405706644058
3.2511422634124756 3.410459280014038 0.9158832430839539 70.0 13 -0.09592175483703613
0.9276350736618042 0.9727522730827332 -0.07044420391321182 34.0 6 -0.09591944515705109
3.261916399002075 3.419370651245117 1.091012716293335 74.0 14 -0.09591714292764664
3.2326438426971436 3.3886852264404297 -0.08174706995487213 1.0 7 -0.09591484069824219
3.2595794200897217 3.415726900100708 1.26510751247406 121.0 15 -0.09591253846883774
3.196485757827759 3.3402609825134277 0.08069992810487747 71.0 8 -0.09588949382305145
3.218620777130127 3.3610422611236572 0.2438855916261673 73.0 9 -0.09588488936424255
0.8936368227005005 0.932853639125824 -0.2511046528816223 35.0 2 -0.0958825871348381
3.218837022781372 3.358917236328125 0.4070172905921936 66.0 10 -0.09588027745485306
0.9075193405151367 0.9470136165618896 -0.2077450007200241 34.0 3 -0.09587797522544861
3.2254889011383057 3.3646860122680664 0.5722984671592712 88.0 11 -0.09587567299604416
0.9246802926063538 0.9642482995986938 -0.16403615474700928 48.0 4 -0.09587337076663971
3.2450599670410156 3.3827342987060547 0.7424380779266357 86.0 12 -0.09587106108665466
0.9146223664283752 0.9530929327011108 -0.11556851863861084 49.0 5 -0.09586875885725021
3.2447633743286133 3.3812434673309326 0.9109221696853638 71.0 13 -0.09586645662784576
0.9308555126190186 0.9696709513664246 -0.07044420391321182 59.0 6 -0.09586415439844131
3.2610905170440674 3.3958840370178223 1.0869635343551636 71.0 14 -0.09586185216903687
3.266127347946167 3.398756980895996 1.2630369663238525 121.0 15 -0.09585724025964737
3.2025763988494873 3.3233225345611572 0.08056031167507172 71.0 8 -0.09583420306444168
3.2164697647094727 3.335408926010132 0.24283887445926666 73.0 9 -0.09582959115505219
0.896725594997406 0.9298849105834961 -0.2511046528816223 48.0 2 -0.09582728892564774
3.224424362182617 3.342489719390869 0.40632006525993347 68.0 10 -0.09582498669624329
0.910818874835968 0.9438405632972717 -0.2077450007200241 45.0 3 -0.09582267701625824
3.2261857986450195 3.341980457305908 0.5703485608100891 86.0 11 -0.09582037478685379
0.9170089960098267 0.9495907425880432 -0.16208623349666595 44.0 4 -0.09581807255744934
3.2472386360168457 3.361443519592285 0.7402480244636536 88.0 12 -0.09581577032804489
0.9179435968399048 0.9498947262763977 -0.11556851863861084 50.0 5 -0.09581346809864044
3.2510886192321777 3.3642501831054688 0.9093957543373108 72.0 13 -0.0958111584186554
0.9231295585632324 0.9549276828765869 -0.06960682570934296 57.0 6 -0.09580885618925095
3.2593750953674316 3.370473623275757 1.082464575767517 72.0 14 -0.0958065539598465
0.9245893359184265 0.9557698369026184 -0.023211700841784477 1.0 7 -0.09580425173044205
3.269911766052246 3.379004955291748 1.2599310874938965 121.0 15 -0.095801942050457
3.2099790573120117 3.307818651199341 0.08045559376478195 62.0 8 -0.09577890485525131
3.215571165084839 3.311264753341675 0.24189680814743042 68.0 9 -0.09577430039644241
0.8946556448936462 0.9209593534469604 -0.24957817792892456 48.0 2 -0.09577199071645737
3.2338755130767822 3.327792167663574 0.4059714078903198 63.0 10 -0.09576968848705292
0.9087651968002319 0.9348297119140625 -0.20649351179599762 45.0 3 -0.09576738625764847
3.229530096054077 3.322157144546509 0.5688861608505249 82.0 11 -0.09576508402824402
0.9120143055915833 0.9378454089164734 -0.16062380373477936 47.0 4 -0.09576277434825897
3.2506890296936035 3.3415918350219727 0.7383707761764526 92.0 12 -0.09576047211885452
0.9184748530387878 0.9438285827636719 -0.11521988362073898 50.0 5 -0.09575816988945007
3.260657548904419 3.349498987197876 0.9086324572563171 74.0 13 -0.09575586766004562
0.9294099807739258 0.954399824142456 -0.06981617212295532 57.0 6 -0.09575355798006058
3.2594704627990723 3.3459389209747314 1.0784153938293457 70.0 14 -0.09575125575065613
0.9195479154586792 0.9439420104026794 -0.023002272471785545 14.0 7 -0.09574895352125168
3.2762930393218994 3.36203670501709 1.257860541343689 122.0 15 -0.09574665129184723
3.209501028060913 3.28316068649292 0.08014144748449326 12.0 8 -0.09572360664606094
3.2151153087615967 3.2866082191467285 0.24095475673675537 70.0 9 -0.09571900218725204
0.893746554851532 0.9136202931404114 -0.24843332171440125 49.0 2 -0.0957166999578476
3.2315378189086914 3.3022429943084717 0.4042282998561859 61.0 10 -0.09571439027786255
0.9051128625869751 0.9245944023132324 -0.2049291729927063 55.0 3 -0.0957120880484581
3.243072748184204 3.3117167949676514 0.5691298842430115 80.0 11 -0.09570978581905365
0.909889280796051 0.9288240075111389 -0.1596488505601883 46.0 4 -0.0957074835896492
3.2518532276153564 3.318368434906006 0.7358677983283997 92.0 12 -0.09570517390966415
0.9191382527351379 0.9376106262207031 -0.11487127095460892 50.0 5 -0.0957028716802597
3.2640843391418457 3.329684257507324 0.9063427448272705 75.0 13 -0.09570056945085526
0.9341344237327576 0.9525755047798157 -0.0699208453297615 54.0 6 -0.0956982672214508
3.265669345855713 3.3289787769317627 1.076615810394287 68.0 14 -0.09569595754146576
0.9173988699913025 0.9348565340042114 -0.02286265231668949 44.0 7 -0.09569365531206131
3.279121160507202 3.3403549194335938 1.254237174987793 122.0 15 -0.09569135308265686
2.8873729705810547 2.9310388565063477 0.21562416851520538 21.0 9 -0.09566370397806168
0.9067351222038269 0.920127272605896 -0.2511046528816223 41.0 2 -0.09566140174865723
3.225435495376587 3.2719316482543945 0.4019622504711151 61.0 10 -0.09565909951925278
0.902948260307312 0.9156441688537598 -0.203677698969841 58.0 3 -0.09565678983926773
3.2490389347076416 3.294721841812134 0.5681549310684204 82.0 11 -0.09565448760986328
0.9187021255493164 0.9312952160835266 -0.16062380373477936 46.0 4 -0.09565218538045883
3.2550923824310303 3.29856014251709 0.7339906096458435 88.0 12 -0.09564988315105438
0.9182067513465881 0.9301425218582153 -0.11434832960367203 62.0 5 -0.09564757347106934
3.2624707221984863 3.303729772567749 0.9025265574455261 75.0 13 -0.09564527124166489
0.9376193881034851 0.9491455554962158 -0.0699208453297615 54.0 6 -0.09564296901226044
3.2737419605255127 3.312826633453369 1.0752661228179932 71.0 14 -0.09564066678285599
0.9234678745269775 0.9344930052757263 -0.02293246053159237 56.0 7 -0.09563836455345154
3.277179002761841 3.315150499343872 1.2490607500076294 122.0 15 -0.09563605487346649
2.7798595428466797 2.8042242527008057 0.20693638920783997 45.0 9 -0.09561538696289062
0.9082385897636414 0.9158802032470703 -0.2507230341434479 44.0 2 -0.09561308473348618
2.768444299697876 2.790762424468994 0.34391653537750244 31.0 10 -0.09561078250408173
0.9072115421295166 0.9142051339149475 -0.20399056375026703 66.0 3 -0.09560848027467728
3.2375681400299072 3.261390447616577 0.5642551183700562 39.0 11 -0.09560617059469223
0.9147912859916687 0.9212008714675903 -0.15940511226654053 51.0 4 -0.09560386836528778
3.255695104598999 3.2785065174102783 0.7318005561828613 84.0 12 -0.09560156613588333
0.9155074954032898 0.9215994477272034 -0.1136510819196701 59.0 5 -0.09559926390647888
3.2631478309631348 3.28371524810791 0.8998552560806274 78.0 13 -0.09559695422649384
0.9279236793518066 0.9334473013877869 -0.06897880136966705 51.0 6 -0.09559465199708939
3.2827587127685547 3.3011441230773926 1.0748162269592285 70.0 14 -0.09559234976768494
0.9278091192245483 0.9330054521560669 -0.022967368364334106 63.0 7 -0.09559004753828049
3.2821290493011475 3.2993593215942383 1.2469902038574219 123.0 15 -0.09558773785829544
0.9193875193595886 0.9216368794441223 0.022723034024238586 4.0 8 -0.09556470066308975
2.768465280532837 2.773301601409912 0.205366313457489 37.0 9 -0.09556009620428085
0.9100431203842163 0.911314845085144 -0.25034141540527344 55.0 2 -0.0955577865242958
2.7823939323425293 2.7853100299835205 0.34443947672843933 45.0 10 -0.09555548429489136
0.9144262671470642 0.9153845310211182 -0.2049291729927063 73.0 3 -0.09555318206548691
2.78110671043396 2.7830498218536377 0.4830901324748993 48.0 11 -0.09555087983608246
0.910824179649353 0.9111424088478088 -0.1581864207983017 54.0 4 -0.09554857015609741
2.7922072410583496 2.792208194732666 0.6254250407218933 48.0 12 -0.09554626792669296
0.9159006476402283 0.915581226348877 -0.11330246180295944 55.0 5 -0.09554396569728851
0.9197121262550354 0.9190704822540283 -0.06814142316579819 49.0 6 -0.09553935378789902
3.2730064392089844 3.2695820331573486 1.0680676698684692 66.0 14 -0.09553705155849457
0.9324749708175659 0.9311742186546326 -0.023002272471785545 59.0 7 -0.09553474932909012
3.288156270980835 3.282423496246338 1.2449196577072144 122.0 15 -0.09553244709968567
0.9268509149551392 0.9226540923118591 0.022827748209238052 24.0 8 -0.09550940245389938
0.9074925184249878 0.9027537703514099 -0.24881494045257568 59.0 2 -0.09550249576568604
2.788790225982666 2.773257255554199 0.34409087896347046 46.0 10 -0.09550018608570099
0.9204176068305969 0.9149724841117859 -0.20555490255355835 73.0 3 -0.09549788385629654
2.7879879474639893 2.7705271244049072 0.48260265588760376 54.0 11 -0.09549558162689209
0.9125909805297852 0.9065581560134888 -0.15794268250465393 57.0 4 -0.09549327939748764
2.801936388015747 2.782445192337036 0.6254250407218933 62.0 12 -0.0954909697175026
0.9245864748954773 0.918154776096344 -0.11399970948696136 59.0 5 -0.09548866748809814
2.822843551635742 2.8022286891937256 0.773158073425293 56.0 13 -0.0954863652586937
0.9285856485366821 0.9214816689491272 -0.06856010854244232 53.0 6 -0.09548406302928925
2.8084793090820312 2.7860236167907715 0.913301408290863 45.0 14 -0.0954817607998848
0.9286199808120728 0.9208735227584839 -0.022827748209238052 63.0 7 -0.09547945111989975
2.822148323059082 2.7976267337799072 1.064781665802002 28.0 15 -0.0954771488904953
0.9300656914710999 0.9194133281707764 0.022827748209238052 57.0 8 -0.09545411169528961
0.9134318828582764 0.9023398756980896 -0.24957817792892456 59.0 2 -0.09544719755649567
2.7842767238616943 2.749506711959839 0.34234774112701416 49.0 10 -0.09544489532709122
0.927823543548584 0.9159170985221863 -0.20649351179599762 75.0 3 -0.09544258564710617
2.796229600906372 2.759382963180542 0.4823589026927948 55.0 11 -0.09544028341770172
0.9143365621566772 0.9019732475280762 -0.15769894421100616 53.0 4 -0.09543798118829727
2.796160936355591 2.757389545440674 0.6219834685325623 57.0 12 -0.09543567895889282
0.916437029838562 0.9037297368049622 -0.11260521411895752 55.0 5 -0.09543337672948837
2.8172292709350586 2.777196168899536 0.7689602971076965 45.0 13 -0.09543106704950333
0.9289512038230896 0.9154311418533325 -0.06835076957941055 57.0 6 -0.09542876482009888
2.829294204711914 2.7871429920196533 0.9169005751609802 55.0 14 -0.09542646259069443
0.9090319275856018 0.8951765894889832 -0.022269269451498985 58.0 7 -0.09542416036128998
2.815375566482544 2.771496057510376 1.0585699081420898 66.0 15 -0.09542185068130493
0.9189990758895874 0.902152955532074 0.022478699684143066 62.0 8 -0.09539881348609924
0.9524121880531311 0.93430095911026 0.0699208453297615 0.0 9 -0.09539420157670975
0.9221817851066589 0.9046454429626465 -0.2511046528816223 59.0 2 -0.0953918993473053
2.7824766635894775 2.728611946105957 0.3409532606601715 50.0 10 -0.09538959711790085
0.9169089794158936 0.8988441824913025 -0.20336483418941498 74.0 3 -0.0953872948884964
2.800172805786133 2.744048833847046 0.48138394951820374 55.0 11 -0.09538499265909195
0.9203153848648071 0.9015546441078186 -0.1581864207983017 54.0 4 -0.0953826829791069
2.8029472827911377 2.744847536087036 0.6213577389717102 57.0 12 -0.09538038074970245
0.9168955087661743 0.8975775241851807 -0.11225660145282745 59.0 5 -0.095378078520298
2.8128764629364014 2.7536122798919678 0.7651441097259521 45.0 13 -0.09537577629089355
0.9321407675743103 0.9121831059455872 -0.06835076957941055 57.0 6 -0.09537346661090851
2.834827423095703 2.773160934448242 0.9155508279800415 58.0 14 -0.09537116438150406
0.9293074011802673 0.9087756276130676 -0.022688128054142 66.0 7 -0.09536886215209961
2.8126003742218018 2.749497175216675 1.0539112091064453 63.0 15 -0.09536655992269516
0.916414737701416 0.893356204032898 0.02233908139169216 61.0 8 -0.09534351527690887
0.9413616061210632 0.9170337915420532 0.06887412816286087 12.0 9 -0.09533891081809998
0.9254911541938782 0.9012596011161804 -0.2511046528816223 59.0 2 -0.09533660858869553
2.7910315990448 2.7170045375823975 0.3407789468765259 33.0 10 -0.09533429890871048
0.9230283498764038 0.8982329964637756 -0.20399056375026703 70.0 3 -0.09533199667930603
2.79550838470459 2.720412492752075 0.4789465665817261 58.0 11 -0.09532969444990158
0.9291481971740723 0.9038736820220947 -0.15916138887405396 53.0 4 -0.09532739222049713
2.8054299354553223 2.728161573410034 0.6197934150695801 58.0 12 -0.09532508254051208
0.9257376194000244 0.8999263048171997 -0.11295383423566818 61.0 5 -0.09532278031110764
2.8130953311920166 2.733705997467041 0.7624728083610535 50.0 13 -0.09532047808170319
0.9311802983283997 0.9045852422714233 -0.068036749958992 56.0 6 -0.09531817585229874
2.819807529449463 2.738316059112549 0.9074526429176331 52.0 14 -0.09531586617231369
0.9296050071716309 0.9027397036552429 -0.02261831797659397 64.0 7 -0.09531356394290924
2.816635847091675 2.734280586242676 1.0518406629562378 61.0 15 -0.09531126171350479
0.9196831583976746 0.8899911046028137 0.02233908139169216 66.0 8 -0.0952882245182991
0.9388146996498108 0.9081878066062927 0.06845543533563614 39.0 9 -0.0952836126089096
0.9342769384384155 0.9034824967384338 -0.25263112783432007 59.0 2 -0.09528131037950516
0.9318400025367737 0.9004966020584106 -0.20524203777313232 61.0 3 -0.09527669847011566
2.7926104068756104 2.6977360248565674 0.476752907037735 55.0 11 -0.09527439624071121
0.9238876700401306 0.8921875357627869 -0.15769894421100616 51.0 4 -0.09527209401130676
2.8135159015655518 2.716979503631592 0.619480550289154 57.0 12 -0.09526979178190231
0.9245728850364685 0.89253830909729 -0.11243090778589249 63.0 5 -0.09526748210191727
2.8113181591033936 2.712963819503784 0.759419858455658 50.0 13 -0.09526517987251282
0.9328950643539429 0.8999423980712891 -0.06793207675218582 57.0 6 -0.09526287764310837
2.8153207302093506 2.7149295806884766 0.9029536247253418 52.0 14 -0.09526057541370392
0.9269927144050598 0.8939371705055237 -0.022478699684143066 63.0 7 -0.09525826573371887
2.823381185531616 2.7217514514923096 1.0508054494857788 63.0 15 -0.09525596350431442
0.9255128502845764 0.8897078633308411 0.02240888960659504 64.0 8 -0.09523292630910873
0.9434196949005127 0.9062885046005249 0.06856010854244232 63.0 9 -0.09522831439971924
0.930344820022583 0.893416166305542 -0.2507230341434479 49.0 2 -0.09522601217031479
0.9376710057258606 0.9001377820968628 -0.20586778223514557 55.0 3 -0.09522140771150589
2.7958128452301025 2.6829617023468018 0.4757779836654663 54.0 11 -0.09521909803152084
0.9268410205841064 0.889119029045105 -0.15769894421100616 52.0 4 -0.0952167958021164
2.807297468185425 2.692103862762451 0.616038978099823 58.0 12 -0.09521449357271194
0.9377508163452148 0.8989565968513489 -0.1136510819196701 61.0 5 -0.0952121913433075
2.8217170238494873 2.704984188079834 0.75980144739151 53.0 13 -0.09520988166332245
0.943084180355072 0.9037535190582275 -0.06845543533563614 60.0 6 -0.095207579433918
2.818678617477417 2.7001867294311523 0.9011539220809937 52.0 14 -0.09520527720451355
0.9243306517601013 0.8851633667945862 -0.02233908139169216 65.0 7 -0.0952029749751091
2.828678607940674 2.7078707218170166 1.0492525100708008 64.0 15 -0.09520067274570465
0.9315056204795837 0.8892335891723633 0.022478699684143066 64.0 8 -0.09517762809991837
0.9420849680900574 0.8990186452865601 0.06824608892202377 65.0 9 -0.09517302364110947
0.9247792959213257 0.882194995880127 -0.24843332171440125 49.0 2 -0.09517071396112442
0.9876828193664551 0.9418736100196838 0.11940336972475052 0.0 10 -0.09516841173171997
0.9379478693008423 0.8941329121589661 -0.20524203777313232 50.0 3 -0.09516610950231552
2.8022873401641846 2.6704466342926025 0.4752904772758484 54.0 11 -0.09516380727291107
0.9326587915420532 0.8887794017791748 -0.1581864207983017 53.0 4 -0.09516149759292603
2.8047678470611572 2.6718790531158447 0.6135360598564148 58.0 12 -0.09515919536352158
0.9320695996284485 0.8875981569290161 -0.11260521411895752 57.0 5 -0.09515689313411713
2.828298807144165 2.6924099922180176 0.7590382099151611 53.0 13 -0.09515459090471268
0.9433391690254211 0.8977024555206299 -0.06824608892202377 62.0 6 -0.09515228867530823
2.8205597400665283 2.6841073036193848 0.8989045023918152 54.0 14 -0.09514997899532318
0.9258118867874146 0.8807151913642883 -0.022304177284240723 69.0 7 -0.09514767676591873
2.8292438983917236 2.6904871463775635 1.0461466312408447 66.0 15 -0.09514537453651428
0.9257429838180542 0.8778838515281677 0.022269269451498985 67.0 8 -0.095122329890728
0.9392632842063904 0.8903931379318237 0.06782740354537964 61.0 9 -0.0951177254319191
0.9376744627952576 0.8885771632194519 -0.2511046528816223 51.0 2 -0.09511542320251465
0.956086277961731 0.9057082533836365 0.11521988362073898 8.0 10 -0.0951131135225296
0.9323021769523621 0.8828678131103516 -0.20336483418941498 50.0 3 -0.09511081129312515
2.8039190769195557 2.6543161869049072 0.47407177090644836 55.0 11 -0.0951085090637207
0.9384839534759521 0.8884112238883972 -0.15867389738559723 52.0 4 -0.09510620683431625
2.8121771812438965 2.661206007003784 0.613223135471344 61.0 12 -0.0951039046049118
0.9321133494377136 0.8817638754844666 -0.11225660145282745 59.0 5 -0.09510159492492676
2.820093870162964 2.666829824447632 0.7544588446617126 53.0 13 -0.09509929269552231
0.9506649374961853 0.8986856341362 -0.06856010854244232 59.0 6 -0.09509699046611786
2.829444646835327 2.6747395992279053 0.8989045023918152 54.0 14 -0.09509468823671341
0.9374479651451111 0.885880708694458 -0.022513605654239655 70.0 7 -0.09509237855672836
2.8212976455688477 2.6651713848114014 1.0399349927902222 66.0 15 -0.09509007632732391
0.9257381558418274 0.8720666170120239 0.022199461236596107 74.0 8 -0.09506703913211823
0.9510907530784607 0.8953236937522888 0.06845543533563614 56.0 9 -0.09506242722272873
0.9406157732009888 0.8854629397392273 -0.2511046528816223 51.0 2 -0.09506012499332428
0.9590847492218018 0.9025325179100037 0.11521988362073898 26.0 10 -0.09505782276391983
0.9337857961654663 0.8784180879592896 -0.20305196940898895 58.0 3 -0.09505552053451538
2.7996890544891357 2.6327664852142334 0.47187814116477966 54.0 11 -0.09505321085453033
0.9473646283149719 0.890568733215332 -0.1596488505601883 53.0 4 -0.09505090862512589
2.8142526149749756 2.644608736038208 0.6116588115692139 58.0 12 -0.09504860639572144
0.9379358887672424 0.8813968896865845 -0.11260521411895752 57.0 5 -0.09504630416631699
2.8160417079925537 2.645367383956909 0.7510242462158203 50.0 13 -0.09504399448633194
0.943448543548584 0.8859573602676392 -0.06782740354537964 56.0 6 -0.09504169225692749
2.8387646675109863 2.664846181869507 0.8989045023918152 51.0 14 -0.09503939002752304
0.9449092745780945 0.8867078423500061 -0.02261831797659397 73.0 7 -0.09503708779811859
2.8249473571777344 2.6500208377838135 1.0378644466400146 66.0 15 -0.09503477811813354
0.9316974878311157 0.8715618252754211 0.022269269451498985 83.0 8 -0.09501174092292786
0.9439971446990967 0.8824506998062134 0.06772273033857346 44.0 9 -0.09500713646411896
0.9537404179573059 0.8915587067604065 -0.2537759840488434 49.0 2 -0.09500482678413391
0.9593181014060974 0.8964582681655884 0.11487127095460892 41.0 10 -0.09500252455472946
0.9397332072257996 0.877850353717804 -0.203677698969841 60.0 3 -0.09500022232532501
2.797255754470825 2.612138032913208 0.46992823481559753 49.0 11 -0.09499792009592056
0.9417611956596375 0.8791285753250122 -0.1581864207983017 53.0 4 -0.09499561041593552
2.8220224380493164 2.633422374725342 0.6113459467887878 61.0 12 -0.09499330818653107
0.9439199566841125 0.8808363080024719 -0.11295383423566818 61.0 5 -0.09499100595712662
2.8209524154663086 2.631503105163574 0.7498794198036194 53.0 13 -0.09498870372772217
0.9436142444610596 0.8799342513084412 -0.06761806458234787 54.0 6 -0.09498639404773712
2.8309433460235596 2.6389756202697754 0.8935056328773499 49.0 14 -0.09498409181833267
0.9523870944976807 0.887494683265686 -0.022723034024238586 77.0 7 -0.09498178958892822
2.8285272121429443 2.634876012802124 1.0357939004898071 68.0 15 -0.09497948735952377
0.9376637935638428 0.8710269331932068 0.02233908139169216 67.0 8 -0.09495644271373749
0.9426806569099426 0.8750735521316528 0.0674087181687355 53.0 9 -0.09495183825492859
0.9626024961471558 0.8935666680335999 -0.25530245900154114 57.0 2 -0.09494953602552414
0.958059549331665 0.889039158821106 0.11434832960367203 52.0 10 -0.09494722634553909
0.948584794998169 0.8799380660057068 -0.2049291729927063 53.0 3 -0.09494492411613464
2.8019907474517822 2.5983078479766846 0.46919700503349304 46.0 11 -0.0949426218867302
0.9419118762016296 0.8731374144554138 -0.15769894421100616 52.0 4 -0.09494031965732574
2.8152599334716797 2.608785629272461 0.6079043745994568 60.0 12 -0.0949380099773407
0.9499120116233826 0.8802443742752075 -0.11330246180295944 61.0 5 -0.09493570774793625
2.8272411823272705 2.618971109390259 0.7491161227226257 55.0 13 -0.0949334055185318
0.9510757327079773 0.880706787109375 -0.06793207675218582 49.0 6 -0.09493110328912735
2.835848331451416 2.625105619430542 0.8921559453010559 54.0 14 -0.0949287936091423
0.9378669857978821 0.867866575717926 -0.022304177284240723 69.0 7 -0.09492649137973785
2.8348703384399414 2.622363567352295 1.0347585678100586 78.0 15 -0.0949241891503334
0.9465782046318054 0.8731717467308044 0.022478699684143066 59.0 8 -0.09490115195512772
0.9442606568336487 0.8704240322113037 0.06730404496192932 51.0 9 -0.09489654004573822
0.9642719626426697 0.8888705968856812 -0.2549208402633667 55.0 2 -0.09489423781633377
0.9479705691337585 0.8735378980636597 0.11277952790260315 46.0 10 -0.09489193558692932
0.95310378074646 0.877959668636322 -0.20524203777313232 55.0 3 -0.09488962590694427
2.8256454467773438 2.6019585132598877 0.4716343879699707 10.0 11 -0.09488732367753983
0.9537173509597778 0.8779106140136719 -0.15916138887405396 52.0 4 -0.09488502144813538
2.818535327911377 2.5935914516448975 0.6066529154777527 60.0 12 -0.09488271921873093
0.9485805630683899 0.8728755116462708 -0.11277952790260315 63.0 5 -0.09488040953874588
2.833475351333618 2.606428623199463 0.7483529448509216 53.0 13 -0.09487810730934143
0.9512040615081787 0.8746774792671204 -0.06772273033857346 49.0 6 -0.09487580507993698
2.8363871574401855 2.6072771549224854 0.8894565105438232 49.0 14 -0.09487350285053253
0.9364731311798096 0.8605286478996277 -0.022199461236596107 65.0 7 -0.09487120062112808
2.8326244354248047 2.6019973754882812 1.0306174755096436 78.0 15 -0.09486889094114304
0.9333999156951904 0.8550044894218445 0.02209474705159664 52.0 8 -0.09484585374593735
0.9472935199737549 0.8671224117279053 0.06730404496192932 45.0 9 -0.09484124183654785
0.974609911441803 0.8921269774436951 -0.2568289339542389 57.0 2 -0.0948389396071434
0.9451344013214111 0.8648437857627869 0.11208228021860123 45.0 10 -0.09483663737773895
0.9561620354652405 0.8746280670166016 -0.20524203777313232 55.0 3 -0.0948343351483345
0.9597066640853882 0.8772544860839844 -0.1596488505601883 52.0 4 -0.09482972323894501
2.818821430206299 2.575742721557617 0.6047757267951965 60.0 12 -0.09482742100954056
0.9517732858657837 0.8693931102752686 -0.11277952790260315 61.0 5 -0.09482511878013611
2.830960750579834 2.5859286785125732 0.7452999949455261 57.0 13 -0.09482281655073166
0.9542517066001892 0.8713515400886536 -0.06772273033857346 53.0 6 -0.09482050687074661
2.8440308570861816 2.5960471630096436 0.8890066146850586 55.0 14 -0.09481820464134216
0.939471423625946 0.8572542071342468 -0.022199461236596107 54.0 7 -0.09481590241193771
2.8302724361419678 2.5816779136657715 1.0264763832092285 78.0 15 -0.09481360018253326
0.9319412112236023 0.8477041721343994 0.021990032866597176 48.0 8 -0.09479055553674698
0.9473584294319153 0.86112380027771 0.06709470599889755 40.0 9 -0.09478595107793808
0.9851380586624146 0.8951505422592163 -0.2587369978427887 59.0 2 -0.09478364884853363
0.9438736438751221 0.8573547601699829 0.11155935376882553 50.0 10 -0.09478133916854858
0.9578989744186401 0.8697894215583801 -0.2049291729927063 53.0 3 -0.09477903693914413
1.0258045196533203 0.9314489364624023 0.17012961208820343 0.0 11 -0.09477673470973969
0.9657025337219238 0.8765677213668823 -0.16013632714748383 54.0 4 -0.09477443248033524
2.8277947902679443 2.5658881664276123 0.6047757267951965 60.0 12 -0.09477212280035019
0.9548020362854004 0.8660657405853271 -0.11277952790260315 61.0 5 -0.09476982057094574
2.8258750438690186 2.5623481273651123 0.7414838075637817 53.0 13 -0.09476751834154129
0.9515194892883301 0.862483024597168 -0.06730404496192932 57.0 6 -0.09476521611213684
2.843418836593628 2.5764455795288086 0.885857343673706 49.0 14 -0.0947629064321518
0.9557949900627136 0.8660538792610168 -0.022513605654239655 54.0 7 -0.09476060420274734
2.8306756019592285 2.56400203704834 1.0233705043792725 78.0 15 -0.0947583019733429
0.9335574507713318 0.8429427742958069 0.021955126896500587 41.0 8 -0.09473526477813721
0.9355326294898987 0.8444290161132812 0.06604798138141632 50.0 9 -0.09473065286874771
0.9853417277336121 0.8890756368637085 -0.2579737901687622 59.0 2 -0.09472835063934326
0.9512988328933716 0.8580584526062012 0.11208228021860123 48.0 10 -0.09472604840993881
0.9741331338882446 0.8783454298973083 -0.2077450007200241 50.0 3 -0.09472373872995377
0.9908744096755981 0.8931271433830261 0.1637924164533615 5.0 11 -0.09472143650054932
0.9658076763153076 0.8705331683158875 -0.1596488505601883 53.0 4 -0.09471913427114487
2.827928304672241 2.548068046569824 0.6028984785079956 60.0 12 -0.09471683204174042
0.962260901927948 0.8667276501655579 -0.11330246180295944 63.0 5 -0.09471452236175537
2.8318848609924316 2.549840211868286 0.7407205700874329 57.0 13 -0.09471222013235092
0.9560086727142334 0.8604927659034729 -0.0674087181687355 60.0 6 -0.09470991790294647
2.837460994720459 2.553966999053955 0.8813583254814148 54.0 14 -0.09470761567354202
0.9513794779777527 0.8560248017311096 -0.02233908139169216 47.0 7 -0.09470530599355698
2.839609146118164 2.5541045665740967 1.0233705043792725 78.0 15 -0.09470300376415253
0.9318820834159851 0.8358365297317505 0.02185041457414627 49.0 8 -0.09467996656894684
0.9323793053627014 0.8359889984130859 0.06562929600477219 52.0 9 -0.09467535465955734
0.98243647813797 0.8805619478225708 -0.25644731521606445 59.0 2 -0.0946730524301529
0.9511714577674866 0.852239727973938 0.11173366010189056 48.0 10 -0.09467075020074844
0.9843975901603699 0.8817002773284912 -0.20930933952331543 53.0 3 -0.094668447971344
0.9938305020332336 0.8898366093635559 0.1637924164533615 17.0 11 -0.09466613829135895
0.965731143951416 0.8646775484085083 -0.15916138887405396 52.0 4 -0.0946638360619545
2.8216440677642822 2.5255014896392822 0.5997697710990906 60.0 12 -0.09466153383255005
0.969584047794342 0.8675176501274109 -0.11382540315389633 61.0 5 -0.0946592316031456
2.8344709873199463 2.535200834274292 0.7391940951347351 57.0 13 -0.09465692192316055
0.9573681950569153 0.8559862375259399 -0.06730404496192932 59.0 6 -0.0946546196937561
2.841557264328003 2.5406460762023926 0.8800085783004761 55.0 14 -0.09465231746435165
0.9452669024467468 0.8448697328567505 -0.02212965115904808 50.0 7 -0.0946500152349472
2.8423001766204834 2.5395259857177734 1.021299958229065 78.0 15 -0.09464770555496216
0.9301692843437195 0.8287510871887207 0.021745698526501656 57.0 8 -0.09462466835975647
0.9472255706787109 0.8433539867401123 0.06646667420864105 45.0 9 -0.09462006390094757
0.9825710654258728 0.8745169639587402 -0.2556840479373932 61.0 2 -0.09461775422096252
0.9420859813690186 0.8384840488433838 0.11033916473388672 48.0 10 -0.09461545199155807
1.009453296661377 0.898126482963562 -0.21400237083435059 49.0 3 -0.09461314976215363
0.9760099649429321 0.8680662512779236 0.16038008034229279 21.0 11 -0.09461084753274918
0.9746774435043335 0.8665773272514343 -0.16013632714748383 53.0 4 -0.09460853785276413
2.8201076984405518 2.5064501762390137 0.5975797176361084 61.0 12 -0.09460623562335968
0.9651592373847961 0.8575109839439392 -0.11295383423566818 63.0 5 -0.09460393339395523
2.840367078781128 2.522684335708618 0.7384308576583862 57.0 13 -0.09460163116455078
0.9618441462516785 0.8539649844169617 -0.0674087181687355 56.0 6 -0.09459932148456573
2.8460371494293213 2.526829481124878 0.8786588907241821 57.0 14 -0.09459701925516129
0.9452193975448608 0.838909924030304 -0.022059841081500053 56.0 7 -0.09459471702575684
2.836696147918701 2.51676869392395 1.016123652458191 76.0 15 -0.09459241479635239
0.9302045702934265 0.8226869702339172 0.021675890311598778 57.0 8 -0.0945693701505661
0.9547996520996094 0.8438446521759033 0.066780686378479 44.0 9 -0.0945647656917572
0.990183413028717 0.8748095631599426 -0.2568289339542389 65.0 2 -0.09456246346235275
0.9421664476394653 0.8323874473571777 0.10999054461717606 54.0 10 -0.0945601537823677
1.0082963705062866 0.8904979825019836 -0.2130637764930725 53.0 3 -0.09455785155296326
0.9732323288917542 0.8592281341552734 0.15940511226654053 25.0 11 -0.09455554932355881
0.9867774844169617 0.8708802461624146 -0.16159877181053162 56.0 4 -0.09455324709415436
2.824831247329712 2.4921772480010986 0.5966411232948303 60.0 12 -0.09455093741416931
0.9682955145835876 0.8539679646492004 -0.11295383423566818 63.0 5 -0.09454863518476486
2.840758800506592 2.5044665336608887 0.7361411452293396 53.0 13 -0.09454633295536041
0.9679641723632812 0.8530752062797546 -0.06761806458234787 56.0 6 -0.09454403072595596
2.849430799484253 2.511228322982788 0.8768593072891235 60.0 14 -0.09454172849655151
0.9527890682220459 0.8394058346748352 -0.02216455712914467 57.0 7 -0.09453941881656647
2.8357536792755127 2.4974164962768555 1.0125001668930054 78.0 15 -0.09453711658716202
0.9272032976150513 0.813994288444519 0.021536270156502724 52.0 8 -0.09451407939195633
0.9562380909919739 0.8391894698143005 0.06667601317167282 39.0 9 -0.09450946748256683
0.996182918548584 0.8739370703697205 -0.2575921416282654 65.0 2 -0.09450716525316238
0.9482073783874512 0.8315552473068237 0.11033916473388672 56.0 10 -0.09450486302375793
1.0100678205490112 0.8854944109916687 -0.2127508968114853 66.0 3 -0.09450255334377289
0.9644313454627991 0.8451887369155884 0.1574552059173584 30.0 11 -0.09450025111436844
1.0032474994659424 0.8792056441307068 -0.1637924164533615 70.0 4 -0.09449794888496399
2.8364853858947754 2.4849038124084473 0.5972668528556824 58.0 12 -0.09449564665555954
0.9742681980133057 0.8532082438468933 -0.11330246180295944 65.0 5 -0.09449334442615509
2.8332340717315674 2.4803106784820557 0.7319433689117432 49.0 13 -0.09449103474617004
0.9679303765296936 0.8470603227615356 -0.0674087181687355 60.0 6 -0.0944887325167656
2.8523142337799072 2.4961321353912354 0.8750596642494202 60.0 14 -0.09448643028736115
0.9587235450744629 0.8387078642845154 -0.022234365344047546 54.0 7 -0.0944841280579567
2.8415451049804688 2.484959840774536 1.0114648342132568 74.0 15 -0.09448181837797165
0.9359257221221924 0.8161723613739014 0.021675890311598778 45.0 8 -0.09445878118276596
0.9439603686332703 0.8228897452354431 0.06562929600477219 39.0 9 -0.09445417672395706
1.0005558729171753 0.8719183206558228 -0.2579737901687622 53.0 2 -0.09445186704397202
0.9539641737937927 0.8310239315032959 0.11068779230117798 56.0 10 -0.09444956481456757
1.0115087032318115 0.8808429837226868 -0.21243803203105927 76.0 3 -0.09444726258516312
0.9612400531768799 0.8367721438407898 0.15648025274276733 31.0 11 -0.09444496035575867
1.0121468305587769 0.8810871839523315 -0.16476736962795258 63.0 4 -0.09444265067577362
2.8417294025421143 2.472891330718994 0.5966411232948303 41.0 12 -0.09444034844636917
0.9861112833023071 0.8578189015388489 -0.11434832960367203 65.0 5 -0.09443804621696472
2.8340370655059814 2.4644596576690674 0.7300352454185486 55.0 13 -0.09443574398756027
0.9692263603210449 0.8425357341766357 -0.06730404496192932 59.0 6 -0.09443343430757523
2.8458681106567383 2.4738757610321045 0.8705606460571289 57.0 14 -0.09443113207817078
0.9675366282463074 0.8407713174819946 -0.0223739854991436 45.0 7 -0.09442882984876633
2.84539532661438 2.471721649169922 1.0099120140075684 70.0 15 -0.09442652761936188
0.938627302646637 0.8130639791488647 0.021675890311598778 52.0 8 -0.09440348297357559
0.9315856099128723 0.8066805005073547 0.06458257883787155 41.0 9 -0.0943988785147667
0.9930508732795715 0.8596014380455017 -0.25530245900154114 57.0 2 -0.09439657628536224
0.9506884813308716 0.8226407766342163 0.10999054461717606 42.0 10 -0.0943942666053772
1.0129305124282837 0.876191258430481 -0.21212516725063324 75.0 3 -0.09439196437597275
0.9610063433647156 0.8309833407402039 0.1559927761554718 33.0 11 -0.0943896621465683
1.019567608833313 0.8816213607788086 -0.16549858450889587 57.0 4 -0.09438735991716385
2.830487012863159 2.446659803390503 0.5925738215446472 95.0 12 -0.0943850502371788
1.0085488557815552 0.8714783787727356 -0.11661437898874283 50.0 5 -0.09438274800777435
2.840707540512085 2.4537651538848877 0.7296535968780518 50.0 13 -0.0943804457783699
0.9841087460517883 0.8497592806816101 -0.06814142316579819 53.0 6 -0.09437814354896545
2.8452069759368896 2.456782341003418 0.867861270904541 60.0 14 -0.09437583386898041
0.9642646312713623 0.8323312997817993 -0.022234365344047546 54.0 7 -0.09437353163957596
2.855038642883301 2.4635350704193115 1.0104296207427979 74.0 15 -0.09437122941017151
0.9428337216377258 0.8112518191337585 0.021710794419050217 62.0 8 -0.09434819221496582
0.9357694983482361 0.804889440536499 0.06468725204467773 44.0 9 -0.09434358030557632
0.9988735318183899 0.858863353729248 -0.2560656666755676 57.0 2 -0.09434127807617188
0.944345235824585 0.8116915822029114 0.10894466936588287 54.0 10 -0.09433897584676743
1.0218234062194824 0.8779770731925964 -0.21337664127349854 72.0 3 -0.09433666616678238
0.9592392444610596 0.8239114284515381 0.1552615612745285 34.0 11 -0.09433436393737793
1.0194741487503052 0.8756484389305115 -0.16501110792160034 49.0 4 -0.09433206170797348
2.8355867862701416 2.4346871376037598 0.5919480919837952 61.0 12 -0.09432975947856903
1.018992304801941 0.8746175765991211 -0.11748594045639038 49.0 5 -0.09432744979858398
2.8503193855285645 2.4456093311309814 0.7300352454185486 53.0 13 -0.09432514756917953
0.991469144821167 0.8503922820091248 -0.06845543533563614 62.0 6 -0.09432284533977509
2.848900318145752 2.443528175354004 0.8665115237236023 61.0 14 -0.09432054311037064
0.9685373902320862 0.8304309844970703 -0.022269269451498985 52.0 7 -0.09431824088096619
2.847058057785034 2.4402239322662354 1.0047355890274048 72.0 15 -0.09431593120098114
0.9428998231887817 0.8050289750099182 0.02164098247885704 60.0 8 -0.09429153054952621
0.9403725266456604 0.8025867342948914 0.06479191780090332 47.0 9 -0.09428691864013672
1.0111249685287476 0.8626673817634583 -0.25835540890693665 55.0 2 -0.09428461641073227
0.9444229006767273 0.8054739832878113 0.10859604924917221 54.0 10 -0.09428231418132782
1.0161679983139038 0.8663572669029236 -0.2114994376897812 72.0 3 -0.09428001195192337
0.9669280648231506 0.8240852952003479 0.1559927761554718 37.0 11 -0.09427770227193832
1.016937017440796 0.8663991689682007 -0.16403615474700928 44.0 4 -0.09427540004253387
2.835893154144287 2.4160943031311035 0.5900708436965942 61.0 12 -0.09427309781312943
1.017792820930481 0.8668226599693298 -0.11696299910545349 46.0 5 -0.09427079558372498
2.849224090576172 2.425738573074341 0.7273639440536499 46.0 13 -0.09426848590373993
0.9977691769599915 0.8491677045822144 -0.0686647817492485 60.0 6 -0.09426618367433548
2.855717182159424 2.4295475482940674 0.865611732006073 61.0 14 -0.09426388144493103
0.9747652411460876 0.8292973041534424 -0.02233908139169216 47.0 7 -0.09426157921552658
2.847576379776001 2.421765089035034 1.0016297101974487 69.0 15 -0.09425926953554153
0.9455645084381104 0.8018975257873535 0.02164098247885704 63.0 8 -0.09423623234033585
0.9538344740867615 0.8083379864692688 0.065524622797966 44.0 9 -0.09423162788152695
1.0096359252929688 0.8553256988525391 -0.25721052289009094 53.0 2 -0.0942293182015419
0.9517899751663208 0.8060355186462402 0.1091189906001091 59.0 10 -0.09422701597213745
1.011497974395752 0.8565999269485474 -0.20993506908416748 58.0 3 -0.094224713742733
0.9575350284576416 0.8106130361557007 0.15404286980628967 41.0 11 -0.09422241151332855
1.0198038816452026 0.8630228638648987 -0.16403615474700928 41.0 4 -0.0942201018333435
2.8473243713378906 2.408734083175659 0.5906966328620911 61.0 12 -0.09421779960393906
1.0010353326797485 0.8465395569801331 -0.11469695717096329 42.0 5 -0.0942154973745346
2.839264392852783 2.4010634422302246 0.7227845191955566 59.0 13 -0.09421319514513016
0.9883769154548645 0.835539698600769 -0.06782740354537964 56.0 6 -0.09421088546514511
2.863757610321045 2.42006516456604 0.865611732006073 66.0 14 -0.09420858323574066
0.9883473515510559 0.8349225521087646 -0.022583413869142532 70.0 7 -0.09420628100633621
2.8530611991882324 2.4093170166015625 1.0005944967269897 70.0 15 -0.09420397877693176
0.960594892501831 0.8088961243629456 0.02192022278904915 59.0 8 -0.09418093413114548
0.9503977298736572 0.8000258207321167 0.06510593742132187 39.0 9 -0.09417632967233658
1.0259865522384644 0.863349199295044 -0.2606450915336609 65.0 2 -0.09417402744293213
0.9590318202972412 0.8067220449447632 0.1096419170498848 57.0 10 -0.09417171776294708
1.0159940719604492 0.8543350696563721 -0.2102479487657547 51.0 3 -0.09416941553354263
0.9557998776435852 0.803433895111084 0.15331164002418518 45.0 11 -0.09416711330413818
1.0106520652770996 0.8492410778999329 -0.16208623349666595 39.0 4 -0.09416481107473373
2.8537845611572266 2.3980071544647217 0.590383768081665 58.0 12 -0.09416250139474869
0.9916322231292725 0.8329636454582214 -0.11330246180295944 50.0 5 -0.09416019916534424
2.858152151107788 2.3999760150909424 0.7254558801651001 56.0 13 -0.09415789693593979
0.9836388826370239 0.8256639242172241 -0.06730404496192932 65.0 6 -0.09415559470653534
2.8647243976593018 2.40378999710083 0.8633622527122498 57.0 14 -0.09415329247713089
0.9834511876106262 0.8252138495445251 -0.02240888960659504 63.0 7 -0.09415098279714584
2.8595545291900635 2.398601770401001 1.0000767707824707 74.0 15 -0.0941486805677414
0.9617380499839783 0.8044235110282898 0.02188531868159771 52.0 8 -0.0941256433725357
0.9516519904136658 0.7954227924346924 0.06500126421451569 36.0 9 -0.09412103146314621
1.0154346227645874 0.8484334945678711 -0.25721052289009094 58.0 2 -0.09411872923374176
0.9649006128311157 0.8059238195419312 0.10999054461717606 56.0 10 -0.09411642700433731
1.0188217163085938 0.8509608507156372 -0.2102479487657547 50.0 3 -0.09411411732435226
0.9645538926124573 0.8053492903709412 0.15428659319877625 46.0 11 -0.09411181509494781
1.0012705326080322 0.8357090950012207 -0.16013632714748383 43.0 4 -0.09410951286554337
2.8500044345855713 2.377906322479248 0.5878807902336121 33.0 12 -0.09410721063613892
0.9930035471916199 0.8282212615013123 -0.11312815546989441 55.0 5 -0.09410490840673447
2.8540332317352295 2.380425453186035 0.7224029302597046 53.0 13 -0.09410259872674942
0.9909733533859253 0.8262346982955933 -0.06761806458234787 78.0 6 -0.09410029649734497
2.8547167778015137 2.3793041706085205 0.8579633831977844 60.0 14 -0.09409799426794052
0.97557133436203 0.8128160238265991 -0.02216455712914467 59.0 7 -0.09409569203853607
2.869394063949585 2.3898425102233887 1.0005944967269897 70.0 15 -0.09409338235855103
0.9630017280578613 0.7997841238975525 0.02185041457414627 50.0 8 -0.09407034516334534
0.9559598565101624 0.7933713793754578 0.06510593742132187 38.0 9 -0.09406573325395584
1.0121997594833374 0.8400461077690125 -0.2556840479373932 53.0 2 -0.09406343102455139
0.955300509929657 0.7925426363945007 0.10859604924917221 56.0 10 -0.09406112879514694
1.0248267650604248 0.8499215841293335 -0.21087367832660675 55.0 3 -0.09405882656574249
0.9734723567962646 0.8070449829101562 0.1552615612745285 47.0 11 -0.09405652433633804
1.0041818618774414 0.8322086930274963 -0.16013632714748383 46.0 4 -0.094054214656353
2.8476386070251465 2.3591225147247314 0.5856907367706299 60.0 12 -0.09405191242694855
0.9926761388778687 0.8223812580108643 -0.11277952790260315 62.0 5 -0.0940496101975441
2.8593015670776367 2.367943048477173 0.7216396331787109 53.0 13 -0.09404730796813965
0.9846207499504089 0.8151283860206604 -0.06699003279209137 64.0 6 -0.0940449982881546
2.863004207611084 2.3693253993988037 0.8579633831977844 57.0 14 -0.09404269605875015
0.9830251336097717 0.8132292628288269 -0.022269269451498985 63.0 7 -0.0940403938293457
2.8643205165863037 2.3687305450439453 0.9959357380867004 74.0 15 -0.09403809159994125
0.9580737948417664 0.7900563478469849 0.021675890311598778 57.0 8 -0.09401504695415497
0.9602645039558411 0.7912999391555786 0.06521061062812805 39.0 9 -0.09401044249534607
1.0227012634277344 0.8427505493164062 -0.2575921416282654 49.0 2 -0.09400814026594162
0.9580610394477844 0.789203405380249 0.10859604924917221 57.0 10 -0.09400583058595657
1.0140630006790161 0.8350380063056946 -0.20805786550045013 60.0 3 -0.09400352835655212
0.9732181429862976 0.8011190891265869 0.15477408468723297 46.0 11 -0.09400122612714767
1.0070804357528687 0.8286985754966736 -0.16013632714748383 47.0 4 -0.09399892389774323
2.852804660797119 2.346658706665039 0.5850650072097778 60.0 12 -0.09399661421775818
0.9801536798477173 0.8062543869018555 -0.11103641241788864 59.0 5 -0.09399431198835373
2.861485004425049 2.352959394454956 0.7201131582260132 53.0 13 -0.09399200975894928
0.9982603192329407 0.8205645680427551 -0.06772273033857346 59.0 6 -0.09398970752954483
2.868246555328369 2.356842041015625 0.8570635914802551 60.0 14 -0.09398739784955978
0.9858580827713013 0.809792697429657 -0.022269269451498985 66.0 7 -0.09398509562015533
2.8636128902435303 2.351362705230713 0.9928299188613892 76.0 15 -0.09398279339075089
0.9623731970787048 0.7879738211631775 0.021710794419050217 75.0 8 -0.0939597561955452
0.9738415479660034 0.7967962026596069 0.06594331562519073 43.0 9 -0.0939551442861557
1.0210785865783691 0.8354455232620239 -0.25644731521606445 55.0 2 -0.09395284205675125
0.9623525142669678 0.7871155738830566 0.10877036303281784 52.0 10 -0.0939505398273468
1.0200300216674805 0.8339941501617432 -0.20868360996246338 53.0 3 -0.09394823014736176
0.9667866230010986 0.7901791334152222 0.15331164002418518 46.0 11 -0.0939459279179573
1.0068928003311157 0.8226659297943115 -0.1596488505601883 43.0 4 -0.09394362568855286
2.854858160018921 2.331688642501831 0.583813488483429 53.0 12 -0.09394132345914841
