# .PCD v0.7 - Point Cloud Data file format
VERSION 0.7
FIELDS x y z intensity ring time
SIZE 4 4 4 4 4 4
TYPE F F F F F F
COUNT 1 1 1 1 1 1
WIDTH 532
HEIGHT 1
VIEWPOINT 0 0 0 1 0 0 0
POINTS 532
DATA ascii
1.8285921812057495 0.0392613522708416 0.1600179374217987 98.0 10 -0.008285720832645893
1.7932355403900146 0.0381891131401062 -0.2840850353240967 100.0 3 -0.008283417671918869
3.6061086654663086 0.07616852223873138 0.4428732097148895 9.0 11 -0.00828111357986927
1.7842066287994385 0.03737378865480423 -0.21912109851837158 99.0 4 -0.008278809487819672
3.620084762573242 0.07519787549972534 0.5734888315200806 100.0 12 -0.008276505395770073
1.7887864112854004 0.03684593737125397 -0.15653172135353088 96.0 5 -0.008274201303720474
3.6508920192718506 0.07456295192241669 0.7098095417022705 96.0 13 -0.008271897211670876
1.8111428022384644 0.03667314350605011 -0.09493743628263474 88.0 6 -0.008269593119621277
3.649242639541626 0.07389213144779205 0.842666745185852 100.0 14 -0.008267289027571678
1.799363374710083 0.036120470613241196 -0.03141433000564575 100.0 7 -0.00826498493552208
3.6446824073791504 0.07252712547779083 0.9767830967903137 117.0 15 -0.00826268084347248
2.1092209815979004 0.039026372134685516 -0.5652607679367065 44.0 0 -0.008241944946348667
1.7894269227981567 0.03279690071940422 0.031239807605743408 99.0 8 -0.008239640854299068
2.168590545654297 0.0393676832318306 -0.5007410645484924 78.0 1 -0.008237337693572044
1.8232028484344482 0.03277936205267906 0.09556546807289124 78.0 9 -0.008235033601522446
2.1984963417053223 0.03914295509457588 -0.42741215229034424 75.0 2 -0.008232729509472847
1.8187633752822876 0.03238203004002571 0.15914638340473175 95.0 10 -0.008230425417423248
1.7913885116577148 0.031581901013851166 -0.28377217054367065 100.0 3 -0.00822812132537365
3.6083483695983887 0.06298468261957169 0.4431169629096985 9.0 11 -0.008225817233324051
1.7902860641479492 0.03093738481402397 -0.21985231339931488 96.0 4 -0.008223513141274452
3.6203360557556152 0.06192989647388458 0.5734888315200806 100.0 12 -0.008221209049224854
1.7809410095214844 0.030154084786772728 -0.15583446621894836 96.0 5 -0.008218904957175255
3.647214412689209 0.06111627817153931 0.7090462446212769 93.0 13 -0.008216600865125656
1.8072710037231445 0.02996889501810074 -0.09472808986902237 82.0 6 -0.008214296773076057
3.661179542541504 0.060711152851581573 0.8453661203384399 94.0 14 -0.008211993612349033
1.805482029914856 0.029624048620462418 -0.031519047915935516 95.0 7 -0.008209689520299435
3.6410608291625977 0.05910630151629448 0.97574782371521 120.0 15 -0.008207385428249836
2.1074182987213135 0.0312662310898304 -0.5647432208061218 42.0 0 -0.008186649531126022
1.7935340404510498 0.026296276599168777 0.031309615820646286 97.0 8 -0.008184345439076424
2.1667721271514893 0.031391385942697525 -0.5002912282943726 70.0 1 -0.008182041347026825
1.825303316116333 0.026444314047694206 0.09567013382911682 74.0 9 -0.008179737254977226
2.2143242359161377 0.03169272094964981 -0.43046510219573975 71.0 2 -0.008177433162927628
1.8308230638504028 0.025884239003062248 0.16019225120544434 90.0 10 -0.008175129070878029
2.1707277297973633 0.030311942100524902 -0.343843013048172 100.0 3 -0.00817282497882843
3.6125245094299316 0.04981281980872154 0.443604439496994 11.0 11 -0.008170520886778831
2.08017897605896 0.028683427721261978 -0.2554381787776947 99.0 4 -0.008168216794729233
3.620529890060425 0.049291227012872696 0.5734888315200806 98.0 12 -0.008165913634002209
1.8009575605392456 0.024205390363931656 -0.15757757425308228 93.0 5 -0.00816360954195261
3.635627269744873 0.04822754114866257 0.706756591796875 93.0 13 -0.008161305449903011
1.8133559226989746 0.023738110437989235 -0.09504210948944092 75.0 6 -0.008159001357853413
3.663317918777466 0.04795541986823082 0.8458160161972046 97.0 14 -0.008156697265803814
1.8095735311508179 0.023373594507575035 -0.031588856130838394 95.0 7 -0.008154393173754215
3.645108222961426 0.046444524079561234 0.9767830967903137 117.0 15 -0.008152089081704617
2.101715326309204 0.024211270734667778 -0.5631902813911438 35.0 0 -0.008131353184580803
1.7976105213165283 0.02039428986608982 0.03137942776083946 82.0 8 -0.008129049092531204
2.161018133163452 0.02414003759622574 -0.49894148111343384 66.0 1 -0.008126745000481606
1.8233836889266968 0.020368430763483047 0.09556546807289124 52.0 9 -0.008124440908432007
2.2320854663848877 0.024544307962059975 -0.4338997006416321 93.0 2 -0.008122136816382408
1.834883451461792 0.01985635608434677 0.1605408787727356 95.0 10 -0.008119833655655384
2.2557525634765625 0.024017103016376495 -0.3572963774204254 100.0 3 -0.008117529563605785
3.6007602214813232 0.037708982825279236 0.4421420395374298 9.0 11 -0.008115225471556187
2.2807459831237793 0.023885127156972885 -0.2800557613372803 69.0 4 -0.008112921379506588
3.6325254440307617 0.03740761801600456 0.5753660202026367 100.0 12 -0.00811061728745699
2.2751922607421875 0.023032736033201218 -0.1990637183189392 84.0 5 -0.00810831319540739
3.637730360031128 0.03619135543704033 0.707138180732727 100.0 13 -0.008106009103357792
1.917277216911316 0.018740126863121986 -0.10048504173755646 47.0 6 -0.008103705011308193
3.659559488296509 0.03576979413628578 0.8449162244796753 97.0 14 -0.008101400919258595
1.9016227722167969 0.018255209550261497 -0.03319447860121727 33.0 7 -0.00809909775853157
3.6529693603515625 0.034430209547281265 0.9788536429405212 117.0 15 -0.008096793666481972
2.0979204177856445 0.01720932126045227 -0.56215500831604 35.0 0 -0.008076056838035583
3.5973362922668457 0.0288829505443573 0.06279376149177551 72.0 8 -0.008073752745985985
2.178624391555786 0.017111893743276596 -0.5029906034469604 70.0 1 -0.00807144958525896
3.600951910018921 0.027653289958834648 0.18872347474098206 82.0 9 -0.008069145493209362
2.230191230773926 0.017126616090536118 -0.43351805210113525 100.0 2 -0.008066841401159763
1.8568546772003174 0.013936405070126057 0.16245830059051514 40.0 10 -0.008064537309110165
2.2538442611694336 0.016522597521543503 -0.356983482837677 100.0 3 -0.008062233217060566
3.6127755641937256 0.025852452963590622 0.443604439496994 9.0 11 -0.008059929125010967
2.255009889602661 0.01574292778968811 -0.2768871784210205 78.0 4 -0.008057625032961369
3.628683090209961 0.024701381102204323 0.5747402906417847 100.0 12 -0.00805532094091177
2.301156520843506 0.015664566308259964 -0.20132976770401 83.0 5 -0.008053016848862171
3.6437201499938965 0.024166064336895943 0.708283007144928 96.0 13 -0.008050713688135147
1.9333065748214722 0.012484753504395485 -0.10132241994142532 47.0 6 -0.008048409596085548
3.65576434135437 0.022971609607338905 0.8440163731575012 97.0 14 -0.00804610550403595
1.9256709814071655 0.011763272807002068 -0.033613335341215134 11.0 7 -0.008043801411986351
3.660794734954834 0.021723642945289612 0.9809242486953735 115.0 15 -0.008041497319936752
2.084444761276245 0.009823817759752274 -0.5585315227508545 37.0 0 -0.008020761422812939
3.601414442062378 0.01634291559457779 0.06286356598138809 79.0 8 -0.00801845733076334
2.1845171451568604 0.009531899355351925 -0.5043402910232544 81.0 1 -0.008016153238713741
3.6030240058898926 0.015094295144081116 0.18882815539836884 88.0 9 -0.008013849146664143
2.232200860977173 0.009351450018584728 -0.4338997006416321 100.0 2 -0.008011545054614544
3.6241276264190674 0.014548474922776222 0.3170726001262665 36.0 10 -0.008009240962564945
2.2617897987365723 0.008684851229190826 -0.3582349717617035 93.0 3 -0.008006936870515347
3.6247544288635254 0.013287500478327274 0.4450668692588806 11.0 11 -0.008004633709788322
2.2629916667938232 0.007899570278823376 -0.2778621315956116 100.0 4 -0.008002329617738724
3.6208457946777344 0.012007592245936394 0.5734888315200806 98.0 12 -0.008000025525689125
2.2832658290863037 0.007571857422590256 -0.19976095855236053 60.0 5 -0.007997721433639526
3.65163516998291 0.011474140919744968 0.7098095417022705 96.0 13 -0.007995417341589928
1.9333382844924927 0.005736584775149822 -0.10132241994142532 45.0 6 -0.007993113249540329
3.6597201824188232 0.010220381431281567 0.8449162244796753 97.0 14 -0.00799080915749073
3.5874414443969727 0.009390726685523987 -0.06261923164129257 71.0 7 -0.007988505065441132
3.653120517730713 0.008926840499043465 0.9788536429405212 117.0 15 -0.007986200973391533
2.0767388343811035 0.002537690568715334 -0.556460976600647 42.0 0 -0.00796546507626772
3.589451551437378 0.003758011618629098 0.06265413761138916 81.0 8 -0.00796316098421812
2.1923320293426514 0.0019137175986543298 -0.506139874458313 81.0 1 -0.007960856892168522
3.6150379180908203 0.0025247125886380672 0.18945617973804474 85.0 9 -0.007958553731441498
2.2224035263061523 0.0015521080931648612 -0.4319916069507599 100.0 2 -0.007956249639391899
3.612201690673828 0.0018905989127233624 0.3160267174243927 36.0 10 -0.0079539455473423
2.2460031509399414 0.0007846340304240584 -0.3557320237159729 71.0 3 -0.007951641455292702
3.6267638206481934 0.0006340467953123152 0.4453106224536896 13.0 11 -0.007949337363243103
2.2749156951904297 -0.0 -0.27932456135749817 82.0 4 -0.007947033271193504
3.628767251968384 -0.0006333393394015729 0.5747402906417847 100.0 12 -0.007944729179143906
2.2055749893188477 -0.0003849454515147954 -0.19296279549598694 27.0 5 -0.007942425087094307
3.6516530513763428 -0.0012746674474328756 0.7098095417022705 93.0 13 -0.007940120995044708
1.935343861579895 -0.0010133438045158982 -0.1014270931482315 45.0 6 -0.00793781690299511
3.6694769859313965 -0.0025617785286158323 0.8471657633781433 100.0 14 -0.00793551281094551
3.6114490032196045 -0.0031515841837972403 -0.06303809583187103 100.0 7 -0.007933209650218487
3.6531295776367188 -0.003825549269095063 0.9788536429405212 117.0 15 -0.007930905558168888
2.080599069595337 -0.004720737226307392 -0.5574962496757507 42.0 0 -0.007910169661045074
3.5854432582855225 -0.008760908618569374 0.06258433312177658 84.0 8 -0.007907865568995476
2.18453049659729 -0.005719099659472704 -0.5043402910232544 79.0 1 -0.007905561476945877
3.6190192699432373 -0.01010623387992382 0.1896655261516571 88.0 9 -0.007903257384896278
2.228285312652588 -0.0062225619331002235 -0.4331364631652832 83.0 2 -0.00790095329284668
3.6281254291534424 -0.010764896869659424 0.31742119789123535 38.0 10 -0.007898649200797081
2.247967481613159 -0.00706222141161561 -0.35604485869407654 66.0 3 -0.007896345108747482
3.604907989501953 -0.011954371817409992 0.44262948632240295 20.0 11 -0.007894041016697884
2.2669618129730225 -0.00791322160512209 -0.2783496081829071 80.0 4 -0.007891736924648285
3.6326935291290283 -0.013314577750861645 0.5753660202026367 100.0 12 -0.007889432832598686
1.948543906211853 -0.007141818292438984 -0.17047663033008575 26.0 5 -0.007887128740549088
3.6457366943359375 -0.01399869192391634 0.7086646556854248 99.0 13 -0.007884825579822063
1.931334137916565 -0.007752913050353527 -0.10121775418519974 44.0 6 -0.007882521487772465
3.6772406101226807 -0.015403279103338718 0.8489653468132019 94.0 14 -0.007880217395722866
3.603416919708252 -0.01572297140955925 -0.06289847195148468 92.0 7 -0.007877913303673267
3.6569576263427734 -0.016594860702753067 0.9798889756202698 113.0 15 -0.007875609211623669
2.0805697441101074 -0.011983353644609451 -0.5574962496757507 39.0 0 -0.007791042793542147
2.1786510944366455 -0.013308786787092686 -0.5029906034469604 72.0 1 -0.007786434609442949
3.6129744052886963 -0.02207067795097828 0.18935151398181915 74.0 9 -0.007784130983054638
2.2341394424438477 -0.014037695713341236 -0.43428128957748413 71.0 2 -0.007781826891005039
3.6300580501556396 -0.023442218080163002 0.31759554147720337 42.0 10 -0.0077795227989554405
2.2420034408569336 -0.01486974861472845 -0.35510629415512085 69.0 3 -0.007777218706905842
3.6068291664123535 -0.024551285430788994 0.4428732097148895 31.0 11 -0.007774914614856243
2.2589800357818604 -0.015770910307765007 -0.27737462520599365 76.0 4 -0.007772610988467932
3.636579990386963 -0.025388527661561966 0.5759917497634888 98.0 12 -0.007770306896418333
1.9345606565475464 -0.013843663036823273 -0.16925644874572754 39.0 5 -0.007768002804368734
3.6456656455993652 -0.02672460302710533 0.7086646556854248 100.0 13 -0.007765698712319136
1.9332925081253052 -0.014509468339383602 -0.10132241994142532 42.0 6 -0.007763394620269537
3.6674208641052246 -0.028164323419332504 0.8467158079147339 100.0 14 -0.007761090993881226
3.607344388961792 -0.02770295925438404 -0.06296828389167786 92.0 7 -0.007758786901831627
3.6607463359832764 -0.028752021491527557 0.9809242486953735 115.0 15 -0.007756482809782028
2.0766515731811523 -0.019210081547498703 -0.556460976600647 39.0 0 -0.007735746912658215
2.331544876098633 -0.021567974239587784 0.04069900885224342 3.0 8 -0.007733442820608616
2.184440851211548 -0.020588478073477745 -0.5043402910232544 68.0 1 -0.007731138728559017
2.2105188369750977 -0.021605955436825752 -0.42970186471939087 62.0 2 -0.007726531010121107
3.633938789367676 -0.03615298494696617 0.31794413924217224 42.0 10 -0.007724226918071508
2.2439169883728027 -0.02232406847178936 -0.3554191291332245 71.0 3 -0.00772192282602191
3.6166529655456543 -0.03661230206489563 0.44409194588661194 31.0 11 -0.007719618733972311
2.2470057010650635 -0.02313922718167305 -0.27591222524642944 83.0 4 -0.007717314641922712
3.6364693641662598 -0.03808240219950676 0.5759917497634888 98.0 12 -0.007715011015534401
1.9345005750656128 -0.0205964557826519 -0.16925644874572754 46.0 5 -0.007712706923484802
3.653409242630005 -0.038897525519132614 0.7101911306381226 99.0 13 -0.0077104028314352036
1.9312366247177124 -0.020898805931210518 -0.10121775418519974 41.0 6 -0.007708098739385605
3.661461591720581 -0.04026149585843086 0.8453661203384399 94.0 14 -0.007705794647336006
3.60322642326355 -0.04025010019540787 -0.06289847195148468 93.0 7 -0.007703491020947695
3.664486885070801 -0.04157406836748123 0.9819594621658325 115.0 15 -0.007701186928898096
2.0707814693450928 -0.02602357603609562 -0.554908037185669 31.0 0 -0.007680450566112995
2.3254570960998535 -0.02963002771139145 0.040594298392534256 1.0 8 -0.007678146939724684
2.1882529258728027 -0.02826380915939808 -0.5052400827407837 64.0 1 -0.007675842847675085
2.352569818496704 -0.030796825885772705 0.12330353260040283 1.0 9 -0.007673538755625486
2.192767381668091 -0.028704898431897163 -0.4262673258781433 61.0 2 -0.007671234663575888
3.629814386367798 -0.04815050587058067 0.31759554147720337 46.0 10 -0.007668930571526289
2.2418503761291504 -0.030130119994282722 -0.35510629415512085 69.0 3 -0.007666626945137978
3.6303975582122803 -0.04942571371793747 0.4457980990409851 37.0 11 -0.007664322853088379
2.252865791320801 -0.031064707785844803 -0.27664345502853394 99.0 4 -0.00766201876103878
3.628413677215576 -0.05066549777984619 0.5747402906417847 100.0 12 -0.0076597146689891815
1.9264529943466187 -0.02690010331571102 -0.1685592085123062 52.0 5 -0.007657410576939583
3.6630663871765137 -0.051788829267024994 0.7120991945266724 93.0 13 -0.0076551069505512714
1.947128176689148 -0.027868617326021194 -0.102055124938488 41.0 6 -0.007652802858501673
3.671041488647461 -0.05318327993154526 0.8476155996322632 97.0 14 -0.007650498766452074
3.599065065383911 -0.052768826484680176 -0.0628286600112915 83.0 7 -0.007648194674402475
3.656592845916748 -0.054250627756118774 0.9798889756202698 117.0 15 -0.007645890582352877
2.06488299369812 -0.03315873444080353 -0.5533550977706909 18.0 0 -0.007625154685229063
2.299346923828125 -0.03732527419924736 0.040140535682439804 2.0 8 -0.007622850593179464
2.188140869140625 -0.03590206801891327 -0.5052400827407837 63.0 1 -0.007620546966791153
2.320496082305908 -0.03847880661487579 0.1216287761926651 2.0 9 -0.007618242874741554
2.188727617263794 -0.03629380464553833 -0.42550405859947205 61.0 2 -0.007615938782691956
3.6256399154663086 -0.06075386330485344 0.3172468841075897 46.0 10 -0.007613634690642357
2.227905750274658 -0.03772136569023132 -0.3529161810874939 74.0 3 -0.007611330598592758
3.6421115398406982 -0.062301572412252426 0.4472605288028717 46.0 11 -0.007609026972204447
2.254728317260742 -0.03896278142929077 -0.2768871784210205 86.0 4 -0.007606722880154848
3.6361148357391357 -0.06346862018108368 0.5759917497634888 100.0 12 -0.007604418788105249
1.9203709363937378 -0.03352019935846329 -0.16803626716136932 59.0 5 -0.007602114696055651
3.65108585357666 -0.06436737626791 0.7098095417022705 93.0 13 -0.007599810604006052
1.9609977006912231 -0.03491406887769699 -0.10278782993555069 30.0 6 -0.007597506977617741
3.674730062484741 -0.06606733798980713 0.8485153913497925 97.0 14 -0.007595202885568142
3.654449701309204 -0.06697878241539001 0.9793713092803955 113.0 15 -0.0075905947014689445
2.0666866302490234 -0.04040409252047539 -0.5538727641105652 10.0 0 -0.007569858804345131
2.283208131790161 -0.04503577575087547 0.039861299097537994 4.0 8 -0.007567554712295532
2.168518543243408 -0.04315217211842537 -0.5007410645484924 61.0 1 -0.0075652506202459335
2.314357280731201 -0.04645836725831032 0.12131475657224655 4.0 9 -0.007562946993857622
2.18269944190979 -0.04381547123193741 -0.4243592619895935 64.0 2 -0.0075606429018080235
3.6313817501068115 -0.07353033870458603 0.3177698254585266 52.0 10 -0.007558338809758425
2.2238106727600098 -0.04541730880737305 -0.35229045152664185 71.0 3 -0.007556034717708826
3.6240100860595703 -0.07464661449193954 0.4450668692588806 49.0 11 -0.007553730625659227
2.2506093978881836 -0.04675056412816048 -0.276399701833725 71.0 4 -0.007551426999270916
3.6516706943511963 -0.0764915868639946 0.5784947276115417 96.0 12 -0.007549122907221317
1.9302020072937012 -0.04043196514248848 -0.16890782117843628 62.0 5 -0.007546818815171719
3.648876190185547 -0.07707018405199051 0.7094278931617737 99.0 13 -0.00754451472312212
1.948883056640625 -0.041503872722387314 -0.10215979814529419 13.0 6 -0.007542210631072521
3.6783738136291504 -0.0789778083562851 0.8494152426719666 97.0 14 -0.00753990700468421
2.3390958309173584 -0.05063081160187721 -0.040838632732629776 14.0 7 -0.007537602912634611
3.6580560207366943 -0.07981906831264496 0.9804065823554993 113.0 15 -0.0075352988205850124
2.0742580890655518 -0.04779592901468277 -0.5559433102607727 11.0 0 -0.007514562923461199
2.2810378074645996 -0.05295896530151367 0.03982638940215111 11.0 8 -0.0075122588314116
2.156665563583374 -0.050448015332221985 -0.49804162979125977 59.0 1 -0.007509954739362001
2.3022005558013916 -0.05425436422228813 0.12068671733140945 3.0 9 -0.007507650647312403
2.184495687484741 -0.0514804981648922 -0.42474085092544556 68.0 2 -0.007505347020924091
3.6330947875976562 -0.0862530767917633 0.31794413924217224 42.0 10 -0.007503042928874493
2.227587938308716 -0.05327403545379639 -0.3529161810874939 74.0 3 -0.007500738836824894
3.6276965141296387 -0.0873919427394867 0.44555434584617615 63.0 11 -0.007498434744775295
2.2405097484588623 -0.054365601390600204 -0.27518099546432495 60.0 4 -0.0074961306527256966
3.657305955886841 -0.08938263356685638 0.5794333219528198 100.0 12 -0.007493826560676098
1.930049180984497 -0.047169387340545654 -0.16890782117843628 62.0 5 -0.0074915229342877865
3.654472827911377 -0.08995159715414047 0.7105727195739746 93.0 13 -0.007489218842238188
1.9686927795410156 -0.04880143329501152 -0.10320651531219482 13.0 6 -0.007486914750188589
3.666386842727661 -0.09152545034885406 0.8467158079147339 91.0 14 -0.00748461065813899
2.302921772003174 -0.05789092183113098 -0.04021034389734268 21.0 7 -0.007482307031750679
3.665480613708496 -0.0927831307053566 0.9824771285057068 115.0 15 -0.00748000293970108
2.0682854652404785 -0.05488242581486702 -0.5543904304504395 14.0 0 -0.007459266576915979
2.284837007522583 -0.061027735471725464 0.039896201342344284 22.0 8 -0.007456962950527668
2.1564762592315674 -0.057975880801677704 -0.49804162979125977 61.0 1 -0.007454658858478069
2.2880213260650635 -0.061912037432193756 0.11995401978492737 2.0 9 -0.007452354766428471
2.174489736557007 -0.05883996561169624 -0.42283275723457336 71.0 2 -0.007450050674378872
3.640738010406494 -0.0991513729095459 0.31864139437675476 46.0 10 -0.007447746582329273
2.229363441467285 -0.061103567481040955 -0.3532290756702423 78.0 3 -0.007445442955940962
3.639275312423706 -0.10038283467292786 0.44701680541038513 70.0 11 -0.007443138863891363
2.216494560241699 -0.061525147408246994 -0.27225613594055176 53.0 4 -0.0074408347718417645
3.653022527694702 -0.10203815251588821 0.5788075923919678 100.0 12 -0.007438530679792166
1.9338560104370117 -0.05401748791337013 -0.16925644874572754 62.0 5 -0.007436226587742567
3.6619863510131836 -0.10292818397283554 0.7120991945266724 90.0 13 -0.007433922961354256
3.6660449504852295 -0.10432297736406326 0.8467158079147339 91.0 14 -0.007429314777255058
2.270723581314087 -0.065013587474823 -0.039651867002248764 49.0 7 -0.00742701068520546
3.672858476638794 -0.10579997301101685 0.9845476746559143 113.0 15 -0.007424706593155861
2.0584261417388916 -0.06181182339787483 -0.5518022775650024 22.0 0 -0.007403970696032047
2.2706186771392822 -0.06858035176992416 0.039651867002248764 25.0 8 -0.007401666603982449
2.1562607288360596 -0.06550303101539612 -0.49804162979125977 64.0 1 -0.007399362977594137
2.261838912963867 -0.06910543143749237 0.11859328299760818 2.0 9 -0.0073970588855445385
2.168384313583374 -0.06625013798475266 -0.42168790102005005 78.0 2 -0.00739475479349494
3.6304125785827637 -0.11155335605144501 0.3177698254585266 48.0 10 -0.007392450701445341
2.2074174880981445 -0.06821396946907043 -0.34978750348091125 75.0 3 -0.007390146609395742
3.64485502243042 -0.11327064782381058 0.44774800539016724 73.0 11 -0.007387842983007431
2.2043614387512207 -0.06888973712921143 -0.27079370617866516 47.0 4 -0.007385538890957832
3.6506693363189697 -0.11472690850496292 0.5784947276115417 100.0 12 -0.007383234798908234
1.9336556196212769 -0.06076757237315178 -0.16925644874572754 72.0 5 -0.007380930706858635
3.677302837371826 -0.1162063479423523 0.7151521444320679 96.0 13 -0.007378626614809036
2.3256330490112305 -0.07389857620000839 -0.12194279581308365 25.0 6 -0.007376322988420725
3.6753971576690674 -0.11743037402629852 0.8489653468132019 94.0 14 -0.007374018896371126
2.2864720821380615 -0.0734531432390213 -0.03993110731244087 67.0 7 -0.0073717148043215275
3.664743423461914 -0.11837053298950195 0.9824771285057068 113.0 15 -0.007369410712271929
2.056267023086548 -0.06893197447061539 -0.5512846112251282 30.0 0 -0.007348674815148115
2.256375551223755 -0.07603444159030914 0.03940753638744354 37.0 8 -0.0073463707230985165
2.159914493560791 -0.07316133379936218 -0.49894148111343384 66.0 1 -0.007344066631048918
2.2675724029541016 -0.07720419019460678 0.11890730261802673 2.0 9 -0.007341763004660606
2.1720638275146484 -0.07395239919424057 -0.42245110869407654 78.0 2 -0.007339458912611008
3.6339833736419678 -0.12436145544052124 0.31811845302581787 47.0 10 -0.007337154820561409
2.2229597568511963 -0.07646212726831436 -0.35229045152664185 91.0 3 -0.00733485072851181
3.640469551086426 -0.1258556991815567 0.4472605288028717 75.0 11 -0.007332546636462212
2.029524564743042 -0.07051791250705719 -0.24934469163417816 46.0 4 -0.0073302430100739
3.6561694145202637 -0.12767624855041504 0.5794333219528198 100.0 12 -0.0073279389180243015
1.9254671335220337 -0.06723879277706146 -0.1685592085123062 77.0 5 -0.007325634825974703
3.6690268516540527 -0.12876640260219574 0.7136256694793701 93.0 13 -0.007323330733925104
2.3193728923797607 -0.08180490136146545 -0.1216287761926651 22.0 6 -0.0073210266418755054
3.6885976791381836 -0.1307423859834671 0.8521146178245544 97.0 14 -0.007318723015487194
2.264219045639038 -0.08065096288919449 -0.0395471528172493 50.0 7 -0.007316418923437595
3.668168783187866 -0.13130035996437073 0.9835124015808105 113.0 15 -0.007314114831387997
2.0637357234954834 -0.07639510929584503 -0.5533550977706909 37.0 0 -0.007293378934264183
2.2421083450317383 -0.08338994532823563 0.03916320204734802 45.0 8 -0.007291074842214584
2.1518561840057373 -0.08040931820869446 -0.49714183807373047 68.0 1 -0.007288770750164986
2.2812600135803223 -0.08564352244138718 0.11964000016450882 3.0 9 -0.007286466658115387
2.171792507171631 -0.08153386414051056 -0.42245110869407654 82.0 2 -0.007284162566065788
3.637509346008301 -0.1371958702802658 0.31846708059310913 50.0 10 -0.007281858939677477
2.200965642929077 -0.08339846879243851 -0.3488488793373108 90.0 3 -0.007279554847627878
3.6360409259796143 -0.1384115219116211 0.44677305221557617 79.0 11 -0.0072772507555782795
1.9935606718063354 -0.07623642683029175 -0.24495738744735718 49.0 4 -0.007274946663528681
3.6675446033477783 -0.1408928483724594 0.581310510635376 98.0 12 -0.007272643037140369
1.933184266090393 -0.07426545023918152 -0.16925644874572754 77.0 5 -0.007270338945090771
3.6528608798980713 -0.1409672647714615 0.7105727195739746 90.0 13 -0.007268034853041172
2.2951242923736572 -0.08897212147712708 -0.1203727126121521 22.0 6 -0.007265730760991573
3.69006609916687 -0.14369302988052368 0.8525645732879639 94.0 14 -0.007263426668941975
2.2579290866851807 -0.08831958472728729 -0.03944243863224983 42.0 7 -0.007261122576892376
3.6676881313323975 -0.14410386979579926 0.9835124015808105 113.0 15 -0.0072588189505040646
2.059596061706543 -0.08344202488660812 -0.5523198843002319 42.0 0 -0.007238082587718964
2.2438013553619385 -0.09129713475704193 0.03919810429215431 50.0 8 -0.007235778961330652
2.1476681232452393 -0.08776108175516129 -0.49624204635620117 68.0 1 -0.0072334748692810535
2.2669782638549805 -0.0930328220129013 0.11890730261802673 3.0 9 -0.007231170777231455
2.171494722366333 -0.08911434561014175 -0.42245110869407654 82.0 2 -0.007228866685181856
3.6449711322784424 -0.15022048354148865 0.31916433572769165 48.0 10 -0.0072265625931322575
2.2006611824035645 -0.09108076244592667 -0.3488488793373108 87.0 3 -0.007224258966743946
3.6414859294891357 -0.15135014057159424 0.4475042521953583 93.0 11 -0.007221954874694347
1.9774154424667358 -0.08253253251314163 -0.24300749599933624 47.0 4 -0.007219650782644749
3.670978307723999 -0.15385955572128296 0.5819362998008728 98.0 12 -0.00721734669059515
1.940875768661499 -0.0813467875123024 -0.16995368897914886 75.0 5 -0.007215042598545551
3.6641154289245605 -0.1542125642299652 0.7128624320030212 92.0 13 -0.00721273897215724
2.304777145385742 -0.09740471839904785 -0.12089607119560242 35.0 6 -0.007210434880107641
3.6739659309387207 -0.1559118926525116 0.8489653468132019 94.0 14 -0.0072081307880580425
2.265598773956299 -0.09654123336076736 -0.039582058787345886 42.0 7 -0.007205826696008444
3.678743600845337 -0.15740109980106354 0.9866182804107666 113.0 15 -0.007203522603958845
2.0670125484466553 -0.09097062796354294 -0.5543904304504395 49.0 0 -0.0071827867068350315
2.243468999862671 -0.09912890940904617 0.03919810429215431 52.0 8 -0.007180482614785433
2.1609764099121094 -0.09586183726787567 -0.4993913471698761 74.0 1 -0.007178178988397121
2.2606537342071533 -0.10067889094352722 0.11859328299760818 4.0 9 -0.007175874896347523
2.167248010635376 -0.09651904553174973 -0.42168790102005005 78.0 2 -0.007173570804297924
3.6484053134918213 -0.16312088072299957 0.3195129334926605 48.0 10 -0.007171266712248325
2.206249952316284 -0.09902767837047577 -0.34978750348091125 77.0 3 -0.007168962620198727
3.6468846797943115 -0.1643284559249878 0.44823548197746277 97.0 11 -0.007166658993810415
1.9572848081588745 -0.08853746205568314 -0.2405700981616974 51.0 4 -0.007164354901760817
3.6644985675811768 -0.1664039045572281 0.5809977054595947 100.0 12 -0.007162050809711218
1.9584929943084717 -0.08893464505672455 -0.17152249813079834 60.0 5 -0.007159746717661619
3.6713998317718506 -0.1673593819141388 0.714388906955719 93.0 13 -0.0071574426256120205
2.30841326713562 -0.10563190281391144 -0.12110541760921478 47.0 6 -0.007155138999223709
3.679239511489868 -0.16900373995304108 0.8503150343894958 97.0 14 -0.00715283490717411
2.243274450302124 -0.10343587398529053 -0.03919810429215431 47.0 7 -0.007150530815124512
3.6820313930511475 -0.17041999101638794 0.9876535534858704 111.0 15 -0.007148226723074913
2.0589632987976074 -0.09781857579946518 -0.5523198843002319 49.0 0 -0.007127490825951099
2.2471041679382324 -0.10714996606111526 0.03926791250705719 55.0 8 -0.007125186733901501
2.1625752449035645 -0.10349763184785843 -0.49984127283096313 79.0 1 -0.007122882641851902
2.2642974853515625 -0.10836590826511383 0.11880263686180115 3.0 9 -0.007120578549802303
2.162975788116455 -0.10389517992734909 -0.42092466354370117 82.0 2 -0.007118274923413992
3.6378629207611084 -0.17537550628185272 0.31864139437675476 43.0 10 -0.007115970831364393
2.1940524578094482 -0.10615554451942444 -0.3479103147983551 55.0 3 -0.0071136667393147945
3.654219627380371 -0.1774425506591797 0.44921043515205383 100.0 11 -0.007111362647265196
1.9549976587295532 -0.09493128955364227 -0.24032637476921082 59.0 4 -0.0071090590208768845
3.6540613174438477 -0.17807413637638092 0.5794333219528198 98.0 12 -0.007106754928827286
1.9482206106185913 -0.0952838882803917 -0.17065094411373138 72.0 5 -0.007104450836777687
3.68255877494812 -0.18075144290924072 0.7166786193847656 92.0 13 -0.007102146744728088
2.3020458221435547 -0.11339432001113892 -0.12079139798879623 46.0 6 -0.00709984265267849
3.6864442825317383 -0.1815871000289917 0.8521146178245544 97.0 14 -0.007097538560628891
2.2449166774749756 -0.11097301542758942 -0.0392330102622509 67.0 7 -0.00709523493424058
3.6775870323181152 -0.18243767321109772 0.9866182804107666 113.0 15 -0.007092930842190981
2.052839756011963 -0.10435157269239426 -0.5507669448852539 49.0 0 -0.007072194945067167
2.238748073577881 -0.11419357359409332 0.039128296077251434 54.0 8 -0.007069890853017569
2.1661126613616943 -0.11086763441562653 -0.5007410645484924 79.0 1 -0.00706758676096797
2.2599363327026367 -0.11566979438066483 0.11859328299760818 3.0 9 -0.007065282668918371
2.1665408611297607 -0.11126867681741714 -0.42168790102005005 78.0 2 -0.00706297904253006
3.6472103595733643 -0.18795080482959747 0.3195129334926605 30.0 10 -0.007060674950480461
2.175933599472046 -0.11251264065504074 -0.3450944721698761 78.0 3 -0.007058370858430862
3.657575845718384 -0.1897651106119156 0.44969791173934937 100.0 11 -0.007056066766381264
1.9586368799209595 -0.10161948204040527 -0.24081383645534515 59.0 4 -0.007053762674331665
3.6652867794036865 -0.19080662727355957 0.581310510635376 100.0 12 -0.007051458582282066
1.9399352073669434 -0.10132819414138794 -0.16995368897914886 67.0 5 -0.007049154955893755
3.681938886642456 -0.19296225905418396 0.7166786193847656 93.0 13 -0.007046850863844156
2.3096354007720947 -0.12144707143306732 -0.12121009081602097 40.0 6 -0.007044546771794558
3.689714193344116 -0.1940154731273651 0.8530144691467285 97.0 14 -0.007042242679744959
2.23654842376709 -0.11799538880586624 -0.039093390107154846 89.0 7 -0.0070399390533566475
3.6692450046539307 -0.1942235231399536 0.9845476746559143 113.0 15 -0.007037634961307049
2.0466952323913574 -0.11084505170583725 -0.5492140650749207 48.0 0 -0.007016898598521948
2.2383573055267334 -0.1216168999671936 0.039128296077251434 51.0 8 -0.0070145949721336365
2.1501662731170654 -0.11720159649848938 -0.49714183807373047 79.0 1 -0.007012290880084038
2.2814559936523438 -0.12475733458995819 0.1197446808218956 3.0 9 -0.007009986788034439
2.1700804233551025 -0.11866696178913116 -0.42245110869407654 82.0 2 -0.00700768269598484
3.650545835494995 -0.2002626210451126 0.3198615610599518 64.0 10 -0.007005378603935242
2.16568660736084 -0.1191849410533905 -0.3435301184654236 95.0 3 -0.00700307497754693
3.648998260498047 -0.20145532488822937 0.4487229585647583 97.0 11 -0.007000770885497332
1.9681804180145264 -0.10900463908910751 -0.24203252792358398 56.0 4 -0.006998466793447733
3.662626266479492 -0.20349012315273285 0.5809977054595947 96.0 12 -0.006996162701398134
1.9614521265029907 -0.10931878536939621 -0.1718711256980896 56.0 5 -0.0069938586093485355
3.669517755508423 -0.20451542735099792 0.714388906955719 96.0 13 -0.006991554982960224
2.3052313327789307 -0.12888243794441223 -0.121000736951828 28.0 6 -0.0069892508909106255
3.7065255641937256 -0.20787589251995087 0.8570635914802551 100.0 14 -0.006986946798861027
2.218154191970825 -0.12479079514741898 -0.03877924755215645 81.0 7 -0.006984642706811428
3.676259994506836 -0.20746581256389618 0.9866182804107666 113.0 15 -0.006982338614761829
2.0462753772735596 -0.11834583431482315 -0.5492140650749207 48.0 0 -0.006961602717638016
2.24790096282959 -0.1300067901611328 0.03930281847715378 47.0 8 -0.006959298625588417
2.145853042602539 -0.12448065727949142 -0.49624204635620117 81.0 1 -0.006956994533538818
2.26904296875 -0.13202424347400665 0.1191166415810585 2.0 9 -0.006954690907150507
2.1755106449127197 -0.1269630491733551 -0.42359596490859985 89.0 2 -0.006952386815100908
3.641831398010254 -0.21317550539970398 0.31916433572769165 56.0 10 -0.00695008272305131
2.1593191623687744 -0.12677446007728577 -0.3425915241241455 83.0 3 -0.006947778631001711
3.64827299118042 -0.2141914814710617 0.4487229585647583 100.0 11 -0.0069454750046133995
1.9558981657028198 -0.1151740700006485 -0.2405700981616974 56.0 4 -0.006943170912563801
3.6756973266601562 -0.21708908677101135 0.5831877589225769 98.0 12 -0.006940866820514202
1.9809476137161255 -0.117343008518219 -0.1736142337322235 52.0 5 -0.006938562728464603
3.6726627349853516 -0.21819636225700378 0.7151521444320679 90.0 13 -0.006936258636415005
2.3167059421539307 -0.13804346323013306 -0.1216287761926651 32.0 6 -0.006933954544365406
3.692121982574463 -0.22064583003520966 0.8539142608642578 97.0 14 -0.006931650917977095
2.2276856899261475 -0.13312928378582 -0.03895376995205879 53.0 7 -0.006929346825927496
3.6909403800964355 -0.2212217003107071 0.9907593131065369 111.0 15 -0.006927042733877897
2.053562641143799 -0.125961035490036 -0.5512846112251282 51.0 0 -0.006906306836754084
2.25140118598938 -0.13849042356014252 0.039372626692056656 44.0 8 -0.006904002744704485
2.143437385559082 -0.13222476840019226 -0.49579212069511414 77.0 1 -0.006901698652654886
2.2885031700134277 -0.1411736160516739 0.12016335874795914 1.0 9 -0.006899395026266575
2.1672165393829346 -0.13407136499881744 -0.4220695197582245 89.0 2 -0.006897090934216976
3.6410651206970215 -0.22588656842708588 0.31916433572769165 56.0 10 -0.0068947868421673775
2.162806749343872 -0.13455642759799957 -0.34321725368499756 90.0 3 -0.006892482750117779
3.655388116836548 -0.22805605828762054 0.44969791173934937 97.0 11 -0.00689017865806818
1.9594252109527588 -0.12258991599082947 -0.24105757474899292 56.0 4 -0.006887874566018581
3.672945499420166 -0.22979497909545898 0.5828748941421509 96.0 12 -0.00688557093963027
1.9745604991912842 -0.12388281524181366 -0.17309129238128662 46.0 5 -0.006883266847580671
3.6855945587158203 -0.23187792301177979 0.7178234457969666 89.0 13 -0.006880962755531073
2.3182034492492676 -0.14625521004199982 -0.12173344939947128 35.0 6 -0.006878658663481474
3.6854944229125977 -0.2331632375717163 0.8525645732879639 94.0 14 -0.0068763550370931625
2.229203224182129 -0.14103080332279205 -0.03898867964744568 30.0 7 -0.006874050945043564
3.6940016746520996 -0.23434878885746002 0.9917946457862854 108.0 15 -0.006871746852993965
2.051182746887207 -0.13300353288650513 -0.5507669448852539 52.0 0 -0.0068510109558701515
2.252925157546997 -0.1460849791765213 0.03940753638744354 39.0 8 -0.006848706863820553
2.1507656574249268 -0.13983769714832306 -0.4975917637348175 77.0 1 -0.006846402771770954
2.303940773010254 -0.15020057559013367 0.121000736951828 1.0 9 -0.0068440986797213554
2.160857915878296 -0.1412513554096222 -0.42092466354370117 93.0 2 -0.006841794587671757
3.648206949234009 -0.2391161322593689 0.3198615610599518 79.0 10 -0.006839490961283445
2.168262243270874 -0.14211541414260864 -0.34415584802627563 93.0 3 -0.006837186869233847
3.658573627471924 -0.2404368668794632 0.4501853883266449 97.0 11 -0.006834882777184248
1.9669311046600342 -0.12960903346538544 -0.24203252792358398 54.0 4 -0.006832578685134649
3.666208028793335 -0.24222390353679657 0.5819362998008728 100.0 12 -0.006830274593085051
1.9860442876815796 -0.13156475126743317 -0.1741371750831604 43.0 5 -0.006827970966696739
3.6985182762145996 -0.24500694870948792 0.72049480676651 92.0 13 -0.0068256668746471405
2.333648443222046 -0.15500077605247498 -0.12257081270217896 30.0 6 -0.006823362782597542
3.694423198699951 -0.24603097140789032 0.8548140525817871 97.0 14 -0.006821058690547943
2.2646119594573975 -0.15120935440063477 -0.039616964757442474 29.0 7 -0.006818754598498344
3.681595802307129 -0.24646759033203125 0.9886887669563293 111.0 15 -0.006816450972110033
2.0449483394622803 -0.1394105851650238 -0.5492140650749207 55.0 0 -0.006795714609324932
2.252401351928711 -0.15394826233386993 0.03940753638744354 31.0 8 -0.006793410517275333
2.1502645015716553 -0.1473444104194641 -0.4975917637348175 70.0 1 -0.006791106890887022
2.339268445968628 -0.16070589423179626 0.1228848323225975 1.0 9 -0.006788802798837423
2.158418893814087 -0.14828167855739594 -0.42054301500320435 100.0 2 -0.006786498706787825
3.651369333267212 -0.25148648023605347 0.32021018862724304 100.0 10 -0.006784195080399513
2.1657822132110596 -0.14954711496829987 -0.343843013048172 90.0 3 -0.0067818909883499146
3.6656334400177 -0.25375455617904663 0.45116034150123596 100.0 11 -0.006779586896300316
1.9743880033493042 -0.13702385127544403 -0.24300749599933624 53.0 4 -0.006777282804250717
3.669281244277954 -0.2552940845489502 0.5825620293617249 98.0 12 -0.0067749787122011185
1.9935472011566162 -0.1387031376361847 -0.17483441531658173 48.0 5 -0.00677267462015152
3.687847852706909 -0.257232666015625 0.7185867428779602 89.0 13 -0.006770370528101921
2.349032402038574 -0.16426034271717072 -0.12340819090604782 24.0 6 -0.00676806690171361
3.699373960494995 -0.2593342363834381 0.8561637997627258 100.0 14 -0.006765762809664011
2.2820234298706055 -0.16037511825561523 -0.03993110731244087 40.0 7 -0.006763458717614412
3.676859140396118 -0.25904572010040283 0.9876535534858704 113.0 15 -0.006761154625564814
2.0560104846954346 -0.1473766565322876 -0.5523198843002319 55.0 0 -0.006740418728441
2.2558393478393555 -0.1620963215827942 0.03947734460234642 23.0 8 -0.006738114636391401
2.1400184631347656 -0.15414929389953613 -0.4953422546386719 61.0 1 -0.00673581101000309
2.338693141937256 -0.1688704937696457 0.1228848323225975 1.0 9 -0.006733506917953491
2.150055408477783 -0.1552494913339615 -0.419016569852829 81.0 2 -0.0067312028259038925
3.6544435024261475 -0.26451829075813293 0.3205588161945343 100.0 10 -0.006728898733854294
2.1573660373687744 -0.1565343737602234 -0.3425915241241455 85.0 3 -0.006726594641804695
3.656805992126465 -0.26597243547439575 0.4501853883266449 100.0 11 -0.0067242905497550964
1.985776662826538 -0.1447809934616089 -0.24446991086006165 53.0 4 -0.006721986923366785
3.676248073577881 -0.26867660880088806 0.583813488483429 98.0 12 -0.006719682831317186
2.018882989883423 -0.14754898846149445 -0.17710046470165253 51.0 5 -0.006717378739267588
3.684969425201416 -0.2699606418609619 0.7182050943374634 93.0 13 -0.006715074647217989
2.348444700241089 -0.17245899140834808 -0.12340819090604782 24.0 6 -0.006712771020829678
3.712050437927246 -0.2732473313808441 0.8593130707740784 100.0 14 -0.006710466928780079
2.2874324321746826 -0.1687813252210617 -0.04003582149744034 47.0 7 -0.00670816283673048
3.6894185543060303 -0.27287623286247253 0.9912769794464111 113.0 15 -0.0067058587446808815
2.0631892681121826 -0.1551319807767868 -0.5543904304504395 55.0 0 -0.006685122847557068
2.2732062339782715 -0.17132224142551422 0.03979148715734482 11.0 8 -0.006682818755507469
2.1355810165405273 -0.16132482886314392 -0.4944424629211426 64.0 1 -0.0066805146634578705
2.3380894660949707 -0.17703303694725037 0.1228848323225975 1.0 9 -0.006678210571408272
2.1612465381622314 -0.1636430323123932 -0.421306312084198 86.0 2 -0.00667590694501996
3.657471179962158 -0.2775745987892151 0.32090744376182556 100.0 10 -0.006673602852970362
2.154836893081665 -0.16391418874263763 -0.3422786593437195 79.0 3 -0.006671298760920763
3.655855178833008 -0.278735488653183 0.4501853883266449 100.0 11 -0.006668994668871164
1.9931766986846924 -0.15231682360172272 -0.2454448938369751 51.0 4 -0.006666691042482853
3.685136079788208 -0.28226184844970703 0.5853778123855591 93.0 12 -0.006664386950433254
2.0461678504943848 -0.15672558546066284 -0.17954082787036896 59.0 5 -0.0066620828583836555
3.6879196166992188 -0.2831224799156189 0.7189683318138123 92.0 13 -0.006659778766334057
2.3557939529418945 -0.18126848340034485 -0.12382689118385315 19.0 6 -0.006657474674284458
3.6974730491638184 -0.28515422344207764 0.8561637997627258 100.0 14 -0.0066551705822348595
2.2808480262756348 -0.17630259692668915 -0.03993110731244087 21.0 7 -0.006652866955846548
3.696148157119751 -0.28634992241859436 0.9933475852012634 108.0 15 -0.006650562863796949
2.064560890197754 -0.16248448193073273 -0.554908037185669 54.0 0 -0.006629826966673136
2.284555196762085 -0.18019959330558777 0.04000091552734375 9.0 8 -0.006627522874623537
2.1291768550872803 -0.16831769049167633 -0.49309274554252625 70.0 1 -0.006625218782573938
2.3374571800231934 -0.18519338965415955 0.1228848323225975 1.0 9 -0.00662291469052434
2.1410908699035645 -0.1696355640888214 -0.4174901247024536 64.0 2 -0.006620611064136028
3.6644246578216553 -0.29097068309783936 0.3216046690940857 100.0 10 -0.00661830697208643
2.1542515754699707 -0.17143498361110687 -0.3422786593437195 75.0 3 -0.006616002880036831
3.6627752780914307 -0.2921263873577118 0.45116034150123596 100.0 11 -0.006613698787987232
2.006484270095825 -0.1603805124759674 -0.24715104699134827 75.0 4 -0.0066113946959376335
3.680189847946167 -0.29480814933776855 0.584752082824707 96.0 12 -0.006609090603888035
2.0515663623809814 -0.16434437036514282 -0.18006375432014465 54.0 5 -0.006606786511838436
3.6908226013183594 -0.2963081896305084 0.7197315692901611 93.0 13 -0.006604482885450125
2.363110303878784 -0.19013133645057678 -0.12424556910991669 35.0 6 -0.006602178793400526
3.6945128440856934 -0.2979024648666382 0.8557138442993164 97.0 14 -0.006599874701350927
3.706679344177246 -0.30018579959869385 0.9964533448219299 106.0 15 -0.006595266982913017
2.063981294631958 -0.16969016194343567 -0.554908037185669 57.0 0 -0.006574530620127916
2.331743001937866 -0.19211389124393463 0.040838632732629776 2.0 8 -0.006572226993739605
2.132460594177246 -0.17606957256793976 -0.49399253726005554 70.0 1 -0.006569922901690006
2.360682249069214 -0.19532787799835205 0.1241409033536911 1.0 9 -0.0065676188096404076
2.138529062271118 -0.17694644629955292 -0.4171084761619568 66.0 2 -0.006565314717590809
3.6614012718200684 -0.30359554290771484 0.32143038511276245 96.0 10 -0.00656301062554121
2.169388771057129 -0.18026228249073029 -0.3447815775871277 91.0 3 -0.0065607065334916115
3.6696460247039795 -0.30556896328926086 0.4521353244781494 100.0 11 -0.0065584029071033
2.0256943702697754 -0.1690342277288437 -0.24958842992782593 85.0 4 -0.006556098815053701
3.675201654434204 -0.3073234260082245 0.584126353263855 96.0 12 -0.006553794723004103
2.047009229660034 -0.1711726039648056 -0.1797151267528534 49.0 5 -0.006551490630954504
3.7093303203582764 -0.310829222202301 0.7235477566719055 90.0 13 -0.006549187004566193
2.3684027194976807 -0.19888031482696533 -0.12455958873033524 22.0 6 -0.006546882912516594
3.7070436477661133 -0.3119406998157501 0.8588631749153137 100.0 14 -0.006544578820466995
3.6225900650024414 -0.30547085404396057 -0.0634569525718689 68.0 7 -0.0065422747284173965
3.697908878326416 -0.31247204542160034 0.9943828582763672 111.0 15 -0.006539970636367798
2.0576016902923584 -0.17639869451522827 -0.5533550977706909 58.0 0 -0.006519234739243984
2.321096420288086 -0.19939623773097992 0.040664106607437134 2.0 8 -0.0065169306471943855
2.1318328380584717 -0.18351218104362488 -0.49399253726005554 70.0 1 -0.006514626555144787
3.657381296157837 -0.31547731161117554 0.19238698482513428 74.0 9 -0.0065123229287564754
2.126162528991699 -0.18339790403842926 -0.41481876373291016 78.0 2 -0.006510018836706877
3.6563494205474854 -0.31603124737739563 0.3210817575454712 99.0 10 -0.006507714744657278
2.143162250518799 -0.18561798334121704 -0.34071433544158936 70.0 3 -0.006505410652607679
3.6725122928619385 -0.3187198340892792 0.45262277126312256 100.0 11 -0.006503107026219368
2.0290472507476807 -0.17644813656806946 -0.25007590651512146 76.0 4 -0.006500802934169769
3.67804217338562 -0.32049334049224854 0.584752082824707 96.0 12 -0.006498498842120171
2.060293436050415 -0.1795276701450348 -0.1809353232383728 51.0 5 -0.006496194750070572
3.6984431743621826 -0.32292136549949646 0.7216396331787109 89.0 13 -0.006493890658020973
2.3696839809417725 -0.2073204666376114 -0.12466426193714142 19.0 6 -0.0064915865659713745
3.7117559909820557 -0.3253893256187439 0.8602128624916077 97.0 14 -0.006489282939583063
3.6513819694519043 -0.32073888182640076 -0.06398051977157593 100.0 7 -0.006486978847533464
3.6929469108581543 -0.32503947615623474 0.9933475852012634 108.0 15 -0.006484674755483866
2.0588979721069336 -0.18375174701213837 -0.5538727641105652 57.0 0 -0.005011082161217928
3.632948160171509 -0.32487109303474426 0.06366638094186783 60.0 8 -0.005008778069168329
2.121474504470825 -0.19008301198482513 -0.4917430281639099 66.0 1 -0.0050064739771187305
3.680128812789917 -0.33038511872291565 0.19364306330680847 96.0 9 -0.005004170350730419
2.1352860927581787 -0.19169621169567108 -0.41672685742378235 86.0 2 -0.0050018662586808205
3.663161277770996 -0.3295063078403473 0.3217789828777313 99.0 10 -0.004999562166631222
2.160207748413086 -0.19469371438026428 -0.3435301184654236 54.0 3 -0.004997258074581623
3.6674232482910156 -0.33118027448654175 0.4521353244781494 100.0 11 -0.004994953982532024
2.038303852081299 -0.18442414700984955 -0.2512946128845215 69.0 4 -0.004992650356143713
3.684770345687866 -0.3340435028076172 0.5860036015510559 96.0 12 -0.004990346264094114
2.077479600906372 -0.188699871301651 -0.18250411748886108 80.0 5 -0.004988042172044516
3.695338249206543 -0.33565184473991394 0.7212580442428589 90.0 13 -0.004985738079994917
2.2913732528686523 -0.20853127539157867 -0.12058205902576447 8.0 6 -0.004983433987945318
3.712538242340088 -0.3385207951068878 0.8606628179550171 94.0 14 -0.004981130361557007
3.6343090534210205 -0.3320271968841553 -0.06370127946138382 100.0 7 -0.004978826269507408
3.6994845867156982 -0.3386326730251312 0.9954180717468262 108.0 15 -0.0049765221774578094
2.067828416824341 -0.19219064712524414 -0.556460976600647 55.0 0 -0.004955786280333996
3.6238274574279785 -0.3368102014064789 0.06352675706148148 52.0 8 -0.004953482188284397
2.107215642929077 -0.19622239470481873 -0.488593727350235 70.0 1 -0.004951178096234798
3.659066915512085 -0.34137383103370667 0.19259633123874664 88.0 9 -0.0049488740041852
2.136523962020874 -0.19970384240150452 -0.4171084761619568 68.0 2 -0.004946570377796888
3.671847343444824 -0.34385910630226135 0.3226505517959595 100.0 10 -0.00494426628574729
2.204714775085449 -0.20685406029224396 -0.35072609782218933 82.0 3 -0.004941962193697691
3.654386520385742 -0.34286734461784363 0.45067286491394043 100.0 11 -0.004939658101648092
2.04555344581604 -0.19228114187717438 -0.25226956605911255 56.0 4 -0.004937354009598494
3.691448450088501 -0.3476445972919464 0.58725506067276 93.0 12 -0.004935050383210182
2.074824571609497 -0.19576330482959747 -0.18232980370521545 65.0 5 -0.0049327462911605835
3.701901435852051 -0.3499327003955841 0.7227845191955566 92.0 13 -0.004930442199110985
2.260767936706543 -0.2141035944223404 -0.11901197582483292 30.0 6 -0.004928138107061386
3.7093324661254883 -0.3519415855407715 0.8602128624916077 97.0 14 -0.004925834015011787
