# .PCD v0.7 - Point Cloud Data file format
VERSION 0.7
FIELDS x y z intensity ring time
SIZE 4 4 4 4 4 4
TYPE F F F F F F
COUNT 1 1 1 1 1 1
WIDTH 542
HEIGHT 1
VIEWPOINT 0 0 0 1 0 0 0
POINTS 542
DATA ascii
-2.0046753883361816 0.8758206367492676 -0.19139400124549866 8.0 5 -0.012622392736375332
-2.03832745552063 0.890522837638855 0.43237319588661194 1.0 13 -0.012620088644325733
-1.9691599607467651 0.8607142567634583 -0.11262699216604233 8.0 6 -0.012617784552276134
-3.0728118419647217 1.343756079673767 0.7742815613746643 78.0 14 -0.012615480460226536
-1.965765118598938 0.8600471615791321 -0.03745286539196968 11.0 7 -0.012613177299499512
-3.056335210800171 1.3378217220306396 0.8939610123634338 76.0 15 -0.012610873207449913
-2.830061912536621 1.2428992986679077 -0.8282209634780884 1.0 0 -0.012590136379003525
-1.8747042417526245 0.8237180113792419 0.03574252873659134 1.0 8 -0.0125878332182765
-2.2799243927001953 1.0022406578063965 -0.5749749541282654 1.0 1 -0.012585529126226902
-1.981980323791504 0.8712663054466248 0.1134643703699112 52.0 9 -0.012583225034177303
-1.9750429391860962 0.8686280846595764 -0.4193982183933258 1.0 2 -0.012580920942127705
-3.1075117588043213 1.3673375844955444 0.29702678322792053 8.0 10 -0.012578616850078106
-2.0212841033935547 0.8898070454597473 -0.34978750348091125 8.0 3 -0.012576312758028507
-2.047419786453247 0.9017390608787537 0.2746935188770294 5.0 11 -0.012574008665978909
-2.0072975158691406 0.8844870924949646 -0.26933127641677856 1.0 4 -0.01257170457392931
-1.9956659078598022 0.8793617486953735 0.3454073667526245 1.0 12 -0.012569400481879711
-1.9926443099975586 0.8784451484680176 -0.1905224472284317 9.0 5 -0.012567096389830112
-2.024428606033325 0.8928795456886292 0.4300835132598877 1.0 13 -0.012564793229103088
-1.9697980880737305 0.869195282459259 -0.1128363311290741 11.0 6 -0.01256248913705349
-3.069885730743408 1.3552604913711548 0.7747315168380737 81.0 14 -0.012560185045003891
-1.9683903455734253 0.868984043598175 -0.03755757957696915 10.0 7 -0.012557880952954292
-3.0624847412109375 1.352632761001587 0.8970668315887451 74.0 15 -0.012555576860904694
-1.8646501302719116 0.8266879916191101 0.035602912306785583 1.0 8 -0.012532536871731281
-1.967973232269287 0.8733186721801758 0.1128363311290741 55.0 9 -0.012527928687632084
-1.9594383239746094 0.8699404001235962 -0.41672685742378235 2.0 2 -0.012525624595582485
-2.095792531967163 0.9309161305427551 0.2006325125694275 4.0 10 -0.012523320503532887
-2.021932601928711 0.8981087803840637 -0.3504132330417633 8.0 3 -0.012521016411483288
-2.026277780532837 0.90046226978302 0.27225613594055176 2.0 11 -0.012518713250756264
-2.000725507736206 0.889525830745697 -0.26884379982948303 1.0 4 -0.012516409158706665
-1.9763401746749878 0.8790965676307678 0.3425915241241455 1.0 12 -0.012514105066657066
-1.9932066202163696 0.8870156407356262 -0.19087107479572296 9.0 5 -0.012511800974607468
-2.0788538455963135 0.925130307674408 0.44229528307914734 1.0 13 -0.012509496882557869
-1.9596062898635864 0.8724731802940369 -0.11241763830184937 12.0 6 -0.01250719279050827
-3.0653743743896484 1.3654332160949707 0.7747315168380737 81.0 14 -0.012504888698458672
-1.9342939853668213 0.8620119094848633 -0.03696419671177864 8.0 7 -0.012502584606409073
-3.0612733364105225 1.3648879528045654 0.8981021642684937 76.0 15 -0.012500280514359474
-1.8508014678955078 0.8282911777496338 0.03539348021149635 2.0 8 -0.012477240525186062
-1.9685585498809814 0.8818153738975525 0.11304567754268646 55.0 9 -0.012472633272409439
-1.9565428495407104 0.8764329552650452 -0.41672685742378235 2.0 2 -0.01247032918035984
-2.081784963607788 0.9329720139503479 0.1995866596698761 24.0 10 -0.012468025088310242
-2.031402826309204 0.9108185172080994 -0.35260334610939026 9.0 3 -0.012465720996260643
-2.021311044692993 0.9067167639732361 0.2720124125480652 4.0 11 -0.012463416904211044
-2.0012307167053223 0.8981293439865112 -0.26933127641677856 1.0 4 -0.012461112812161446
-1.9750617742538452 0.8867992162704468 0.34290438890457153 2.0 12 -0.012458808720111847
-1.981166124343872 0.8895400762557983 -0.1899995058774948 8.0 5 -0.012456504628062248
-2.0756115913391113 0.9323817491531372 0.44229528307914734 1.0 13 -0.01245420053601265
-1.9620141983032227 0.8817638754844666 -0.11273165792226791 12.0 6 -0.01245189644396305
-3.0712532997131348 1.3809199333190918 0.7774308919906616 81.0 14 -0.012449592351913452
-1.9403914213180542 0.8728609681129456 -0.037138719111680984 9.0 7 -0.012447289191186428
-3.0547289848327637 1.3747719526290894 0.8975844979286194 72.0 15 -0.01244498509913683
-2.2114338874816895 0.9985008239746094 -0.6501534581184387 1.0 0 -0.012424249202013016
-1.8807017803192139 0.8495646715164185 0.03602176904678345 1.0 8 -0.012421945109963417
-2.2162089347839355 1.0015875101089478 -0.5614778399467468 6.0 1 -0.012419641017913818
-1.969107985496521 0.8903278112411499 0.11325501650571823 55.0 9 -0.01241733692586422
-1.9820936918258667 0.8961992859840393 -0.42283275723457336 2.0 2 -0.012415032833814621
-2.0712544918060303 0.9369485378265381 0.19888940453529358 40.0 10 -0.012412728741765022
-2.017413377761841 0.913016676902771 -0.35072609782218933 9.0 3 -0.012410424649715424
-2.0072832107543945 0.9088547229766846 0.2705499529838562 6.0 11 -0.012408120557665825
-2.0161657333374023 0.9133005738258362 -0.2717686593532562 1.0 4 -0.012405816465616226
-1.9755524396896362 0.8953188061714172 0.3435301184654236 3.0 12 -0.012403512373566628
-1.9689754247665405 0.8923380970954895 -0.18912795186042786 9.0 5 -0.012401209212839603
-2.0723445415496826 0.9396209120750427 0.44229528307914734 1.0 13 -0.012398905120790005
-1.9607433080673218 0.889432430267334 -0.1128363311290741 9.0 6 -0.012396601028740406
-3.078836441040039 1.39726984500885 0.7805802226066589 78.0 14 -0.012394296936690807
-1.9427953958511353 0.8821086287498474 -0.03724343329668045 9.0 7 -0.012391992844641209
-3.053429126739502 1.3870246410369873 0.8986197710037231 72.0 15 -0.01238968875259161
-2.197387456893921 1.0014073848724365 -0.6470476388931274 2.0 0 -0.012368952855467796
-1.848612904548645 0.8428506255149841 0.03546328842639923 2.0 8 -0.012366648763418198
-2.189650297164917 0.9988037347793579 -0.5556291341781616 11.0 1 -0.012364344671368599
-1.969622254371643 0.8988543748855591 0.1134643703699112 55.0 9 -0.012362040579319
-1.973595142364502 0.9006674885749817 -0.42168790102005005 3.0 2 -0.012359736487269402
-2.066159248352051 0.9433450102806091 0.19871510565280914 45.0 10 -0.012357432395219803
-2.014213800430298 0.9200537204742432 -0.35072609782218933 11.0 3 -0.012355129234492779
-1.9968767166137695 0.9125556945800781 0.26957499980926514 7.0 11 -0.01235282514244318
-1.9985225200653076 0.9137294888496399 -0.2698187232017517 1.0 4 -0.012350521050393581
-1.9831936359405518 0.9071395993232727 0.3454073667526245 3.0 12 -0.012348216958343983
-1.9694721698760986 0.9008632302284241 -0.18947657942771912 9.0 5 -0.012345912866294384
-1.9485466480255127 0.8921142220497131 -0.11231297254562378 10.0 6 -0.012341304682195187
-3.0792553424835205 1.4104429483413696 0.7819299101829529 75.0 14 -0.012339000590145588
-1.9342505931854248 0.8863857388496399 -0.037138719111680984 10.0 7 -0.01233669649809599
-3.060861587524414 1.4033105373382568 0.9022431969642639 76.0 15 -0.01233439240604639
-1.8674585819244385 0.8593294620513916 0.035882145166397095 1.0 8 -0.012311352416872978
-3.147348165512085 1.4489498138427734 -0.7999260425567627 2.0 1 -0.01230904832482338
-1.9628443717956543 0.9040525555610657 0.11325501650571823 53.0 9 -0.012306745164096355
-1.9847049713134766 0.9141212105751038 -0.42474085092544556 3.0 2 -0.012304441072046757
-2.0538060665130615 0.9463825225830078 0.197843536734581 42.0 10 -0.012302136979997158
-2.0109899044036865 0.9270790815353394 -0.35072609782218933 11.0 3 -0.01229983288794756
-1.991876244544983 0.9186890721321106 0.26933127641677856 4.0 11 -0.01229752879589796
-1.9917160272598267 0.9190362095832825 -0.26933127641677856 1.0 4 -0.012295224703848362
-1.9728407859802246 0.9107449054718018 0.34415584802627563 2.0 12 -0.012292920611798763
-1.9771690368652344 0.9127430319786072 -0.1905224472284317 10.0 5 -0.012290616519749165
-2.0657341480255127 0.9540656805038452 0.44229528307914734 1.0 13 -0.012288312427699566
-1.9363558292388916 0.8947213292121887 -0.11178961396217346 11.0 6 -0.012286009266972542
-3.0813887119293213 1.4244539737701416 0.7837295532226562 78.0 14 -0.012283705174922943
-1.940219521522522 0.8973292112350464 -0.03731324523687363 15.0 7 -0.012281401082873344
-3.0664639472961426 1.4188538789749146 0.90534907579422 74.0 15 -0.012279096990823746
-1.8481245040893555 0.8582626581192017 0.035568006336688995 2.0 8 -0.012256057001650333
-3.133434534072876 1.4558218717575073 -0.7976765036582947 16.0 1 -0.012253752909600735
-1.961487889289856 0.9117406010627747 0.11335969716310501 58.0 9 -0.012251448817551136
-1.9779413938522339 0.9193885922431946 -0.4239776134490967 3.0 2 -0.012249144725501537
-2.0468766689300537 0.951866090297699 0.19749490916728973 45.0 10 -0.012246840633451939
-2.0184876918792725 0.9390928149223328 -0.35260334610939026 11.0 3 -0.01224453654140234
-1.9976557493209839 0.9298244118690491 0.2705499529838562 6.0 11 -0.012242232449352741
-1.9920947551727295 0.9276595711708069 -0.2698187232017517 1.0 4 -0.012239929288625717
-1.9732307195663452 0.9192942380905151 0.3447815775871277 2.0 12 -0.012237625196576118
-1.9701989889144897 0.9182997345924377 -0.19017383456230164 9.0 5 -0.01223532110452652
-2.0339200496673584 0.9479998350143433 0.4361893832683563 1.0 13 -0.012233017012476921
-1.9404610395431519 0.9048518538475037 -0.1122082993388176 11.0 6 -0.012230712920427322
-3.074631452560425 1.4343775510787964 0.7832795977592468 74.0 14 -0.012228408828377724
-1.9262034893035889 0.899021565914154 -0.037103816866874695 15.0 7 -0.012226104736328125
-3.071995258331299 1.4344534873962402 0.9084548950195312 76.0 15 -0.012223800644278526
-2.8285882472991943 1.3256100416183472 -0.8370208144187927 6.0 0 -0.012203064747154713
-1.839685082435608 0.8621633052825928 0.03546328842639923 1.0 8 -0.012200760655105114
-3.115983009338379 1.4609591960906982 -0.7945271730422974 27.0 1 -0.012198456563055515
-1.9601017236709595 0.9194302558898926 0.1134643703699112 55.0 9 -0.012196152471005917
-1.9763355255126953 0.9274664521217346 -0.4243592619895935 4.0 2 -0.012193849310278893
-2.030749559402466 0.95343416929245 0.19627472758293152 48.0 10 -0.012191545218229294
-2.0311238765716553 0.9540426135063171 -0.3554191291332245 10.0 3 -0.012189241126179695
-2.001585006713867 0.9401678442955017 0.27152493596076965 5.0 11 -0.012186937034130096
-1.9960310459136963 0.937984824180603 -0.27079370617866516 1.0 4 -0.012184632942080498
-1.939619779586792 0.9118885397911072 0.3394628167152405 1.0 12 -0.012182328850030899
-1.9741929769515991 0.9285639524459839 -0.19087107479572296 9.0 5 -0.0121800247579813
-2.033984661102295 0.9571205973625183 0.4369526505470276 1.0 13 -0.012177720665931702
-1.9461666345596313 0.9162108898162842 -0.11273165792226791 13.0 6 -0.012175416573882103
-3.0746424198150635 1.4481282234191895 0.7846293449401855 72.0 14 -0.012173112481832504
-1.9212441444396973 0.9048882126808167 -0.03706891089677811 11.0 7 -0.012170808389782906
-3.0652215480804443 1.4443445205688477 0.907937228679657 74.0 15 -0.012168504297733307
-2.827436685562134 1.3371267318725586 -0.8380560874938965 7.0 0 -0.012147769331932068
-1.8401281833648682 0.8706103563308716 0.03553309664130211 2.0 8 -0.01214546523988247
-3.094754457473755 1.4648672342300415 -0.7904780507087708 31.0 1 -0.01214316114783287
-1.9622955322265625 0.9288305044174194 0.11377837508916855 58.0 9 -0.012140857055783272
-1.9730862379074097 0.9343591332435608 -0.4243592619895935 4.0 2 -0.012138552963733673
-2.027409076690674 0.9605170488357544 0.19627472758293152 48.0 10 -0.012136248871684074
-2.011715888977051 0.9535126686096191 -0.35260334610939026 10.0 3 -0.012133944779634476
-1.998125672340393 0.9474976658821106 0.27152493596076965 6.0 11 -0.012131640687584877
-1.9925799369812012 0.9452938437461853 -0.27079370617866516 1.0 4 -0.012129336595535278
-1.9560569524765015 0.9279670715332031 0.34290438890457153 1.0 12 -0.01212703250348568
-1.9529402256011963 0.9269066452980042 -0.18912795186042786 9.0 5 -0.012124728411436081
-1.995161771774292 0.9473719596862793 0.42932024598121643 1.0 13 -0.012122424319386482
-1.942956566810608 0.9229987859725952 -0.11273165792226791 12.0 6 -0.012120121158659458
-3.0906896591186523 1.468889832496643 0.7900281548500061 71.0 14 -0.01211781706660986
-1.9108495712280273 0.9081556797027588 -0.03692929446697235 9.0 7 -0.01211551297456026
-3.0601613521575928 1.4550347328186035 0.907937228679657 76.0 15 -0.012113208882510662
-2.8210084438323975 1.3461562395095825 -0.8375384211540222 6.0 0 -0.012092472985386848
-1.8336213827133179 0.8749852776527405 0.03546328842639923 1.0 8 -0.01209016889333725
-3.0617425441741943 1.4616873264312744 -0.7832795977592468 31.0 1 -0.012087864801287651
-1.9662506580352783 0.9391173124313354 0.11419706791639328 62.0 9 -0.012085560709238052
-1.9715839624404907 0.9420871734619141 -0.42474085092544556 3.0 2 -0.012083256617188454
-2.0240440368652344 0.9675882458686829 0.19627472758293152 51.0 10 -0.012080952525138855
-2.0103251934051514 0.9610300660133362 -0.3529161810874939 10.0 3 -0.012078648433089256
-1.9824368953704834 0.9481232166290283 0.2698187232017517 4.0 11 -0.012076344341039658
-1.9894342422485352 0.9518964290618896 -0.27079370617866516 1.0 4 -0.012074041180312634
-1.9474602937698364 0.9322311282157898 0.34196579456329346 1.0 12 -0.012071737088263035
-1.956880807876587 0.9371599555015564 -0.18982520699501038 9.0 5 -0.012069432996213436
-1.9955506324768066 0.9556791186332703 0.4300835132598877 1.0 13 -0.012067128904163837
-1.9326804876327515 0.9259849190711975 -0.11231297254562378 10.0 6 -0.012064824812114239
-3.0963454246520996 1.484184980392456 0.7927275896072388 72.0 14 -0.01206252072006464
-1.9184865951538086 0.9200078845024109 -0.037138719111680984 9.0 7 -0.012060216628015041
-3.06551456451416 1.4707218408584595 0.911043107509613 78.0 15 -0.012057912535965443
-2.8339364528656006 1.3638814687728882 -0.8427148461341858 6.0 0 -0.012037176638841629
-1.8377629518508911 0.8848506212234497 0.035602912306785583 1.0 8 -0.01203487254679203
-3.035553455352783 1.4622182846069336 -0.7778807878494263 31.0 1 -0.012032568454742432
-1.9631257057189941 0.9456325769424438 0.11419706791639328 68.0 9 -0.012030264362692833
-1.9967466592788696 0.9622571468353271 -0.4308467507362366 3.0 2 -0.012027961201965809
-2.0280027389526367 0.9777559638023376 0.19697196781635284 51.0 10 -0.01202565710991621
-2.012295961380005 0.9706162214279175 -0.35385480523109436 9.0 3 -0.012023353017866611
-1.9701762199401855 0.9507238864898682 0.2686000466346741 5.0 11 -0.012021048925817013
-1.9789484739303589 0.9553828835487366 -0.2698187232017517 1.0 4 -0.012018744833767414
-1.9585895538330078 0.9455541372299194 0.34446874260902405 1.0 12 -0.012016440741717815
-1.9537622928619385 0.943644106388092 -0.18982520699501038 10.0 5 -0.012014136649668217
-2.0134148597717285 0.9728889465332031 0.43466290831565857 1.0 13 -0.012011832557618618
-1.9258400201797485 0.9309871196746826 -0.11210363358259201 10.0 6 -0.01200952846556902
-3.0841288566589355 1.4915897846221924 0.7909280061721802 71.0 14 -0.012007225304841995
-1.9208258390426636 0.9289767742156982 -0.03724343329668045 9.0 7 -0.012004921212792397
-3.071054220199585 1.4859278202056885 0.9141488671302795 78.0 15 -0.012002617120742798
-2.8308961391448975 1.374609351158142 -0.8432324528694153 7.0 0 -0.01198188029229641
-1.8420138359069824 0.8944339156150818 0.03574252873659134 1.0 8 -0.011979577131569386
-3.01666522026062 1.465463638305664 -0.7742815613746643 30.0 1 -0.011977273039519787
-1.956220030784607 0.9507334232330322 0.11398772895336151 68.0 9 -0.011974968947470188
-1.9898443222045898 0.9675043225288391 -0.4300835132598877 4.0 2 -0.01197266485542059
-2.0245773792266846 0.9848291277885437 0.19697196781635284 51.0 10 -0.01197036076337099
-2.0126190185546875 0.9790121912956238 -0.3544805347919464 9.0 3 -0.011968056671321392
-1.9777225255966187 0.9624640345573425 0.27006247639656067 6.0 11 -0.011965752579271793
-1.9829087257385254 0.9654160141944885 -0.27079370617866516 1.0 4 -0.011963448487222195
-1.9392937421798706 0.944599986076355 0.34165289998054504 2.0 12 -0.01196114532649517
-1.9612027406692505 0.9556949734687805 -0.19087107479572296 11.0 5 -0.011958841234445572
-2.024296522140503 0.9864405393600464 0.4377158582210541 1.0 13 -0.011956537142395973
-1.9281280040740967 0.9399940967559814 -0.11241763830184937 10.0 6 -0.011954233050346375
-3.0861716270446777 1.5052261352539062 0.7927275896072388 71.0 14 -0.011951928958296776
-1.9067885875701904 0.9304146766662598 -0.03703400865197182 9.0 7 -0.011949624866247177
-3.0727930068969727 1.5000288486480713 0.9162194728851318 80.0 15 -0.011947320774197578
-2.815671682357788 1.379382610321045 -0.840126633644104 7.0 0 -0.01191568374633789
-1.8459056615829468 0.904699444770813 0.035882145166397095 1.0 8 -0.011913379654288292
-3.004274606704712 1.4730795621871948 -0.7724819779396057 30.0 1 -0.011911075562238693
-1.9600625038146973 0.9610733389854431 0.11440641433000565 68.0 9 -0.011908771470189095
-1.9723544120788574 0.9675267338752747 -0.4270305633544922 4.0 2 -0.011906467378139496
-2.0139729976654053 0.9883792400360107 0.19627472758293152 51.0 10 -0.011904163286089897
-2.012563705444336 0.9881234765052795 -0.35510629415512085 9.0 3 -0.011901860125362873
-1.9848721027374268 0.9749569296836853 0.27152493596076965 5.0 11 -0.011899556033313274
-1.9971730709075928 0.981432318687439 -0.2732310891151428 1.0 4 -0.011897251941263676
-1.9448491334915161 0.9557197690010071 0.34321725368499756 2.0 12 -0.011894947849214077
-1.9453388452529907 0.9563818573951721 -0.18965089321136475 12.0 5 -0.011892643757164478
-1.9995269775390625 0.9834556579589844 0.4331364631652832 1.0 13 -0.01189033966511488
-1.9336298704147339 0.9514636993408203 -0.11294099688529968 10.0 6 -0.011888035573065281
-3.094620943069458 1.523412823677063 0.7963268160820007 71.0 14 -0.011885731481015682
-1.9017349481582642 0.9361817240715027 -0.03699910268187523 9.0 7 -0.011883427388966084
-3.067538261413574 1.5107457637786865 0.9162194728851318 82.0 15 -0.011881123296916485
-2.80737566947937 1.3874908685684204 -0.8390913605690002 9.0 0 -0.011860387399792671
-1.824968695640564 0.9019553065299988 0.03553309664130211 1.0 8 -0.011858083307743073
-2.9801573753356934 1.473533034324646 -0.7675330638885498 30.0 1 -0.011855780147016048
-1.9674372673034668 0.9732223153114319 0.11503444612026215 68.0 9 -0.01185347605496645
-1.9918391704559326 0.9857262969017029 -0.4319916069507599 5.0 2 -0.011851171962916851
-2.0087249279022217 0.9945193529129028 0.1961004137992859 47.0 10 -0.011848867870867252
-2.0128161907196045 0.9965448975563049 -0.3557320237159729 9.0 3 -0.011846563778817654
-1.9851858615875244 0.9832958579063416 0.2720124125480652 5.0 11 -0.011844259686768055
-2.054382801055908 1.0180175304412842 -0.28151822090148926 1.0 4 -0.011841955594718456
-1.9609694480895996 0.9721542000770569 0.3466588258743286 3.0 12 -0.011839651502668858
-1.9348492622375488 0.9596251845359802 -0.18895365297794342 13.0 5 -0.011837347410619259
-1.9927371740341187 0.9883358478546143 0.43237319588661194 1.0 13 -0.01183504331856966
-1.9340425729751587 0.9596462249755859 -0.11315035074949265 10.0 6 -0.011832740157842636
-3.103516101837158 1.5405986309051514 0.7999260425567627 67.0 14 -0.011830436065793037
-1.9074105024337769 0.9472610354423523 -0.03717362508177757 9.0 7 -0.011828131973743439
-3.0691661834716797 1.5248826742172241 0.9182900190353394 80.0 15 -0.01182582788169384
-2.8131332397460938 1.4019631147384644 -0.8421972393989563 7.0 0 -0.011805091984570026
-1.8218088150024414 0.9083206057548523 0.03553309664130211 1.0 8 -0.011802787892520428
-2.950582265853882 1.4717484712600708 -0.7612344026565552 32.0 1 -0.011800483800470829
-1.9640281200408936 0.9800840020179749 0.11503444612026215 68.0 9 -0.01179817970842123
-1.990142583847046 0.9935500621795654 -0.43237319588661194 6.0 2 -0.011795875616371632
-2.0125465393066406 1.0047348737716675 0.1967976689338684 45.0 10 -0.011793571524322033
-2.0022568702697754 1.0000338554382324 -0.3544805347919464 9.0 3 -0.011791267432272434
-1.9835172891616821 0.9911069273948669 0.27225613594055176 3.0 11 -0.011788963340222836
-2.0259580612182617 1.0127558708190918 -0.27810585498809814 1.0 4 -0.011786660179495811
-1.9540306329727173 0.9772257804870605 0.34603309631347656 3.0 12 -0.011784356087446213
-1.9439599514007568 0.972614049911499 -0.19017383456230164 11.0 5 -0.011782051995396614
-1.9539891481399536 0.9780583381652832 0.42474085092544556 1.0 13 -0.011779747903347015
-1.9233689308166504 0.9631507396697998 -0.11273165792226791 10.0 6 -0.011777443811297417
-3.106832265853882 1.5557847023010254 0.8021755218505859 70.0 14 -0.011775139719247818
-1.907667875289917 0.9557052850723267 -0.03724343329668045 8.0 7 -0.01177283562719822
-3.0741872787475586 1.5407805442810059 0.9213958382606506 82.0 15 -0.01177053153514862
-2.818331241607666 1.4174724817276 -0.8453030586242676 7.0 0 -0.011749795638024807
-1.882775068283081 0.9473486542701721 0.036789670586586 1.0 8 -0.011747491545975208
-2.9277613162994385 1.4737917184829712 -0.7567353844642639 30.0 1 -0.01174518745392561
-1.9568549394607544 0.9854792952537537 0.11482509225606918 68.0 9 -0.011742883361876011
-1.9970077276229858 1.0061372518539429 -0.43466290831565857 6.0 2 -0.011740580201148987
-2.026643991470337 1.0210686922073364 0.19854077696800232 39.0 10 -0.011738276109099388
-2.002105951309204 1.0091445446014404 -0.35510629415512085 9.0 3 -0.01173597201704979
-1.9780986309051514 0.99747633934021 0.2720124125480652 5.0 11 -0.01173366792500019
-1.9645435810089111 0.9915018677711487 0.34853604435920715 2.0 12 -0.011729059740900993
-1.9439393281936646 0.981528103351593 -0.1905224472284317 10.0 5 -0.011726755648851395
-1.9714198112487793 0.9958352446556091 0.42932024598121643 4.0 13 -0.011724451556801796
-1.9180432558059692 0.9692935943603516 -0.11262699216604233 10.0 6 -0.011722147464752197
-3.0889339447021484 1.5610095262527466 0.7990262508392334 67.0 14 -0.011719843372702599
-1.9095063209533691 0.9653971791267395 -0.037348151206970215 10.0 7 -0.011717539280653
-3.0754144191741943 1.555525302886963 0.9234663844108582 80.0 15 -0.011715236119925976
-2.813117027282715 1.4277927875518799 -0.8453030586242676 7.0 0 -0.011694499291479588
-1.8792901039123535 0.9542430639266968 0.036789670586586 1.0 8 -0.011692196130752563
-2.9136531352996826 1.4800989627838135 -0.7544858455657959 31.0 1 -0.011689892038702965
-1.9550102949142456 0.9935503602027893 0.11492977291345596 70.0 9 -0.011687587946653366
-1.9584792852401733 0.995313286781311 -0.4270305633544922 4.0 2 -0.011685283854603767
-2.0193357467651367 1.0266839265823364 0.19819216430187225 31.0 10 -0.011682979762554169
-2.010718822479248 1.0227444171905518 -0.3572963774204254 12.0 3 -0.01168067567050457
-1.9885828495025635 1.0119225978851318 0.2739623188972473 4.0 11 -0.011678371578454971
-1.9573760032653809 0.9969021677970886 0.3479103147983551 4.0 12 -0.011673763394355774
-1.9440521001815796 0.9901162385940552 -0.19087107479572296 9.0 5 -0.011671459302306175
-1.9889229536056519 1.0134069919586182 0.4338997006416321 3.0 13 -0.011669156141579151
-1.9199862480163574 0.978703498840332 -0.11294099688529968 10.0 6 -0.011666852049529552
-3.0936081409454346 1.5776317119598389 0.8017256259918213 67.0 14 -0.011664547957479954
-1.9023923873901367 0.9705724120140076 -0.03727834299206734 10.0 7 -0.011662243865430355
-3.083458185195923 1.5738129615783691 0.9276074767112732 78.0 15 -0.011659939773380756
-2.7977981567382812 1.4323216676712036 -0.8421972393989563 9.0 0 -0.011639203876256943
-1.8759477138519287 0.9607972502708435 0.036789670586586 1.0 8 -0.011636899784207344
-2.8963286876678467 1.4840400218963623 -0.7513365745544434 33.0 1 -0.011634595692157745
-1.956862449645996 1.0031013488769531 0.11524379253387451 66.0 9 -0.011632291600108147
-1.937522292137146 0.993187427520752 -0.4232143759727478 3.0 2 -0.011629987508058548
-2.019285202026367 1.035544753074646 0.19854077696800232 21.0 10 -0.01162768341600895
-2.0159244537353516 1.0342656373977661 -0.35886070132255554 11.0 3 -0.01162537932395935
-2.022125720977783 1.0378930568695068 0.2790808379650116 2.0 11 -0.011623076163232327
-1.9573982954025269 1.0055345296859741 0.34853604435920715 4.0 12 -0.011618467979133129
-1.9370393753051758 0.9950758814811707 -0.1905224472284317 9.0 5 -0.01161616388708353
-2.009819507598877 1.032906413078308 0.43924233317375183 1.0 13 -0.011613859795033932
-1.9272156953811646 0.9908791184425354 -0.11356903612613678 10.0 6 -0.011611555702984333
-3.0984795093536377 1.5937697887420654 0.804425060749054 72.0 14 -0.011609251610934734
-1.898992896080017 0.9772070646286011 -0.03727834299206734 10.0 7 -0.011606947518885136
-3.0745108127593994 1.5827974081039429 0.9265722036361694 80.0 15 -0.011604643426835537
-2.7893483638763428 1.440306544303894 -0.8411619663238525 9.0 0 -0.011583907529711723
-1.89390230178833 0.9783530831336975 0.03720853105187416 1.0 8 -0.011581603437662125
-2.8772809505462646 1.4869835376739502 -0.7477373480796814 33.0 1 -0.011579299345612526
-1.9586715698242188 1.0126779079437256 0.11555780470371246 70.0 9 -0.011576996184885502
-1.9322994947433472 0.9990429282188416 -0.42283275723457336 2.0 2 -0.011574692092835903
-2.008579730987549 1.0389258861541748 0.197843536734581 7.0 10 -0.011572388000786304
-2.005284070968628 1.037664771080017 -0.35760921239852905 10.0 3 -0.011570083908736706
-2.0237789154052734 1.0476830005645752 0.2798120379447937 1.0 11 -0.011567779816687107
-1.9591381549835205 1.0150872468948364 0.34947463870048523 5.0 12 -0.01156317163258791
-1.930016040802002 0.9999982714653015 -0.19017383456230164 10.0 5 -0.011560867540538311
-3.0990676879882812 1.6064034700393677 0.6785168647766113 66.0 13 -0.011558563448488712
-1.9237451553344727 0.9976003766059875 -0.11356903612613678 10.0 6 -0.011556259356439114
-3.106735944747925 1.6117552518844604 0.8080242872238159 63.0 14 -0.01155395619571209
-1.9008949995040894 0.9865930080413818 -0.0373830571770668 10.0 7 -0.01155165210366249
-3.0826828479766846 1.6006426811218262 0.9307133555412292 80.0 15 -0.011549348011612892
-2.7774498462677 1.446465015411377 -0.8390913605690002 10.0 0 -0.011528612114489079
-1.8585540056228638 0.9683260917663574 0.036580245941877365 1.0 8 -0.01152630802243948
-2.858247995376587 1.4898122549057007 -0.7441381216049194 36.0 1 -0.011524003930389881
-1.9639793634414673 1.0241261720657349 0.11608116328716278 66.0 9 -0.011521699838340282
-1.937504529953003 1.0103206634521484 -0.42474085092544556 1.0 2 -0.011519395746290684
-1.9978750944137573 1.0422440767288208 0.19714628159999847 7.0 10 -0.011517091654241085
-2.0016496181488037 1.0446583032608032 -0.35760921239852905 9.0 3 -0.011514787562191486
-3.1216673851013184 1.629887342453003 0.4323924481868744 37.0 11 -0.011512483470141888
-1.9730905294418335 1.0310680866241455 0.35260334610939026 3.0 12 -0.011507876217365265
-1.9406405687332153 1.0141109228134155 -0.19156832993030548 10.0 5 -0.011505572125315666
-3.0934412479400635 1.6172115802764893 0.6785168647766113 66.0 13 -0.011503268033266068
-1.914941430091858 1.001533031463623 -0.11325501650571823 10.0 6 -0.011500963941216469
-3.1149046421051025 1.6298168897628784 0.8116234540939331 72.0 14 -0.01149865984916687
-1.9151560068130493 1.0024962425231934 -0.03773210570216179 9.0 7 -0.011496355757117271
-3.0839221477508545 1.614978313446045 0.932783842086792 78.0 15 -0.011494051665067673
-2.7826461791992188 1.4615405797958374 -0.8421972393989563 9.0 0 -0.011473315767943859
-1.879944920539856 0.987830400466919 0.03706891089677811 1.0 8 -0.01147101167589426
-2.837506055831909 1.4916197061538696 -0.7400889992713928 38.0 1 -0.011468707583844662
-1.9535008668899536 1.0269160270690918 0.11566247045993805 68.0 9 -0.011466403491795063
-1.9304910898208618 1.0152496099472046 -0.4239776134490967 1.0 2 -0.011464099399745464
-1.9924612045288086 1.0482845306396484 0.19697196781635284 9.0 10 -0.011461795307695866
-2.006730794906616 1.0562392473220825 -0.35917356610298157 8.0 3 -0.011459492146968842
-3.1370370388031006 1.6518723964691162 0.43531733751296997 63.0 11 -0.011457188054919243
-1.9906328916549683 1.0486536026000977 0.35635775327682495 1.0 12 -0.011452579870820045
-1.9370888471603394 1.0208789110183716 -0.19156832993030548 11.0 5 -0.011450275778770447
-3.0981974601745605 1.6334928274154663 0.6808065176010132 70.0 13 -0.011447971686720848
-1.9096674919128418 1.0072791576385498 -0.11315035074949265 11.0 6 -0.01144566759467125
-3.1057493686676025 1.638861060142517 0.8107236623764038 72.0 14 -0.01144336350262165
-1.915358066558838 1.0107080936431885 -0.03780191391706467 9.0 7 -0.011441059410572052
-3.092216968536377 1.632411241531372 0.9369249939918518 76.0 15 -0.011438755318522453
-2.774113178253174 1.4694366455078125 -0.8411619663238525 10.0 0 -0.01141801942139864
-1.8271803855895996 0.9678500890731812 0.036091577261686325 1.0 8 -0.011415715329349041
-2.8118810653686523 1.490071415901184 -0.7346901893615723 36.0 1 -0.011413412168622017
-1.9428460597991943 1.0299862623214722 0.11524379253387451 64.0 9 -0.011411108076572418
-1.9546856880187988 1.03670072555542 -0.4300835132598877 1.0 2 -0.01140880398452282
-2.0433497428894043 1.0841820240020752 0.2023756206035614 1.0 10 -0.01140649989247322
-2.011941909790039 1.0675173997879028 -0.3607378900051117 7.0 3 -0.011404195800423622
-3.1368019580841064 1.6650582551956177 0.4360485374927521 67.0 11 -0.011401891708374023
-3.105170488357544 1.6496583223342896 0.5569067597389221 77.0 12 -0.011397283524274826
-1.951107144355774 1.0369845628738403 -0.1933114379644394 11.0 5 -0.011394979432225227
-3.1066322326660156 1.651129126548767 0.6838594675064087 70.0 13 -0.011392675340175629
-1.9098435640335083 1.01548171043396 -0.11335969716310501 11.0 6 -0.011390372179448605
-3.0916950702667236 1.6445753574371338 0.8084741234779358 66.0 14 -0.011388068087399006
-1.90122652053833 1.0117512941360474 -0.037592481821775436 9.0 7 -0.011385763995349407
-3.100142240524292 1.6504572629928589 0.9410660862922668 76.0 15 -0.011383459903299809
-2.7760415077209473 1.4822674989700317 -0.8432324528694153 10.0 0 -0.011362724006175995
-1.8273181915283203 0.976107120513916 0.0361613854765892 1.0 8 -0.011360419914126396
-2.7980692386627197 1.4952845573425293 -0.7324406504631042 29.0 1 -0.011358115822076797
-1.9533296823501587 1.0442951917648315 0.11608116328716278 66.0 9 -0.011355811730027199
-1.9339238405227661 1.0339202880859375 -0.4262673258781433 1.0 2 -0.0113535076379776
-3.1360392570495605 1.677303671836853 0.31114599108695984 31.0 10 -0.011351203545928001
-2.0186541080474854 1.0801252126693726 -0.3626151382923126 7.0 3 -0.011348899453878403
-3.1379711627960205 1.679745078086853 0.4370235204696655 67.0 11 -0.011346595361828804
-3.099393129348755 1.660487413406372 0.5569067597389221 65.0 12 -0.011341988109052181
-1.9336074590682983 1.0359222888946533 -0.19191694259643555 10.0 5 -0.011339684017002583
-3.107771158218384 1.665673851966858 0.6853859424591064 68.0 13 -0.011337379924952984
-1.909807562828064 1.0240297317504883 -0.11356903612613678 12.0 6 -0.011335075832903385
-3.108260154724121 1.6673327684402466 0.8143228888511658 67.0 14 -0.011332771740853786
-1.895921230316162 1.017436146736145 -0.03755757957696915 9.0 7 -0.011330467648804188
-3.0909581184387207 1.6594412326812744 0.9400308132171631 76.0 15 -0.011328163556754589
-2.7572426795959473 1.4846217632293701 -0.8390913605690002 10.0 0 -0.011307427659630775
-1.8626314401626587 1.0033427476882935 0.03692929446697235 1.0 8 -0.011305123567581177
-2.784255266189575 1.500420331954956 -0.730191171169281 13.0 1 -0.011302819475531578
-1.9531883001327515 1.0530033111572266 0.11629050970077515 68.0 9 -0.01130051538348198
-1.9717774391174316 1.0630249977111816 -0.43542614579200745 1.0 2 -0.01129821129143238
-3.1336727142333984 1.6901311874389648 0.3114946186542511 31.0 10 -0.011295908130705357
-2.0253024101257324 1.092793345451355 -0.36449235677719116 7.0 3 -0.011293604038655758
-3.153050422668457 1.7020044326782227 0.43994835019111633 68.0 11 -0.01129129994660616
-3.1022684574127197 1.6759902238845825 0.5584710836410522 63.0 12 -0.011286691762506962
-1.9299798011779785 1.0426652431488037 -0.19191694259643555 10.0 5 -0.011284387670457363
-3.1053922176361084 1.678378939628601 0.6861491799354553 67.0 13 -0.011282083578407764
-1.9167627096176147 1.036389708518982 -0.11419706791639328 11.0 6 -0.011279779486358166
-3.112705707550049 1.6837348937988281 0.8170222640037537 67.0 14 -0.011277475394308567
-1.9029103517532349 1.029758334159851 -0.03776700794696808 9.0 7 -0.011275172233581543
-3.0817489624023438 1.6683812141418457 0.9389955401420593 78.0 15 -0.011272868141531944
-2.755439043045044 1.496080994606018 -0.840126633644104 11.0 0 -0.011252131313085556
-1.8591177463531494 1.0098384618759155 0.03692929446697235 1.0 8 -0.011249828152358532
-2.767014741897583 1.5036169290542603 -0.7270418405532837 7.0 1 -0.011247524060308933
-1.9635387659072876 1.0674457550048828 0.11712788045406342 66.0 9 -0.011245219968259335
-1.9680548906326294 1.0699008703231812 -0.43542614579200745 1.0 2 -0.011242915876209736
-3.141756296157837 1.7086749076843262 0.31288909912109375 32.0 10 -0.011240611784160137
-2.009329319000244 1.093247890472412 -0.3623022735118866 6.0 3 -0.011238307692110538
-3.1505773067474365 1.7148983478546143 0.44043582677841187 66.0 11 -0.01123600360006094
-3.106806755065918 1.6924796104431152 0.5603483319282532 65.0 12 -0.011231395415961742
-1.9490731954574585 1.0617868900299072 -0.19418299198150635 8.0 5 -0.011229091323912144
-3.102962017059326 1.6910874843597412 0.6869124174118042 67.0 13 -0.01122678816318512
-1.9078730344772339 1.0402055978775024 -0.11388305574655533 12.0 6 -0.011224484071135521
-3.1170737743377686 1.7001897096633911 0.8197216987609863 67.0 14 -0.011222179979085922
-1.901059627532959 1.0373523235321045 -0.03780191391706467 8.0 7 -0.011219875887036324
-3.086080551147461 1.6846815347671509 0.9421013593673706 78.0 15 -0.011217571794986725
-2.7603671550750732 1.5112565755844116 -0.8432324528694153 11.0 0 -0.011196835897862911
-1.8906586170196533 1.035534143447876 0.037627387791872025 1.0 8 -0.011194531805813313
-2.729278087615967 1.4954750537872314 -0.7184937596321106 19.0 1 -0.011192227713763714
-1.9492923021316528 1.0685330629348755 0.11649984866380692 64.0 9 -0.011189923621714115
-1.964308261871338 1.0767642259597778 -0.43542614579200745 1.0 2 -0.011187619529664516
-3.1497480869293213 1.7272953987121582 0.3142836093902588 30.0 10 -0.011185315437614918
-2.0228190422058105 1.1097568273544312 -0.3654309809207916 6.0 3 -0.011183011345565319
-3.1445722579956055 1.7258849143981934 0.44043582677841187 67.0 11 -0.011180708184838295
-3.1147310733795166 1.7109225988388062 0.5628513097763062 63.0 12 -0.011176100000739098
-1.9401161670684814 1.0657063722610474 -0.19366006553173065 9.0 5 -0.011173795908689499
-3.1073641777038574 1.7075811624526978 0.6892021298408508 67.0 13 -0.0111714918166399
-1.9077306985855103 1.048783302307129 -0.1140923947095871 11.0 6 -0.011169187724590302
-3.1111199855804443 1.7110600471496582 0.8197216987609863 67.0 14 -0.011166883632540703
-1.9114433526992798 1.0516934394836426 -0.038081150501966476 8.0 7 -0.011164579540491104
-3.097104787826538 1.704760193824768 0.9472777247428894 74.0 15 -0.011162275448441505
-2.755075216293335 1.5208829641342163 -0.8432324528694153 12.0 0 -0.011141539551317692
-1.8870327472686768 1.042127013206482 0.037627387791872025 1.0 8 -0.011139235459268093
-2.7138071060180664 1.4993380308151245 -0.7157943248748779 31.0 1 -0.011136931367218494
-1.9457381963729858 1.0749913454055786 0.11649984866380692 59.0 9 -0.01113462820649147
-1.9605376720428467 1.083614468574524 -0.43542614579200745 1.0 2 -0.011132324114441872
-3.154160737991333 1.7440650463104248 0.31532949209213257 30.0 10 -0.011130020022392273
-2.029304265975952 1.1225476264953613 -0.3673081696033478 6.0 3 -0.011127715930342674
-3.1472129821777344 1.7416568994522095 0.4416545331478119 63.0 11 -0.011125411838293076
-3.107311964035034 1.7202852964401245 0.5625383853912354 61.0 12 -0.011120803654193878
-1.946842074394226 1.0782636404037476 -0.19470593333244324 9.0 5 -0.01111849956214428
-3.113405466079712 1.7250779867172241 0.6918734312057495 63.0 13 -0.01111619547009468
-1.9180326461791992 1.063183069229126 -0.11492977291345596 14.0 6 -0.011113891378045082
-3.110241174697876 1.7247438430786133 0.8210713863372803 70.0 14 -0.011111587285995483
-1.9009498357772827 1.0541470050811768 -0.03794153034687042 8.0 7 -0.01110928412526846
-3.099881410598755 1.719706416130066 0.9498659372329712 70.0 15 -0.01110698003321886
-2.736245632171631 1.522973895072937 -0.8390913605690002 10.0 0 -0.011086244136095047
-1.8835663795471191 1.0483789443969727 0.037627387791872025 1.0 8 -0.011083940044045448
-2.69690203666687 1.5016928911209106 -0.7126449942588806 33.0 1 -0.01108163595199585
-1.9489532709121704 1.0856645107269287 0.11691854149103165 59.0 9 -0.011079331859946251
-1.9567433595657349 1.0904510021209717 -0.43542614579200745 1.0 2 -0.011077027767896652
-3.1515345573425293 1.7570042610168457 0.31567808985710144 31.0 10 -0.011074723675847054
-2.0410990715026855 1.1379281282424927 -0.3701240122318268 6.0 3 -0.011072419583797455
-3.1552894115448 1.759819507598877 0.443604439496994 64.0 11 -0.011070115491747856
-3.1064629554748535 1.734009027481079 0.5634770393371582 65.0 12 -0.011065507307648659
-1.9448057413101196 1.0860241651535034 -0.19488023221492767 7.0 5 -0.011063204146921635
-3.1145238876342773 1.7392216920852661 0.6933999061584473 63.0 13 -0.011060900054872036
-1.9144965410232544 1.0695377588272095 -0.11492977291345596 12.0 6 -0.011058595962822437
-3.1079070568084717 1.7369500398635864 0.8219712376594543 66.0 14 -0.011056291870772839
-1.8937679529190063 1.0588245391845703 -0.037871722131967545 8.0 7 -0.01105398777872324
-3.090487241744995 1.7286312580108643 0.9488306641578674 70.0 15 -0.011051683686673641
-2.724440813064575 1.5282589197158813 -0.8370208144187927 11.0 0 -0.011030947789549828
-1.8798953294754028 1.0549474954605103 0.037627387791872025 1.0 8 -0.011028643697500229
-2.693342924118042 1.5120517015457153 -0.7130948901176453 10.0 1 -0.01102633960545063
-1.9488253593444824 1.0940771102905273 0.11712788045406342 59.0 9 -0.011024035513401031
-1.9514049291610718 1.0959725379943848 -0.4350445568561554 1.0 2 -0.011021731421351433
-3.1509015560150146 1.7703734636306763 0.31620103120803833 27.0 10 -0.011019427329301834
-2.042280435562134 1.1479498147964478 -0.37106260657310486 6.0 3 -0.01101712416857481
-3.15604829788208 1.7747148275375366 0.44457942247390747 63.0 11 -0.011014820076525211
-3.114468812942505 1.752049207687378 0.5659799575805664 63.0 12 -0.011010211892426014
-1.9516116380691528 1.0983306169509888 -0.19592611491680145 8.0 5 -0.011007907800376415
-3.1118557453155518 1.752009391784668 0.6941632032394409 63.0 13 -0.011005603708326817
-1.924673318862915 1.084054946899414 -0.11576715111732483 11.0 6 -0.011003299616277218
-3.1171047687530518 1.7563979625701904 0.8260203003883362 69.0 14 -0.01100099552422762
-1.8972150087356567 1.0690255165100098 -0.0380113422870636 8.0 7 -0.01099869143217802
-3.0914700031280518 1.7426642179489136 0.950901210308075 70.0 15 -0.010996387340128422
-2.6972293853759766 1.5253968238830566 -0.8302915096282959 14.0 0 -0.010975651443004608
-1.8763867616653442 1.06117582321167 0.037627387791872025 1.0 8 -0.01097334735095501
-2.194749593734741 1.241729736328125 -0.5821733474731445 1.0 1 -0.01097104325890541
-1.9588996171951294 1.1087435483932495 0.11796525865793228 56.0 9 -0.010968740098178387
-1.947567343711853 1.1027776002883911 -0.4350445568561554 1.0 2 -0.010966436006128788
-3.151637077331543 1.7852894067764282 0.31689828634262085 28.0 10 -0.01096413191407919
-2.0487749576568604 1.1605576276779175 -0.372939795255661 4.0 3 -0.01096182782202959
-3.1501457691192627 1.7851710319519043 0.44457942247390747 61.0 11 -0.010959523729979992
-3.123798131942749 1.7716807126998901 0.5687958002090454 67.0 12 -0.010954915545880795
-1.9443001747131348 1.1031699180603027 -0.1955774873495102 5.0 5 -0.010952611453831196
-3.1094439029693604 1.7642568349838257 0.694926381111145 60.0 13 -0.010950307361781597
-1.921067714691162 1.0904314517974854 -0.11576715111732483 10.0 6 -0.010948004201054573
-3.1214308738708496 1.7724987268447876 0.8287197351455688 73.0 14 -0.010945700109004974
-1.902165412902832 1.0805801153182983 -0.03818586841225624 7.0 7 -0.010943396016955376
-3.095445156097412 1.759171962738037 0.9540070295333862 70.0 15 -0.010941091924905777
-2.653552770614624 1.5123318433761597 -0.8183858394622803 28.0 0 -0.010920356027781963
-2.1531617641448975 1.2281419038772583 -0.5722755193710327 3.0 1 -0.010915747843682766
-1.9446094036102295 1.1096349954605103 0.11733722686767578 50.0 9 -0.010913443751633167
-1.988234043121338 1.1345280408859253 -0.444966584444046 1.0 2 -0.010911139659583569
-3.1630022525787354 1.8056082725524902 0.31864139437675476 26.0 10 -0.01090883556753397
-1.998396635055542 1.1412526369094849 -0.36449235677719116 2.0 3 -0.010906531475484371
-3.150790214538574 1.800094485282898 0.44555434584617615 60.0 11 -0.010904227383434772
-3.1175949573516846 1.78257417678833 0.5687958002090454 63.0 12 -0.01089962013065815
-1.96311616897583 1.1224679946899414 -0.197843536734581 6.0 5 -0.010897316038608551
-3.1134915351867676 1.7809481620788574 0.6972161531448364 64.0 13 -0.010895011946558952
-1.9085822105407715 1.0921707153320312 -0.11524379253387451 10.0 6 -0.010892707854509354
-3.120298147201538 1.7862882614135742 0.8300694227218628 72.0 14 -0.010890403762459755
-1.9087936878204346 1.0931757688522339 -0.038395293056964874 7.0 7 -0.010888099670410156
-3.1026952266693115 1.7776494026184082 0.9581481218338013 72.0 15 -0.010885795578360558
-2.641557216644287 1.517735481262207 -0.8163152933120728 36.0 0 -0.010865059681236744
-2.162376642227173 1.2434213161468506 -0.5758747458457947 3.0 1 -0.010860451497137547
-1.942455530166626 1.1174123287200928 0.11744190007448196 48.0 9 -0.010858147405087948
-3.17049503326416 1.8245887756347656 0.3200358748435974 27.0 10 -0.010853540152311325
-1.9807054996490479 1.1403361558914185 -0.36198940873146057 2.0 3 -0.010851236060261726
-3.1565279960632324 1.818017840385437 0.4472605288028717 61.0 11 -0.010848931968212128
-2.048527240753174 1.1803354024887085 -0.29029279947280884 1.0 4 -0.010846627876162529
-3.119910955429077 1.7983776330947876 0.5703601241111755 65.0 12 -0.01084432378411293
-1.9574601650238037 1.128318190574646 -0.19766922295093536 5.0 5 -0.010842019692063332
-3.117459774017334 1.7976906299591064 0.6995058059692383 61.0 13 -0.010839715600013733
-1.9220584630966187 1.1088066101074219 -0.11629050970077515 10.0 6 -0.010837411507964134
-3.119107484817505 1.8000907897949219 0.8314191102981567 73.0 14 -0.010835107415914536
-1.9015021324157715 1.0978326797485352 -0.038325484842061996 6.0 7 -0.010832803323864937
-3.1081814765930176 1.7952326536178589 0.9617716073989868 74.0 15 -0.010830499231815338
-2.619525909423828 1.5172652006149292 -0.811138927936554 36.0 0 -0.010809764266014099
-2.2220892906188965 1.288099765777588 -0.5929710268974304 1.0 1 -0.010805156081914902
-1.9523649215698242 1.132201910018921 0.11827926337718964 48.0 9 -0.010802851989865303
-3.1606605052948 1.8336445093154907 0.31968727707862854 27.0 10 -0.010798243805766106
-1.9750041961669922 1.1462514400482178 -0.36167651414871216 2.0 3 -0.010795939713716507
-3.157029628753662 1.8330122232437134 0.44823548197746277 66.0 11 -0.010793635621666908
-1.9551347494125366 1.1356321573257446 -0.2776183784008026 3.0 4 -0.01079133152961731
-3.117030382156372 1.8112423419952393 0.5709858536720276 65.0 12 -0.010789027437567711
-1.9586776494979858 1.138147234916687 -0.19819216430187225 5.0 5 -0.010786723345518112
-3.128138780593872 1.8184282779693604 0.7033219933509827 63.0 13 -0.010784419253468513
-1.9199031591415405 1.1165127754211426 -0.11639518290758133 8.0 6 -0.01078211609274149
-3.1262800693511963 1.8188081979751587 0.8350183367729187 73.0 14 -0.01077981200069189
-1.8907454013824463 1.1004400253295898 -0.03818586841225624 5.0 7 -0.010777507908642292
-3.098557233810425 1.8041263818740845 0.9607363343238831 80.0 15 -0.010775203816592693
-2.6042044162750244 1.520554780960083 -0.8080331087112427 38.0 0 -0.01075446791946888
-2.589419364929199 1.513134241104126 -0.6923993825912476 20.0 1 -0.010749859735369682
-1.9621951580047607 1.1470733880996704 0.1191166415810585 38.0 9 -0.010747555643320084
-3.1576802730560303 1.8466777801513672 0.3200358748435974 26.0 10 -0.010742947459220886
-1.9829260110855103 1.1601219177246094 -0.3638666272163391 1.0 3 -0.010740643367171288
-3.1608917713165283 1.850036859512329 0.44969791173934937 64.0 11 -0.010738339275121689
-1.9545848369598389 1.1444560289382935 -0.27810585498809814 3.0 4 -0.010736036114394665
-3.122620105743408 1.8291014432907104 0.5731759667396545 65.0 12 -0.010733732022345066
-1.9718841314315796 1.1550480127334595 -0.19993527233600616 1.0 5 -0.010731427930295467
-3.118384838104248 1.8273506164550781 0.7025587558746338 63.0 13 -0.010729123838245869
-1.9349470138549805 1.134318470954895 -0.11754656583070755 10.0 6 -0.01072681974619627
-3.131678819656372 1.8366106748580933 0.838167667388916 72.0 14 -0.010724515654146671
-1.9075900316238403 1.119175910949707 -0.038604725152254105 3.0 7 -0.010722211562097073
-3.098905324935913 1.818843126296997 0.9628069400787354 78.0 15 -0.010719907470047474
-2.5888915061950684 1.5237566232681274 -0.8049272894859314 36.0 0 -0.01069917157292366
-2.587480068206787 1.5241420269012451 -0.6932992339134216 41.0 1 -0.010694563388824463
-1.982269287109375 1.1681115627288818 0.12058205902576447 24.0 9 -0.010692259296774864
-3.1666617393493652 1.866795301437378 0.3216046690940857 24.0 10 -0.010687652043998241
-1.9720582962036133 1.1630221605300903 -0.3626151382923126 1.0 3 -0.010685347951948643
-3.147575616836548 1.8570244312286377 0.4487229585647583 63.0 11 -0.010683043859899044
-2.008702039718628 1.1855779886245728 -0.2863929867744446 1.0 4 -0.010680739767849445
-3.12982439994812 1.8480243682861328 0.5756788849830627 65.0 12 -0.010678435675799847
-1.9952908754348755 1.1781319379806519 -0.20272426307201385 1.0 5 -0.010676131583750248
-3.115368127822876 1.8402217626571655 0.7033219933509827 61.0 13 -0.01067382749170065
-1.9258170127868652 1.1380181312561035 -0.117232546210289 8.0 6 -0.01067152339965105
-3.133636951446533 1.8524888753890991 0.8404171466827393 69.0 14 -0.010669220238924026
-1.9088352918624878 1.128881573677063 -0.03870943933725357 3.0 7 -0.010666916146874428
-3.0991876125335693 1.8335849046707153 0.9648774266242981 78.0 15 -0.010664612054824829
-2.5735878944396973 1.526869773864746 -0.8018214106559753 22.0 0 -0.01064387522637844
-2.5536582469940186 1.5162510871887207 -0.6856508255004883 19.0 1 -0.010639267973601818
-1.9884828329086304 1.1811439990997314 0.12121009081602097 21.0 9 -0.01063696388155222
-3.16526460647583 1.8808910846710205 0.3221276104450226 20.0 10 -0.010632355697453022
-1.98496675491333 1.1799930334091187 -0.36574381589889526 1.0 3 -0.010630051605403423
-3.1496052742004395 1.8730735778808594 0.4499416649341583 60.0 11 -0.010627747513353825
-1.9670193195343018 1.1702532768249512 -0.28103071451187134 1.0 4 -0.010625443421304226
-3.1335394382476807 1.8650001287460327 0.5775561332702637 65.0 12 -0.010623140260577202
