# .PCD v0.7 - Point Cloud Data file format
VERSION 0.7
FIELDS x y z intensity ring time
SIZE 4 4 4 4 4 4
TYPE F F F F F F
COUNT 1 1 1 1 1 1
WIDTH 537
HEIGHT 1
VIEWPOINT 0 0 0 1 0 0 0
POINTS 537
DATA ascii
1.7952461242675781 0.09439904242753983 -0.03137942776083946 100.0 7 -0.058583736419677734
3.6307623386383057 0.19028021395206451 0.9741949439048767 121.0 15 -0.058581434190273285
2.30940318107605 0.11820295453071594 -0.6196128129959106 1.0 0 -0.05856069549918175
1.7973891496658325 0.09168099611997604 0.03141433000564575 97.0 8 -0.0585583932697773
2.327687978744507 0.11832312494516373 -0.5380829572677612 4.0 1 -0.05855608731508255
1.8151781558990479 0.09195315837860107 0.09525144845247269 88.0 9 -0.0585537850856781
1.838626503944397 0.09281929582357407 0.1610638052225113 98.0 10 -0.0585491769015789
1.7815123796463013 0.0896243080496788 -0.28252068161964417 100.0 3 -0.058546870946884155
3.606353759765625 0.18079744279384613 0.44336071610450745 93.0 11 -0.058544568717479706
1.7764273881912231 0.08874687552452087 -0.21838988363742828 100.0 4 -0.05854226276278496
3.616387128829956 0.18003499507904053 0.5734888315200806 100.0 12 -0.05853996053338051
1.7909326553344727 0.08915819972753525 -0.15688033401966095 93.0 5 -0.05853765457868576
3.623638153076172 0.17976202070713043 0.7052300572395325 96.0 13 -0.05853535234928131
1.7933461666107178 0.08865085244178772 -0.09410005807876587 99.0 6 -0.05853305011987686
3.6455705165863037 0.17957445979118347 0.842666745185852 100.0 14 -0.058530744165182114
1.799559235572815 0.08832747489213943 -0.03144923597574234 100.0 7 -0.058528441935777664
3.635263442993164 0.17779482901096344 0.9752302169799805 121.0 15 -0.058526135981082916
2.3175206184387207 0.11050835251808167 -0.6216834187507629 1.0 0 -0.05850540101528168
1.8016932010650635 0.08559569716453552 0.03148414194583893 94.0 8 -0.05850309506058693
2.337819814682007 0.1106584444642067 -0.5403324961662292 4.0 1 -0.05850079283118248
1.8035029172897339 0.08536707609891891 0.09462341666221619 88.0 9 -0.05849848687648773
2.3513286113739014 0.1108866035938263 -0.4575599730014801 1.0 2 -0.05849618464708328
1.8389393091201782 0.08640024811029434 0.1610638052225113 100.0 10 -0.058493878692388535
1.783787488937378 0.08349785953760147 -0.2828335464000702 100.0 3 -0.058491576462984085
3.602997064590454 0.16802363097667694 0.4428732097148895 97.0 11 -0.058489274233579636
1.772745966911316 0.08267095685005188 -0.21790240705013275 100.0 4 -0.05848696827888489
3.6051249504089355 0.16749060153961182 0.5716116428375244 100.0 12 -0.05848466604948044
1.799194097518921 0.08327413350343704 -0.15757757425308228 93.0 5 -0.05848236009478569
3.6281657218933105 0.16729368269443512 0.7059933543205261 96.0 13 -0.05848005786538124
1.8056155443191528 0.0829397663474083 -0.09472808986902237 100.0 6 -0.05847775191068649
3.6383590698242188 0.1671256422996521 0.8408671021461487 100.0 14 -0.05847544968128204
1.7978445291519165 0.08226838707923889 -0.03141433000564575 100.0 7 -0.058473143726587296
3.641622543334961 0.1660035252571106 0.9767830967903137 117.0 15 -0.058470841497182846
2.308224678039551 0.10239386558532715 -0.6190952062606812 6.0 0 -0.05845010280609131
1.8059625625610352 0.07979749143123627 0.031553950160741806 94.0 8 -0.05844780057668686
2.305077075958252 0.10144919157028198 -0.5326840877532959 16.0 1 -0.05844549834728241
1.8137527704238892 0.07982541620731354 0.0951467752456665 92.0 9 -0.05844319239258766
2.3320698738098145 0.10222826898097992 -0.4537437856197357 4.0 2 -0.05844089016318321
1.8272727727890015 0.07978055626153946 0.1600179374217987 100.0 10 -0.058438584208488464
1.788001537322998 0.07775414735078812 -0.28345927596092224 100.0 3 -0.058436281979084015
3.6194002628326416 0.15676090121269226 0.44482314586639404 93.0 11 -0.05843397602438927
1.7730103731155396 0.07679137587547302 -0.21790240705013275 100.0 4 -0.05843167379498482
3.6056606769561768 0.15553537011146545 0.5716116428375244 100.0 12 -0.05842936784029007
1.7875169515609741 0.07679543644189835 -0.15653172135353088 89.0 5 -0.05842706561088562
3.6385080814361572 0.15567995607852936 0.7079014182090759 99.0 13 -0.05842475965619087
1.8158578872680664 0.07737717777490616 -0.09525144845247269 100.0 6 -0.05842245742678642
3.6408402919769287 0.15514317154884338 0.8413169980049133 100.0 14 -0.058420151472091675
1.7881180047988892 0.07588335126638412 -0.031239807605743408 100.0 7 -0.058417849242687225
3.6305720806121826 0.1534361094236374 0.9736772775650024 117.0 15 -0.05841554328799248
2.3046908378601074 0.09458097815513611 -0.6180598735809326 58.0 0 -0.05839480832219124
1.7902331352233887 0.07315460592508316 0.031274713575839996 97.0 8 -0.05839250609278679
2.280088186264038 0.09277413040399551 -0.5268353819847107 32.0 1 -0.05839020013809204
1.819994330406189 0.07405345141887665 0.09546079486608505 90.0 9 -0.05838789790868759
2.261776924133301 0.09163368493318558 -0.4400055408477783 26.0 2 -0.058385591953992844
1.827527403831482 0.07372014969587326 0.1600179374217987 98.0 10 -0.058383289724588394
1.7783806324005127 0.0714276134967804 -0.2818949222564697 100.0 3 -0.058380983769893646
3.6159331798553467 0.1445997655391693 0.4443356692790985 96.0 11 -0.0583786815404892
1.78515625 0.07138770818710327 -0.21936483681201935 96.0 4 -0.05837637558579445
3.6101038455963135 0.1437338888645172 0.5722373723983765 100.0 12 -0.05837407335639
1.7837800979614258 0.07070907205343246 -0.15618307888507843 93.0 5 -0.05837176740169525
3.63704252243042 0.14353668689727783 0.7075197696685791 93.0 13 -0.0583694651722908
1.8181002140045166 0.07143306732177734 -0.09535612165927887 100.0 6 -0.058367159217596054
3.653017997741699 0.14352689683437347 0.8440163731575012 97.0 14 -0.058364856988191605
1.7923561334609985 0.07010915130376816 -0.031309615820646286 97.0 7 -0.05836255103349686
3.627200126647949 0.1412462443113327 0.9726420044898987 117.0 15 -0.05836024880409241
2.2972700595855713 0.0866459459066391 -0.6159893274307251 58.0 0 -0.05833951383829117
1.7864693403244019 0.06706789135932922 0.03120490349829197 94.0 8 -0.05833720788359642
2.2648043632507324 0.08463089168071747 -0.5232362151145935 46.0 1 -0.05833490565419197
1.8242216110229492 0.06816725432872772 0.09567013382911682 90.0 9 -0.05833259969949722
2.252258539199829 0.08376739174127579 -0.43809744715690613 27.0 2 -0.05833029747009277
1.8277617692947388 0.06765981763601303 0.1600179374217987 100.0 10 -0.058327991515398026
1.776633620262146 0.0654575303196907 -0.2815820574760437 100.0 3 -0.058325689285993576
3.6084578037261963 0.13231614232063293 0.44336071610450745 97.0 11 -0.05832338333129883
1.7893507480621338 0.06561250984668732 -0.21985231339931488 96.0 4 -0.05832108110189438
3.614508867263794 0.13190637528896332 0.5728631019592285 100.0 12 -0.05831877514719963
1.7919690608978271 0.06508306413888931 -0.15688033401966095 91.0 5 -0.05831647291779518
3.6257266998291016 0.1310485303401947 0.7052300572395325 96.0 13 -0.05831416696310043
1.8063513040542603 0.06497323513031006 -0.09472808986902237 90.0 6 -0.058311864733695984
3.6573688983917236 0.13155309855937958 0.8449162244796753 97.0 14 -0.058309558779001236
1.7945773601531982 0.06423699110746384 -0.031344521790742874 94.0 7 -0.058307256549596786
3.639232635498047 0.12962885200977325 0.97574782371521 117.0 15 -0.05830495059490204
2.2628324031829834 0.0766477882862091 -0.6066718697547913 32.0 0 -0.058268070220947266
1.7907108068466187 0.060342974960803986 0.031274713575839996 97.0 8 -0.058265767991542816
2.23395037651062 0.07488884776830673 -0.5160377621650696 50.0 1 -0.05826346203684807
1.812493085861206 0.060760315507650375 0.09504210948944092 84.0 9 -0.05826115980744362
2.2349042892456055 0.07453035563230515 -0.43466290831565857 30.0 2 -0.05825885385274887
1.8319904804229736 0.06077289581298828 0.16036656498908997 100.0 10 -0.05825655162334442
1.780820608139038 0.05876513943076134 -0.28220781683921814 100.0 3 -0.05825424566864967
3.6010031700134277 0.11820006370544434 0.442385733127594 97.0 11 -0.058251943439245224
1.779679536819458 0.05810478702187538 -0.21863360702991486 99.0 4 -0.058249637484550476
3.6228859424591064 0.11828365921974182 0.5741145610809326 100.0 12 -0.05824733525514603
1.7961885929107666 0.05833084136247635 -0.1572289615869522 93.0 5 -0.05824502930045128
3.6262030601501465 0.11712664365768433 0.7052300572395325 96.0 13 -0.05824272707104683
1.79860258102417 0.05777991935610771 -0.09430939704179764 88.0 6 -0.05824042111635208
3.652024269104004 0.11668463796377182 0.8435665369033813 100.0 14 -0.05823811888694763
1.8147974014282227 0.05798399820923805 -0.03169357031583786 100.0 7 -0.058235812932252884
3.6435649394989014 0.11577782779932022 0.9767830967903137 120.0 15 -0.058233510702848434
2.1665382385253906 0.06581606715917587 -0.5807899832725525 25.0 0 -0.058212775737047195
1.7909010648727417 0.054404791444540024 0.031274713575839996 99.0 8 -0.05821046978235245
2.224447011947632 0.06718667596578598 -0.5137882828712463 71.0 1 -0.058208167552948
1.8126941919326782 0.05443267896771431 0.09504210948944092 84.0 9 -0.05820586159825325
2.2017905712127686 0.06573314964771271 -0.4281754195690155 54.0 2 -0.0582035593688488
1.8321914672851562 0.054378945380449295 0.16036656498908997 98.0 10 -0.05820125341415405
1.790878176689148 0.05315277725458145 -0.28377217054367065 100.0 3 -0.0581989511847496
3.605343818664551 0.10637413710355759 0.4428732097148895 35.0 11 -0.058196645230054855
1.7778781652450562 0.05214583873748779 -0.21838988363742828 96.0 4 -0.058194343000650406
3.6193275451660156 0.10552405565977097 0.5734888315200806 100.0 12 -0.05819203704595566
1.7963812351226807 0.05206013470888138 -0.1572289615869522 100.0 5 -0.05818973481655121
3.6383461952209473 0.10544130951166153 0.7075197696685791 96.0 13 -0.05818742886185646
1.8007807731628418 0.0518730953335762 -0.09441407769918442 85.0 6 -0.05818512663245201
3.646547317504883 0.10440686345100403 0.8422167897224426 97.0 14 -0.05818282067775726
1.7930009365081787 0.051022641360759735 -0.031309615820646286 90.0 7 -0.058180518448352814
3.6478092670440674 0.10316697508096695 0.9778183698654175 117.0 15 -0.058178212493658066
2.1358461380004883 0.057794515043497086 -0.5725077390670776 40.0 0 -0.05815747752785683
1.7990758419036865 0.048367537558078766 0.03141433000564575 99.0 8 -0.05815517529845238
2.211031913757324 0.05905667692422867 -0.510638952255249 66.0 1 -0.05815286934375763
1.812873125076294 0.04810524731874466 0.09504210948944092 80.0 9 -0.05815056711435318
2.198071241378784 0.05832661688327789 -0.42741215229034424 79.0 2 -0.05814826115965843
1.828378438949585 0.048197366297245026 0.1600179374217987 98.0 10 -0.05814595893025398
1.7930275201797485 0.04695235565304756 -0.2840850353240967 100.0 3 -0.058143652975559235
3.6096620559692383 0.09389248490333557 0.44336071610450745 11.0 11 -0.058141350746154785
1.789955973625183 0.0462467260658741 -0.21985231339931488 94.0 4 -0.05813904479146004
3.619673728942871 0.09288863837718964 0.5734888315200806 100.0 12 -0.05813674256205559
1.7846014499664307 0.04548506811261177 -0.15618307888507843 98.0 5 -0.05813443660736084
3.6485049724578857 0.09299134463071823 0.7094278931617737 99.0 13 -0.05813213437795639
1.8049440383911133 0.04568834230303764 -0.09462341666221619 93.0 6 -0.05812982842326164
3.656630039215088 0.09192129224538803 0.8444663286209106 100.0 14 -0.05812752619385719
1.8071616888046265 0.04511329531669617 -0.031553950160741806 100.0 7 -0.058125223964452744
3.644284725189209 0.09033813327550888 0.9767830967903137 117.0 15 -0.058122918009757996
2.1147992610931396 0.04946837201714516 -0.5668137073516846 39.0 0 -0.05810218304395676
1.791237235069275 0.04189976677298546 0.031274713575839996 97.0 8 -0.05809987708926201
2.191742181777954 0.05088651552796364 -0.506139874458313 49.0 1 -0.05809757485985756
1.8210169076919556 0.041961267590522766 0.09546079486608505 78.0 9 -0.05809526890516281
2.19630765914917 0.05022444948554039 -0.4270305633544922 94.0 2 -0.05809296667575836
1.8285428285598755 0.04149610921740532 0.1600179374217987 98.0 10 -0.058090660721063614
1.783313274383545 0.04015830159187317 -0.28252068161964417 100.0 3 -0.058088358491659164
3.6139369010925293 0.08138198405504227 0.443848192691803 9.0 11 -0.058086052536964417
1.7901065349578857 0.03999785706400871 -0.21985231339931488 96.0 4 -0.05808375030755997
3.6239261627197266 0.0803413838148117 0.5741145610809326 100.0 12 -0.05808144807815552
1.7847493886947632 0.039255741983652115 -0.15618307888507843 93.0 5 -0.05807914212346077
3.639007329940796 0.07940320670604706 0.7075197696685791 96.0 13 -0.05807683989405632
1.8110897541046143 0.039202649146318436 -0.09493743628263474 88.0 6 -0.05807453393936157
3.65694260597229 0.07851751893758774 0.8444663286209106 94.0 14 -0.05807223170995712
1.7853165864944458 0.038332194089889526 -0.03116999939084053 90.0 7 -0.058069925755262375
3.636852264404297 0.07745115458965302 0.974712610244751 117.0 15 -0.058067623525857925
2.1168904304504395 0.042124923318624496 -0.5673313736915588 44.0 0 -0.05804688483476639
1.7793828248977661 0.03509804978966713 0.031065283343195915 97.0 8 -0.05804458260536194
2.1568431854248047 0.04216683655977249 -0.49804162979125977 74.0 1 -0.05804227665066719
1.8291398286819458 0.035760149359703064 0.09587948024272919 82.0 9 -0.05803997442126274
2.2043209075927734 0.042710185050964355 -0.42855700850486755 78.0 2 -0.05803766846656799
1.828676462173462 0.03511256352066994 0.1600179374217987 100.0 10 -0.058035366237163544
1.7755423784255981 0.033782344311475754 -0.2812691926956177 100.0 3 -0.058033064007759094
3.610241651535034 0.06805994361639023 0.44336071610450745 9.0 11 -0.058030758053064346
1.7981741428375244 0.033899012953042984 -0.22082726657390594 92.0 4 -0.0580284558236599
3.6281344890594482 0.06776384264230728 0.5747402906417847 100.0 12 -0.05802614986896515
1.7888597249984741 0.03309880942106247 -0.15653172135353088 100.0 5 -0.0580238476395607
3.633373737335205 0.06659305095672607 0.7063749432563782 99.0 13 -0.05802154168486595
1.8032279014587402 0.03273503854870796 -0.0945187509059906 90.0 6 -0.0580192394554615
3.6591312885284424 0.06642632931470871 0.8449162244796753 97.0 14 -0.058016933500766754
1.8054332733154297 0.03245988488197327 -0.031519047915935516 100.0 7 -0.058014631271362305
3.6448264122009277 0.06489402055740356 0.9767830967903137 117.0 15 -0.05801232531666756
2.107360601425171 0.03494510054588318 -0.5647432208061218 42.0 0 -0.05799159035086632
1.7894865274429321 0.029361598193645477 0.031239807605743408 97.0 8 -0.05798928439617157
2.151125907897949 0.03491979464888573 -0.4966919720172882 70.0 1 -0.05798698216676712
1.8212603330612183 0.029564999043941498 0.09546079486608505 76.0 9 -0.05798467993736267
2.2103395462036133 0.035495173186063766 -0.42970186471939087 71.0 2 -0.05798237398266792
1.8307750225067139 0.029080267995595932 0.16019225120544434 95.0 10 -0.057980071753263474
1.7815700769424438 0.027986837550997734 -0.28220781683921814 100.0 3 -0.057977765798568726
3.592583656311035 0.055810779333114624 0.44116705656051636 9.0 11 -0.057975463569164276
1.7863675355911255 0.027751216664910316 -0.21936483681201935 94.0 4 -0.05797315761446953
3.620438575744629 0.05560978502035141 0.5734888315200806 100.0 12 -0.05797085538506508
1.7889596223831177 0.027166057378053665 -0.15653172135353088 96.0 5 -0.05796854943037033
3.6394636631011963 0.054633114486932755 0.7075197696685791 93.0 13 -0.05796624720096588
1.7953383922576904 0.02663612738251686 -0.09410005807876587 90.0 6 -0.05796394124627113
3.6554343700408936 0.054233014583587646 0.8440163731575012 97.0 14 -0.057961639016866684
1.8135290145874023 0.02658943645656109 -0.03165866807103157 100.0 7 -0.057959333062171936
3.6488850116729736 0.05286368727684021 0.9778183698654175 117.0 15 -0.05795703083276749
2.1074647903442383 0.027956068515777588 -0.5647432208061218 37.0 0 -0.05793629586696625
1.7975722551345825 0.023531490936875343 0.03137942776083946 99.0 8 -0.0579339899122715
2.164870023727417 0.027962828055024147 -0.49984127283096313 64.0 1 -0.05793168768286705
1.8113669157028198 0.02307971939444542 0.09493743628263474 78.0 9 -0.0579293817281723
2.2202603816986084 0.0282896775752306 -0.43160995841026306 93.0 2 -0.05792707949876785
1.8348459005355835 0.023058606311678886 0.1605408787727356 95.0 10 -0.057924773544073105
1.787578821182251 0.022153429687023163 -0.2831464111804962 100.0 3 -0.057922471314668655
3.6106135845184326 0.04411431401968002 0.44336071610450745 9.0 11 -0.05792016535997391
1.7765288352966309 0.02139545977115631 -0.21814614534378052 99.0 4 -0.05791786313056946
3.624561071395874 0.04302113503217697 0.5741145610809326 100.0 12 -0.05791555717587471
1.7930241823196411 0.021282007917761803 -0.15688033401966095 98.0 5 -0.05791325494647026
3.6415882110595703 0.04258586838841438 0.7079014182090759 99.0 13 -0.05791094899177551
1.7994110584259033 0.02072879485785961 -0.09430939704179764 88.0 6 -0.05790864676237106
3.6556012630462646 0.04147360846400261 0.8440163731575012 97.0 14 -0.057906340807676315
1.79961359500885 0.020102903246879578 -0.03141433000564575 91.0 7 -0.057904038578271866
3.660637855529785 0.04025286063551903 0.9809242486953735 117.0 15 -0.05790173262357712
2.095958948135376 0.020486624911427498 -0.5616373419761658 37.0 0 -0.05788099765777588
1.801642656326294 0.017295418307185173 0.03144923597574234 94.0 8 -0.05787869542837143
2.1727488040924072 0.020478738471865654 -0.5016408562660217 66.0 1 -0.05787638947367668
1.8134336471557617 0.016774721443653107 0.09504210948944092 74.0 9 -0.05787408724427223
2.2262351512908936 0.02059324085712433 -0.4327548146247864 100.0 2 -0.057871781289577484
1.8209689855575562 0.016527464613318443 0.15932069718837738 87.0 10 -0.057869479060173035
1.8409782648086548 0.016387755051255226 -0.29159387946128845 100.0 3 -0.05786717310547829
3.614715576171875 0.03154433146119118 0.443848192691803 9.0 11 -0.05786487087607384
1.810338020324707 0.0154830701649189 -0.22228971123695374 86.0 4 -0.05786256492137909
3.616787910461426 0.03030163049697876 0.5728631019592285 100.0 12 -0.05786026269197464
1.7851183414459229 0.014955811202526093 -0.15618307888507843 93.0 5 -0.05785795673727989
3.647603988647461 0.029921432957053185 0.7090462446212769 96.0 13 -0.05785565450787544
1.8154499530792236 0.014576215296983719 -0.0951467752456665 82.0 6 -0.057853348553180695
3.6615700721740723 0.028759613633155823 0.8453661203384399 100.0 14 -0.057851046323776245
1.797673225402832 0.013805121183395386 -0.03137942776083946 89.0 7 -0.057848744094371796
3.649164915084839 0.027388380840420723 0.9778183698654175 120.0 15 -0.05784643813967705
2.0824952125549316 0.013085708022117615 -0.558013916015625 35.0 0 -0.05782570317387581
1.7916938066482544 0.0109448516741395 0.031274713575839996 50.0 8 -0.05782339721918106
2.184499502182007 0.012963110581040382 -0.5043402910232544 79.0 1 -0.05782109498977661
3.616976499557495 0.020834079012274742 0.18956086039543152 68.0 9 -0.05781878903508186
2.236109733581543 0.01288017351180315 -0.43466290831565857 100.0 2 -0.057816486805677414
1.8230079412460327 0.010181639343500137 0.15949499607086182 75.0 10 -0.057814180850982666
2.2499213218688965 0.012173309922218323 -0.35635775327682495 100.0 3 -0.05781187862157822
3.6207590103149414 0.018960099667310715 0.44457942247390747 11.0 11 -0.05780957266688347
2.2431254386901855 0.01135356817394495 -0.2754247188568115 100.0 4 -0.05780727043747902
3.6287240982055664 0.017733458429574966 0.5747402906417847 100.0 12 -0.05780496448278427
2.257350444793701 0.011031599715352058 -0.19749490916728973 59.0 5 -0.05780266225337982
3.6437599658966064 0.017172742635011673 0.708283007144928 93.0 13 -0.05780036002397537
1.9253379106521606 0.008737021125853062 -0.10090373456478119 50.0 6 -0.057798054069280624
3.6616480350494385 0.015977198258042336 0.8453661203384399 94.0 14 -0.057795751839876175
1.879697322845459 0.007874692790210247 -0.032810524106025696 27.0 7 -0.05779344588518143
3.6453747749328613 0.014633768238127232 0.9767830967903137 117.0 15 -0.05779114365577698
2.0805962085723877 0.005810413509607315 -0.5574962496757507 37.0 0 -0.05777040496468544
3.5794427394866943 0.009369789622724056 0.062479615211486816 70.0 8 -0.05776810273528099
2.17673659324646 0.005319118034094572 -0.5025407075881958 79.0 1 -0.05776579678058624
3.6250159740448 0.008225513622164726 0.18997953832149506 91.0 9 -0.05776349455118179
2.2263247966766357 0.005051747430115938 -0.4327548146247864 100.0 2 -0.057761188596487045
3.620163917541504 0.007580974139273167 0.31672394275665283 33.0 10 -0.057758886367082596
2.2400732040405273 0.004301053937524557 -0.35479339957237244 81.0 3 -0.05775658041238785
3.620802879333496 0.006320212036371231 0.44457942247390747 11.0 11 -0.0577542781829834
2.2749128341674805 0.0035728146322071552 -0.27932456135749817 88.0 4 -0.05775197595357895
3.6327145099639893 0.005073020700365305 0.5753660202026367 100.0 12 -0.0577496699988842
2.277298927307129 0.003180206986144185 -0.19923801720142365 58.0 5 -0.05774736776947975
3.6398708820343018 0.00444777449592948 0.7075197696685791 93.0 13 -0.057745061814785004
1.9313485622406006 0.002022044500336051 -0.10121775418519974 49.0 6 -0.057742759585380554
3.6753225326538086 0.003208241192623973 0.8485153913497925 100.0 14 -0.057740453630685806
1.9117083549499512 0.001335121225565672 -0.033369001001119614 3.0 7 -0.05773815140128136
3.6531310081481934 0.0019120210781693459 0.9788536429405212 117.0 15 -0.05773584544658661
2.0863986015319824 -0.0021848720498383045 -0.559049129486084 40.0 0 -0.05771511048078537
3.5894505977630615 -0.004385343287140131 0.06265413761138916 84.0 8 -0.05771280452609062
2.1747920513153076 -0.003036584472283721 -0.5020908117294312 77.0 1 -0.05771050229668617
3.6150355339050293 -0.005047544836997986 0.18945617973804474 85.0 9 -0.057708196341991425
2.23221755027771 -0.003506361972540617 -0.4338997006416321 86.0 2 -0.057705894112586975
3.626143217086792 -0.006328819785267115 0.3172468841075897 33.0 10 -0.057703591883182526
2.242048740386963 -0.004304429516196251 -0.35510629415512085 68.0 3 -0.05770128592848778
3.6227853298187256 -0.007587554398924112 0.44482314586639404 12.0 11 -0.05769898369908333
2.2590301036834717 -0.004731308203190565 -0.27737462520599365 78.0 4 -0.05769667774438858
3.6406102180480957 -0.008260296657681465 0.5766174793243408 100.0 12 -0.05769437551498413
2.2753021717071533 -0.0055596232414245605 -0.1990637183189392 37.0 5 -0.05769206956028938
3.647714138031006 -0.00954971369355917 0.7090462446212769 96.0 13 -0.057689767330884933
1.9193594455718994 -0.005024882033467293 -0.10058971494436264 44.0 6 -0.057687461376190186
3.661668539047241 -0.010225333273410797 0.8453661203384399 100.0 14 -0.057685159146785736
3.6114342212677 -0.010715372860431671 -0.06303809583187103 71.0 7 -0.05768285319209099
3.6569771766662598 -0.011488770134747028 0.9798889756202698 115.0 15 -0.05768055096268654
2.0902435779571533 -0.009120466187596321 -0.5600844025611877 44.0 0 -0.0576598159968853
3.601414442062378 -0.01634281314909458 0.06286356598138809 68.0 8 -0.05765751004219055
2.1806163787841797 -0.010275987908244133 -0.5034404993057251 64.0 1 -0.0576552078127861
3.603015422821045 -0.01697893626987934 0.18882815539836884 85.0 9 -0.057652901858091354
2.2184510231018066 -0.010841483250260353 -0.4312283396720886 75.0 2 -0.057650599628686905
3.624110221862793 -0.018343426287174225 0.3170726001262665 40.0 10 -0.05764829367399216
2.253873825073242 -0.011801362968981266 -0.356983482837677 69.0 3 -0.05764599144458771
3.614800214767456 -0.019558142870664597 0.443848192691803 17.0 11 -0.05764368548989296
2.247091770172119 -0.012158054858446121 -0.27591222524642944 78.0 4 -0.05764138326048851
3.6326613426208496 -0.020288819447159767 0.5753660202026367 100.0 12 -0.05763907730579376
2.0859973430633545 -0.012014614418148994 -0.18250411748886108 25.0 5 -0.05763677507638931
3.647662401199341 -0.021645918488502502 0.7090462446212769 93.0 13 -0.057634469121694565
1.9333107471466064 -0.011810069903731346 -0.10132241994142532 45.0 6 -0.057632166892290115
3.659666061401367 -0.022355904802680016 0.8449162244796753 97.0 14 -0.05762986093759537
3.617377996444702 -0.022728953510522842 -0.0631428062915802 100.0 7 -0.05762755870819092
3.6646461486816406 -0.02366558276116848 0.9819594621658325 115.0 15 -0.05762525275349617
2.0728156566619873 -0.015918394550681114 -0.5554257035255432 37.0 0 -0.05760451778769493
2.1844675540924072 -0.01753840409219265 -0.5043402910232544 61.0 1 -0.057599909603595734
3.6288976669311523 -0.0297686867415905 0.19018888473510742 54.0 9 -0.057597607374191284
2.2066237926483154 -0.018101444467902184 -0.4289386570453644 62.0 2 -0.057595301419496536
3.6240293979644775 -0.03036130778491497 0.3170726001262665 38.0 10 -0.05759299919009209
2.243946075439453 -0.019190946593880653 -0.3554191291332245 71.0 3 -0.05759069323539734
3.6266257762908936 -0.03164908289909363 0.4453106224536896 28.0 11 -0.05758839100599289
2.2549755573272705 -0.020072471350431442 -0.2768871784210205 80.0 4 -0.05758608505129814
3.632568359375 -0.032969046384096146 0.5753660202026367 100.0 12 -0.05758378282189369
1.9365198612213135 -0.01791379228234291 -0.16943076252937317 32.0 5 -0.057581476867198944
3.6514971256256104 -0.033778201788663864 0.7098095417022705 92.0 13 -0.057579174637794495
1.9372552633285522 -0.01825874112546444 -0.10153176635503769 42.0 6 -0.05757686868309975
3.6673600673675537 -0.03520521521568298 0.8467158079147339 91.0 14 -0.0575745664536953
3.597280740737915 -0.035160377621650696 -0.06279376149177551 98.0 7 -0.05757226049900055
3.6529507637023926 -0.03634212911128998 0.9788536429405212 115.0 15 -0.0575699582695961
2.068880081176758 -0.023471707478165627 -0.5543904304504395 33.0 0 -0.05754922330379486
2.3414926528930664 -0.02656453102827072 0.040873534977436066 2.0 8 -0.05754691734910011
2.1882901191711426 -0.025208404287695885 -0.5052400827407837 56.0 1 -0.05754461511969566
2.200653314590454 -0.026119107380509377 -0.42779380083084106 61.0 2 -0.057540006935596466
3.615924596786499 -0.0435478612780571 0.31637534499168396 40.0 10 -0.05753770098090172
2.235959768295288 -0.027318762615323067 -0.3541676700115204 74.0 3 -0.05753539875149727
3.626493215560913 -0.04430817812681198 0.4453106224536896 33.0 11 -0.05753309279680252
2.2529070377349854 -0.027919083833694458 -0.27664345502853394 91.0 4 -0.05753079056739807
3.640331983566284 -0.04574816673994064 0.5766174793243408 100.0 12 -0.05752848461270332
1.9244920015335083 -0.02452109381556511 -0.16838489472866058 37.0 5 -0.057526182383298874
3.657238006591797 -0.04723744839429855 0.7109543085098267 99.0 13 -0.057523876428604126
1.9411696195602417 -0.025411304086446762 -0.10174111276865005 43.0 6 -0.057521574199199677
3.6672065258026123 -0.04864652082324028 0.8467158079147339 91.0 14 -0.05751927196979523
3.599135160446167 -0.0477435365319252 -0.0628286600112915 93.0 7 -0.05751696601510048
3.652801513671875 -0.049093086272478104 0.9788536429405212 115.0 15 -0.05751466378569603
2.072648763656616 -0.030750619247555733 -0.5554257035255432 19.0 0 -0.05749392509460449
2.313387155532837 -0.034726157784461975 0.040384870022535324 1.0 8 -0.05749162286520004
2.178440570831299 -0.033080775290727615 -0.5029906034469604 55.0 1 -0.057489316910505295
2.3445117473602295 -0.03560265526175499 0.1228848323225975 1.0 9 -0.057487014681100845
2.196622610092163 -0.03374035656452179 -0.4270305633544922 59.0 2 -0.0574847087264061
3.621727228164673 -0.05626237392425537 0.31689828634262085 46.0 10 -0.05748240649700165
2.2299253940582275 -0.035030465573072433 -0.3532290756702423 78.0 3 -0.0574801005423069
3.620352029800415 -0.05750506371259689 0.44457942247390747 39.0 11 -0.05747779831290245
2.2587437629699707 -0.036271832883358 -0.27737462520599365 90.0 4 -0.0574754923582077
3.6401500701904297 -0.05845502018928528 0.5766174793243408 100.0 12 -0.05747319012880325
1.9243947267532349 -0.031238676980137825 -0.16838489472866058 49.0 5 -0.057470887899398804
3.6531248092651367 -0.05993888899683952 0.7101911306381226 99.0 13 -0.057468581944704056
1.9290870428085327 -0.03198840841650963 -0.10111307352781296 42.0 6 -0.057466279715299606
3.6806535720825195 -0.06167570874094963 0.8498651385307312 100.0 14 -0.05746397376060486
3.6009461879730225 -0.060340072959661484 -0.06286356598138809 85.0 7 -0.05746167153120041
3.660334587097168 -0.061974264681339264 0.9809242486953735 115.0 15 -0.05745936557650566
2.07446026802063 -0.038020722568035126 -0.5559433102607727 9.0 0 -0.05743863061070442
2.2932658195495605 -0.04203099384903908 0.04003582149744034 3.0 8 -0.057436324656009674
2.15883469581604 -0.03994405269622803 -0.4984915554523468 56.0 1 -0.057434022426605225
2.314419746398926 -0.04322686418890953 0.12131475657224655 2.0 9 -0.05743171647191048
2.1964914798736572 -0.04140779376029968 -0.4270305633544922 66.0 2 -0.05742941424250603
3.6354527473449707 -0.06916952133178711 0.31811845302581787 48.0 10 -0.05742711201310158
2.223871946334839 -0.04231224209070206 -0.35229045152664185 74.0 3 -0.05742480605840683
3.6260955333709717 -0.06962459534406662 0.4453106224536896 41.0 11 -0.05742250382900238
2.2427334785461426 -0.043454255908727646 -0.2754247188568115 78.0 4 -0.05742019787430763
3.6478240489959717 -0.07131560891866684 0.5778689980506897 100.0 12 -0.05741789564490318
1.926266074180603 -0.037995170801877975 -0.1685592085123062 54.0 5 -0.057415589690208435
3.658794641494751 -0.07216890901327133 0.7113359570503235 96.0 13 -0.057413287460803986
1.934960961341858 -0.038504522293806076 -0.1014270931482315 40.0 6 -0.05741098150610924
3.66679048538208 -0.07360708713531494 0.8467158079147339 97.0 14 -0.05740867927670479
3.6678214073181152 -0.07490861415863037 0.9829947352409363 113.0 15 -0.05740407109260559
2.0820484161376953 -0.04506690427660942 -0.558013916015625 7.0 0 -0.05738333240151405
2.293104887008667 -0.05003573000431061 0.04003582149744034 7.0 8 -0.057381030172109604
2.154785633087158 -0.04739385098218918 -0.4975917637348175 57.0 1 -0.057378727942705154
2.302273988723755 -0.05103983357548714 0.12068671733140945 6.0 9 -0.057376421988010406
2.1806399822235107 -0.04834328591823578 -0.4239776134490967 68.0 2 -0.05737411975860596
3.637195587158203 -0.08126924186944962 0.3182927668094635 42.0 10 -0.05737181380391121
2.2276601791381836 -0.05016368627548218 -0.3529161810874939 71.0 3 -0.05736951157450676
3.6357533931732178 -0.08250678330659866 0.4465293288230896 46.0 11 -0.05736720561981201
2.2405834197998047 -0.051237210631370544 -0.27518099546432495 64.0 4 -0.05736490339040756
3.6357035636901855 -0.08377541601657867 0.5759917497634888 100.0 12 -0.057362597435712814
1.9281213283538818 -0.04442858323454857 -0.16873352229595184 59.0 5 -0.057360295206308365
3.662445545196533 -0.0850311815738678 0.7120991945266724 96.0 13 -0.05735798925161362
1.9507886171340942 -0.04563220962882042 -0.10226447135210037 23.0 6 -0.05735568702220917
3.664562702178955 -0.08636021614074707 0.8462659120559692 94.0 14 -0.05735338106751442
2.3169941902160645 -0.055007610470056534 -0.0404546782374382 15.0 7 -0.05735107883810997
3.6791253089904785 -0.08798837661743164 0.9861006140708923 111.0 15 -0.05734877288341522
2.062566041946411 -0.05184885486960411 -0.5528374910354614 11.0 0 -0.05732803791761398
2.2889182567596436 -0.057938650250434875 0.03996601328253746 17.0 8 -0.057325735688209534
2.1507108211517334 -0.0548158623278141 -0.4966919720172882 71.0 1 -0.057323429733514786
2.298088788986206 -0.05897348374128342 0.12047737836837769 2.0 9 -0.057321127504110336
2.166719675064087 -0.0556022971868515 -0.421306312084198 75.0 2 -0.05731882154941559
3.6408729553222656 -0.09406784921884537 0.31864139437675476 42.0 10 -0.05731651932001114
2.2373452186584473 -0.058196187019348145 -0.3544805347919464 78.0 3 -0.05731421336531639
3.6354432106018066 -0.09519743919372559 0.4465293288230896 66.0 11 -0.05731191113591194
2.2443597316741943 -0.05916260927915573 -0.2756684720516205 57.0 4 -0.057309605181217194
3.639338493347168 -0.09657067805528641 0.5766174793243408 100.0 12 -0.057307302951812744
1.9299461841583252 -0.051211562007665634 -0.16890782117843628 62.0 5 -0.057304996997117996
3.6660516262054443 -0.09791981428861618 0.7128624320030212 92.0 13 -0.05730269476771355
1.9586035013198853 -0.05265616625547409 -0.1026831567287445 11.0 6 -0.0573003888130188
3.6700830459594727 -0.0993095263838768 0.8476155996322632 97.0 14 -0.05729808658361435
2.278808116912842 -0.062060754746198654 -0.03979148715734482 41.0 7 -0.0572957806289196
3.6672091484069824 -0.1005128026008606 0.9829947352409363 115.0 15 -0.05729347839951515
2.0546483993530273 -0.05882708728313446 -0.5507669448852539 17.0 0 -0.05727274343371391
2.2767088413238525 -0.06558263301849365 0.03975658118724823 23.0 8 -0.057270437479019165
2.1602461338043213 -0.06260517239570618 -0.49894148111343384 66.0 1 -0.057268135249614716
2.287886619567871 -0.0667039155960083 0.11995401978492737 2.0 9 -0.05726582929491997
2.1704373359680176 -0.0632796511054039 -0.4220695197582245 75.0 2 -0.05726352706551552
3.6206071376800537 -0.10619217902421951 0.31689828634262085 46.0 10 -0.05726122111082077
2.199612617492676 -0.06489873677492142 -0.34853604435920715 75.0 3 -0.05725891888141632
3.6410412788391113 -0.10806357115507126 0.4472605288028717 73.0 11 -0.05725661292672157
2.2163610458374023 -0.06616722047328949 -0.27225613594055176 54.0 4 -0.05725431069731712
3.642928123474121 -0.10939232259988785 0.5772432088851929 100.0 12 -0.057252004742622375
1.9197981357574463 -0.05764900520443916 -0.16803626716136932 66.0 5 -0.057249702513217926
3.6558759212493896 -0.11041979491710663 0.7109543085098267 100.0 13 -0.05724739655852318
2.0083162784576416 -0.061008770018815994 -0.10529995709657669 31.0 6 -0.05724509432911873
3.6852967739105225 -0.11259600520133972 0.8512148261070251 97.0 14 -0.05724278837442398
2.276578664779663 -0.06995347887277603 -0.03975658118724823 58.0 7 -0.05724048614501953
3.655250310897827 -0.11295512318611145 0.9798889756202698 113.0 15 -0.05723818391561508
2.056361198425293 -0.06606081128120422 -0.5512846112251282 24.0 0 -0.057217445224523544
2.250483512878418 -0.0726902037858963 0.03930281847715378 25.0 8 -0.057215142995119095
2.1483280658721924 -0.06976594775915146 -0.49624204635620117 64.0 1 -0.05721283704042435
2.285644054412842 -0.07462456077337265 0.11984935402870178 2.0 9 -0.0572105348110199
2.1760897636413574 -0.07104769349098206 -0.4232143759727478 78.0 2 -0.05720822885632515
3.6341536045074463 -0.11928735673427582 0.31811845302581787 38.0 10 -0.0572059266269207
2.219115734100342 -0.0732279121875763 -0.3516647219657898 91.0 3 -0.05720362067222595
3.6327056884765625 -0.12050927430391312 0.44628557562828064 68.0 11 -0.0572013184428215
2.216116428375244 -0.07390335947275162 -0.27225613594055176 49.0 4 -0.057199012488126755
3.654369592666626 -0.12250495702028275 0.5791204571723938 98.0 12 -0.057196710258722305
1.9255590438842773 -0.06455026566982269 -0.1685592085123062 72.0 5 -0.05719440430402756
3.65350604057312 -0.12311438471078873 0.7105727195739746 96.0 13 -0.05719210207462311
2.2176830768585205 -0.07511809468269348 -0.11629050970077515 27.0 6 -0.05718979984521866
3.6848812103271484 -0.12545940279960632 0.8512148261070251 100.0 14 -0.05718749389052391
2.270324945449829 -0.0776946097612381 -0.039651867002248764 54.0 7 -0.05718519166111946
3.6664180755615234 -0.12611210346221924 0.9829947352409363 115.0 15 -0.05718288570642471
2.067702054977417 -0.07365106791257858 -0.5543904304504395 30.0 0 -0.057162150740623474
2.2542128562927246 -0.0806884765625 0.039372626692056656 33.0 8 -0.057159844785928726
2.144176483154297 -0.07712449133396149 -0.4953422546386719 64.0 1 -0.05715754255652428
2.2574400901794434 -0.08119849860668182 0.11838394403457642 2.0 9 -0.05715523660182953
2.175828456878662 -0.07864323258399963 -0.4232143759727478 82.0 2 -0.05715293437242508
3.6436705589294434 -0.13233375549316406 0.31898999214172363 46.0 10 -0.05715062841773033
2.201079845428467 -0.08032526075839996 -0.3488488793373108 85.0 3 -0.05714832618832588
3.632262945175171 -0.13318902254104614 0.44628557562828064 70.0 11 -0.05714602395892143
2.1682348251342773 -0.07988449931144714 -0.26640641689300537 53.0 4 -0.057143718004226685
3.6697356700897217 -0.13520444929599762 0.5816234350204468 100.0 12 -0.057141415774822235
1.9332860708236694 -0.0715661346912384 -0.16925644874572754 72.0 5 -0.05713910982012749
3.664825201034546 -0.1363045573234558 0.7128624320030212 92.0 13 -0.05713680759072304
2.2992377281188965 -0.08591658622026443 -0.12058205902576447 22.0 6 -0.05713450163602829
3.676631450653076 -0.1380288302898407 0.8494152426719666 97.0 14 -0.05713219940662384
2.2660582065582275 -0.08507281541824341 -0.039582058787345886 47.0 7 -0.05712989345192909
3.6775624752044678 -0.13870655000209808 0.9861006140708923 113.0 15 -0.05712759122252464
2.0635712146759033 -0.08071722090244293 -0.5533550977706909 37.0 0 -0.057106852531433105
2.251934766769409 -0.0880851224064827 0.039337724447250366 44.0 8 -0.057104550302028656
2.151697874069214 -0.08454044163227081 -0.49714183807373047 68.0 1 -0.05710224807262421
2.2571427822113037 -0.08907794207334518 0.11838394403457642 3.0 9 -0.05709994211792946
2.161808490753174 -0.08569347113370895 -0.42054301500320435 75.0 2 -0.05709763988852501
3.6531403064727783 -0.14544804394245148 0.3198615610599518 64.0 10 -0.05709533393383026
2.200801372528076 -0.08762386441230774 -0.3488488793373108 87.0 3 -0.05709303170442581
3.637752056121826 -0.14547128975391388 0.44701680541038513 81.0 11 -0.057090725749731064
1.9973777532577515 -0.0802229791879654 -0.2454448938369751 51.0 4 -0.057088423520326614
3.6652939319610596 -0.14785414934158325 0.5809977054595947 100.0 12 -0.057086117565631866
1.940987467765808 -0.07863674312829971 -0.16995368897914886 72.0 5 -0.05708381533622742
3.6721999645233154 -0.14877469837665558 0.714388906955719 96.0 13 -0.05708150938153267
2.304927110671997 -0.09378426522016525 -0.12089607119560242 27.0 6 -0.05707920715212822
3.6781005859375 -0.1502998024225235 0.8498651385307312 94.0 14 -0.05707690119743347
2.24576735496521 -0.0921623706817627 -0.0392330102622509 43.0 7 -0.05707459896802902
3.684776782989502 -0.15186099708080292 0.9881711006164551 113.0 15 -0.057072293013334274
2.055572032928467 -0.08723219484090805 -0.5512846112251282 49.0 0 -0.057051558047533035
2.2516136169433594 -0.09594530612230301 0.039337724447250366 47.0 8 -0.057049255818128586
2.1572306156158447 -0.0923006609082222 -0.4984915554523468 74.0 1 -0.05704694986343384
2.272798538208008 -0.09724542498588562 0.11922132223844528 3.0 9 -0.05704464763402939
2.161512613296509 -0.09286181628704071 -0.42054301500320435 75.0 2 -0.05704234167933464
3.638704299926758 -0.15696044266223907 0.31864139437675476 43.0 10 -0.05704003944993019
2.208376169204712 -0.09564746171236038 -0.3501003682613373 83.0 3 -0.05703773349523544
3.653087615966797 -0.15885846316814423 0.44896671175956726 93.0 11 -0.057035431265830994
1.985186219215393 -0.08667510002851486 -0.2439824491739273 49.0 4 -0.057033125311136246
3.658863067626953 -0.15974940359592438 0.5800590515136719 100.0 12 -0.057030823081731796
1.9287731647491455 -0.08454933017492294 -0.16890782117843628 79.0 5 -0.05702851712703705
3.6755805015563965 -0.16176480054855347 0.7151521444320679 92.0 13 -0.0570262148976326
2.3145623207092285 -0.10227020829916 -0.12141943722963333 45.0 6 -0.05702390894293785
3.683394193649292 -0.1633969247341156 0.8512148261070251 91.0 14 -0.0570216067135334
2.2394564151763916 -0.09934323281049728 -0.039128296077251434 49.0 7 -0.057019300758838654
3.672673463821411 -0.16356362402439117 0.9850653409957886 113.0 15 -0.057016998529434204
2.0552549362182617 -0.09440694749355316 -0.5512846112251282 49.0 0 -0.056996263563632965
2.2432925701141357 -0.10304433852434158 0.03919810429215431 51.0 8 -0.05699395760893822
2.1608059406280518 -0.09963329881429672 -0.4993913471698761 74.0 1 -0.05699165537953377
2.264464855194092 -0.10480901598930359 0.11880263686180115 4.0 9 -0.05698934942483902
2.1670587062835693 -0.1006796807050705 -0.42168790102005005 82.0 2 -0.05698704719543457
3.6341538429260254 -0.16947531700134277 0.3182927668094635 41.0 10 -0.05698474124073982
2.1902878284454346 -0.10214199870824814 -0.34728455543518066 66.0 3 -0.05698243901133537
3.6545238494873047 -0.17106446623802185 0.44921043515205383 100.0 11 -0.056980133056640625
1.9690245389938354 -0.09251242130994797 -0.24203252792358398 46.0 4 -0.056977830827236176
3.658282995223999 -0.172520250082016 0.5800590515136719 100.0 12 -0.05697552487254143
1.9284663200378418 -0.09128150343894958 -0.16890782117843628 75.0 5 -0.05697322264313698
3.6750240325927734 -0.1739525943994522 0.7151521444320679 96.0 13 -0.05697091668844223
2.306230306625366 -0.10956589132547379 -0.121000736951828 46.0 6 -0.05696861445903778
3.6847786903381348 -0.17570343613624573 0.8516647815704346 94.0 14 -0.05696630850434303
2.2490830421447754 -0.10763776302337646 -0.03930281847715378 56.0 7 -0.05696400627493858
3.6720800399780273 -0.1763826608657837 0.9850653409957886 113.0 15 -0.056961700320243835
2.052983522415161 -0.10148517787456512 -0.5507669448852539 46.0 0 -0.05692863464355469
2.238905429840088 -0.11106758564710617 0.039128296077251434 55.0 8 -0.05692633241415024
2.1506946086883545 -0.10706791281700134 -0.49714183807373047 81.0 1 -0.05692402645945549
2.276034116744995 -0.11370591074228287 0.11943066120147705 3.0 9 -0.05692172423005104
2.1706154346466064 -0.10843942314386368 -0.42245110869407654 82.0 2 -0.05691941827535629
3.645479679107666 -0.1827584058046341 0.3193386495113373 46.0 10 -0.05691711604595184
2.17214298248291 -0.10927585512399673 -0.34446874260902405 69.0 3 -0.056914810091257095
3.6479241847991943 -0.18415755033493042 0.44847920536994934 96.0 11 -0.056912507861852646
1.9686721563339233 -0.09972863644361496 -0.24203252792358398 51.0 4 -0.0569102019071579
3.6734087467193604 -0.18672960996627808 0.5825620293617249 100.0 12 -0.05690789967775345
1.9420647621154785 -0.09872057288885117 -0.1701280176639557 59.0 5 -0.0569055937230587
3.6606369018554688 -0.18672096729278564 0.7124808430671692 99.0 13 -0.05690329149365425
2.2998294830322266 -0.1177116334438324 -0.12068671733140945 44.0 6 -0.0569009855389595
3.699679374694824 -0.19000723958015442 0.8552640080451965 100.0 14 -0.056898683309555054
2.2386879920959473 -0.11536577343940735 -0.039128296077251434 68.0 7 -0.056896377354860306
3.679126024246216 -0.19023935496807098 0.9871358871459961 113.0 15 -0.056894075125455856
2.0564749240875244 -0.10885504633188248 -0.5518022775650024 44.0 0 -0.05687334015965462
2.2345101833343506 -0.11867004632949829 0.039058487862348557 54.0 8 -0.05687103420495987
2.140577793121338 -0.11405615508556366 -0.49489232897758484 77.0 1 -0.05686873197555542
2.267645835876465 -0.12122359871864319 0.11901197582483292 3.0 9 -0.05686642602086067
2.1702237129211426 -0.11601562052965164 -0.42245110869407654 82.0 2 -0.05686412379145622
3.6448192596435547 -0.19548240303993225 0.3193386495113373 41.0 10 -0.056861817836761475
2.173720598220825 -0.11696351319551468 -0.3447815775871277 91.0 3 -0.056859515607357025
3.645277261734009 -0.19678308069705963 0.44823548197746277 100.0 11 -0.05685720965266228
1.9544368982315063 -0.1058485135436058 -0.24032637476921082 59.0 4 -0.05685490742325783
3.678652048110962 -0.19987258315086365 0.5835006237030029 96.0 12 -0.05685260146856308
1.9436976909637451 -0.10560713708400726 -0.17030231654644012 72.0 5 -0.05685029923915863
3.673685312271118 -0.20024581253528595 0.7151521444320679 92.0 13 -0.05684799328446388
2.301398754119873 -0.12584787607192993 -0.12079139798879623 35.0 6 -0.05684569105505943
3.6873185634613037 -0.20227991044521332 0.8525645732879639 94.0 14 -0.056843385100364685
2.24625825881958 -0.12361907213926315 -0.03926791250705719 98.0 7 -0.056841082870960236
3.686155319213867 -0.2035067081451416 0.9892064332962036 111.0 15 -0.05683877691626549
2.0599400997161865 -0.11625051498413086 -0.5528374910354614 44.0 0 -0.05681804195046425
2.246061325073242 -0.12714733183383942 0.03926791250705719 52.0 8 -0.0568157397210598
2.1498947143554688 -0.12207986414432526 -0.49714183807373047 79.0 1 -0.05681343376636505
2.269202709197998 -0.12925200164318085 0.1191166415810585 3.0 9 -0.0568111315369606
2.1619653701782227 -0.12314384430646896 -0.42092466354370117 82.0 2 -0.056808825582265854
3.669973611831665 -0.2096814066171646 0.3216046690940857 67.0 10 -0.056806523352861404
2.161466360092163 -0.12387238442897797 -0.34290438890457153 81.0 3 -0.056804217398166656
3.6445682048797607 -0.20950627326965332 0.44823548197746277 100.0 11 -0.05680191516876221
1.9520738124847412 -0.1125558614730835 -0.24008263647556305 62.0 4 -0.05679960921406746
3.6601829528808594 -0.21168577671051025 0.5806847810745239 100.0 12 -0.05679730698466301
1.953262448310852 -0.11296645551919937 -0.17117387056350708 60.0 5 -0.05679500102996826
3.6808037757873535 -0.21352295577526093 0.7166786193847656 93.0 13 -0.05679269880056381
2.3109147548675537 -0.13446055352687836 -0.12131475657224655 32.0 6 -0.056790392845869064
3.6865899562835693 -0.21514981985092163 0.8525645732879639 100.0 14 -0.056788090616464615
2.217865467071533 -0.12982329726219177 -0.03877924755215645 79.0 7 -0.056785788387060165
3.689279556274414 -0.2165990024805069 0.9902417063713074 113.0 15 -0.05678348243236542
2.049879789352417 -0.12286242097616196 -0.5502493381500244 49.0 0 -0.05676274746656418
2.2515921592712402 -0.13534674048423767 0.039372626692056656 45.0 8 -0.05676044151186943
2.153345823287964 -0.12981818616390228 -0.49804162979125977 79.0 1 -0.05675813928246498
2.26873779296875 -0.13717220723628998 0.1191166415810585 1.0 9 -0.05675583332777023
2.163482189178467 -0.1308082640171051 -0.421306312084198 89.0 2 -0.056753531098365784
3.62546706199646 -0.2198377400636673 0.3177698254585266 52.0 10 -0.056751225143671036
2.164964199066162 -0.13165634870529175 -0.3435301184654236 81.0 3 -0.056748922914266586
3.655703067779541 -0.2229519635438919 0.44969791173934937 100.0 11 -0.05674661695957184
1.963557243347168 -0.12009631097316742 -0.24154506623744965 62.0 4 -0.05674431473016739
3.663364887237549 -0.22470279037952423 0.581310510635376 98.0 12 -0.05674201250076294
1.9608110189437866 -0.12027184665203094 -0.1718711256980896 54.0 5 -0.05673970654606819
3.6878743171691895 -0.2268521934747696 0.7182050943374634 93.0 13 -0.05673740431666374
2.324385643005371 -0.14338713884353638 -0.12204745411872864 32.0 6 -0.056735098361968994
3.689706563949585 -0.22825776040554047 0.8534643650054932 94.0 14 -0.056732796132564545
2.211411237716675 -0.13719284534454346 -0.03867453336715698 43.0 7 -0.0567304901778698
3.6846446990966797 -0.22923575341701508 0.9892064332962036 111.0 15 -0.05672818794846535
2.049438238143921 -0.13001708686351776 -0.5502493381500244 55.0 0 -0.05670744925737381
2.249110460281372 -0.1430784910917282 0.039337724447250366 42.0 8 -0.05670514702796936
2.150934934616089 -0.1372099220752716 -0.4975917637348175 74.0 1 -0.05670284107327461
2.300161600112915 -0.1467292308807373 0.12079139798879623 1.0 9 -0.05670053884387016
2.1630125045776367 -0.1383594125509262 -0.421306312084198 89.0 2 -0.056698232889175415
3.6246774196624756 -0.2324916124343872 0.3177698254585266 57.0 10 -0.056695930659770966
2.154635190963745 -0.13857874274253845 -0.34196579456329346 87.0 3 -0.056693628430366516
3.6628267765045166 -0.23622241616249084 0.45067286491394043 100.0 11 -0.05669132247567177
1.9750118255615234 -0.1277182698249817 -0.24300749599933624 60.0 4 -0.05668902024626732
3.676398754119873 -0.23774202167987823 0.5835006237030029 96.0 12 -0.05668671429157257
1.950438141822815 -0.12647101283073425 -0.17099957168102264 50.0 5 -0.05668441206216812
