# .PCD v0.7 - Point Cloud Data file format
VERSION 0.7
FIELDS x y z intensity ring time
SIZE 4 4 4 4 4 4
TYPE F F F F F F
COUNT 1 1 1 1 1 1
WIDTH 534
HEIGHT 1
VIEWPOINT 0 0 0 1 0 0 0
POINTS 534
DATA ascii
3.6292452812194824 0.1419602334499359 0.7059933543205261 96.0 13 -0.02774139493703842
1.804154872894287 0.07025531679391861 -0.09462341666221619 99.0 6 -0.027739090844988823
3.645303726196289 0.14131233096122742 0.8422167897224426 97.0 14 -0.027736786752939224
1.7983872890472412 0.0694020614027977 -0.03141433000564575 100.0 7 -0.027734482660889626
3.6388564109802246 0.13979209959506989 0.97574782371521 117.0 15 -0.027732178568840027
2.299245595932007 0.08551496267318726 -0.6165069937705994 55.0 0 -0.027711443603038788
1.8004924058914185 0.06665036827325821 0.03144923597574234 99.0 8 -0.02770913951098919
2.260953187942505 0.0833015963435173 -0.5223363637924194 50.0 1 -0.02770683541893959
1.812293291091919 0.06645377725362778 0.09504210948944092 84.0 9 -0.027704531326889992
2.2444546222686768 0.08230040967464447 -0.43657100200653076 29.0 2 -0.027702227234840393
1.8397431373596191 0.06713881343603134 0.1610638052225113 98.0 10 -0.027699923142790794
1.7845640182495117 0.06481412053108215 -0.2828335464000702 100.0 3 -0.027697619050741196
3.6045591831207275 0.1302834451198578 0.4428732097148895 96.0 11 -0.027695314958691597
1.7755094766616821 0.06386388093233109 -0.21814614534378052 99.0 4 -0.027693010866642
3.6185481548309326 0.12952612340450287 0.5734888315200806 100.0 12 -0.0276907067745924
1.795985221862793 0.06428738683462143 -0.1572289615869522 98.0 5 -0.0276884026825428
3.631680727005005 0.12935985624790192 0.7063749432563782 99.0 13 -0.027686098590493202
1.812373161315918 0.06423972547054291 -0.09504210948944092 96.0 6 -0.027683794498443604
3.6477222442626953 0.12865819036960602 0.842666745185852 100.0 14 -0.027681490406394005
1.7966201305389404 0.06305348128080368 -0.03137942776083946 100.0 7 -0.027679186314344406
3.643183469772339 0.1272231489419937 0.9767830967903137 117.0 15 -0.027676882222294807
2.241607666015625 0.07553718984127045 -0.6009778380393982 29.0 0 -0.02765614725649357
1.800714135169983 0.060365449637174606 0.03144923597574234 97.0 8 -0.02765384316444397
2.2300679683685303 0.07436907291412354 -0.5151379704475403 46.0 1 -0.02765153907239437
1.8165065050125122 0.06025924161076546 0.09525144845247269 82.0 9 -0.027649234980344772
2.2251064777374268 0.073813796043396 -0.4327548146247864 31.0 2 -0.027646930888295174
1.8320010900497437 0.06045404076576233 0.16036656498908997 100.0 10 -0.027644626796245575
1.7926766872406006 0.058843184262514114 -0.2840850353240967 100.0 3 -0.027642322704195976
3.6129279136657715 0.11795854568481445 0.443848192691803 97.0 11 -0.027640018612146378
1.7856416702270508 0.05798833444714546 -0.21936483681201935 96.0 4 -0.02763771452009678
3.615029811859131 0.11676574498414993 0.5728631019592285 100.0 12 -0.02763541042804718
1.7882332801818848 0.057760074734687805 -0.15653172135353088 93.0 5 -0.02763310633599758
3.6399595737457275 0.11693331599235535 0.7079014182090759 100.0 13 -0.027630802243947983
1.8125863075256348 0.05791335180401802 -0.09504210948944092 99.0 6 -0.027628498151898384
3.648149251937866 0.11592349410057068 0.842666745185852 100.0 14 -0.027626194059848785
1.7888344526290894 0.05652860179543495 -0.031239807605743408 97.0 7 -0.027623889967799187
3.6358819007873535 0.11426334083080292 0.974712610244751 117.0 15 -0.027621585875749588
2.137585163116455 0.06456311047077179 -0.5730253458023071 25.0 0 -0.02760085090994835
1.7869223356246948 0.05365879088640213 0.03120490349829197 100.0 8 -0.02759854681789875
2.2361574172973633 0.0667591467499733 -0.5164876580238342 67.0 1 -0.02759624272584915
1.8206984996795654 0.05403783917427063 0.09546079486608505 78.0 9 -0.027593938633799553
2.2057266235351562 0.06546536833047867 -0.4289386570453644 54.0 2 -0.027591634541749954
1.8282179832458496 0.0539407953619957 0.1600179374217987 100.0 10 -0.027589330449700356
1.7810239791870117 0.0522381067276001 -0.28220781683921814 100.0 3 -0.027587026357650757
3.6291918754577637 0.10581164807081223 0.4457980990409851 28.0 11 -0.027584722265601158
1.7878174781799316 0.05181195214390755 -0.21960857510566711 99.0 4 -0.02758241817355156
3.627262830734253 0.10448653250932693 0.5747402906417847 100.0 12 -0.02758011408150196
1.7804577350616455 0.05128766968846321 -0.15583446621894836 98.0 5 -0.027577809989452362
3.63838267326355 0.10417309403419495 0.7075197696685791 96.0 13 -0.027575505897402763
1.8167701959609985 0.05169903486967087 -0.09525144845247269 96.0 6 -0.027573203667998314
3.6524274349212646 0.10329758375883102 0.8435665369033813 94.0 14 -0.027570899575948715
1.7950177192687988 0.05045384541153908 -0.031344521790742874 100.0 7 -0.027568595483899117
3.636258602142334 0.10157007724046707 0.974712610244751 117.0 15 -0.027566291391849518
2.1377973556518555 0.05710058659315109 -0.5730253458023071 43.0 0 -0.02754555456340313
1.7890976667404175 0.04747435823082924 0.031239807605743408 100.0 8 -0.02754325047135353
2.2149484157562256 0.0583876296877861 -0.5115387439727783 68.0 1 -0.027540946379303932
1.8228726387023926 0.04773388057947159 0.09556546807289124 87.0 9 -0.027538642287254333
2.205941677093506 0.05776495859026909 -0.4289386570453644 79.0 2 -0.027536338195204735
1.828395128250122 0.04755917936563492 0.1600179374217987 100.0 10 -0.027534034103155136
1.7772459983825684 0.045918338000774384 -0.2815820574760437 100.0 3 -0.027531730011105537
3.589850425720215 0.09212329983711243 0.4409233331680298 11.0 11 -0.02752942591905594
1.789971947669983 0.045621950179338455 -0.21985231339931488 94.0 4 -0.02752712368965149
3.6236557960510254 0.0917251780629158 0.5741145610809326 100.0 12 -0.02752481959760189
1.7885929346084595 0.04527444764971733 -0.15653172135353088 93.0 5 -0.027522515505552292
3.626948356628418 0.0911751389503479 0.7052300572395325 96.0 13 -0.027520211413502693
1.800966739654541 0.04495864734053612 -0.09441407769918442 90.0 6 -0.027517907321453094
3.6605584621429443 0.09074153751134872 0.8453661203384399 100.0 14 -0.027515603229403496
1.79318368434906 0.044138070195913315 -0.031309615820646286 97.0 7 -0.027513299137353897
3.640453577041626 0.08896997570991516 0.97574782371521 117.0 15 -0.0275109950453043
2.122533082962036 0.04927965998649597 -0.5688843131065369 39.0 0 -0.02749025821685791
1.7952501773834229 0.04136752709746361 0.031344521790742874 100.0 8 -0.02748795412480831
2.187863349914551 0.05003134906291962 -0.5052400827407837 48.0 1 -0.027485650032758713
1.8210314512252808 0.0413256473839283 0.09546079486608505 78.0 9 -0.027483345940709114
2.2120184898376465 0.050198525190353394 -0.4300835132598877 94.0 2 -0.027481041848659515
1.8325337171554565 0.04126669466495514 0.16036656498908997 100.0 10 -0.027478739619255066
1.787269949913025 0.03993447497487068 -0.2831464111804962 100.0 3 -0.027476435527205467
3.6040422916412354 0.07990057021379471 0.44262948632240295 11.0 11 -0.02747413143515587
1.7861510515213013 0.039286572486162186 -0.21936483681201935 96.0 4 -0.02747182734310627
3.6318535804748535 0.07924710959196091 0.5753660202026367 100.0 12 -0.02746952325105667
1.7927237749099731 0.03911726549267769 -0.15688033401966095 98.0 5 -0.027467219159007072
3.6370584964752197 0.0787273645401001 0.707138180732727 100.0 13 -0.027464915066957474
1.8051061630249023 0.0387570895254612 -0.09462341666221619 90.0 6 -0.027462610974907875
3.653059720993042 0.07779631018638611 0.8435665369033813 100.0 14 -0.027460306882858276
1.8053224086761475 0.03813216835260391 -0.031519047915935516 100.0 7 -0.027458002790808678
3.644604444503784 0.07634355872869492 0.9767830967903137 115.0 15 -0.02745569869875908
2.1265552043914795 0.04194597154855728 -0.5699195861816406 49.0 0 -0.02743496187031269
1.7973828315734863 0.0351392924785614 0.03137942776083946 94.0 8 -0.02743265964090824
2.164644241333008 0.04194142669439316 -0.49984127283096313 74.0 1 -0.027430355548858643
1.8111741542816162 0.035092707723379135 0.09493743628263474 81.0 9 -0.027428051456809044
2.198439598083496 0.04221241548657417 -0.42741215229034424 86.0 2 -0.027425747364759445
1.8366507291793823 0.03494502231478691 0.16071519255638123 98.0 10 -0.027423443272709846
1.7952985763549805 0.033844802528619766 -0.2843979001045227 100.0 3 -0.027421139180660248
3.6042990684509277 0.06731866300106049 0.44262948632240295 8.0 11 -0.02741883508861065
1.7783325910568237 0.033214494585990906 -0.21838988363742828 100.0 4 -0.02741653099656105
3.6241960525512695 0.06705756485462189 0.5741145610809326 100.0 12 -0.02741422690451145
1.7968337535858154 0.03293265402317047 -0.1572289615869522 96.0 5 -0.027411922812461853
3.6412370204925537 0.06610148400068283 0.7079014182090759 99.0 13 -0.027409618720412254
1.807227373123169 0.03249213844537735 -0.09472808986902237 85.0 6 -0.027407314628362656
3.655245780944824 0.0657176598906517 0.8440163731575012 97.0 14 -0.027405010536313057
1.7794469594955444 0.03168202191591263 -0.031065283343195915 94.0 7 -0.027402706444263458
3.6525638103485107 0.06439413130283356 0.9788536429405212 117.0 15 -0.02740040235221386
2.103503465652466 0.0345139354467392 -0.5637079477310181 42.0 0 -0.02737966738641262
1.8014882802963257 0.029244033619761467 0.03144923597574234 97.0 8 -0.027377363294363022
2.166719913482666 0.034794699400663376 -0.5002912282943726 72.0 1 -0.027375059202313423
1.8152744770050049 0.029150942340493202 0.0951467752456665 81.0 9 -0.027372755110263824
2.200530767440796 0.034953515976667404 -0.42779380083084106 68.0 2 -0.027370451018214226
1.8267958164215088 0.028697293251752853 0.15984363853931427 95.0 10 -0.027368146926164627
1.7815749645233154 0.027676763013005257 -0.28220781683921814 98.0 3 -0.02736584283411503
3.6005327701568604 0.05530403554439545 0.4421420395374298 8.0 11 -0.02736353874206543
1.7843875885009766 0.027408119291067123 -0.21912109851837158 99.0 4 -0.02736123465001583
3.6125476360321045 0.05485796183347702 0.5722373723983765 100.0 12 -0.027358930557966232
1.7809956073760986 0.026735074818134308 -0.15583446621894836 100.0 5 -0.027356626465916634
3.653214454650879 0.054200079292058945 0.7101911306381226 99.0 13 -0.027354322373867035
1.8133163452148438 0.026586320251226425 -0.09504210948944092 80.0 6 -0.027352018281817436
3.6573922634124756 0.05362362787127495 0.8444663286209106 100.0 14 -0.027349714189767838
1.7995370626449585 0.02607102319598198 -0.03141433000564575 100.0 7 -0.02734741009771824
3.6488943099975586 0.05222513899207115 0.9778183698654175 120.0 15 -0.02734510600566864
2.099742889404297 0.027487115934491158 -0.5626726150512695 41.0 0 -0.0273243710398674
1.7895781993865967 0.02311532199382782 0.031239807605743408 99.0 8 -0.027322066947817802
2.1765663623809814 0.02773294597864151 -0.5025407075881958 68.0 1 -0.027319762855768204
1.8173621892929077 0.022838886827230453 0.09525144845247269 74.0 9 -0.027317458763718605
2.222228527069092 0.027926864102482796 -0.4319916069507599 86.0 2 -0.027315154671669006
1.814927577972412 0.022492362186312675 0.15879777073860168 95.0 10 -0.027312850579619408
1.9396753311157227 0.02369886450469494 -0.30723732709884644 100.0 3 -0.02731054648756981
3.6026813983917236 0.04338856041431427 0.442385733127594 9.0 11 -0.02730824239552021
1.8063067197799683 0.02143966220319271 -0.221802219748497 78.0 4 -0.02730593830347061
3.6206181049346924 0.04234063997864723 0.5734888315200806 100.0 12 -0.027303634211421013
1.7850589752197266 0.02087503857910633 -0.15618307888507843 91.0 5 -0.027301330119371414
3.6415956020355225 0.04195033013820648 0.7079014182090759 100.0 13 -0.027299026027321815
1.813394546508789 0.020573362708091736 -0.09504210948944092 78.0 6 -0.027296721935272217
3.663403034210205 0.04092269390821457 0.8458160161972046 97.0 14 -0.027294419705867767
1.7996171712875366 0.019788827747106552 -0.03141433000564575 91.0 7 -0.02729211561381817
3.645190715789795 0.03944675996899605 0.9767830967903137 117.0 15 -0.02728981152176857
2.0940308570861816 0.02010229043662548 -0.5611197352409363 39.0 0 -0.02726907469332218
1.7896479368209839 0.01686790958046913 0.031239807605743408 82.0 8 -0.027266770601272583
2.1708037853240967 0.020080486312508583 -0.5011910200119019 70.0 1 -0.027264466509222984
1.8314111232757568 0.016622239723801613 0.09598415344953537 52.0 9 -0.027262162417173386
2.239980936050415 0.02033049799501896 -0.43542614579200745 100.0 2 -0.027259858325123787
1.8309333324432373 0.016298340633511543 0.16019225120544434 95.0 10 -0.027257554233074188
2.2478930950164795 0.019616561010479927 -0.35604485869407654 100.0 3 -0.02725525014102459
3.6087658405303955 0.030864275991916656 0.4431169629096985 9.0 11 -0.02725294604897499
2.2470457553863525 0.018825862556695938 -0.27591222524642944 73.0 4 -0.027250641956925392
3.624694585800171 0.029733506962656975 0.5741145610809326 100.0 12 -0.027248337864875793
2.2672629356384277 0.018598444759845734 -0.1983664631843567 90.0 5 -0.027246035635471344
3.631903648376465 0.02916048839688301 0.7059933543205261 96.0 13 -0.027243731543421745
1.911318063735962 0.015012349002063274 -0.1001710295677185 50.0 6 -0.027241427451372147
3.671318292617798 0.02819366194307804 0.8476155996322632 100.0 14 -0.027239123359322548
1.8536655902862549 0.013912470079958439 -0.032356761395931244 38.0 7 -0.02723681926727295
3.651101589202881 0.02676568366587162 0.9783360362052917 120.0 15 -0.02723451517522335
2.092156410217285 0.01278027705848217 -0.560602068901062 37.0 0 -0.027213778346776962
3.589390277862549 0.021299920976161957 0.06265413761138916 79.0 8 -0.027211474254727364
2.1786556243896484 0.012549233622848988 -0.5029906034469604 74.0 1 -0.027209170162677765
3.602999210357666 0.02012302726507187 0.18882815539836884 91.0 9 -0.027206866070628166
2.2400381565093994 0.012510785833001137 -0.43542614579200745 100.0 2 -0.027204561978578568
1.8449256420135498 0.009982061572372913 0.16141243278980255 29.0 10 -0.02720225788652897
2.2499234676361084 0.011781720444560051 -0.35635775327682495 99.0 3 -0.02719995565712452
3.608851671218872 0.018266184255480766 0.4431169629096985 11.0 11 -0.02719765156507492
2.2629785537719727 0.011059103533625603 -0.2778621315956116 100.0 4 -0.027195347473025322
3.6366283893585205 0.01713913306593895 0.5759917497634888 100.0 12 -0.027193043380975723
2.2952072620391846 0.010817124508321285 -0.20080682635307312 66.0 5 -0.027190739288926125
3.6359097957611084 0.01649945229291916 0.706756591796875 92.0 13 -0.027188435196876526
1.9293339252471924 0.008418436162173748 -0.10111307352781296 49.0 6 -0.027186131104826927
3.6577534675598145 0.015323575586080551 0.8444663286209106 94.0 14 -0.02718382701277733
1.9296905994415283 0.007746431045234203 -0.03368314355611801 9.0 7 -0.02718152292072773
3.653104543685913 0.014027241617441177 0.9788536429405212 117.0 15 -0.02717921882867813
2.090256452560425 0.00547159556299448 -0.5600844025611877 40.0 0 -0.027158482000231743
3.5974416732788086 0.008790782652795315 0.06279376149177551 81.0 8 -0.027156177908182144
2.1806349754333496 0.004948072135448456 -0.5034404993057251 83.0 1 -0.027153875678777695
3.6030476093292236 0.007545130793005228 0.18882815539836884 88.0 9 -0.027151571586728096
2.232215404510498 0.0046744756400585175 -0.4338997006416321 100.0 2 -0.027149267494678497
3.630127191543579 0.006970028392970562 0.31759554147720337 35.0 10 -0.0271469634026289
2.253901243209839 0.0039342474192380905 -0.356983482837677 85.0 3 -0.0271446593105793
3.624774217605591 0.005692809820175171 0.4450668692588806 11.0 11 -0.0271423552185297
2.2669734954833984 0.003165787784382701 -0.2783496081829071 86.0 4 -0.027140051126480103
3.6287643909454346 0.0044342027977108955 0.5747402906417847 100.0 12 -0.027137747034430504
2.2832767963409424 0.002790071303024888 -0.19976095855236053 50.0 5 -0.027135442942380905
3.6477246284484863 0.003819021163508296 0.7090462446212769 96.0 13 -0.027133138850331306
1.9353433847427368 0.0016893886495381594 -0.1014270931482315 45.0 6 -0.027130834758281708
3.659733295440674 0.002555927261710167 0.8449162244796753 97.0 14 -0.02712853066623211
3.595452070236206 0.001881832373328507 -0.06275885552167892 71.0 7 -0.02712622657418251
3.6569950580596924 0.0012775595532730222 0.9798889756202698 115.0 15 -0.02712392248213291
2.0863986015319824 -0.0021848720498383045 -0.559049129486084 44.0 0 -0.027103187516331673
3.6014487743377686 -0.004400001838803291 0.06286356598138809 81.0 8 -0.027100883424282074
2.1884331703186035 -0.003055630950257182 -0.5052400827407837 81.0 1 -0.027098579332232475
3.6110410690307617 -0.005041967146098614 0.18924683332443237 85.0 9 -0.027096275240182877
2.2224011421203613 -0.003490942297503352 -0.4319916069507599 89.0 2 -0.027093971148133278
3.618173599243164 -0.0063149104826152325 0.3165496587753296 33.0 10 -0.02709166705608368
2.2479746341705322 -0.004315806552767754 -0.35604485869407654 67.0 3 -0.02708936296403408
3.6188154220581055 -0.007579239550977945 0.4443356692790985 12.0 11 -0.027087058871984482
2.2629997730255127 -0.005134591832756996 -0.2778621315956116 80.0 4 -0.027084754779934883
3.628757953643799 -0.008233404718339443 0.5747402906417847 100.0 12 -0.027082450687885284
2.12587308883667 -0.0051944986917078495 -0.1859903484582901 22.0 5 -0.027080146595835686
3.6555674076080322 -0.009570273570716381 0.7105727195739746 93.0 13 -0.027077842503786087
1.9393311738967896 -0.005415647756308317 -0.10163643956184387 45.0 6 -0.02707553841173649
3.6597180366516113 -0.010858634486794472 0.8449162244796753 97.0 14 -0.02707323431968689
3.6194329261779785 -0.010739105753600597 -0.06317771226167679 100.0 7 -0.02707093022763729
3.65311336517334 -0.01147663127630949 0.9788536429405212 117.0 15 -0.027068626135587692
2.074788808822632 -0.009053030982613564 -0.5559433102607727 40.0 0 -0.027047891169786453
3.6054139137268066 -0.01636096090078354 0.06293337792158127 44.0 8 -0.027045587077736855
2.200103521347046 -0.010367820039391518 -0.5079395174980164 79.0 1 -0.027043282985687256
3.6229848861694336 -0.017705384641885757 0.18987487256526947 88.0 9 -0.027040978893637657
2.212559461593628 -0.011198865249752998 -0.4300835132598877 70.0 2 -0.02703867480158806
3.608168125152588 -0.018892494961619377 0.31567808985710144 40.0 10 -0.02703637070953846
2.240046501159668 -0.011728962883353233 -0.35479339957237244 66.0 3 -0.02703406661748886
3.6286957263946533 -0.019633324816823006 0.44555434584617615 22.0 11 -0.027031762525439262
2.262970209121704 -0.012638941407203674 -0.2778621315956116 78.0 4 -0.027029458433389664
3.62870717048645 -0.02090008184313774 0.5747402906417847 100.0 12 -0.027027154341340065
1.9345762729644775 -0.011480141431093216 -0.16925644874572754 29.0 5 -0.027024850249290466
3.6437361240386963 -0.02162262052297592 0.708283007144928 96.0 13 -0.027022546157240868
1.9432969093322754 -0.011871072463691235 -0.10184577852487564 42.0 6 -0.02702024206519127
3.6635594367980957 -0.023019123822450638 0.8458160161972046 97.0 14 -0.02701793797314167
3.589378595352173 -0.023179518058896065 -0.06265413761138916 87.0 7 -0.02701563388109207
3.6491875648498535 -0.024202683940529823 0.9778183698654175 120.0 15 -0.027013331651687622
2.076676607131958 -0.016310513019561768 -0.556460976600647 37.0 0 -0.026992594823241234
2.186413288116455 -0.017935652285814285 -0.5047902464866638 70.0 1 -0.026987986639142036
3.6348838806152344 -0.030452243983745575 0.19050289690494537 39.0 9 -0.026985682547092438
2.2164366245269775 -0.01856881007552147 -0.4308467507362366 61.0 2 -0.02698337845504284
3.6220316886901855 -0.030976777896285057 0.31689828634262085 35.0 10 -0.02698107436299324
2.2340660095214844 -0.01949639804661274 -0.35385480523109436 69.0 3 -0.02697877027094364
3.6147098541259766 -0.032176028937101364 0.443848192691803 30.0 11 -0.026976466178894043
2.2629122734069824 -0.020538102835416794 -0.2778621315956116 80.0 4 -0.026974162086844444
3.6404638290405273 -0.033676136285066605 0.5766174793243408 100.0 12 -0.026971857994794846
1.9345242977142334 -0.018233001232147217 -0.16925644874572754 40.0 5 -0.026969553902745247
3.6436383724212646 -0.03434149920940399 0.708283007144928 96.0 13 -0.026967251673340797
1.933257818222046 -0.01855851337313652 -0.10132241994142532 44.0 6 -0.0269649475812912
3.6770973205566406 -0.035940516740083694 0.8489653468132019 94.0 14 -0.0269626434892416
3.619269847869873 -0.036007046699523926 -0.06317771226167679 100.0 7 -0.026960339397192
3.652944326400757 -0.036979686468839645 0.9788536429405212 117.0 15 -0.026958035305142403
2.0823981761932373 -0.02398856170475483 -0.558013916015625 35.0 0 -0.026937298476696014
2.3394885063171387 -0.026950161904096603 0.040838632732629776 2.0 8 -0.026934994384646416
2.1765942573547363 -0.025453610345721245 -0.5025407075881958 68.0 1 -0.026932690292596817
2.2124273777008057 -0.02664504572749138 -0.4300835132598877 61.0 2 -0.02692808210849762
3.631855010986328 -0.044373687356710434 0.3177698254585266 40.0 10 -0.02692577801644802
2.23990535736084 -0.027757961302995682 -0.35479339957237244 74.0 3 -0.026923473924398422
3.6086208820343018 -0.04471972957253456 0.4431169629096985 34.0 11 -0.026921171694993973
2.2429771423339844 -0.028187565505504608 -0.2754247188568115 88.0 4 -0.026918867602944374
3.6442742347717285 -0.04643385857343674 0.5772432088851929 100.0 12 -0.026916563510894775
1.932456612586975 -0.024959906935691833 -0.1690821349620819 49.0 5 -0.026914259418845177
3.653303384780884 -0.04782436415553093 0.7101911306381226 99.0 13 -0.026911955326795578
1.939168095588684 -0.02572360821068287 -0.10163643956184387 43.0 6 -0.02690965123474598
3.6652493476867676 -0.04926038160920143 0.8462659120559692 94.0 14 -0.02690734714269638
3.6051254272460938 -0.04845232516527176 -0.06293337792158127 87.0 7 -0.026905043050646782
3.668246269226074 -0.04994100332260132 0.9829947352409363 113.0 15 -0.026902738958597183
2.0784385204315186 -0.03119935281574726 -0.5569786429405212 24.0 0 -0.026882002130150795
2.3173797130584717 -0.0351906418800354 0.0404546782374382 2.0 8 -0.026879698038101196
2.1803832054138184 -0.03349091485142708 -0.5034404993057251 63.0 1 -0.026877393946051598
2.312547206878662 -0.03592468053102493 0.12121009081602097 2.0 9 -0.026875089854002
2.19269061088562 -0.03406274691224098 -0.4262673258781433 59.0 2 -0.02687278762459755
3.6436307430267334 -0.05723872035741806 0.3188157081604004 48.0 10 -0.02687048353254795
2.2397947311401367 -0.03557652235031128 -0.35479339957237244 74.0 3 -0.026868179440498352
3.6203417778015137 -0.05813692882657051 0.44457942247390747 39.0 11 -0.026865875348448753
2.234919548034668 -0.03627942129969597 -0.27444979548454285 88.0 4 -0.026863571256399155
3.640129566192627 -0.05972566828131676 0.5766174793243408 100.0 12 -0.026861267164349556
1.9343498945236206 -0.031737975776195526 -0.16925644874572754 54.0 5 -0.026858963072299957
3.6550774574279785 -0.06060903146862984 0.7105727195739746 96.0 13 -0.02685665898025036
1.9330754280090332 -0.032392021268606186 -0.10132241994142532 41.0 6 -0.02685435488820076
3.6650550365448 -0.062054187059402466 0.8462659120559692 94.0 14 -0.02685205079615116
3.6149206161499023 -0.06183644384145737 -0.06310790032148361 72.0 7 -0.026849746704101562
3.6680386066436768 -0.06338545680046082 0.9829947352409363 113.0 15 -0.026847442612051964
2.064795970916748 -0.03820408880710602 -0.5533550977706909 13.0 0 -0.026826707646250725
2.31524395942688 -0.04324225336313248 0.04041977599263191 3.0 8 -0.026824403554201126
2.184149980545044 -0.041175130754709244 -0.5043402910232544 59.0 1 -0.026822099462151527
2.3124077320098877 -0.04399675503373146 0.12121009081602097 2.0 9 -0.02681979537010193
2.1788179874420166 -0.04145503044128418 -0.42359596490859985 62.0 2 -0.02681749127805233
3.6314566135406494 -0.06972753256559372 0.3177698254585266 48.0 10 -0.02681518718600273
2.2376821041107178 -0.043356381356716156 -0.3544805347919464 69.0 3 -0.026812883093953133
3.630040407180786 -0.07096793502569199 0.4457980990409851 42.0 11 -0.026810579001903534
2.246687650680542 -0.04431541636586189 -0.27591222524642944 76.0 4 -0.026808274909853935
3.6319990158081055 -0.07227452099323273 0.5753660202026367 100.0 12 -0.026805970817804337
1.924267292022705 -0.038291726261377335 -0.16838489472866058 57.0 5 -0.026803666725754738
3.6646578311920166 -0.07356427609920502 0.7124808430671692 99.0 13 -0.02680136263370514
1.948925495147705 -0.03946297988295555 -0.10215979814529419 28.0 6 -0.02679905854165554
3.672609567642212 -0.075006403028965 0.8480655550956726 100.0 14 -0.026796754449605942
3.6562066078186035 -0.07594820111989975 0.9798889756202698 117.0 15 -0.026792146265506744
2.0588560104370117 -0.045283909887075424 -0.5518022775650024 11.0 0 -0.026771411299705505
2.2810919284820557 -0.05057023838162422 0.03982638940215111 7.0 8 -0.026769107207655907
2.180096387863159 -0.04871192201972008 -0.5034404993057251 63.0 1 -0.026766803115606308
2.322232961654663 -0.05188781023025513 0.12173344939947128 4.0 9 -0.02676449902355671
2.1845483779907227 -0.049192868173122406 -0.42474085092544556 68.0 2 -0.02676219493150711
3.617248058319092 -0.08208683878183365 0.3165496587753296 43.0 10 -0.026759890839457512
2.2296175956726074 -0.05098644644021988 -0.3532290756702423 69.0 3 -0.026757586747407913
3.6377086639404297 -0.0838216170668602 0.44677305221557617 50.0 11 -0.026755282655358315
2.244534492492676 -0.052111465483903885 -0.2756684720516205 61.0 4 -0.026752978563308716
3.6356890201568604 -0.08440996706485748 0.5759917497634888 100.0 12 -0.026750674471259117
1.9221299886703491 -0.0449618399143219 -0.16821058094501495 62.0 5 -0.02674837037920952
3.6604533195495605 -0.08626336604356766 0.7117176055908203 99.0 13 -0.02674606628715992
1.9587593078613281 -0.04650278016924858 -0.1026831567287445 13.0 6 -0.02674376219511032
3.672325372695923 -0.08782574534416199 0.8480655550956726 94.0 14 -0.026741458103060722
2.308988094329834 -0.05522076413035393 -0.040315061807632446 13.0 7 -0.026739154011011124
3.6636598110198975 -0.0882583037018776 0.9819594621658325 117.0 15 -0.026736849918961525
2.0606164932250977 -0.052519600838422775 -0.5523198843002319 14.0 0 -0.026716114953160286
2.274914503097534 -0.05798148363828659 0.03972167521715164 21.0 8 -0.026713810861110687
2.1643381118774414 -0.05554117634892464 -0.49984127283096313 63.0 1 -0.02671150676906109
2.310058116912842 -0.059684090316295624 0.12110541760921478 2.0 9 -0.02670920267701149
2.18436336517334 -0.05681806430220604 -0.42474085092544556 78.0 2 -0.02670689858496189
3.6308815479278564 -0.0950779840350151 0.3177698254585266 47.0 10 -0.026704594492912292
2.2254867553710938 -0.058276426047086716 -0.35260334610939026 78.0 3 -0.026702290400862694
3.6354265213012695 -0.09583193063735962 0.4465293288230896 60.0 11 -0.026699986308813095
2.2483181953430176 -0.05965963751077652 -0.276155948638916 56.0 4 -0.026697682216763496
3.6472203731536865 -0.09741683304309845 0.5778689980506897 100.0 12 -0.026695378124713898
1.9279364347457886 -0.051831696182489395 -0.16873352229595184 66.0 5 -0.0266930740326643
3.650334358215332 -0.09813757985830307 0.7098095417022705 96.0 13 -0.0266907699406147
1.9845490455627441 -0.053700320422649384 -0.1040438860654831 19.0 6 -0.02668846771121025
3.6798059940338135 -0.10021533817052841 0.8498651385307312 100.0 14 -0.026686163619160652
2.274799108505249 -0.06234889477491379 -0.03972167521715164 47.0 7 -0.026683859527111053
3.6633293628692627 -0.10104632377624512 0.9819594621658325 115.0 15 -0.026681555435061455
2.068155527114868 -0.059575069695711136 -0.5543904304504395 19.0 0 -0.026660818606615067
2.2687020301818848 -0.06574828922748566 0.039616964757442474 23.0 8 -0.026658514514565468
2.1524434089660645 -0.0627550333738327 -0.49714183807373047 61.0 1 -0.02665621042251587
2.273911714553833 -0.06629647314548492 0.11922132223844528 2.0 9 -0.02665390633046627
2.1743507385253906 -0.06377357244491577 -0.42283275723457336 75.0 2 -0.026651602238416672
3.638512372970581 -0.10735291987657547 0.31846708059310913 50.0 10 -0.026649298146367073
2.2252697944641113 -0.06604446470737457 -0.35260334610939026 82.0 3 -0.026646994054317474
3.6271328926086426 -0.10828439891338348 0.44555434584617615 63.0 11 -0.026644689962267876
2.2203176021575928 -0.06667321175336838 -0.2727436125278473 50.0 4 -0.026642385870218277
3.6547749042510986 -0.10974807292222977 0.5791204571723938 98.0 12 -0.026640083640813828
1.9337284564971924 -0.05840512737631798 -0.16925644874572754 75.0 5 -0.02663777954876423
3.667630672454834 -0.11141552776098251 0.7132440805435181 99.0 13 -0.02663547545671463
2.1141107082366943 -0.06459192931652069 -0.11084756255149841 58.0 6 -0.02663317136466503
3.669694423675537 -0.11276038736104965 0.8476155996322632 97.0 14 -0.026630867272615433
2.298565149307251 -0.0706290677189827 -0.040140535682439804 67.0 7 -0.026628563180565834
3.6706981658935547 -0.11343248933553696 0.9840300679206848 111.0 15 -0.026626259088516235
2.0660040378570557 -0.0667315423488617 -0.5538727641105652 27.0 0 -0.026605522260069847
2.2584779262542725 -0.07294841855764389 0.03944243863224983 27.0 8 -0.02660321816802025
2.156118631362915 -0.0700189471244812 -0.49804162979125977 66.0 1 -0.02660091407597065
2.265681743621826 -0.07397281378507614 0.11880263686180115 2.0 9 -0.02659860998392105
2.172152519226074 -0.07129867374897003 -0.42245110869407654 78.0 2 -0.0265963077545166
3.644089460372925 -0.12025018036365509 0.31898999214172363 41.0 10 -0.026594001799821854
2.2072699069976807 -0.07283701747655869 -0.34978750348091125 81.0 3 -0.026591699570417404
3.63667368888855 -0.12064090371131897 0.44677305221557617 70.0 11 -0.026589395478367805
2.1843724250793457 -0.07284475862979889 -0.2683563232421875 44.0 4 -0.026587091386318207
3.660292625427246 -0.12270351499319077 0.5800590515136719 100.0 12 -0.026584787294268608
1.9414777755737305 -0.0654231384396553 -0.16995368897914886 72.0 5 -0.02658248320221901
3.669203281402588 -0.12364333868026733 0.7136256694793701 93.0 13 -0.02658017911016941
2.3075082302093506 -0.07816068083047867 -0.121000736951828 26.0 6 -0.026577875018119812
3.677090883255005 -0.12519416213035583 0.8494152426719666 100.0 14 -0.026575570926070213
2.2663278579711914 -0.07755782455205917 -0.039582058787345886 54.0 7 -0.026573266834020615
3.67800235748291 -0.12651056051254272 0.9861006140708923 113.0 15 -0.026570962741971016
2.054187536239624 -0.07316968590021133 -0.5507669448852539 32.0 0 -0.024544715881347656
2.2662031650543213 -0.0811176747083664 0.039582058787345886 39.0 8 -0.024542411789298058
2.16365122795105 -0.07782498747110367 -0.49984127283096313 68.0 1 -0.02454010769724846
2.269401788711548 -0.08202534914016724 0.11901197582483292 2.0 9 -0.02453780360519886
2.1620943546295166 -0.07814683020114899 -0.42054301500320435 75.0 2 -0.02453549951314926
3.6357061862945557 -0.1320444941520691 0.3182927668094635 46.0 10 -0.024533195421099663
2.2148985862731934 -0.08082955330610275 -0.35103899240493774 93.0 3 -0.024530891329050064
3.640197992324829 -0.1334799975156784 0.4472605288028717 75.0 11 -0.024528587237000465
2.005567789077759 -0.07389134168624878 -0.24641983211040497 51.0 4 -0.024526283144950867
3.659842014312744 -0.13547956943511963 0.5800590515136719 100.0 12 -0.024523979052901268
1.9293040037155151 -0.07141873240470886 -0.16890782117843628 77.0 5 -0.02452167496085167
3.672672986984253 -0.1365964263677597 0.714388906955719 93.0 13 -0.02451937273144722
2.3072211742401123 -0.08621490746736526 -0.121000736951828 20.0 6 -0.02451706863939762
3.6785786151885986 -0.13810193538665771 0.8498651385307312 100.0 14 -0.024514764547348022
2.2580502033233643 -0.08516683429479599 -0.03944243863224983 47.0 7 -0.024512460455298424
3.669816732406616 -0.13905581831932068 0.9840300679206848 115.0 15 -0.024510156363248825
2.053919553756714 -0.0803396925330162 -0.5507669448852539 40.0 0 -0.024489419534802437
2.2399303913116455 -0.08800710737705231 0.039128296077251434 42.0 8 -0.024487115442752838
2.16920804977417 -0.0856076031923294 -0.5011910200119019 72.0 1 -0.02448481135070324
2.2770841121673584 -0.09026297181844711 0.11943066120147705 3.0 9 -0.02448250725865364
2.171617031097412 -0.08608227968215942 -0.42245110869407654 78.0 2 -0.024480203166604042
3.6471681594848633 -0.14521026611328125 0.3193386495113373 56.0 10 -0.024477899074554443
2.2047338485717773 -0.08816584199666977 -0.34947463870048523 87.0 3 -0.024475594982504845
3.651610851287842 -0.1466638445854187 0.4487229585647583 87.0 11 -0.024473292753100395
1.9854626655578613 -0.08009150624275208 -0.2439824491739273 46.0 4 -0.024470988661050797
3.65934681892395 -0.14825397729873657 0.5800590515136719 100.0 12 -0.024468684569001198
1.929042935371399 -0.07815282046794891 -0.16890782117843628 77.0 5 -0.0244663804769516
3.6760969161987305 -0.14957523345947266 0.7151521444320679 96.0 13 -0.024464076384902
2.3128931522369385 -0.09451273828744888 -0.12131475657224655 26.0 6 -0.0244617722928524
3.6858627796173096 -0.1512613594532013 0.8516647815704346 100.0 14 -0.024459468200802803
2.24375319480896 -0.09247197955846786 -0.03919810429215431 39.0 7 -0.024457164108753204
3.6654481887817383 -0.15170523524284363 0.9829947352409363 115.0 15 -0.024454860016703606
2.0574870109558105 -0.08767322450876236 -0.5518022775650024 52.0 0 -0.024434123188257217
2.2376115322113037 -0.09573989361524582 0.039093390107154846 48.0 8 -0.02443181909620762
2.157214403152466 -0.09267716854810715 -0.4984915554523468 72.0 1 -0.02442951500415802
2.2727644443511963 -0.09803878515958786 0.11922132223844528 3.0 9 -0.02442721277475357
2.1713032722473145 -0.09366211295127869 -0.42245110869407654 82.0 2 -0.024424908682703972
3.638676643371582 -0.15759551525115967 0.31864139437675476 43.0 10 -0.024422604590654373
2.1965184211730957 -0.09551797807216644 -0.34822314977645874 83.0 3 -0.024420300498604774
3.6471104621887207 -0.15923628211021423 0.44823548197746277 97.0 11 -0.024417996406555176
1.9772382974624634 -0.08667384088039398 -0.24300749599933624 45.0 4 -0.024415692314505577
3.6647274494171143 -0.16128714382648468 0.5809977054595947 100.0 12 -0.02441338822245598
1.9367053508758545 -0.08557439595460892 -0.1696050763130188 77.0 5 -0.02441108413040638
3.6637842655181885 -0.1618863344192505 0.7128624320030212 92.0 13 -0.02440878003835678
2.306563138961792 -0.1023201197385788 -0.121000736951828 47.0 6 -0.024406475946307182
3.6872591972351074 -0.16421319544315338 0.8521146178245544 91.0 14 -0.024404171854257584
2.2593984603881836 -0.10101812332868576 -0.03947734460234642 47.0 7 -0.024401867762207985
3.6726162433624268 -0.16484563052654266 0.9850653409957886 113.0 15 -0.024399563670158386
2.0610110759735107 -0.09539231657981873 -0.5528374910354614 52.0 0 -0.024378828704357147
2.2392613887786865 -0.10364249348640442 0.039128296077251434 52.0 8 -0.02437652461230755
2.15493106842041 -0.10011624544858932 -0.49804162979125977 79.0 1 -0.02437422052025795
2.2564477920532227 -0.10522729903459549 0.11838394403457642 3.0 9 -0.02437191642820835
2.1787900924682617 -0.10198689997196198 -0.4239776134490967 82.0 2 -0.024369612336158752
3.646035671234131 -0.17130492627620697 0.3193386495113373 42.0 10 -0.024367308244109154
2.194180488586426 -0.1034749299287796 -0.3479103147983551 63.0 3 -0.024365004152059555
3.642566442489624 -0.1717790812253952 0.44774800539016724 97.0 11 -0.024362700060009956
1.9570950269699097 -0.0926366075873375 -0.2405700981616974 54.0 4 -0.024360395967960358
3.6740076541900635 -0.17454715073108673 0.5825620293617249 100.0 12 -0.02435809187591076
1.9503257274627686 -0.09299851208925247 -0.17082524299621582 59.0 5 -0.02435578778386116
3.6749324798583984 -0.17587679624557495 0.7151521444320679 93.0 13 -0.02435348369181156
2.2961978912353516 -0.11029429733753204 -0.12047737836837769 49.0 6 -0.024351179599761963
3.680792808532715 -0.17744508385658264 0.8507649302482605 94.0 14 -0.024348875507712364
2.2610294818878174 -0.10900057852268219 -0.03951225057244301 62.0 7 -0.024346571415662766
3.675877332687378 -0.17785117030143738 0.9861006140708923 113.0 15 -0.024344267323613167
2.0587363243103027 -0.10248995572328568 -0.5523198843002319 51.0 0 -0.024323532357811928
2.2388665676116943 -0.1118491068482399 0.039128296077251434 55.0 8 -0.02432122826576233
2.158442497253418 -0.10820893943309784 -0.49894148111343384 79.0 1 -0.02431892417371273
2.2640457153320312 -0.11350314319133759 0.11880263686180115 3.0 9 -0.02431662008166313
2.1705775260925293 -0.10919710248708725 -0.42245110869407654 78.0 2 -0.024314315989613533
3.6454155445098877 -0.1840309053659439 0.3193386495113373 46.0 10 -0.024312011897563934
2.178023338317871 -0.11033390462398529 -0.3454073667526245 66.0 3 -0.024309707805514336
3.6498425006866455 -0.18553169071674347 0.4487229585647583 100.0 11 -0.024307403713464737
1.9508121013641357 -0.09916522353887558 -0.2398388832807541 61.0 4 -0.024305099621415138
3.6575937271118164 -0.18656572699546814 0.5800590515136719 100.0 12 -0.02430279552936554
1.9479994773864746 -0.09970400482416153 -0.17065094411373138 70.0 5 -0.02430049143731594
3.6742961406707764 -0.18870361149311066 0.7151521444320679 96.0 13 -0.024298187345266342
2.3097612857818604 -0.11902836710214615 -0.12121009081602097 44.0 6 -0.024295883253216743
3.6840767860412598 -0.18985064327716827 0.8516647815704346 94.0 14 -0.024293579161167145
2.236670732498169 -0.11565322428941727 -0.039093390107154846 76.0 7 -0.024291275069117546
3.6829512119293213 -0.19108165800571442 0.9881711006164551 111.0 15 -0.024288970977067947
2.048739194869995 -0.1088041439652443 -0.5497316718101501 49.0 0 -0.02426823601126671
2.2464706897735596 -0.1196984350681305 0.03926791250705719 54.0 8 -0.02426593191921711
2.154179573059082 -0.11515793949365616 -0.49804162979125977 79.0 1 -0.02426362782716751
2.2636568546295166 -0.12101037055253983 0.11880263686180115 4.0 9 -0.024261323735117912
2.1623618602752686 -0.1159738302230835 -0.42092466354370117 82.0 2 -0.024259019643068314
3.640805959701538 -0.1959044188261032 0.31898999214172363 41.0 10 -0.024256715551018715
2.1815903186798096 -0.11776883155107498 -0.34603309631347656 95.0 3 -0.024254411458969116
3.6531715393066406 -0.19784869253635406 0.44921043515205383 97.0 11 -0.024252107366919518
1.960383415222168 -0.10617056488990784 -0.24105757474899292 64.0 4 -0.02424980327486992
3.664844512939453 -0.1991223841905594 0.581310510635376 98.0 12 -0.02424749918282032
1.9456688165664673 -0.10605482012033463 -0.17047663033008575 63.0 5 -0.02424519509077072
3.6814916133880615 -0.20131579041481018 0.7166786193847656 93.0 13 -0.024242890998721123
2.3113481998443604 -0.12679655849933624 -0.12131475657224655 34.0 6 -0.024240588769316673
3.6912102699279785 -0.20249339938163757 0.8534643650054932 100.0 14 -0.024238284677267075
2.210318088531494 -0.12164116650819778 -0.038639627397060394 79.0 7 -0.024235980585217476
3.6822972297668457 -0.20329371094703674 0.9881711006164551 113.0 15 -0.024233676493167877
2.0445098876953125 -0.11537972837686539 -0.5486963987350464 49.0 0 -0.02421293966472149
2.242068290710449 -0.12692129611968994 0.03919810429215431 52.0 8 -0.02421063557267189
2.1615684032440186 -0.12274274975061417 -0.49984127283096313 81.0 1 -0.02420833148062229
2.279172897338867 -0.12981989979743958 0.11964000016450882 2.0 9 -0.024206027388572693
2.1639256477355957 -0.12325549125671387 -0.421306312084198 86.0 2 -0.024203723296523094
3.652071237564087 -0.20865857601165771 0.3200358748435974 70.0 10 -0.024201419204473495
2.157521963119507 -0.1236463412642479 -0.3422786593437195 81.0 3 -0.024199115112423897
3.656459093093872 -0.2101898044347763 0.44969791173934937 100.0 11 -0.024196811020374298
1.9679280519485474 -0.11347001045942307 -0.24203252792358398 64.0 4 -0.02419450879096985
3.6601829528808594 -0.21168577671051025 0.5806847810745239 100.0 12 -0.02419220469892025
1.9572405815124512 -0.11319652944803238 -0.17152249813079834 54.0 5 -0.02418990060687065
3.6808037757873535 -0.21352295577526093 0.7166786193847656 93.0 13 -0.024187596514821053
2.3188905715942383 -0.13492462038993835 -0.12173344939947128 34.0 6 -0.024185292422771454
3.6904807090759277 -0.21537688374519348 0.8534643650054932 94.0 14 -0.024182988330721855
2.2258503437042236 -0.1302907019853592 -0.038918863981962204 79.0 7 -0.024180684238672256
3.677708387374878 -0.21591965854167938 0.9871358871459961 113.0 15 -0.024178380146622658
2.042166233062744 -0.12240009754896164 -0.5481787323951721 51.0 0 -0.02415764331817627
2.243607759475708 -0.13486678898334503 0.0392330102622509 47.0 8 -0.02415533922612667
2.1494555473327637 -0.12958364188671112 -0.49714183807373047 79.0 1 -0.024153035134077072
2.316584587097168 -0.14006513357162476 0.1216287761926651 1.0 9 -0.024150731042027473
2.1674015522003174 -0.13104523718357086 -0.4220695197582245 89.0 2 -0.024148426949977875
3.627455949783325 -0.2199583500623703 0.31794413924217224 53.0 10 -0.024146124720573425
2.1551058292388916 -0.13105683028697968 -0.34196579456329346 87.0 3 -0.024143820628523827
3.651740312576294 -0.2227102816104889 0.44921043515205383 100.0 11 -0.024141516536474228
1.9754455089569092 -0.12082342803478241 -0.24300749599933624 61.0 4 -0.02413921244442463
3.6751952171325684 -0.22542843222618103 0.5831877589225769 98.0 12 -0.02413690835237503
1.9608110189437866 -0.12027184665203094 -0.1718711256980896 49.0 5 -0.024134604260325432
3.676116943359375 -0.2261289656162262 0.7159153819084167 92.0 13 -0.024132300168275833
2.3164119720458984 -0.14289525151252747 -0.1216287761926651 35.0 6 -0.024129996076226234
3.6994316577911377 -0.22885939478874207 0.8557138442993164 97.0 14 -0.024127691984176636
2.2213902473449707 -0.13781192898750305 -0.038849055767059326 40.0 7 -0.024125387892127037
3.6885008811950684 -0.22947567701339722 0.9902417063713074 113.0 15 -0.02412308380007744
2.055222511291504 -0.13038404285907745 -0.5518022775650024 52.0 0 -0.02410234697163105
2.249110460281372 -0.1430784910917282 0.039337724447250366 42.0 8 -0.0241000447422266
2.139266014099121 -0.13646556437015533 -0.49489232897758484 74.0 1 -0.024097740650177002
2.3041224479675293 -0.14738567173480988 0.121000736951828 1.0 9 -0.024095436558127403
2.170849323272705 -0.13886070251464844 -0.42283275723457336 89.0 2 -0.024093132466077805
3.6385955810546875 -0.23338434100151062 0.31898999214172363 60.0 10 -0.024090828374028206
2.162520170211792 -0.13908588886260986 -0.34321725368499756 97.0 3 -0.024088524281978607
3.6489596366882324 -0.23532810807228088 0.44896671175956726 93.0 11 -0.02408622018992901
1.967087984085083 -0.12720586359500885 -0.24203252792358398 57.0 4 -0.02408391609787941
3.678328514099121 -0.23851150274276733 0.583813488483429 100.0 12 -0.02408161200582981
1.9742742776870728 -0.12836264073848724 -0.17309129238128662 45.0 5 -0.024079307913780212
3.6870598793029785 -0.23972392082214355 0.7182050943374634 92.0 13 -0.024077003821730614
2.313905954360962 -0.15085023641586304 -0.12152409553527832 33.0 6 -0.024074699729681015
3.698610305786133 -0.24177142977714539 0.8557138442993164 97.0 14 -0.024072395637631416
2.2508270740509033 -0.14752700924873352 -0.039372626692056656 31.0 7 -0.024070091545581818
3.695388078689575 -0.24285626411437988 0.9923122525215149 111.0 15 -0.02406778745353222
2.0585856437683105 -0.13817466795444489 -0.5528374910354614 52.0 0 -0.02404705248773098
2.256577968597412 -0.15146414935588837 0.03947734460234642 31.0 8 -0.02404474839568138
2.142665386199951 -0.1441938728094101 -0.49579212069511414 74.0 1 -0.024042444303631783
2.3155503273010254 -0.15623439848423004 0.1216287761926651 1.0 9 -0.024040140211582184
2.164449453353882 -0.14641880989074707 -0.42168790102005005 97.0 2 -0.024037836119532585
3.6675331592559814 -0.24874120950698853 0.3216046690940857 100.0 10 -0.024035532027482986
2.163966655731201 -0.14714500308036804 -0.3435301184654236 93.0 3 -0.024033227935433388
3.661979913711548 -0.24900661408901215 0.45067286491394043 100.0 11 -0.02403092384338379
1.970592975616455 -0.1343415528535843 -0.2425200194120407 60.0 4 -0.02402861975133419
3.6755025386810303 -0.2512151002883911 0.5835006237030029 93.0 12 -0.02402631565928459
1.9996545314788818 -0.13702403008937836 -0.17535735666751862 51.0 5 -0.024024011567234993
3.6900737285614014 -0.253505140542984 0.7189683318138123 92.0 13 -0.024021707475185394
2.3233001232147217 -0.1600162833929062 -0.12204745411872864 30.0 6 -0.024019403383135796
3.6957552433013916 -0.2551916539669037 0.8552640080451965 100.0 14 -0.024017099291086197
2.252293348312378 -0.1555207073688507 -0.03940753638744354 29.0 7 -0.024014795199036598
3.7022271156311035 -0.25628775358200073 0.9943828582763672 108.0 15 -0.024012491106987
2.0561635494232178 -0.14522354304790497 -0.5523198843002319 58.0 0 -0.02399175614118576
2.263986825942993 -0.16029882431030273 0.039616964757442474 24.0 8 -0.023989452049136162
2.144066333770752 -0.1521841287612915 -0.49624204635620117 64.0 1 -0.023987147957086563
2.318946599960327 -0.16500374674797058 0.12183811515569687 1.0 9 -0.023984843865036964
2.160008430480957 -0.15369457006454468 -0.42092466354370117 97.0 2 -0.023982539772987366
3.6547186374664307 -0.26069122552871704 0.3205588161945343 100.0 10 -0.023980235680937767
2.1693508625030518 -0.15512043237686157 -0.34446874260902405 85.0 3 -0.02397793158888817
3.6650023460388184 -0.2627106308937073 0.45116034150123596 97.0 11 -0.02397562749683857
1.9780073165893555 -0.14213234186172485 -0.24349497258663177 59.0 4 -0.02397332340478897
3.6686465740203857 -0.26425907015800476 0.5825620293617249 98.0 12 -0.023971019312739372
2.0011515617370605 -0.14414647221565247 -0.17553167045116425 48.0 5 -0.023968715220689774
3.691124677658081 -0.2665257751941681 0.7193499803543091 86.0 13 -0.023966411128640175
2.3466320037841797 -0.16985543072223663 -0.12330353260040283 28.0 6 -0.023964107036590576
3.7006726264953613 -0.2685137391090393 0.8566136360168457 97.0 14 -0.023961804807186127
2.283618927001953 -0.16609570384025574 -0.03996601328253746 46.0 7 -0.023959500715136528
3.6935555934906006 -0.2692934572696686 0.9923122525215149 111.0 15 -0.02395719662308693
2.059497356414795 -0.15268562734127045 -0.5533550977706909 55.0 0 -0.02393645979464054
2.2614190578460693 -0.16805246472358704 0.039582058787345886 16.0 8 -0.023934155702590942
2.1474087238311768 -0.1599568873643875 -0.49714183807373047 66.0 1 -0.023931851610541344
2.338273525238037 -0.17458447813987732 0.1228848323225975 1.0 9 -0.023929547518491745
2.157500982284546 -0.1610872894525528 -0.42054301500320435 89.0 2 -0.023927243426442146
3.649812698364258 -0.2731495797634125 0.32021018862724304 100.0 10 -0.023924939334392548
2.158947229385376 -0.1619531214237213 -0.34290438890457153 81.0 3 -0.02392263524234295
3.6680219173431396 -0.275799959897995 0.4516478180885315 100.0 11 -0.02392033115029335
1.9933351278305054 -0.15022949874401093 -0.2454448938369751 54.0 4 -0.02391802705824375
3.6736109256744385 -0.27750977873802185 0.5835006237030029 96.0 12 -0.023915722966194153
2.012556314468384 -0.15203136205673218 -0.17657752335071564 54.0 5 -0.023913420736789703
3.68821382522583 -0.2792603671550751 0.7189683318138123 96.0 13 -0.023911116644740105
2.3758978843688965 -0.18031279742717743 -0.12487360835075378 22.0 6 -0.023908812552690506
3.709428310394287 -0.2821688950061798 0.8588631749153137 100.0 14 -0.023906508460640907
2.2790374755859375 -0.1737619787454605 -0.039896201342344284 38.0 7 -0.02390420436859131
3.6887407302856445 -0.2818903625011444 0.9912769794464111 111.0 15 -0.02390190027654171
2.0628042221069336 -0.16017283499240875 -0.5543904304504395 55.0 0 -0.02388116344809532
2.276768207550049 -0.1771865040063858 0.039861299097537994 9.0 8 -0.023878859356045723
2.1351804733276367 -0.16654255986213684 -0.4944424629211426 68.0 1 -0.023876555263996124
2.3695411682128906 -0.18482252955436707 0.12455958873033524 1.0 9 -0.023874251171946526
