# .PCD v0.7 - Point Cloud Data file format
VERSION 0.7
FIELDS x y z intensity ring time
SIZE 4 4 4 4 4 4
TYPE F F F F F F
COUNT 1 1 1 1 1 1
WIDTH 538
HEIGHT 1
VIEWPOINT 0 0 0 1 0 0 0
POINTS 538
DATA ascii
0.529416561126709 -2.285872459411621 -0.28809913992881775 100.0 4 -0.035501714795827866
0.5152939558029175 -2.2266640663146973 0.36198940873146057 11.0 12 -0.03549940884113312
0.5000388622283936 -2.162461280822754 -0.19418299198150635 95.0 5 -0.03549710661172867
0.5148952603340149 -2.2284810543060303 0.44458499550819397 9.0 13 -0.03549480065703392
0.5112869143486023 -2.2146270275115967 -0.1191166415810585 71.0 6 -0.03549249842762947
0.5137709975242615 -2.22538685798645 0.5272852778434753 8.0 14 -0.03549019247293472
0.5052309632301331 -2.190138578414917 -0.0392330102622509 100.0 7 -0.03548789024353027
0.5068127512931824 -2.1987485885620117 0.6046013236045837 9.0 15 -0.035485584288835526
0.29068678617477417 -1.2692053318023682 -0.3488880693912506 9.0 0 -0.035464849323034286
0.5009613037109375 -2.189067840576172 0.03919810429215431 65.0 8 -0.03546254336833954
0.34577733278274536 -1.5121676921844482 -0.3581221103668213 7.0 1 -0.03546024113893509
0.5080403089523315 -2.223569869995117 0.11953534185886383 40.0 9 -0.03545793890953064
0.41904526948928833 -1.8355354070663452 -0.3659716844558716 7.0 2 -0.03545563295483589
0.5068578720092773 -2.2201790809631348 0.19923801720142365 25.0 10 -0.03545333072543144
0.5188400745391846 -2.274493455886841 -0.36949828267097473 100.0 3 -0.035451024770736694
0.5046706199645996 -2.2141594886779785 0.27883708477020264 15.0 11 -0.035448722541332245
0.5219164490699768 -2.291668653488159 -0.2885866165161133 100.0 4 -0.0354464165866375
0.5075679421424866 -2.230463981628418 0.3623022735118866 12.0 12 -0.03544411435723305
0.4938766360282898 -2.1720504760742188 -0.19488023221492767 98.0 5 -0.0354418084025383
0.5032443404197693 -2.2150373458862305 0.44153204560279846 9.0 13 -0.03543950617313385
0.5018399953842163 -2.2106430530548096 -0.11880263686180115 73.0 6 -0.0354372002184391
0.5056110620498657 -2.227254867553711 0.5272852778434753 8.0 14 -0.03543489798903465
0.49808475375175476 -2.195876121520996 -0.03930281847715378 100.0 7 -0.035432592034339905
0.501312792301178 -2.21189546585083 0.607707142829895 9.0 15 -0.035430289804935455
0.2868818938732147 -1.274031639099121 -0.34992337226867676 9.0 0 -0.035409554839134216
0.49293455481529236 -2.1908891201019287 0.03919810429215431 71.0 8 -0.03540724888443947
0.3376678228378296 -1.5020171403884888 -0.3554226756095886 7.0 1 -0.03540494665503502
0.49852314591407776 -2.2175350189208984 0.1191166415810585 43.0 9 -0.03540264070034027
0.4031696021556854 -1.7948452234268188 -0.35757607221603394 7.0 2 -0.03540033847093582
0.4995897710323334 -2.225910186767578 0.1995866596698761 25.0 10 -0.035398032516241074
0.5100678205490112 -2.2744524478912354 -0.3691853880882263 100.0 3 -0.035395730286836624
0.4952499568462372 -2.2101829051971436 0.27810585498809814 16.0 11 -0.035393424332141876
0.511309802532196 -2.2818543910980225 -0.2871242165565491 100.0 4 -0.03539112210273743
0.49934738874435425 -2.2302944660186768 0.36198940873146057 11.0 12 -0.03538881614804268
0.48629167675971985 -2.1737613677978516 -0.19488023221492767 100.0 5 -0.03538651391863823
0.4963655471801758 -2.2206127643585205 0.44229528307914734 9.0 13 -0.03538420796394348
0.49368518590927124 -2.2104320526123047 -0.11869796365499496 80.0 6 -0.03538190573453903
0.49698406457901 -2.2252025604248047 0.526385486125946 8.0 14 -0.035379599779844284
0.4899812936782837 -2.1956496238708496 -0.03926791250705719 100.0 7 -0.035377297550439835
0.49611109495162964 -2.224945545196533 0.6108129620552063 9.0 15 -0.03537499159574509
0.28349167108535767 -1.2787481546401978 -0.3509586453437805 9.0 0 -0.03535425662994385
0.48653173446655273 -2.1964163780212402 0.03926791250705719 72.0 8 -0.0353519544005394
0.33352747559547424 -1.5069339275360107 -0.3563224971294403 8.0 1 -0.03534964844584465
0.48814570903778076 -2.2055253982543945 0.11838394403457642 44.0 9 -0.0353473462164402
0.40230247378349304 -1.8191757202148438 -0.3621554970741272 9.0 2 -0.03534504026174545
0.4934951663017273 -2.233391046524048 0.2001095712184906 28.0 10 -0.035342738032341
0.5042262673377991 -2.283846855163574 -0.3704368472099304 100.0 3 -0.035340432077646255
0.4879179298877716 -2.211812973022461 0.27810585498809814 15.0 11 -0.035338129848241806
0.5037400126457214 -2.2835373878479004 -0.2871242165565491 100.0 4 -0.03533582389354706
0.49194860458374023 -2.231937885284424 0.36198940873146057 13.0 12 -0.03533352166414261
0.4816516041755676 -2.1870367527008057 -0.19592611491680145 100.0 5 -0.03533121570944786
0.49068692326545715 -2.2299160957336426 0.4438217580318451 9.0 13 -0.03532891348004341
0.4876389503479004 -2.217909097671509 -0.11901197582483292 85.0 6 -0.03532660752534866
0.48834681510925293 -2.221128463745117 0.5250357985496521 9.0 14 -0.035324305295944214
0.48055213689804077 -2.1874966621398926 -0.039093390107154846 100.0 7 -0.035322003066539764
0.48955869674682617 -2.2303519248962402 0.6118482351303101 9.0 15 -0.035319697111845016
0.2776022255420685 -1.272131323814392 -0.3488880693912506 9.0 0 -0.03529896214604378
0.4800974130630493 -2.20192551612854 0.039337724447250366 74.0 8 -0.03529665619134903
0.32852840423583984 -1.5080317258834839 -0.3563224971294403 8.0 1 -0.03529435396194458
0.48129352927207947 -2.2111191749572754 0.11859328299760818 44.0 9 -0.03529204800724983
0.3959498405456543 -1.8205689191818237 -0.3621554970741272 10.0 2 -0.03528974577784538
0.4818522334098816 -2.2155463695526123 0.1983664631843567 27.0 10 -0.035287439823150635
0.49203577637672424 -2.264272928237915 -0.36699530482292175 53.0 3 -0.035285137593746185
0.48268643021583557 -2.223118305206299 0.27932456135749817 16.0 11 -0.03528283163905144
0.4957658648490906 -2.2852818965911865 -0.2871242165565491 100.0 4 -0.03528052940964699
0.4820626378059387 -2.2239887714385986 0.36042505502700806 12.0 12 -0.03527822345495224
0.47106239199638367 -2.1750738620758057 -0.19470593333244324 100.0 5 -0.03527592122554779
0.48705214262008667 -2.2508037090301514 0.4476379454135895 10.0 13 -0.03527361899614334
0.47820591926574707 -2.2117888927459717 -0.11859328299760818 86.0 6 -0.03527131304144859
0.4805908501148224 -2.2228195667266846 0.5250357985496521 9.0 14 -0.035269010812044144
0.47122442722320557 -2.181342363357544 -0.03895376995205879 100.0 7 -0.035266704857349396
0.47647160291671753 -2.207498550415039 0.6051189303398132 8.0 15 -0.035264402627944946
0.2713177800178528 -1.2655845880508423 -0.3468175232410431 9.0 0 -0.03524366393685341
0.4686732590198517 -2.1880273818969727 0.039058487862348557 81.0 8 -0.03524136170744896
0.322998970746994 -1.5092257261276245 -0.3563224971294403 8.0 1 -0.03523905575275421
0.4748567044734955 -2.2206809520721436 0.11901197582483292 46.0 9 -0.03523675352334976
0.3921459913253784 -1.8354473114013672 -0.3648267984390259 8.0 2 -0.035234447568655014
0.4733125865459442 -2.2153491973876953 0.19819216430187225 29.0 10 -0.035232145339250565
0.47754767537117004 -2.2370834350585938 -0.3623022735118866 38.0 3 -0.03522983938455582
0.4749491512775421 -2.2268142700195312 0.27956831455230713 17.0 11 -0.03522753715515137
0.4882136881351471 -2.290966510772705 -0.2876116633415222 100.0 4 -0.03522523492574692
0.4722624719142914 -2.2180123329162598 0.35917356610298157 12.0 12 -0.03522292897105217
0.4618436396121979 -2.1709394454956055 -0.19418299198150635 100.0 5 -0.03522062674164772
0.47267648577690125 -2.223768472671509 0.4419136643409729 10.0 13 -0.03521832078695297
0.4696812033653259 -2.211573362350464 -0.1184886172413826 80.0 6 -0.03521601855754852
0.4732501804828644 -2.2283785343170166 0.5259355902671814 9.0 14 -0.035213712602853775
0.46322646737098694 -2.1830546855926514 -0.03895376995205879 100.0 7 -0.035211410373449326
0.46637415885925293 -2.1997809410095215 0.6025307774543762 9.0 15 -0.03520910441875458
0.267473429441452 -1.2703514099121094 -0.34785282611846924 10.0 0 -0.03518836945295334
0.4598272740840912 -2.185817003250122 0.03898867964744568 76.0 8 -0.03518606349825859
0.3174653649330139 -1.510399341583252 -0.3563224971294403 8.0 1 -0.03518376126885414
0.46589332818984985 -2.2184972763061523 0.11880263686180115 50.0 9 -0.03518145531415939
0.3825085461139679 -1.821434497833252 -0.36177387833595276 7.0 2 -0.035179153084754944
0.46518948674201965 -2.217069149017334 0.19819216430187225 29.0 10 -0.035176850855350494
0.4705609679222107 -2.2446186542510986 -0.3632408678531647 51.0 3 -0.035174544900655746
0.4651563763618469 -2.2207682132720947 0.2785933315753937 18.0 11 -0.0351722426712513
0.479813814163208 -2.2927405834198 -0.2876116633415222 100.0 4 -0.03516993671655655
0.46574705839157104 -2.2274625301361084 0.36042505502700806 12.0 12 -0.0351676344871521
0.45426279306411743 -2.1725382804870605 -0.19418299198150635 100.0 5 -0.03516532853245735
0.4653128385543823 -2.2273263931274414 0.44229528307914734 9.0 13 -0.0351630263030529
0.46155035495758057 -2.2112441062927246 -0.11838394403457642 94.0 6 -0.035160720348358154
0.4654771685600281 -2.2320058345794678 0.526385486125946 8.0 14 -0.035158418118953705
0.45685362815856934 -2.192568302154541 -0.039093390107154846 100.0 7 -0.03515611216425896
0.4614585041999817 -2.2166056632995605 0.6066718697547913 9.0 15 -0.03515380993485451
0.2661689221858978 -1.2864114046096802 -0.3519938886165619 10.0 0 -0.03513307496905327
0.452194482088089 -2.187408685684204 0.03898867964744568 84.0 8 -0.03513076901435852
0.3090374767780304 -1.4962307214736938 -0.35272327065467834 8.0 1 -0.03512846678495407
0.45612838864326477 -2.210329532623291 0.11827926337718964 47.0 9 -0.03512616083025932
0.37852907180786133 -1.8342949151992798 -0.3640635907649994 6.0 2 -0.035123858600854874
0.4598614573478699 -2.2303872108459473 0.19923801720142365 32.0 10 -0.035121552646160126
0.4627228379249573 -2.2462475299835205 -0.3632408678531647 49.0 3 -0.035119250416755676
0.45500075817108154 -2.210712432861328 0.27713093161582947 18.0 11 -0.03511694446206093
0.46940863132476807 -2.2827348709106445 -0.2861492335796356 100.0 4 -0.03511464223265648
0.46035414934158325 -2.240684747695923 0.3623022735118866 15.0 12 -0.03511233627796173
0.4482801854610443 -2.181917190551758 -0.19488023221492767 100.0 5 -0.03511003404855728
0.4551665484905243 -2.217398166656494 0.4400055408477783 10.0 13 -0.035107728093862534
0.45142120122909546 -2.2011024951934814 -0.11775590479373932 94.0 6 -0.035105425864458084
0.4557274580001831 -2.224071741104126 0.5241360068321228 9.0 14 -0.035103119909763336
0.4508013427257538 -2.201986312866211 -0.0392330102622509 100.0 7 -0.03510081768035889
0.4564281702041626 -2.2314517498016357 0.610295295715332 9.0 15 -0.03509851172566414
0.26013773679733276 -1.2797602415084839 -0.34992337226867676 9.0 0 -0.0350777767598629
0.44535213708877563 -2.1928930282592773 0.039058487862348557 89.0 8 -0.03507547453045845
0.3038129210472107 -1.4973002672195435 -0.35272327065467834 8.0 1 -0.0350731685757637
0.44959044456481934 -2.215744733810425 0.1184886172413826 52.0 9 -0.03507086634635925
0.3721235990524292 -1.8356050252914429 -0.3640635907649994 6.0 2 -0.035068560391664505
0.452864408493042 -2.235884666442871 0.1995866596698761 32.0 10 -0.035066258162260056
0.4540957808494568 -2.2439768314361572 -0.3626151382923126 49.0 3 -0.03506395220756531
0.45042794942855835 -2.2278530597686768 0.2790808379650116 18.0 11 -0.03506164997816086
0.4618361294269562 -2.2842791080474854 -0.2861492335796356 100.0 4 -0.03505934402346611
0.4509654939174652 -2.2325174808502197 0.3607378900051117 15.0 12 -0.03505704179406166
0.44381457567214966 -2.1990928649902344 -0.19627472758293152 100.0 5 -0.03505473583936691
0.4501399099826813 -2.232445240020752 0.4426769018173218 10.0 13 -0.03505243360996246
0.4457072615623474 -2.2124545574188232 -0.11827926337718964 100.0 6 -0.035050127655267715
0.4491192698478699 -2.229391574859619 0.5250357985496521 9.0 14 -0.035047825425863266
0.4407352805137634 -2.189746379852295 -0.03898867964744568 100.0 7 -0.03504551947116852
0.4475024342536926 -2.225377321243286 0.6082248091697693 9.0 15 -0.03504321724176407
0.25210702419281006 -1.261671781539917 -0.34474697709083557 8.0 0 -0.03502248227596283
0.4400351643562317 -2.204162836074829 0.0392330102622509 97.0 8 -0.03502017632126808
0.3003706932067871 -1.505944013595581 -0.3545228838920593 7.0 1 -0.03501787409186363
0.4422402083873749 -2.217223644256592 0.1184886172413826 55.0 9 -0.035015568137168884
0.3629651367664337 -1.8214257955551147 -0.3610106408596039 6.0 2 -0.035013265907764435
0.44311314821243286 -2.225649833679199 0.19854077696800232 32.0 10 -0.03501095995306969
0.4528179466724396 -2.2764689922332764 -0.3676210343837738 100.0 3 -0.03500865772366524
0.4422639310359955 -2.225440263748169 0.2785933315753937 19.0 11 -0.03500635176897049
0.45503270626068115 -2.289691925048828 -0.28663671016693115 100.0 4 -0.03500404953956604
0.44279053807258606 -2.230125665664673 0.36011216044425964 16.0 12 -0.03500174358487129
0.4318675398826599 -2.177100896835327 -0.19418299198150635 100.0 5 -0.03499944135546684
0.4434976279735565 -2.2377774715423584 0.44344013929367065 10.0 13 -0.034997135400772095
0.4395320415496826 -2.2197978496551514 -0.11859328299760818 100.0 6 -0.034994833171367645
0.4424811005592346 -2.234691619873047 0.5259355902671814 9.0 14 -0.034992530941963196
0.43230706453323364 -2.1853108406066895 -0.038883961737155914 100.0 7 -0.03499022498726845
0.44086939096450806 -2.2306394577026367 0.6092600226402283 9.0 15 -0.034987922757864
0.24717722833156586 -1.2587095499038696 -0.3437117040157318 8.0 0 -0.03496718406677246
0.4307984709739685 -2.195798635482788 0.039058487862348557 99.0 8 -0.03496488183736801
0.2972494661808014 -1.5164934396743774 -0.35677239298820496 7.0 1 -0.034962575882673264
0.4344978928565979 -2.2187538146972656 0.1184886172413826 55.0 9 -0.034960273653268814
0.3557911217212677 -1.8168394565582275 -0.35986578464508057 6.0 2 -0.034957967698574066
0.4338173568248749 -2.2173304557800293 0.19766922295093536 33.0 10 -0.03495566546916962
0.44905608892440796 -2.297344923019409 -0.37074974179267883 100.0 3 -0.03495335951447487
0.43450114130973816 -2.2249464988708496 0.2783496081829071 20.0 11 -0.03495105728507042
0.44703736901283264 -2.2912662029266357 -0.28663671016693115 100.0 4 -0.03494875133037567
0.43651488423347473 -2.239413261413574 0.3613636791706085 16.0 12 -0.03494644910097122
0.42388319969177246 -2.174610137939453 -0.19383437931537628 100.0 5 -0.03494414687156677
0.4360746443271637 -2.2392356395721436 0.44344013929367065 10.0 13 -0.034941840916872025
0.4333127737045288 -2.2271249294281006 -0.11890730261802673 100.0 6 -0.034939538687467575
0.43467751145362854 -2.236222743988037 0.5259355902671814 9.0 14 -0.03493723273277283
0.4269634783267975 -2.19858455657959 -0.039093390107154846 100.0 7 -0.03493493050336838
0.4294010400772095 -2.213200092315674 0.6040836572647095 9.0 15 -0.03493262454867363
0.2442445158958435 -1.2671524286270142 -0.34578225016593933 9.0 0 -0.03491188958287239
0.4216187596321106 -2.18943452835083 0.038918863981962204 100.0 8 -0.03490958362817764
0.28827226161956787 -1.4983854293823242 -0.3522733747959137 7.0 1 -0.03490728139877319
0.4290124475955963 -2.232024908065796 0.1191166415810585 66.0 9 -0.034904975444078445
0.350188285112381 -1.821926236152649 -0.36062902212142944 5.0 2 -0.034902673214673996
0.4275778830051422 -2.2266576290130615 0.1983664631843567 36.0 10 -0.034900370985269547
0.4373120069503784 -2.27949857711792 -0.3676210343837738 100.0 3 -0.0348980650305748
0.4252372086048126 -2.218651294708252 0.27737462520599365 22.0 11 -0.03489576280117035
0.43978351354599 -2.2967121601104736 -0.2871242165565491 100.0 4 -0.0348934568464756
0.4290663003921509 -2.242863416671753 0.36167651414871216 15.0 12 -0.03489115461707115
0.4159153699874878 -2.174119472503662 -0.19366006553173065 100.0 5 -0.034888848662376404
0.42604419589042664 -2.2291738986968994 0.44115039706230164 10.0 13 -0.034886546432971954
0.422914057970047 -2.214890956878662 -0.11817460507154465 100.0 6 -0.034884240478277206
0.42613887786865234 -2.2338979244232178 0.5250357985496521 9.0 14 -0.03488193824887276
0.42003512382507324 -2.2039904594421387 -0.03916320204734802 100.0 7 -0.03487963229417801
0.42384058237075806 -2.226072072982788 0.6071895360946655 9.0 15 -0.03487733006477356
0.23838375508785248 -1.2604044675827026 -0.3437117040157318 9.0 0 -0.03485659137368202
0.4143450856208801 -2.1928577423095703 0.03895376995205879 100.0 8 -0.03485428914427757
0.28304028511047363 -1.499382495880127 -0.3522733747959137 7.0 1 -0.03485198691487312
0.41788730025291443 -2.2158448696136475 0.11817460507154465 63.0 9 -0.034849680960178375
0.3452817499637604 -1.8308544158935547 -0.3621554970741272 5.0 2 -0.034847378730773926
0.4212780296802521 -2.235968589782715 0.1990637183189392 37.0 10 -0.03484507277607918
0.4297179877758026 -2.2829525470733643 -0.36793389916419983 100.0 3 -0.03484277054667473
0.4160228371620178 -2.2123184204101562 0.276399701833725 21.0 11 -0.03484046459197998
0.4302973747253418 -2.2904293537139893 -0.2861492335796356 100.0 4 -0.03483816236257553
0.42087045311927795 -2.242406129837036 0.3613636791706085 16.0 12 -0.03483585640788078
0.41014736890792847 -2.1873786449432373 -0.19470593333244324 100.0 5 -0.034833554178476334
0.41681331396102905 -2.2229292392730713 0.43962395191192627 11.0 13 -0.034831248223781586
0.41591519117355347 -2.220280170440674 -0.11838394403457642 100.0 6 -0.034828945994377136
0.41762155294418335 -2.2315409183502197 0.5241360068321228 10.0 14 -0.03482664003968239
0.4152790904045105 -2.221168041229248 -0.03944243863224983 100.0 7 -0.03482433781027794
0.4189053773880005 -2.242730140686035 0.6113306283950806 9.0 15 -0.03482203185558319
0.23657895624637604 -1.276465892791748 -0.34785282611846924 9.0 0 -0.03480129688978195
0.40741661190986633 -2.198223352432251 0.03902358189225197 100.0 8 -0.0347989946603775
0.2770952880382538 -1.49652898311615 -0.351373553276062 7.0 1 -0.034796688705682755
0.40797021985054016 -2.2055063247680664 0.11754656583070755 68.0 9 -0.034794386476278305
0.3342877924442291 -1.8089407682418823 -0.35757607221603394 5.0 2 -0.03479208052158356
0.41308021545410156 -2.237497568130493 0.1990637183189392 37.0 10 -0.03478977829217911
0.42242246866226196 -2.290339946746826 -0.3688724935054779 100.0 3 -0.03478747233748436
0.4097380042076111 -2.2215657234191895 0.27737462520599365 21.0 11 -0.03478517010807991
0.42229989171028137 -2.291917562484741 -0.2861492335796356 100.0 4 -0.03478286415338516
0.41196754574775696 -2.2380332946777344 0.36042505502700806 18.0 12 -0.03478056192398071
0.4021488130092621 -2.1868374347686768 -0.1945316195487976 100.0 5 -0.034778255969285965
0.4107914865016937 -2.236027717590332 0.4419136643409729 11.0 13 -0.034775953739881516
0.40452978014945984 -2.2041096687316895 -0.11744190007448196 100.0 6 -0.03477364778518677
0.40873682498931885 -2.2292230129241943 0.5232362151145935 9.0 14 -0.03477134555578232
0.4068019390106201 -2.21867036819458 -0.039372626692056656 100.0 7 -0.03476903960108757
0.4082898497581482 -2.2289767265319824 0.6071895360946655 9.0 15 -0.03476673737168312
0.2307402342557907 -1.2696809768676758 -0.34578225016593933 9.0 0 -0.03474600240588188
0.40007132291793823 -2.203636646270752 0.039093390107154846 100.0 8 -0.034743696451187134
0.2716081738471985 -1.4975346326828003 -0.351373553276062 7.0 1 -0.034741394221782684
0.402020663022995 -2.218778610229492 0.11817460507154465 66.0 9 -0.034739088267087936
0.32727155089378357 -1.8062331676483154 -0.35681283473968506 5.0 2 -0.03473678603768349
0.4020734429359436 -2.221281051635742 0.19749490916728973 42.0 10 -0.03473448008298874
0.4158311188220978 -2.2995760440826416 -0.3701240122318268 100.0 3 -0.03473217785358429
0.40159305930137634 -2.223052501678467 0.27737462520599365 24.0 11 -0.03472987189888954
0.41389667987823486 -2.293449878692627 -0.2861492335796356 100.0 4 -0.03472756966948509
0.4023599326610565 -2.2317519187927246 0.35917356610298157 18.0 12 -0.034725263714790344
0.3920385539531708 -2.1745026111602783 -0.1933114379644394 100.0 5 -0.034722961485385895
0.4036794602870941 -2.241312265396118 0.4426769018173218 11.0 13 -0.03472065553069115
0.39860212802886963 -2.215336561203003 -0.11796525865793228 100.0 6 -0.0347183533012867
0.40302157402038574 -2.2421441078186035 0.5259355902671814 10.0 14 -0.03471604734659195
0.39477965235710144 -2.1984963417053223 -0.03898867964744568 100.0 7 -0.0347137451171875
0.3994349241256714 -2.2266550064086914 0.606154203414917 10.0 15 -0.03471144288778305
0.22495152056217194 -1.2628710269927979 -0.3437117040157318 8.0 0 -0.03469070419669151
0.3906252980232239 -2.195176124572754 0.038918863981962204 100.0 8 -0.034688401967287064
0.2670614421367645 -1.502310872077942 -0.3522733747959137 7.0 1 -0.034686096012592316
0.39392367005348206 -2.2182018756866455 0.11806992441415787 76.0 9 -0.034683793783187866
0.32233744859695435 -1.8150967359542847 -0.3583393096923828 6.0 2 -0.03468148782849312
0.39396944642066956 -2.2207090854644775 0.1973206102848053 43.0 10 -0.03467918559908867
0.406422883272171 -2.2932331562042236 -0.3688724935054779 100.0 3 -0.03467687964439392
0.39313822984695435 -2.220531463623047 0.2768871784210205 24.0 11 -0.03467457741498947
0.4065799415111542 -2.298790216445923 -0.28663671016693115 100.0 4 -0.034672271460294724
0.39491090178489685 -2.2350881099700928 0.3594864308834076 19.0 12 -0.034669969230890274
0.38513898849487305 -2.179781675338745 -0.19366006553173065 100.0 5 -0.034667663276195526
0.39414727687835693 -2.2330408096313477 0.4407688081264496 12.0 13 -0.03466536104679108
0.39225396513938904 -2.2245821952819824 -0.11838394403457642 100.0 6 -0.03466305881738663
0.39485448598861694 -2.2416181564331055 0.5254856944084167 10.0 14 -0.03466075286269188
0.38918253779411316 -2.211677312850952 -0.03919810429215431 100.0 7 -0.03465845063328743
0.39032238721847534 -2.2204251289367676 0.6040836572647095 10.0 15 -0.03465614467859268
0.21921344101428986 -1.2560361623764038 -0.3416411578655243 9.0 0 -0.03463540971279144
0.3826168179512024 -2.19455623626709 0.038883961737155914 100.0 8 -0.034633103758096695
0.2611469626426697 -1.4993942975997925 -0.351373553276062 7.0 1 -0.034630801528692245
0.387205570936203 -2.22546648979187 0.11838394403457642 81.0 9 -0.0346284955739975
0.31667283177375793 -1.8200790882110596 -0.3591025471687317 6.0 2 -0.03462619334459305
0.3875799775123596 -2.2299227714538574 0.19801783561706543 43.0 10 -0.0346238873898983
0.3974014222621918 -2.2887990474700928 -0.36793389916419983 100.0 3 -0.03462158516049385
0.38470643758773804 -2.2179784774780273 0.276399701833725 24.0 11 -0.0346192829310894
0.3992309868335724 -2.304107666015625 -0.2871242165565491 100.0 4 -0.03461697697639465
0.3891279399394989 -2.24813175201416 0.3613636791706085 19.0 12 -0.034614674746990204
0.37786751985549927 -2.1830761432647705 -0.19383437931537628 100.0 5 -0.034612368792295456
0.38534682989120483 -2.2285993099212646 0.43962395191192627 12.0 13 -0.034610066562891006
0.3848262429237366 -2.2279062271118164 -0.1184886172413826 100.0 6 -0.03460776060819626
0.3876900374889374 -2.24682354927063 0.526385486125946 10.0 14 -0.03460545837879181
0.38213929533958435 -2.216963768005371 -0.03926791250705719 100.0 7 -0.03460315242409706
0.3848639726638794 -2.2351009845733643 0.607707142829895 10.0 15 -0.03460085019469261
0.21743181347846985 -1.272027611732483 -0.34578225016593933 10.0 0 -0.034580111503601074
0.3759637176990509 -2.201792001724243 0.03898867964744568 100.0 8 -0.034577809274196625
0.2532901167869568 -1.484928846359253 -0.34777435660362244 7.0 1 -0.034575507044792175
0.3780926465988159 -2.2189290523529053 0.11796525865793228 84.0 9 -0.03457320109009743
0.3076791763305664 -1.8056905269622803 -0.3560495972633362 5.0 2 -0.03457089886069298
0.38046231865882874 -2.2351901531219482 0.1983664631843567 44.0 10 -0.03456859290599823
0.39106547832489014 -2.2999095916748047 -0.36949828267097473 100.0 3 -0.03456629067659378
0.3749670684337616 -2.2075655460357666 0.274937242269516 24.0 11 -0.03456398472189903
0.38985756039619446 -2.2976584434509277 -0.2861492335796356 100.0 4 -0.03456168249249458
0.3816084563732147 -2.2514238357543945 0.36167651414871216 19.0 12 -0.034559376537799835
0.37157684564590454 -2.192239284515381 -0.1945316195487976 100.0 5 -0.034557074308395386
0.3778926134109497 -2.2318665981292725 0.4400055408477783 12.0 13 -0.03455476835370064
0.3717176914215088 -2.1977272033691406 -0.11681386828422546 100.0 6 -0.03455246612429619
0.37984499335289 -2.2481629848480225 0.526385486125946 11.0 14 -0.03455016016960144
0.37240147590637207 -2.206453323364258 -0.039058487862348557 100.0 7 -0.03454785794019699
0.3783442974090576 -2.2440505027770996 0.6097776889801025 10.0 15 -0.03454555198550224
0.21299007534980774 -1.272778868675232 -0.34578225016593933 9.0 0 -0.034524817019701004
0.3682759702205658 -2.2030909061431885 0.03898867964744568 100.0 8 -0.034522514790296555
0.24682147800922394 -1.478115439414978 -0.34597474336624146 7.0 1 -0.03452020883560181
0.3696877658367157 -2.216295003890991 0.11775590479373932 87.0 9 -0.03451790660619736
0.30169743299484253 -1.8086899518966675 -0.3564312160015106 6.0 2 -0.03451560065150261
0.3726576566696167 -2.2365047931671143 0.1983664631843567 44.0 10 -0.03451329842209816
0.38206183910369873 -2.295414924621582 -0.36855965852737427 100.0 3 -0.03451099246740341
0.3685615062713623 -2.216693878173828 0.27591222524642944 26.0 11 -0.03450869023799896
0.3805338740348816 -2.2911722660064697 -0.28517428040504456 100.0 4 -0.034506384283304214
0.37083712220191956 -2.235203742980957 0.35886070132255554 20.0 12 -0.034504082053899765
0.36522629857063293 -2.2013847827911377 -0.19522884488105774 100.0 5 -0.03450177609920502
0.3707418143749237 -2.2370457649230957 0.4407688081264496 12.0 13 -0.03449947386980057
0.3653489351272583 -2.206892967224121 -0.117232546210289 100.0 6 -0.03449716791510582
0.36945122480392456 -2.2340941429138184 0.5227862596511841 11.0 14 -0.03449486568570137
0.3633938133716583 -2.199847936630249 -0.038918863981962204 100.0 7 -0.03449255973100662
0.3686215579509735 -2.2339210510253906 0.6066718697547913 11.0 15 -0.03449025750160217
0.20542414486408234 -1.2544499635696411 -0.34060588479042053 9.0 0 -0.034469522535800934
0.3612290322780609 -2.2083098888397217 0.039058487862348557 100.0 8 -0.034467216581106186
0.24354566633701324 -1.4905073642730713 -0.34867414832115173 7.0 1 -0.034464914351701736
0.362592875957489 -2.2215144634246826 0.11796525865793228 93.0 9 -0.03446260839700699
0.29569852352142334 -1.8116698265075684 -0.35681283473968506 5.0 2 -0.03446030616760254
0.36292484402656555 -2.2259933948516846 0.1973206102848053 49.0 10 -0.03445800021290779
0.376269668340683 -2.31038236618042 -0.37074974179267883 100.0 3 -0.03445569798350334
0.36305296421051025 -2.231682062149048 0.2776183784008026 25.0 11 -0.034453392028808594
0.3731706142425537 -2.296405553817749 -0.2856617569923401 100.0 4 -0.034451089799404144
0.3614501953125 -2.2267353534698486 0.3572963774204254 21.0 12 -0.034448783844709396
0.35530540347099304 -2.18887996673584 -0.19400867819786072 100.0 5 -0.03444648161530495
0.36418765783309937 -2.2460780143737793 0.44229528307914734 13.0 13 -0.0344441756606102
0.35923975706100464 -2.218012571334839 -0.11775590479373932 100.0 6 -0.03444187343120575
0.3635181486606598 -2.246912717819214 0.5254856944084167 12.0 14 -0.034439567476511
0.3560313582420349 -2.2030770778656006 -0.03895376995205879 100.0 7 -0.03443726524710655
0.3602057099342346 -2.231379985809326 0.6056365966796875 11.0 15 -0.034434959292411804
0.20143535733222961 -1.259009599685669 -0.3416411578655243 10.0 0 -0.03444099426269531
0.35187041759490967 -2.2017204761505127 0.038918863981962204 100.0 8 -0.03443869203329086
0.23808102309703827 -1.4913899898529053 -0.34867414832115173 7.0 1 -0.034436386078596115
0.35515066981315613 -2.2247390747070312 0.11806992441415787 97.0 9 -0.034434083849191666
0.2884381115436554 -1.8088637590408325 -0.3560495972633362 5.0 2 -0.03443177789449692
0.3547639846801758 -2.227308750152588 0.1973206102848053 49.0 10 -0.03442947566509247
0.365936815738678 -2.3000407218933105 -0.3688724935054779 100.0 3 -0.03442716971039772
0.35362446308135986 -2.225155830383301 0.27664345502853394 26.0 11 -0.03442486748099327
0.3657754361629486 -2.301614999771118 -0.2861492335796356 100.0 4 -0.03442256152629852
0.35677239298820496 -2.247492790222168 0.36042505502700806 21.0 12 -0.034420259296894073
0.3450961709022522 -2.1763927936553955 -0.1927884966135025 100.0 5 -0.034417953342199326
0.3547244071960449 -2.2396414279937744 0.4407688081264496 13.0 13 -0.034415651112794876
0.35454124212265015 -2.2410144805908203 -0.11890730261802673 100.0 6 -0.03441334515810013
0.355368435382843 -2.2462430000305176 0.5250357985496521 12.0 14 -0.03441104292869568
0.34989988803863525 -2.2141823768615723 -0.039128296077251434 100.0 7 -0.03440873697400093
0.3506074845790863 -2.2211742401123047 0.6025307774543762 11.0 15 -0.03440643474459648
0.19785693287849426 -1.2634879350662231 -0.34267643094062805 9.0 0 -0.03438569977879524
0.34333112835884094 -2.1949727535247803 0.03877924755215645 100.0 8 -0.034383393824100494
0.2331342101097107 -1.492171287536621 -0.34867414832115173 7.0 1 -0.034381091594696045
0.3486962914466858 -2.2318243980407715 0.11838394403457642 99.0 9 -0.0343787856400013
0.27971354126930237 -1.7923524379730225 -0.35261502861976624 6.0 2 -0.03437648341059685
0.34706899523735046 -2.22650408744812 0.19714628159999847 58.0 10 -0.0343741774559021
0.35709190368652344 -2.2934343814849854 -0.3676210343837738 100.0 3 -0.03437187522649765
0.3459387421607971 -2.2243547439575195 0.276399701833725 28.0 11 -0.0343695692718029
0.3587512969970703 -2.3067381381988525 -0.28663671016693115 100.0 4 -0.03436726704239845
0.3487109839916229 -2.2447597980499268 0.359799325466156 22.0 12 -0.034364961087703705
0.33940452337265015 -2.1873695850372314 -0.19366006553173065 100.0 5 -0.034362658858299255
0.34669432044029236 -2.2369251251220703 0.4400055408477783 14.0 13 -0.03436035290360451
0.34130221605300903 -2.204676628112793 -0.11691854149103165 100.0 6 -0.03435805067420006
0.34851381182670593 -2.251260757446289 0.5259355902671814 12.0 14 -0.03435574471950531
0.3416386544704437 -2.209401845932007 -0.03902358189225197 100.0 7 -0.03435344249010086
0.3447141945362091 -2.2318708896636963 0.6051189303398132 12.0 15 -0.03435113653540611
0.19425100088119507 -1.2679561376571655 -0.3437117040157318 9.0 0 -0.034330401569604874
0.3360505998134613 -2.196099042892456 0.03877924755215645 100.0 8 -0.034328099340200424
0.22641807794570923 -1.4813779592514038 -0.34597474336624146 7.0 1 -0.034325793385505676
0.3390950858592987 -2.2211813926696777 0.11775590479373932 100.0 9 -0.03432349115610123
0.27436086535453796 -1.7971516847610474 -0.3533782958984375 6.0 2 -0.03432118520140648
0.3402843475341797 -2.2315821647644043 0.19749490916728973 52.0 10 -0.03431888297200203
0.3509719967842102 -2.304370164871216 -0.3691853880882263 100.0 3 -0.03431657701730728
0.3382619321346283 -2.223526954650879 0.276155948638916 30.0 11 -0.03431427478790283
0.350100576877594 -2.304051399230957 -0.2861492335796356 100.0 4 -0.034311968833208084
0.3411695063114166 -2.2479162216186523 0.36011216044425964 22.0 12 -0.034309666603803635
0.3335590362548828 -2.200360059738159 -0.19470593333244324 100.0 5 -0.03430736064910889
0.3398629426956177 -2.2419445514678955 0.4407688081264496 17.0 13 -0.03430505841970444
0.3342880308628082 -2.207771062850952 -0.11702320724725723 100.0 6 -0.03430275246500969
0.3394874036312103 -2.2447562217712402 0.5241360068321228 12.0 14 -0.03430045023560524
0.3342231810092926 -2.2125582695007324 -0.039058487862348557 100.0 7 -0.03429814800620079
0.337497740983963 -2.2368807792663574 0.606154203414917 12.0 15 -0.03429584205150604
0.18903128802776337 -1.264838457107544 -0.34267643094062805 10.0 0 -0.0342751070857048
0.32897353172302246 -2.201214075088501 0.038849055767059326 100.0 8 -0.034272801131010056
0.2206704318523407 -1.478304386138916 -0.34507492184638977 7.0 1 -0.034270498901605606
0.33045631647109985 -2.216425657272339 0.11744190007448196 100.0 9 -0.03426819294691086
0.2669045925140381 -1.792319655418396 -0.3522334098815918 6.0 2 -0.03426589071750641
0.33210289478302 -2.2328145503997803 0.19749490916728973 56.0 10 -0.03426358476281166
0.34281420707702637 -2.3075950145721436 -0.36949828267097473 100.0 3 -0.03426128253340721
0.3304985463619232 -2.22469425201416 0.276155948638916 30.0 11 -0.03425897657871246
0.3414730429649353 -2.3013322353363037 -0.2856617569923401 100.0 4 -0.034256674349308014
0.33274149894714355 -2.245185375213623 0.3594864308834076 24.0 12 -0.034254372119903564
0.3258759677410126 -2.2015111446380615 -0.19470593333244324 100.0 5 -0.034252066165208817
0.33250489830970764 -2.2490017414093018 0.4419136643409729 16.0 13 -0.03424976393580437
0.3276529312133789 -2.218860387802124 -0.11754656583070755 100.0 6 -0.03424745798110962
0.3306889533996582 -2.2421298027038574 0.5232362151145935 13.0 14 -0.03424515575170517
0.32562223076820374 -2.2077765464782715 -0.03895376995205879 100.0 7 -0.03424284979701042
0.32996928691864014 -2.2399566173553467 0.6066718697547913 12.0 15 -0.03424054756760597
0.18294188380241394 -1.2540206909179688 -0.3395705819129944 10.0 0 -0.034219808876514435
0.3223453164100647 -2.212299108505249 0.03902358189225197 100.0 8 -0.034217506647109985
0.21581177413463593 -1.4829602241516113 -0.34597474336624146 7.0 1 -0.03421520069241524
0.3229050040245056 -2.2215750217437744 0.11765124648809433 100.0 9 -0.03421289846301079
0.2606467604637146 -1.7932404279708862 -0.3522334098815918 5.0 2 -0.03421059250831604
0.3243071138858795 -2.233959913253784 0.19749490916728973 56.0 10 -0.03420829027891159
0.3339064121246338 -2.302912712097168 -0.36855965852737427 93.0 3 -0.03420598804950714
0.3237648904323578 -2.2357137203216553 0.27737462520599365 33.0 11 -0.03420368209481239
0.33360451459884644 -2.306497573852539 -0.2861492335796356 100.0 4 -0.034201379865407944
0.3242277503013611 -2.2444345951080322 0.35917356610298157 23.0 12 -0.034199073910713196
0.3167651891708374 -2.1927757263183594 -0.19383437931537628 100.0 5 -0.034196771681308746
0.3252130448818207 -2.254035234451294 0.4426769018173218 16.0 13 -0.034194465726614
0.32047533988952637 -2.2239444255828857 -0.11775590479373932 100.0 6 -0.03419216349720955
0.32258301973342896 -2.2413415908813477 0.5227862596511841 13.0 14 -0.0341898575425148
0.3172438442707062 -2.2069759368896484 -0.038918863981962204 100.0 7 -0.03418755531311035
0.32038426399230957 -2.2315897941589355 0.6040836572647095 12.0 15 -0.034185249358415604
0.17910781502723694 -1.258476972579956 -0.34060588479042053 9.0 0 -0.034164514392614365
0.3134952783584595 -2.205491781234741 0.038883961737155914 100.0 8 -0.03416220843791962
0.2117297351360321 -1.491422176361084 -0.34777435660362244 7.0 1 -0.03415990620851517
0.3159893751144409 -2.228620767593384 0.11796525865793228 100.0 9 -0.03415760397911072
0.25548797845840454 -1.8019145727157593 -0.35375988483428955 5.0 2 -0.03415529802441597
0.31455162167549133 -2.2212696075439453 0.19627472758293152 60.0 10 -0.03415299579501152
0.32503601908683777 -2.29819655418396 -0.3676210343837738 87.0 3 -0.03415068984031677
0.3148479461669922 -2.2289681434631348 0.276399701833725 34.0 11 -0.03414838761091232
0.32555094361305237 -2.307648181915283 -0.2861492335796356 100.0 4 -0.034146081656217575
0.3161158859729767 -2.2435967922210693 0.35886070132255554 24.0 12 -0.034143779426813126
0.3085532486438751 -2.1899220943450928 -0.19348573684692383 100.0 5 -0.03414147347211838
0.31570154428482056 -2.2434921264648438 0.44038718938827515 19.0 13 -0.03413917124271393
0.3138222098350525 -2.2329609394073486 -0.11817460507154465 100.0 6 -0.03413686528801918
0.3147575259208679 -2.2424538135528564 0.5227862596511841 13.0 14 -0.03413456305861473
0.30870524048805237 -2.2021286487579346 -0.038814153522253036 100.0 7 -0.03413225710391998
0.3120570480823517 -2.228868246078491 0.6030483841896057 12.0 15 -0.03412995487451553
0.17471377551555634 -1.259094476699829 -0.34060588479042053 9.0 0 -0.034109219908714294
0.3046966791152954 -2.1986494064331055 0.03874434158205986 100.0 8 -0.034106913954019547
0.20545385777950287 -1.4844307899475098 -0.34597474336624146 7.0 1 -0.0341046117246151
0.30969271063804626 -2.23757004737854 0.11838394403457642 100.0 9 -0.03410230576992035
0.24946534633636475 -1.8047401905059814 -0.354141503572464 6.0 2 -0.0341000035405159
0.307613343000412 -2.2282750606536865 0.1967976689338684 62.0 10 -0.03409769758582115
0.3159323036670685 -2.291489601135254 -0.3663695454597473 85.0 3 -0.0340953953564167
0.3054409623146057 -2.2182540893554688 0.274937242269516 36.0 11 -0.034093089401721954
0.31857576966285706 -2.316636800765991 -0.2871242165565491 100.0 4 -0.034090787172317505
0.3097504675388336 -2.2524607181549072 0.36011216044425964 24.0 12 -0.03408848121762276
0.3017200827598572 -2.1969075202941895 -0.19400867819786072 100.0 5 -0.03408617898821831
0.3068014085292816 -2.236800193786621 0.4388607144355774 19.0 13 -0.03408387303352356
0.30250224471092224 -2.2083187103271484 -0.11681386828422546 100.0 6 -0.03408157080411911
0.30851247906684875 -2.2551236152648926 0.5254856944084167 12.0 14 -0.03407926484942436
0.3022140562534332 -2.2090842723846436 -0.038918863981962204 100.0 7 -0.03407696262001991
0.3051871061325073 -2.2337188720703125 0.6040836572647095 12.0 15 -0.034074656665325165
0.16928240656852722 -1.2520389556884766 -0.338535338640213 9.0 0 -0.034053921699523926
0.29820799827575684 -2.205592632293701 0.038849055767059326 100.0 8 -0.034051619470119476
0.2000085711479187 -1.4812413454055786 -0.34507492184638977 7.0 1 -0.03404931351542473
0.3016130328178406 -2.2366580963134766 0.11827926337718964 100.0 9 -0.03404701128602028
0.24290204048156738 -1.8036543130874634 -0.35375988483428955 5.0 2 -0.03404470533132553
0.3008958399295807 -2.2372336387634277 0.19749490916728973 66.0 10 -0.03404240310192108
0.3099119961261749 -2.3042709827423096 -0.36824676394462585 87.0 3 -0.034040097147226334
0.29861173033714294 -2.22318959236145 0.2754247188568115 34.0 11 -0.034037794917821884
0.3098360002040863 -2.3098106384277344 -0.2861492335796356 100.0 4 -0.034035488963127136
0.3018859326839447 -2.253528118133545 0.36011216044425964 24.0 12 -0.03403318673372269
0.2943139970302582 -2.1999220848083496 -0.19418299198150635 100.0 5 -0.03403088077902794
0.3004234731197357 -2.245589017868042 0.44038718938827515 16.0 13 -0.03402857854962349
0.29676440358161926 -2.2211878299713135 -0.11744190007448196 100.0 6 -0.03402627259492874
0.2989705801010132 -2.2406811714172363 0.5218864679336548 13.0 14 -0.03402397036552429
0.29502955079078674 -2.214089870452881 -0.03898867964744568 100.0 7 -0.03402166813611984
0.298407644033432 -2.2424304485321045 0.606154203414917 12.0 15 -0.034019362181425095
0.16765441000461578 -1.2717461585998535 -0.3437117040157318 9.0 0 -0.033998627215623856
0.29050716757774353 -2.206620216369629 0.038849055767059326 100.0 8 -0.03399632126092911
0.19432878494262695 -1.478066325187683 -0.3441751301288605 7.0 1 -0.03399401903152466
0.29172399640083313 -2.221855401992798 0.11744190007448196 100.0 9 -0.03399171307682991
0.23436394333839417 -1.7849843502044678 -0.34994372725486755 5.0 2 -0.03398941084742546
0.2937339246273041 -2.240194797515869 0.19766922295093536 68.0 10 -0.03398710489273071
0.30160993337631226 -2.303380250930786 -0.36793389916419983 77.0 3 -0.03398480266332626
0.29136452078819275 -2.2281553745269775 0.27591222524642944 36.0 11 -0.033982496708631516
0.30074310302734375 -2.303004503250122 -0.28517428040504456 100.0 4 -0.033980194479227066
0.2942732274532318 -2.2565269470214844 0.36042505502700806 23.0 12 -0.03397788852453232
0.2877900302410126 -2.206813097000122 -0.19470593333244324 100.0 5 -0.03397558629512787
0.2933436334133148 -2.2524642944335938 0.44153204560279846 18.0 13 -0.03397328406572342
0.2887515425682068 -2.220229387283325 -0.11733722686767578 100.0 6 -0.03397097811102867
0.29215148091316223 -2.249441146850586 0.5236860513687134 13.0 14 -0.03396867588162422
0.28601303696632385 -2.205190896987915 -0.038814153522253036 100.0 7 -0.033966369926929474
0.2910745441913605 -2.2472903728485107 0.6071895360946655 12.0 15 -0.033964067697525024
0.1612478494644165 -1.256994366645813 -0.3395705819129944 9.0 0 -0.03394332900643349
0.28381916880607605 -2.21555495262146 0.03898867964744568 100.0 8 -0.03394102677702904
0.19015726447105408 -1.4864675998687744 -0.34597474336624146 7.0 1 -0.03393872082233429
0.2849784791469574 -2.2307846546173096 0.1178605854511261 100.0 9 -0.03393641859292984
0.22713634371757507 -1.7780019044876099 -0.3484172523021698 5.0 2 -0.03393411263823509
0.2849040627479553 -2.2333006858825684 0.19697196781635284 60.0 10 -0.03393181040883064
0.29331839084625244 -2.302459478378296 -0.3676210343837738 70.0 3 -0.033929504454135895
0.2840857207775116 -2.2330970764160156 0.276399701833725 36.0 11 -0.033927202224731445
0.29320284724235535 -2.307978630065918 -0.2856617569923401 100.0 4 -0.033924899995326996
0.285151869058609 -2.247742176055908 0.35886070132255554 24.0 12 -0.03392259404063225
0.2790822386741638 -2.1998977661132812 -0.19400867819786072 100.0 5 -0.0339202918112278
0.2859726846218109 -2.2573699951171875 0.44229528307914734 15.0 13 -0.03391798585653305
0.28175172209739685 -2.227168321609497 -0.11765124648809433 100.0 6 -0.0339156836271286
0.28332090377807617 -2.242713689804077 0.5218864679336548 12.0 14 -0.03391337767243385
0.27831369638442993 -2.2061758041381836 -0.038814153522253036 100.0 7 -0.033911075443029404
0.2815379500389099 -2.234875440597534 0.6035659909248352 11.0 15 -0.033908769488334656
0.15542428195476532 -1.2460476160049438 -0.3364647626876831 8.0 0 -0.03388803452253342
0.27509498596191406 -2.208594560623169 0.038849055767059326 100.0 8 -0.03388572856783867
0.18400537967681885 -1.4793870449066162 -0.3441751301288605 7.0 1 -0.03388342633843422
0.27719008922576904 -2.2317657470703125 0.1178605854511261 100.0 9 -0.03388112038373947
0.2223806381225586 -1.7904735803604126 -0.35070693492889404 5.0 2 -0.03387881815433502
0.27637094259262085 -2.2283501625061035 0.19644904136657715 64.0 10 -0.03387651592493057
0.28455105423927307 -2.297588348388672 -0.3666824400424957 59.0 3 -0.033874209970235825
0.2770201563835144 -2.239985466003418 0.27713093161582947 37.0 11 -0.033871907740831375
0.2856312394142151 -2.3129284381866455 -0.2861492335796356 100.0 4 -0.03386960178613663
0.276578426361084 -2.242842197418213 0.35792210698127747 23.0 12 -0.03386729955673218
0.27140116691589355 -2.2008585929870605 -0.19400867819786072 100.0 5 -0.03386499360203743
0.27785152196884155 -2.256405830383301 0.4419136643409729 13.0 13 -0.03386269137263298
0.274463415145874 -2.232102870941162 -0.1178605854511261 100.0 6 -0.03386038541793823
0.276440292596817 -2.2514257431030273 0.5236860513687134 11.0 14 -0.03385808318853378
0.2706111967563629 -2.2071337699890137 -0.038814153522253036 100.0 7 -0.033855777233839035
0.27373501658439636 -2.235844612121582 0.6035659909248352 12.0 15 -0.033853475004434586
0.15153875946998596 -1.2504181861877441 -0.33750003576278687 8.0 0 -0.03383274003863335
0.2673840820789337 -2.2095413208007812 0.038849055767059326 100.0 8 -0.0338304340839386
0.17837244272232056 -1.4761508703231812 -0.3432753086090088 7.0 1 -0.03382813185453415
0.26987677812576294 -2.2366855144500732 0.11806992441415787 100.0 9 -0.0338258258998394
0.21565917134284973 -1.787340760231018 -0.34994372725486755 6.0 2 -0.03382352367043495
0.2690674364566803 -2.233257293701172 0.1967976689338684 62.0 10 -0.033821217715740204
0.2765291929244995 -2.298567533493042 -0.3666824400424957 59.0 3 -0.033818915486335754
0.26730528473854065 -2.2251713275909424 0.27518099546432495 32.0 11 -0.033816609531641006
0.2780286371707916 -2.3178532123565674 -0.28663671016693115 100.0 4 -0.03381430730223656
0.26992255449295044 -2.253600597381592 0.3594864308834076 22.0 12 -0.03381200134754181
0.26300644874572754 -2.1958577632904053 -0.19348573684692383 100.0 5 -0.03380969911813736
0.26787519454956055 -2.2398176193237305 0.43847909569740295 13.0 13 -0.03380739316344261
0.2659596800804138 -2.227097749710083 -0.11754656583070755 100.0 6 -0.03380509093403816
0.2690413296222687 -2.256247043609619 0.5245858430862427 12.0 14 -0.033802784979343414
0.26314130425453186 -2.210050582885742 -0.038849055767059326 187.0 7 -0.033800482749938965
0.265928715467453 -2.236786365509033 0.6035659909248352 11.0 15 -0.03379817679524422
0.14762434363365173 -1.254776954650879 -0.338535338640213 9.0 0 -0.03377744182944298
0.25943633913993835 -2.208475112915039 0.038814153522253036 100.0 8 -0.03377513960003853
0.17276473343372345 -1.4728937149047852 -0.3423755168914795 7.0 1 -0.03377283364534378
0.2616026699542999 -2.2336466312408447 0.1178605854511261 100.0 9 -0.03377053141593933
0.21033211052417755 -1.7958823442459106 -0.3514702022075653 5.0 2 -0.03376822546124458
0.26196447014808655 -2.240119457244873 0.1973206102848053 58.0 10 -0.033765923231840134
0.26850420236587524 -2.2995188236236572 -0.3666824400424957 55.0 3 -0.033763617277145386
0.2590765953063965 -2.2221474647521973 0.2746935188770294 30.0 11 -0.033761315047740936
0.26901793479919434 -2.310922622680664 -0.2856617569923401 100.0 4 -0.03375900909304619
0.26273876428604126 -2.260415554046631 0.36042505502700806 22.0 12 -0.03375670686364174
0.25649023056030273 -2.206657648086548 -0.19435729086399078 100.0 5 -0.03375440090894699
0.26163938641548157 -2.254390001296997 0.44115039706230164 13.0 13 -0.03375209867954254
0.25703445076942444 -2.218092679977417 -0.11702320724725723 100.0 6 -0.033749792724847794
0.2602676749229431 -2.24942946434021 0.5227862596511841 11.0 14 -0.033747490495443344
0.25611385703086853 -2.2169151306152344 -0.03895376995205879 205.0 7 -0.033745184540748596
0.25900495052337646 -2.245377779006958 0.6056365966796875 11.0 15 -0.03374288231134415
0.14411967992782593 -1.2629621028900146 -0.34060588479042053 9.0 0 -0.03372214734554291
0.2524048089981079 -2.2153279781341553 0.038918863981962204 100.0 8 -0.03371984139084816
0.16806279122829437 -1.4773602485656738 -0.3432753086090088 8.0 1 -0.03371753916144371
0.2529027760028839 -2.2266082763671875 0.11744190007448196 100.0 9 -0.03371523320674896
0.20096027851104736 -1.769295573234558 -0.34612753987312317 5.0 2 -0.03371293097734451
0.254592627286911 -2.2449798583984375 0.19766922295093536 58.0 10 -0.033710625022649765
0.26003092527389526 -2.2965164184570312 -0.3660567104816437 49.0 3 -0.033708322793245316
0.2524334490299225 -2.232901096343994 0.27591222524642944 28.0 11 -0.03370601683855057
0.26094987988471985 -2.311847448348999 -0.2856617569923401 100.0 4 -0.03370371460914612
0.25440409779548645 -2.2573933601379395 0.359799325466156 21.0 12 -0.03370140865445137
0.24878568947315216 -2.2075395584106445 -0.19435729086399078 100.0 5 -0.03369910642504692
0.253109872341156 -2.249436855316162 0.4400055408477783 12.0 13 -0.03369680047035217
0.24995918571949005 -2.22493052482605 -0.11733722686767578 100.0 6 -0.03369449824094772
0.25154542922973633 -2.2425777912139893 0.5209866762161255 11.0 14 -0.033692196011543274
0.2474835366010666 -2.2098464965820312 -0.038814153522253036 199.0 7 -0.033689890056848526
0.2524535059928894 -2.2577874660491943 0.6087424159049988 11.0 15 -0.03368758782744408
0.13843639194965363 -1.2519365549087524 -0.33750003576278687 10.0 0 -0.03366684913635254
0.24467025697231293 -2.216195583343506 0.038918863981962204 100.0 8 -0.03366454690694809
