# .PCD v0.7 - Point Cloud Data file format
VERSION 0.7
FIELDS x y z intensity ring time
SIZE 4 4 4 4 4 4
TYPE F F F F F F
COUNT 1 1 1 1 1 1
WIDTH 554
HEIGHT 1
VIEWPOINT 0 0 0 1 0 0 0
POINTS 554
DATA ascii
3.157177209854126 4.1730265617370605 0.8287898898124695 86.0 12 -0.04788941144943237
2.2839934825897217 3.018888473510742 -0.3311918079853058 4.0 5 -0.047887105494737625
3.1634087562561035 4.179742336273193 1.0189200639724731 70.0 13 -0.047884803265333176
2.221914529800415 2.9347023963928223 -0.1929103434085846 1.0 6 -0.04788249731063843
3.1708824634552 4.186583995819092 1.2124862670898438 73.0 14 -0.04788019508123398
3.0540802478790283 4.0309014320373535 -0.0882742702960968 50.0 7 -0.04787788912653923
3.1798605918884277 4.195390224456787 1.4105638265609741 117.0 15 -0.04787558689713478
3.112443208694458 4.094554424285889 0.08977517485618591 74.0 8 -0.047852545976638794
2.979570150375366 3.9183342456817627 -1.1364527940750122 12.0 1 -0.047850243747234344
3.124587059020996 4.10755729675293 0.2704722583293915 63.0 9 -0.0478479377925396
2.221526861190796 2.9204018115997314 -0.7132440805435181 82.0 2 -0.04784563556313515
3.128544330596924 4.111266613006592 0.45198968052864075 51.0 10 -0.0478433296084404
2.242253303527832 2.94551157951355 -0.5863164663314819 5.0 3 -0.04784102737903595
3.144972324371338 4.129866600036621 0.6373766660690308 68.0 11 -0.0478387214243412
2.243488073348999 2.945000171661377 -0.4545727074146271 2.0 4 -0.04783641919493675
3.156160354614258 4.141554355621338 0.8247225880622864 82.0 12 -0.047834113240242004
2.2933106422424316 3.0093119144439697 -0.33101749420166016 4.0 5 -0.047831811010837555
3.176790475845337 4.167112827301025 1.018538475036621 71.0 13 -0.04782950505614281
2.232144355773926 2.926928997039795 -0.1929103434085846 1.0 6 -0.04782720282673836
3.1783859729766846 4.166193008422852 1.2097868919372559 68.0 14 -0.04782489687204361
3.0511488914489746 3.9979605674743652 -0.08778560161590576 50.0 7 -0.04782259464263916
3.180417537689209 4.165839672088623 1.4043521881103516 115.0 15 -0.04782028868794441
3.109698534011841 4.061436176300049 0.08928651362657547 74.0 8 -0.047797251492738724
3.0050783157348633 3.9233810901641846 -1.1409517526626587 10.0 1 -0.047794945538043976
3.1291892528533936 4.08394193649292 0.269634872674942 66.0 9 -0.047792643308639526
2.2269320487976074 2.906395435333252 -0.7117176055908203 76.0 2 -0.04779033735394478
3.129544734954834 4.082925796508789 0.4500722289085388 54.0 10 -0.04778803512454033
2.248914957046509 2.932964324951172 -0.5853778123855591 8.0 3 -0.04778572916984558
3.1509130001068115 4.107837200164795 0.63567054271698 70.0 11 -0.04778342694044113
2.241670846939087 2.9214015007019043 -0.4521353244781494 2.0 4 -0.047781120985746384
3.1633801460266113 4.121110916137695 0.8228453993797302 91.0 12 -0.047778818756341934
2.3013744354248047 2.9981279373168945 -0.3306688666343689 4.0 5 -0.047776512801647186
3.17218279838562 4.1310858726501465 1.01243257522583 72.0 13 -0.04777421057224274
2.2423484325408936 2.919118881225586 -0.1929103434085846 1.0 6 -0.04777190461754799
3.185784339904785 4.145802021026611 1.2070873975753784 68.0 14 -0.04776960238814354
3.0614266395568848 3.9825313091278076 -0.0876808911561966 52.0 7 -0.04776729643344879
3.180809259414673 4.1363348960876465 1.398140549659729 117.0 15 -0.04776499420404434
3.1116416454315186 4.034723281860352 0.08893746137619019 74.0 8 -0.047741953283548355
3.0282793045043945 3.925210475921631 -1.1445510387420654 12.0 1 -0.047739651054143906
3.1361052989959717 4.063506126403809 0.2690068483352661 66.0 9 -0.04773734509944916
2.2358651161193848 2.8970491886138916 -0.7113359570503235 71.0 2 -0.04773504287004471
3.136469841003418 4.062516689300537 0.4490264058113098 55.0 10 -0.04773273691534996
2.2555177211761475 2.920405387878418 -0.584439218044281 5.0 3 -0.04773043468594551
3.150670051574707 4.077962398529053 0.6327456831932068 76.0 11 -0.04772812873125076
2.2591376304626465 2.922983169555664 -0.4535977244377136 2.0 4 -0.047725826501846313
3.164456605911255 4.092852592468262 0.8194038271903992 79.0 12 -0.047723520547151566
2.2984211444854736 2.9727375507354736 -0.32875144481658936 2.0 5 -0.047721218317747116
3.169769287109375 4.098245620727539 1.0070899724960327 72.0 13 -0.04771891236305237
2.252523899078369 2.9112744331359863 -0.1929103434085846 1.0 6 -0.04771661013364792
3.1930806636810303 4.125409126281738 1.2043880224227905 73.0 14 -0.04771430790424347
3.0642924308776855 3.957589626312256 -0.0873667448759079 50.0 7 -0.04771200194954872
3.1833977699279785 4.109933853149414 1.392964243888855 120.0 15 -0.04770969972014427
3.120800733566284 4.017519950866699 0.08879784494638443 71.0 8 -0.047686658799648285
3.062290906906128 3.9407734870910645 -1.152199387550354 1.0 1 -0.04768435284495354
3.1355597972869873 4.0336127281188965 0.2677507698535919 69.0 9 -0.04768205061554909
3.145740270614624 4.045251369476318 0.4483291208744049 57.0 10 -0.04767744243144989
2.270550489425659 2.918750762939453 -0.5856907367706299 3.0 3 -0.04767513647675514
3.149036169052124 4.046574592590332 0.629577100276947 82.0 11 -0.04767283424735069
2.2815206050872803 2.930743932723999 -0.4560351073741913 1.0 4 -0.047670528292655945
3.176297426223755 4.078663349151611 0.8187780976295471 86.0 12 -0.047668226063251495
2.316129684448242 2.9741272926330566 -0.32979732751846313 2.0 5 -0.047665923833847046
3.1744024753570557 4.074766635894775 1.0040369033813477 72.0 13 -0.0476636178791523
2.262671709060669 2.9033944606781006 -0.1929103434085846 1.0 6 -0.04766131564974785
3.187094211578369 4.088110446929932 1.196739673614502 83.0 14 -0.0476590096950531
3.069479465484619 3.9358320236206055 -0.08712241053581238 57.0 7 -0.04765670746564865
3.1941585540771484 4.094228267669678 1.391411304473877 120.0 15 -0.0476544015109539
3.1224822998046875 3.9908528327941895 0.08844880014657974 71.0 8 -0.047631360590457916
3.095244884490967 3.9546144008636475 -1.159397840499878 1.0 1 -0.04762905836105347
3.1348464488983154 4.0037713050842285 0.2664946913719177 66.0 9 -0.04762675240635872
2.228198289871216 2.845815896987915 -0.7025587558746338 1.0 2 -0.04762445017695427
3.151242733001709 4.023265361785889 0.4471089541912079 59.0 10 -0.04762214794754982
2.289252758026123 2.921692132949829 -0.5878807902336121 1.0 3 -0.04761984199285507
3.1508970260620117 4.019933223724365 0.627139687538147 89.0 11 -0.04761753976345062
2.3137855529785156 2.9508800506591797 -0.4604223966598511 1.0 4 -0.047615233808755875
3.168570041656494 4.039575099945068 0.8131464719772339 77.0 12 -0.047612931579351425
2.412572145462036 3.0757617950439453 -0.3419991433620453 1.0 5 -0.04761062562465668
3.180123805999756 4.0528483390808105 1.0013656616210938 70.0 13 -0.04760832339525223
2.2333312034606934 2.8452036380767822 -0.18956086039543152 1.0 6 -0.04760601744055748
3.1893091201782227 4.061634063720703 1.192240595817566 83.0 14 -0.04760371521115303
3.065906524658203 3.9030771255493164 -0.08663374930620193 59.0 7 -0.04760140925645828
3.198882818222046 4.0709004402160645 1.3872700929641724 120.0 15 -0.04759910702705383
3.1314444541931152 3.9736459255218506 0.08830918371677399 69.0 8 -0.047576066106557846
3.1382133960723877 3.980806350708008 0.26565733551979065 69.0 9 -0.04757145792245865
2.2381179332733154 2.8380210399627686 -0.7025587558746338 1.0 2 -0.0475691556930542
3.150458574295044 3.993471384048462 0.4450172185897827 59.0 10 -0.04756684973835945
2.2725141048431396 2.8795695304870605 -0.5809977054595947 1.0 3 -0.047564547508955
3.1612188816070557 4.004236221313477 0.6264085173606873 80.0 11 -0.047562241554260254
2.324071168899536 2.9427859783172607 -0.4604223966598511 1.0 4 -0.047559939324855804
3.1697041988372803 4.013543605804443 0.8100177645683289 77.0 12 -0.047557633370161057
3.1869490146636963 4.032480716705322 0.9990758895874023 70.0 13 -0.04755302518606186
2.22590708732605 2.8154563903808594 -0.18809543550014496 1.0 6 -0.04755072295665741
3.195004463195801 4.039777755737305 1.1890913248062134 86.0 14 -0.04754841700196266
3.068908452987671 3.8803417682647705 -0.08635450899600983 57.0 7 -0.04754611477255821
3.193187713623047 4.03602933883667 1.3789879083633423 122.0 15 -0.047543808817863464
3.124718427658081 3.9381749629974365 0.08775070309638977 69.0 8 -0.047520771622657776
3.1471214294433594 3.963571786880493 0.2652386426925659 66.0 9 -0.04751616343855858
2.248011350631714 2.830190896987915 -0.7025587558746338 1.0 2 -0.04751385748386383
3.1519851684570312 3.9668495655059814 0.4432741105556488 59.0 10 -0.04751155525445938
2.2697625160217285 2.856550931930542 -0.5778689980506897 1.0 3 -0.04750924929976463
3.169538736343384 3.987515926361084 0.6254335641860962 85.0 11 -0.047506947070360184
3.17262864112854 3.9885406494140625 0.8072019219398499 73.0 12 -0.047502338886260986
3.1880764961242676 4.006529808044434 0.9952597618103027 67.0 13 -0.04749773070216179
2.22528076171875 2.795557975769043 -0.1872580647468567 1.0 6 -0.04749542474746704
3.1962451934814453 4.013915061950684 1.184592366218567 86.0 14 -0.04749312251806259
3.074958562850952 3.8602218627929688 -0.0861450806260109 57.0 7 -0.047490816563367844
3.195216417312622 4.0097503662109375 1.3738114833831787 121.0 15 -0.047488514333963394
3.123464584350586 3.908498525619507 0.08733183890581131 74.0 8 -0.04746547341346741
3.153454065322876 3.943202257156372 0.26461061835289 63.0 9 -0.04746086522936821
2.270871639251709 2.8395869731903076 -0.706756591796875 3.0 2 -0.04745856299996376
3.157654047012329 3.9470412731170654 0.442228227853775 59.0 10 -0.04745625704526901
2.2871248722076416 2.8578648567199707 -0.5797461867332458 1.0 3 -0.04745395481586456
3.1660706996917725 3.9547317028045654 0.6220211386680603 78.0 11 -0.047451648861169815
3.1803555488586426 3.9697341918945312 0.8056375980377197 77.0 12 -0.04744704067707062
3.1873106956481934 3.9769928455352783 0.9906803965568542 70.0 13 -0.04744243249297142
2.302488088607788 2.8719210624694824 -0.1929103434085846 1.0 6 -0.04744013026356697
3.2053589820861816 3.9966537952423096 1.1827927827835083 86.0 14 -0.04743782430887222
3.082158088684082 3.8416645526885986 -0.08597055077552795 60.0 7 -0.04743552207946777
3.201939582824707 3.989532232284546 1.3707057237625122 122.0 15 -0.047433219850063324
3.1295650005340576 3.888225793838501 0.08712241053581238 76.0 8 -0.04741017892956734
3.149660348892212 3.910393714904785 0.26314520835876465 63.0 9 -0.04740557074546814
2.3029379844665527 2.859163522720337 -0.7136256694793701 57.0 2 -0.04740326479077339
3.162661075592041 3.925135850906372 0.441008061170578 61.0 10 -0.04740096256136894
2.2970874309539795 2.849863290786743 -0.5797461867332458 1.0 3 -0.047398656606674194
3.158674478530884 3.917384624481201 0.6178776025772095 78.0 11 -0.047396354377269745
3.1879918575286865 3.950921058654785 0.8040732741355896 79.0 12 -0.04739174619317055
2.4897828102111816 3.0856213569641113 -0.34687986969947815 1.0 5 -0.0473894402384758
3.1900763511657715 3.9520928859710693 0.9872457981109619 71.0 13 -0.04738713800907135
3.099224328994751 3.83817195892334 -0.2585396468639374 2.0 6 -0.0473848357796669
3.2033729553222656 3.9657325744628906 1.1769440174102783 83.0 14 -0.04738252982497215
3.089266300201416 3.8231050968170166 -0.08579603582620621 63.0 7 -0.0473802275955677
3.208556890487671 3.9693188667297363 1.3675999641418457 121.0 15 -0.047377921640872955
3.138082265853882 3.871063232421875 0.08698279410600662 74.0 8 -0.04735488072037697
3.14373779296875 3.876660108566284 0.2615751326084137 59.0 9 -0.04735027253627777
2.320324659347534 2.860255718231201 -0.7159153819084167 25.0 2 -0.04734797030687332
3.1650450229644775 3.9001479148864746 0.43943923711776733 55.0 10 -0.047345664352178574
3.0390923023223877 3.7436065673828125 -0.7637131810188293 15.0 3 -0.047343362122774124
3.169826030731201 3.9032540321350098 0.6173901557922363 78.0 11 -0.047341059893369675
3.1029162406921387 3.81950044631958 -0.6042282581329346 48.0 4 -0.04733875393867493
3.186128616333008 3.9219298362731934 0.8003188371658325 82.0 12 -0.04733645170927048
2.5457751750946045 3.132573366165161 -0.3531550467014313 99.0 5 -0.04733414575457573
3.193943977355957 3.9287471771240234 0.9841929078102112 71.0 13 -0.04733184352517128
3.1201651096343994 3.8366267681121826 -0.2591676712036133 28.0 6 -0.04732953757047653
3.1987497806549072 3.9318501949310303 1.170195460319519 81.0 14 -0.04732723534107208
3.0943565368652344 3.8035316467285156 -0.08558660000562668 63.0 7 -0.047324929386377335
3.216825246810913 3.952662706375122 1.3655292987823486 120.0 15 -0.047322627156972885
3.1433167457580566 3.851339817047119 0.08677336573600769 76.0 8 -0.0472995862364769
3.1559886932373047 3.8641154766082764 0.2614704668521881 61.0 9 -0.0472949780523777
2.3464436531066895 2.8719027042388916 -0.7208763957023621 23.0 2 -0.04729267582297325
3.1622474193573 3.8690216541290283 0.43717318773269653 57.0 10 -0.0472903698682785
3.0564892292022705 3.739626169204712 -0.7649646401405334 45.0 3 -0.047288067638874054
3.182751417160034 3.8927218914031982 0.6173901557922363 87.0 11 -0.047285761684179306
3.1130528450012207 3.8061161041259766 -0.6037408113479614 74.0 4 -0.04728345945477486
3.1847875118255615 3.8924386501312256 0.7965643405914307 91.0 12 -0.04728115350008011
2.5352389812469482 3.097459077835083 -0.35019177198410034 92.0 5 -0.04727885127067566
3.201979398727417 3.912057399749756 0.9826663732528687 71.0 13 -0.04727654531598091
3.1227495670318604 3.8138952255249023 -0.2583303153514862 28.0 6 -0.04727424308657646
3.2031264305114746 3.9106690883636475 1.1670461893081665 78.0 14 -0.047271937131881714
3.1025421619415283 3.786522150039673 -0.08544698357582092 70.0 7 -0.047269634902477264
3.2048866748809814 3.9100332260131836 1.3546589612960815 113.0 15 -0.047267328947782516
3.1415011882781982 3.8218090534210205 0.08635450899600983 76.0 8 -0.04724429175257683
3.1561007499694824 3.838200807571411 0.2604237496852875 61.0 9 -0.04723968356847763
2.3784031867980957 2.891397714614868 -0.727745532989502 25.0 2 -0.04723737761378288
3.1573362350463867 3.8369760513305664 0.4347328543663025 61.0 10 -0.04723507538437843
3.0356290340423584 3.6877551078796387 -0.7565171718597412 50.0 3 -0.047232769429683685
3.1824405193328857 3.8647305965423584 0.6147090196609497 85.0 11 -0.047230467200279236
3.118744134902954 3.7860350608825684 -0.6022783517837524 82.0 4 -0.04722816124558449
3.181349754333496 3.8620359897613525 0.7924971580505371 79.0 12 -0.04722585901618004
2.5290260314941406 3.0690455436706543 -0.34792572259902954 81.0 5 -0.04722355306148529
3.2031290531158447 3.885706901550293 0.9788501858711243 71.0 13 -0.04722125083208084
3.129687547683716 3.795269250869751 -0.2578069269657135 31.0 6 -0.04721894487738609
3.21303653717041 3.8949546813964844 1.165696382522583 74.0 14 -0.047216642647981644
3.1112654209136963 3.7715840339660645 -0.08534227311611176 67.0 7 -0.047214336693286896
3.2079975605010986 3.8874642848968506 1.3505178689956665 115.0 15 -0.047212034463882446
3.138859272003174 3.792882204055786 0.08593565225601196 76.0 8 -0.04718899354338646
3.1643848419189453 3.8210067749023438 0.26000505685806274 66.0 9 -0.04718438535928726
2.4110255241394043 2.9102914333343506 -0.7346146702766418 15.0 2 -0.04718208312988281
3.16308331489563 3.8167262077331543 0.4336869716644287 60.0 10 -0.047179777175188065
3.03271484375 3.6594173908233643 -0.7527627348899841 50.0 3 -0.047177474945783615
3.173701763153076 3.8281755447387695 0.6105654835700989 93.0 11 -0.04717516899108887
3.1249470710754395 3.768031597137451 -0.60105961561203 86.0 4 -0.04717286676168442
3.1872448921203613 3.841784954071045 0.7906199097633362 81.0 12 -0.04717056080698967
2.534634828567505 3.054065704345703 -0.347228467464447 83.0 5 -0.04716825857758522
3.2009525299072266 3.856934070587158 0.9742708206176758 75.0 13 -0.04716595262289047
3.1294991970062256 3.7695024013519287 -0.25676020979881287 23.0 6 -0.04716365039348602
3.2159740924835205 3.872286319732666 1.1620972156524658 74.0 14 -0.047161344438791275
3.1269683837890625 3.7637763023376465 -0.08541207760572433 74.0 7 -0.047159042209386826
3.2091991901397705 3.8613860607147217 1.345341444015503 120.0 15 -0.04715673625469208
3.141838550567627 3.769613265991211 0.08565641939640045 76.0 8 -0.04710634797811508
3.1623494625091553 3.791534185409546 0.25874900817871094 69.0 9 -0.047101739794015884
2.4483275413513184 2.9354496002197266 -0.7430102825164795 3.0 2 -0.047099433839321136
3.1706180572509766 3.800096035003662 0.4329897463321686 61.0 10 -0.04709713160991669
3.0353446006774902 3.6366755962371826 -0.7502597570419312 48.0 3 -0.04709482565522194
3.1717753410339355 3.798790216445923 0.6076405644416809 88.0 11 -0.04709252342581749
3.1240837574005127 3.740339994430542 -0.5983785390853882 78.0 4 -0.04709021747112274
3.193037509918213 3.821539878845215 0.7887426614761353 84.0 12 -0.04708791524171829
2.5421931743621826 3.042586326599121 -0.34687986969947815 81.0 5 -0.047085609287023544
3.2018027305603027 3.8306756019592285 0.9704546332359314 74.0 13 -0.047083307057619095
3.1298277378082275 3.743232011795044 -0.25571349263191223 26.0 6 -0.04708100110292435
3.2169694900512695 3.84608793258667 1.1575982570648193 75.0 14 -0.0470786988735199
3.1259689331054688 3.7359702587127686 -0.08502812683582306 67.0 7 -0.04707639291882515
3.2176995277404785 3.844233512878418 1.3432708978652954 117.0 15 -0.0470740906894207
3.149834156036377 3.7524969577789307 0.0855167880654335 74.0 8 -0.04705104976892471
3.1601502895355225 3.7621195316314697 0.25749292969703674 66.0 9 -0.047046441584825516
2.473712921142578 2.9449241161346436 -0.7475897073745728 1.0 2 -0.047044139355421066
3.1736085414886475 3.7768030166625977 0.43159523606300354 61.0 10 -0.04704183340072632
3.042935609817505 3.6200103759765625 -0.749008297920227 57.0 3 -0.04703953117132187
3.1786296367645264 3.7800986766815186 0.6064218878746033 88.0 11 -0.04703722521662712
3.1217877864837646 3.7111823558807373 -0.595453679561615 82.0 4 -0.04703492298722267
3.196181535720825 3.7982795238494873 0.7862396836280823 81.0 12 -0.047032617032527924
2.550231695175171 3.0306453704833984 -0.3465312123298645 81.0 5 -0.047030314803123474
3.2100982666015625 3.813466787338257 0.9689280986785889 74.0 13 -0.047028008848428726
3.1390161514282227 3.7276999950408936 -0.2553994953632355 32.0 6 -0.04702570661902428
3.2190749645233154 3.8214223384857178 1.153549075126648 83.0 14 -0.04702340066432953
3.132549285888672 3.7173893451690674 -0.08485360443592072 71.0 7 -0.04702109843492508
3.2273645401000977 3.8285462856292725 1.3417179584503174 120.0 15 -0.04701879248023033
3.1603310108184814 3.7384257316589355 0.08544698357582092 74.0 8 -0.04699575528502464
3.1655232906341553 3.741917848587036 0.25686490535736084 69.0 9 -0.046991147100925446
2.499192714691162 2.954258441925049 -0.7521690726280212 1.0 2 -0.0469888411462307
3.177762746810913 3.755056619644165 0.43037503957748413 66.0 10 -0.04698653891682625
3.0746994018554688 3.6319808959960938 -0.7537013292312622 100.0 3 -0.0469842329621315
3.1828243732452393 3.7583768367767334 0.6047157645225525 88.0 11 -0.04698193073272705
3.124455451965332 3.688147783279419 -0.5935037732124329 82.0 4 -0.0469796247780323
3.1928188800811768 3.767507791519165 0.7821723818778992 84.0 12 -0.04697732254862785
2.5523030757904053 3.0106401443481445 -0.3453110456466675 79.0 5 -0.046975016593933105
3.2106940746307373 3.7872636318206787 0.9651119112968445 71.0 13 -0.046972714364528656
3.1429643630981445 3.706059694290161 -0.2546667754650116 33.0 6 -0.04697040840983391
3.2172672748565674 3.7923293113708496 1.1481502056121826 78.0 14 -0.04696810618042946
3.1364498138427734 3.695758581161499 -0.0846092626452446 74.0 7 -0.04696580395102501
3.2232043743133545 3.796640396118164 1.3344709873199463 120.0 15 -0.04696349799633026
3.1552135944366455 3.7060534954071045 0.08495831489562988 71.0 8 -0.046940457075834274
3.170795202255249 3.7217226028442383 0.25623688101768494 69.0 9 -0.04693584889173508
3.0626895427703857 3.5935633182525635 -0.9177913665771484 1.0 2 -0.04693354666233063
3.177286148071289 3.72670578956604 0.428457647562027 63.0 10 -0.04693124070763588
3.0751712322235107 3.6056582927703857 -0.750572681427002 60.0 3 -0.04692893847823143
3.1869077682495117 3.7366700172424316 0.6030095815658569 88.0 11 -0.04692663252353668
3.1295809745788574 3.668156862258911 -0.5920413136482239 68.0 4 -0.04692433029413223
3.2008204460144043 3.7503304481506348 0.7809209227561951 92.0 12 -0.04692202806472778
2.553741693496704 2.991105318069458 -0.34409087896347046 81.0 5 -0.046919722110033035
3.2143545150756836 3.7635269165039062 0.9620590209960938 74.0 13 -0.046917419880628586
3.144850730895996 3.680847406387329 -0.25372472405433655 32.0 6 -0.04691511392593384
3.2235476970672607 3.7716240882873535 1.1454508304595947 83.0 14 -0.04691281169652939
3.1467320919036865 3.681748151779175 -0.08453945815563202 79.0 7 -0.04691050574183464
3.22011661529541 3.7662787437438965 1.3277417421340942 122.0 15 -0.04690820351243019
3.1531529426574707 3.67625093460083 0.08453945815563202 71.0 8 -0.046885162591934204
3.181812286376953 3.707045555114746 0.2560275197029114 69.0 9 -0.04688055440783501
3.0688204765319824 3.575402021408081 -0.9158832430839539 45.0 2 -0.04687824845314026
3.1837852001190186 3.7080347537994385 0.42758604884147644 66.0 10 -0.04687594622373581
3.1889381408691406 3.711414337158203 0.6008159518241882 84.0 11 -0.04687133803963661
3.1404175758361816 3.6536500453948975 -0.591553807258606 46.0 4 -0.04686903581023216
3.210681915283203 3.734079599380493 0.779982328414917 86.0 12 -0.046866729855537415
2.561569929122925 2.9791507720947266 -0.3437422513961792 81.0 5 -0.046864427626132965
3.2121081352233887 3.7344233989715576 0.9574795961380005 71.0 13 -0.04686212167143822
3.1459577083587646 3.656221389770508 -0.2527827024459839 30.0 6 -0.04685981944203377
3.2303380966186523 3.7529633045196533 1.1432013511657715 81.0 14 -0.04685751348733902
3.157594680786133 3.6671600341796875 -0.08446964621543884 79.0 7 -0.04685521125793457
3.223813772201538 3.7427403926849365 1.3236006498336792 122.0 15 -0.04685290530323982
3.1633527278900146 3.6621944904327393 0.08446964621543884 68.0 8 -0.046829864382743835
3.176448345184326 3.6747615337371826 0.254562109708786 63.0 9 -0.046825259923934937
3.073580026626587 3.555755376815796 -0.9135934710502625 63.0 2 -0.04682295396924019
3.191497802734375 3.6908695697784424 0.4268888235092163 66.0 10 -0.04682065173983574
2.56783390045166 2.968574285507202 -0.621670663356781 1.0 3 -0.04681834578514099
3.1901845932006836 3.686749219894409 0.5986222624778748 80.0 11 -0.04681604355573654
3.125868082046509 3.611147880554199 -0.5864353179931641 71.0 4 -0.046813737601041794
3.213351249694824 3.7109034061431885 0.7774794101715088 84.0 12 -0.046811435371637344
2.5667357444763184 2.9641666412353516 -0.3430449962615967 81.0 5 -0.046809129416942596
3.2135565280914307 3.709831953048706 0.9540449976921082 68.0 13 -0.04680682718753815
3.145620584487915 3.630124092102051 -0.25173598527908325 26.0 6 -0.0468045212328434
3.2255477905273438 3.7210497856140137 1.1369026899337769 81.0 14 -0.04680221900343895
3.1664469242095947 3.6515822410583496 -0.08436492830514908 77.0 7 -0.0467999130487442
3.2317943572998047 3.725628137588501 1.3215301036834717 121.0 15 -0.04679761081933975
3.165616512298584 3.6390604972839355 0.08419041335582733 68.0 8 -0.046774569898843765
3.1755051612854004 3.649142026901245 0.2535153925418854 66.0 9 -0.04676996171474457
3.065347671508789 3.521312713623047 -0.9074875712394714 49.0 2 -0.04676765948534012
3.1912763118743896 3.664681911468506 0.4251457154750824 66.0 10 -0.04676535353064537
2.6041319370269775 2.989381790161133 -0.6279280781745911 1.0 3 -0.04676305130124092
3.196514844894409 3.668107509613037 0.5974035859107971 84.0 11 -0.04676074534654617
3.1286978721618652 3.590285301208496 -0.5847291946411133 72.0 4 -0.046758443117141724
3.21006178855896 3.682359218597412 0.7737249135971069 86.0 12 -0.046756137162446976
2.5796871185302734 2.9581918716430664 -0.34339362382888794 81.0 5 -0.046753834933042526
3.222615957260132 3.694153070449829 0.952900230884552 71.0 13 -0.04675152897834778
3.1451401710510254 3.604074239730835 -0.2506892681121826 22.0 6 -0.04674922674894333
3.2250559329986572 3.695650815963745 1.1324037313461304 81.0 14 -0.04674692079424858
3.164073944091797 3.624490261077881 -0.0839809849858284 82.0 7 -0.04674461856484413
3.239048957824707 3.709068536758423 1.3194594383239746 121.0 15 -0.046742312610149384
3.172398090362549 3.6225249767303467 0.08405079692602158 69.0 8 -0.046719275414943695
3.1823251247406006 3.6325814723968506 0.25309672951698303 61.0 9 -0.0467146672308445
2.4675581455230713 2.815695285797119 -0.727745532989502 17.0 2 -0.04671236127614975
3.1929051876068115 3.642092704772949 0.42375123500823975 66.0 10 -0.0467100590467453
2.55411696434021 2.912412405014038 -0.6135360598564148 1.0 3 -0.04670775309205055
3.1994941234588623 3.647043466567993 0.5956974029541016 80.0 11 -0.0467054508626461
3.137965440750122 3.5769081115722656 -0.5842416882514954 70.0 4 -0.046703144907951355
3.206620931625366 3.653877019882202 0.7699705362319946 96.0 12 -0.046700842678546906
2.59079647064209 2.9511189460754395 -0.34356793761253357 66.0 5 -0.04669853672385216
3.229663848876953 3.6775474548339844 0.9513736963272095 72.0 13 -0.04669623449444771
3.1518025398254395 3.5876216888427734 -0.2502705454826355 22.0 6 -0.04669392853975296
3.233435869216919 3.6805431842803955 1.1310540437698364 78.0 14 -0.04669162631034851
3.166834592819214 3.603464365005493 -0.08373665064573288 77.0 7 -0.04668932408094406
3.238574743270874 3.6837990283966064 1.3142831325531006 120.0 15 -0.04668701812624931
3.1658785343170166 3.5909855365753174 0.08356212079524994 74.0 8 -0.046663977205753326
3.1844143867492676 3.6094698905944824 0.25225934386253357 61.0 9 -0.04665936902165413
2.484675645828247 2.8163299560546875 -0.7300352454185486 60.0 2 -0.04665706679224968
3.1891441345214844 3.6135597229003906 0.4216594696044922 66.0 10 -0.04665476083755493
2.4983930587768555 2.8298840522766113 -0.5978925824165344 57.0 3 -0.04665245860815048
3.207629680633545 3.6319491863250732 0.5949662327766418 84.0 11 -0.046650152653455734
2.502471685409546 2.8325133323669434 -0.46407848596572876 16.0 4 -0.046647850424051285
3.212815761566162 3.6352593898773193 0.7684061527252197 88.0 12 -0.04664554446935654
2.605846881866455 2.948482036590576 -0.3442651927471161 61.0 5 -0.04664324223995209
3.223637104034424 3.6462247371673584 0.9460310339927673 72.0 13 -0.04664094001054764
3.1610350608825684 3.5741589069366455 -0.2500612437725067 12.0 6 -0.04663863405585289
3.234642744064331 3.656097412109375 1.127004861831665 74.0 14 -0.04663633182644844
3.168790578842163 3.580409049987793 -0.08345740288496017 68.0 7 -0.04663402587175369
3.2270824909210205 3.644990921020508 1.304448127746582 113.0 15 -0.04663172364234924
3.167773962020874 3.567949056625366 0.08328288793563843 72.0 8 -0.046608682721853256
3.1903624534606934 3.5908656120300293 0.25173598527908325 59.0 9 -0.04660407453775406
2.495795726776123 2.8091063499450684 -0.7304168343544006 76.0 2 -0.04660176858305931
3.1964449882507324 3.596447229385376 0.42096224427223206 63.0 10 -0.04659946635365486
2.4898784160614014 2.8004796504974365 -0.5935124158859253 61.0 3 -0.046597160398960114
3.2044577598571777 3.6029295921325684 0.5920413136482239 86.0 11 -0.046594858169555664
2.5004689693450928 2.8104124069213867 -0.46188485622406006 50.0 4 -0.046592555940151215
3.2228565216064453 3.6210737228393555 0.7677804827690125 88.0 12 -0.04659024998545647
2.518099308013916 2.8292365074157715 -0.3313661515712738 59.0 5 -0.04658794775605202
3.220679998397827 3.6173534393310547 0.9414516091346741 74.0 13 -0.04658564180135727
2.514617919921875 2.8233373165130615 -0.19814395904541016 17.0 6 -0.04658333957195282
3.2370121479034424 3.633146047592163 1.1234056949615479 70.0 14 -0.04658103361725807
3.175947904586792 3.5633535385131836 -0.08331778645515442 53.0 7 -0.04657873138785362
3.2320733070373535 3.625051259994507 1.301342248916626 115.0 15 -0.046576425433158875
3.172211170196533 3.5479259490966797 0.0830734521150589 74.0 8 -0.04655338451266289
3.188936948776245 3.565380334854126 0.2506892681121826 59.0 9 -0.04654877632856369
2.509514331817627 2.8047659397125244 -0.7315617203712463 58.0 2 -0.04654647409915924
3.2036633491516113 3.5793299674987793 0.42026495933532715 61.0 10 -0.04654417186975479
2.515451669692993 2.8094305992126465 -0.5972668528556824 73.0 3 -0.04654186591506004
3.2064201831817627 3.5798914432525635 0.5900914072990417 86.0 11 -0.046539563685655594
2.4996659755706787 2.7898402214050293 -0.45993494987487793 63.0 4 -0.046537257730960846
3.2269387245178223 3.6015384197235107 0.7659032344818115 100.0 12 -0.046534955501556396
2.5053539276123047 2.7952065467834473 -0.3284028172492981 53.0 5 -0.04653264954686165
3.2306671142578125 3.6031649112701416 0.94068843126297 74.0 13 -0.0465303473174572
2.520456552505493 2.81008243560791 -0.197829931974411 60.0 6 -0.04652804136276245
3.2392637729644775 3.610219955444336 1.1198064088821411 70.0 14 -0.046525739133358
2.524022102355957 2.813070058822632 -0.06597010046243668 59.0 7 -0.046523433178663254
3.2389159202575684 3.6085619926452637 1.2992717027664185 115.0 15 -0.046521130949258804
3.175931692123413 3.5284698009490967 0.08286402374505997 71.0 8 -0.04649809002876282
3.1866586208343506 3.5379035472869873 0.249537855386734 61.0 9 -0.04649348184466362
2.5232300758361816 2.8003664016723633 -0.7327065467834473 57.0 2 -0.04649117961525917
3.2041337490081787 3.554805278778076 0.41869619488716125 60.0 10 -0.04648887366056442
2.5221099853515625 2.798138380050659 -0.5966411232948303 56.0 3 -0.04648657143115997
3.206308126449585 3.5559730529785156 0.587897777557373 90.0 11 -0.046484265476465225
2.5221986770629883 2.796276330947876 -0.4623723328113556 53.0 4 -0.046481963247060776
3.219641923904419 3.5682520866394043 0.7612102031707764 88.0 12 -0.04647965729236603
2.523106336593628 2.7953176498413086 -0.3294486999511719 56.0 5 -0.04647735506296158
3.2347044944763184 3.5836880207061768 0.9383986592292786 74.0 13 -0.04647504910826683
2.5310990810394287 2.803191661834717 -0.1979345977306366 93.0 6 -0.04647274687886238
3.23815655708313 3.584995985031128 1.115307331085205 74.0 14 -0.04647044092416763
2.525783061981201 2.7953391075134277 -0.06576066464185715 70.0 7 -0.046468138694763184
3.243717670440674 3.588637590408325 1.2961658239364624 117.0 15 -0.046465832740068436
3.1855437755584717 3.5143983364105225 0.08279421925544739 72.0 8 -0.04644279554486275
3.190938949584961 3.517881393432617 0.2489098161458969 66.0 9 -0.04643818736076355
2.543055534362793 2.8036162853240967 -0.7357594966888428 55.0 2 -0.0464358814060688
3.1998372077941895 3.5264549255371094 0.4166044294834137 60.0 10 -0.04643357917666435
2.5544302463531494 2.8141849040985107 -0.6019598841667175 57.0 3 -0.046431273221969604
3.2146987915039062 3.5403494834899902 0.5871665477752686 86.0 11 -0.046428970992565155
2.5426228046417236 2.7992098331451416 -0.4643222391605377 49.0 4 -0.04642666503787041
3.2161340713500977 3.5394504070281982 0.7574557065963745 91.0 12 -0.04642436280846596
2.548438549041748 2.8046317100524902 -0.33154043555259705 41.0 5 -0.04642205685377121
3.2366292476654053 3.56075382232666 0.9353457689285278 72.0 13 -0.04641975462436676
3.2467164993286133 3.5693471431732178 1.1139576435089111 72.0 14 -0.04641514644026756
2.5435996055603027 2.7953803539276123 -0.06597010046243668 63.0 7 -0.046412840485572815
3.2419209480285645 3.5615768432617188 1.2904717922210693 120.0 15 -0.046410538256168365
3.178917169570923 3.4825809001922607 0.08230555057525635 72.0 8 -0.04638749733567238
3.1978118419647217 3.5008223056793213 0.24849113821983337 61.0 9 -0.04638288915157318
2.5594472885131836 2.801969289779663 -0.7376676201820374 58.0 2 -0.04638058692216873
3.1986868381500244 3.500556230545044 0.4148613214492798 61.0 10 -0.046378280967473984
2.5695700645446777 2.811082363128662 -0.6032113432884216 57.0 3 -0.046375978738069534
3.2149817943573 3.515920877456665 0.5849729180335999 90.0 11 -0.046373672783374786
2.563096284866333 2.8020358085632324 -0.46627214550971985 50.0 4 -0.04637137055397034
3.2204692363739014 3.5194575786590576 0.7555785775184631 86.0 12 -0.04636906459927559
2.560903549194336 2.7986578941345215 -0.3318890631198883 37.0 5 -0.04636676236987114
3.2384345531463623 3.5378477573394775 0.9322927594184875 72.0 13 -0.04636445641517639
2.5843279361724854 2.8222782611846924 -0.20055140554904938 5.0 6 -0.04636215418577194
3.2525734901428223 3.5508077144622803 1.111708164215088 74.0 14 -0.04635985195636749
2.564150333404541 2.798278331756592 -0.06624933332204819 59.0 7 -0.046357546001672745
3.245194911956787 3.5402705669403076 1.2868483066558838 123.0 15 -0.046355243772268295
3.1775221824645996 3.456740140914917 0.08195649832487106 71.0 8 -0.04633220285177231
3.207306146621704 3.4867007732391357 0.2482818067073822 66.0 9 -0.04632759466767311
2.5878186225891113 2.813248634338379 -0.7430102825164795 53.0 2 -0.04632528871297836
3.205491065979004 3.483504295349121 0.41416409611701965 63.0 10 -0.046322986483573914
2.5873947143554688 2.8108153343200684 -0.6050885915756226 60.0 3 -0.046320680528879166
3.2137880325317383 3.490074872970581 0.5825355052947998 88.0 11 -0.046318378299474716
2.590346336364746 2.812052011489868 -0.469440758228302 55.0 4 -0.04631607234477997
3.2313971519470215 3.5067410469055176 0.7552656531333923 88.0 12 -0.04631377011537552
2.583298444747925 2.8024368286132812 -0.3334578573703766 39.0 5 -0.04631146788597107
3.2347962856292725 3.50920033454895 0.9277134537696838 74.0 13 -0.04630916193127632
2.602288246154785 2.8220489025115967 -0.20117942988872528 4.0 6 -0.04630685970187187
3.2557005882263184 3.529405355453491 1.1085588932037354 78.0 14 -0.046304553747177124
2.5833945274353027 2.799598455429077 -0.06649366766214371 55.0 7 -0.046302251517772675
3.2496719360351562 3.5204033851623535 1.2837424278259277 123.0 15 -0.04629994556307793
3.18141770362854 3.4368231296539307 0.08174706995487213 74.0 8 -0.04627690464258194
3.2031707763671875 3.4579005241394043 0.2470257431268692 66.0 9 -0.04627229645848274
2.61279296875 2.8195834159851074 -0.7472080588340759 55.0 2 -0.04626999422907829
3.2141730785369873 3.4673495292663574 0.41364115476608276 66.0 10 -0.04626769199967384
2.6111106872558594 2.81579852104187 -0.6082172989845276 60.0 3 -0.046265386044979095
3.2124524116516113 3.464280128479004 0.5800981521606445 90.0 11 -0.046263083815574646
2.6055474281311035 2.8088133335113525 -0.47041571140289307 55.0 4 -0.0462607778608799
3.23555588722229 3.486752986907959 0.753388524055481 92.0 12 -0.04625847563147545
2.6133968830108643 2.8153064250946045 -0.33607253432273865 44.0 5 -0.0462561696767807
3.239621639251709 3.4886879920959473 0.9254236817359924 72.0 13 -0.04625386744737625
2.6194097995758057 2.8198091983795166 -0.2017027884721756 5.0 6 -0.0462515614926815
3.2487151622772217 3.4960362911224365 1.101810336112976 75.0 14 -0.046249259263277054
2.6067631244659424 2.80521297454834 -0.06684271991252899 49.0 7 -0.046246953308582306
3.2514190673828125 3.497718095779419 1.2796014547348022 124.0 15 -0.046244651079177856
3.1912662982940674 3.4222137928009033 0.08167726546525955 74.0 8 -0.04622161015868187
3.201597213745117 3.4320945739746094 0.24597902595996857 66.0 9 -0.04621700197458267
2.6226186752319336 2.810446262359619 -0.7472080588340759 55.0 2 -0.04621469974517822
3.2208197116851807 3.450282335281372 0.41294392943382263 66.0 10 -0.046212393790483475
2.633056640625 2.8196609020233154 -0.6110330820083618 56.0 3 -0.046210091561079025
3.2197084426879883 3.4466793537139893 0.5791231989860535 90.0 11 -0.04620778560638428
2.6253116130828857 2.8093976974487305 -0.47212186455726624 53.0 4 -0.04620548337697983
3.2328720092773438 3.4595601558685303 0.7499468922615051 86.0 12 -0.04620317742228508
2.639535903930664 2.823631763458252 -0.3381642699241638 44.0 5 -0.04620087519288063
3.246415138244629 3.471623182296753 0.9238971471786499 71.0 13 -0.04619856923818588
2.645610809326172 2.828150749206543 -0.2029588669538498 6.0 6 -0.04619626700878143
3.254242181777954 3.4775595664978027 1.0995607376098633 78.0 14 -0.046193961054086685
2.6206390857696533 2.800476312637329 -0.06694743037223816 35.0 7 -0.046191658824682236
3.2583272457122803 3.4807069301605225 1.2775309085845947 124.0 15 -0.04618935286998749
3.194385051727295 3.402865409851074 0.08146783709526062 71.0 8 -0.0461663156747818
3.2053537368774414 3.4121625423431396 0.24535098671913147 63.0 9 -0.0461617074906826
2.6418235301971436 2.8112897872924805 -0.7498794198036194 53.0 2 -0.046159401535987854
3.2164669036865234 3.4215989112854004 0.4108521640300751 66.0 10 -0.046157099306583405
2.6586294174194336 2.8281848430633545 -0.6147875189781189 56.0 3 -0.04615479335188866
3.224320411682129 3.4287538528442383 0.577904462814331 90.0 11 -0.04615249112248421
2.652294635772705 2.8194737434387207 -0.4752904772758484 59.0 4 -0.04615018516778946
3.2313899993896484 3.4338691234588623 0.7468182444572449 86.0 12 -0.04614788293838501
2.6507413387298584 2.815852165222168 -0.33833858370780945 42.0 5 -0.04614557698369026
3.2538719177246094 3.4565508365631104 0.9227523803710938 67.0 13 -0.04614327475428581
2.6659281253814697 2.8309948444366455 -0.20379623770713806 8.0 6 -0.046140968799591064
3.2537295818328857 3.4539833068847656 1.095511794090271 75.0 14 -0.046138666570186615
2.642740488052368 2.8044097423553467 -0.06726157665252686 34.0 7 -0.04613636061549187
3.2532296180725098 3.451038360595703 1.2708015441894531 122.0 15 -0.04613405838608742
3.195253610610962 3.3800697326660156 0.08118859678506851 71.0 8 -0.04611101746559143
2.781010150909424 2.9408349990844727 -0.9344467520713806 1.0 1 -0.04610871523618698
3.2117557525634766 3.395148754119873 0.24493230879306793 69.0 9 -0.04610640928149223
2.6781158447265625 2.8310375213623047 -0.7575117945671082 87.0 2 -0.046104107052087784
3.2168397903442383 3.3993375301361084 0.4094576835632324 66.0 10 -0.046101801097393036
2.672560214996338 2.8231899738311768 -0.615726113319397 57.0 3 -0.046099498867988586
3.229445457458496 3.4102702140808105 0.5766857862472534 84.0 11 -0.04609719291329384
2.675771713256836 2.8246099948883057 -0.47772786021232605 61.0 4 -0.04609489068388939
3.2379229068756104 3.41683292388916 0.7455667853355408 84.0 12 -0.04609258472919464
2.666917562484741 2.814276933670044 -0.3392101526260376 41.0 5 -0.04609028249979019
3.2497105598449707 3.4280731678009033 0.9181729555130005 70.0 13 -0.046087976545095444
2.697782278060913 2.8448598384857178 -0.2054709792137146 6.0 6 -0.046085674315690994
3.255037546157837 3.431293249130249 1.0919125080108643 74.0 14 -0.046083368360996246
2.6593968868255615 2.802419662475586 -0.0674360990524292 27.0 7 -0.0460810661315918
3.257274866104126 3.431255340576172 1.2676957845687866 122.0 15 -0.04607876390218735
3.1932458877563477 3.3544113636016846 0.08083955198526382 69.0 8 -0.04605572298169136
3.218076467514038 3.3781332969665527 0.2445136159658432 66.0 9 -0.04605111479759216
2.702876329421997 2.837308883666992 -0.7617095112800598 112.0 2 -0.046048808842897415
3.2176907062530518 3.3765480518341064 0.4080631732940674 66.0 10 -0.046046506613492966
2.691939115524292 2.8238532543182373 -0.6179162263870239 108.0 3 -0.04604420065879822
3.2276298999786377 3.3846113681793213 0.5742484331130981 84.0 11 -0.04604189842939377
2.704798936843872 2.8353610038757324 -0.4811401963233948 71.0 4 -0.04603959247469902
3.2402830123901367 3.3955063819885254 0.7433766722679138 88.0 12 -0.04603729024529457
2.693230390548706 2.8222475051879883 -0.34130188822746277 44.0 5 -0.04603498429059982
3.2508111000061035 3.405348300933838 0.9151199460029602 68.0 13 -0.046032682061195374
2.7187318801879883 2.846980333328247 -0.20630836486816406 9.0 6 -0.046030379831790924
3.2643043994903564 3.4170913696289062 1.091012716293335 74.0 14 -0.046028073877096176
3.262558698654175 3.412881374359131 1.26510751247406 121.0 15 -0.04602346569299698
3.20216703414917 3.340357780456543 0.08076974004507065 69.0 8 -0.04600042477250099
3.2126717567443848 3.350145101547241 0.2432575523853302 73.0 9 -0.045995816588401794
2.7032511234283447 2.817938804626465 -0.7590382099151611 68.0 2 -0.045993514358997345
3.223940134048462 3.359544515609741 0.40736594796180725 66.0 10 -0.0459912084043026
2.7086191177368164 2.8215649127960205 -0.619480550289154 93.0 3 -0.04598890617489815
3.2284255027770996 3.3618688583374023 0.5722984671592712 84.0 11 -0.0459866039454937
2.7146806716918945 2.825901508331299 -0.4811401963233948 100.0 4 -0.04598429799079895
3.250157594680786 3.383316993713379 0.743063747882843 84.0 12 -0.0459819957613945
2.7237725257873535 2.834378480911255 -0.34391653537750244 100.0 5 -0.04597968980669975
3.253154993057251 3.3840723037719727 0.9124486446380615 72.0 13 -0.0459773875772953
2.7355761528015137 2.844670295715332 -0.20683172345161438 15.0 6 -0.045975081622600555
3.2586467266082764 3.387421131134033 1.085163950920105 72.0 14 -0.045972779393196106
3.142833948135376 3.26703143119812 -0.07912921160459518 49.0 7 -0.04597047343850136
3.2711799144744873 3.399258613586426 1.264072299003601 121.0 15 -0.04596817120909691
3.2021167278289795 3.318209409713745 0.08049049228429794 72.0 8 -0.04594513028860092
3.2160227298736572 3.330289363861084 0.2426295131444931 73.0 9 -0.045940522104501724
2.707613229751587 2.8028392791748047 -0.7575117945671082 66.0 2 -0.045938219875097275
3.2301089763641357 3.3425405025482178 0.40666869282722473 66.0 10 -0.04593591392040253
2.7220797538757324 2.8168280124664307 -0.6204191446304321 63.0 3 -0.04593361169099808
3.231276750564575 3.342581272125244 0.5708360075950623 86.0 11 -0.04593130573630333
2.725414752960205 2.818312644958496 -0.48138394951820374 82.0 4 -0.04592900350689888
3.2468392848968506 3.3563344478607178 0.7396222352981567 88.0 12 -0.04592669755220413
2.7419638633728027 2.8334431648254395 -0.3449624180793762 74.0 5 -0.04592439532279968
3.253436326980591 3.3619797229766846 0.9093957543373108 74.0 13 -0.045922089368104935
2.75055193901062 2.841322422027588 -0.2072504162788391 8.0 6 -0.045919787138700485
3.2617287635803223 3.3681957721710205 1.082464575767517 72.0 14 -0.04591748118400574
3.070737600326538 3.169862985610962 -0.07703492045402527 88.0 7 -0.04591517895460129
3.2749602794647217 3.3794946670532227 1.260966420173645 121.0 15 -0.04591287299990654
3.208106517791748 3.3012747764587402 0.08035087585449219 69.0 8 -0.04588983580470085
3.218696355819702 3.3110127449035645 0.242001473903656 70.0 9 -0.045885227620601654
2.7018375396728516 2.7783620357513428 -0.7533139586448669 55.0 2 -0.045882921665906906
3.2272820472717285 3.317530393600464 0.4049255847930908 62.0 10 -0.04588061943650246
2.725008249282837 2.800229787826538 -0.618854820728302 60.0 3 -0.04587831348180771
3.2387704849243164 3.3270156383514404 0.5701048374176025 82.0 11 -0.04587601125240326
2.729696750640869 2.8030924797058105 -0.48040899634361267 66.0 4 -0.04587370529770851
3.2469253540039062 3.334228277206421 0.7371193170547485 92.0 12 -0.04587140306830406
2.737442970275879 2.810062885284424 -0.3432193100452423 67.0 5 -0.045869097113609314
3.2596707344055176 3.3449795246124268 0.907869279384613 75.0 13 -0.045866794884204865
2.7534799575805664 2.8245551586151123 -0.2067270576953888 45.0 6 -0.04586448892951012
3.262582778930664 3.3456273078918457 1.0788652896881104 72.0 14 -0.04586218670010567
3.1608123779296875 3.2412664890289307 -0.07902450114488602 52.0 7 -0.04585988074541092
3.274005651473999 3.356172561645508 1.256307601928711 122.0 15 -0.04585757851600647
3.202256917953491 3.2734639644622803 0.07993202656507492 68.0 8 -0.04583453759551048
3.2246434688568115 3.294050455093384 0.24158279597759247 70.0 9 -0.045829929411411285
2.710146427154541 2.767510414123535 -0.7529323101043701 53.0 2 -0.045827627182006836
3.227689266204834 3.2948572635650635 0.4035310745239258 63.0 10 -0.04582532122731209
2.7176902294158936 2.774245262145996 -0.6151003837585449 55.0 3 -0.04582301899790764
3.244227170944214 3.3105862140655518 0.5691298842430115 82.0 11 -0.04582071304321289
2.7389779090881348 2.7940242290496826 -0.48040899634361267 60.0 4 -0.04581841081380844
3.2530126571655273 3.3172316551208496 0.7358677983283997 92.0 12 -0.04581610485911369
2.733280897140503 2.786269187927246 -0.3414762020111084 63.0 5 -0.045813802629709244
3.2597455978393555 3.3229401111602783 0.9048162698745728 75.0 13 -0.045811496675014496
2.7572367191314697 2.8097057342529297 -0.20630836486816406 53.0 6 -0.045809194445610046
3.273658514022827 3.3347904682159424 1.0788652896881104 71.0 14 -0.0458068884909153
2.7559762001037598 2.8064637184143066 -0.0686577707529068 55.0 7 -0.04580458626151085
3.274871587753296 3.333698034286499 1.2521666288375854 123.0 15 -0.0458022803068161
2.748239040374756 2.7888295650482178 0.0683436244726181 39.0 8 -0.04523833841085434
2.77811861038208 2.8171803951263428 0.2073550820350647 29.0 9 -0.04523373022675514
2.715656042098999 2.7538394927978516 -0.7517874836921692 55.0 2 -0.045231424272060394
3.2363719940185547 3.2807345390319824 0.4031824767589569 57.0 10 -0.045229122042655945
2.723676919937134 2.7600483894348145 -0.6141617894172668 56.0 3 -0.0452268160879612
3.2354233264923096 3.2774806022644043 0.5654737949371338 84.0 11 -0.04522451385855675
2.7436201572418213 2.778317451477051 -0.4794340431690216 56.0 4 -0.045222207903862
3.254042625427246 3.2940447330474854 0.7333648800849915 92.0 12 -0.04521990567445755
2.741590738296509 2.7752931118011475 -0.34130188822746277 57.0 5 -0.0452175997197628
3.2581052780151367 3.2970035076141357 0.9010000824928284 74.0 13 -0.04521529749035835
2.7548787593841553 2.7867984771728516 -0.205366313457489 61.0 6 -0.045212991535663605
3.276266574859619 3.31307053565979 1.0757160186767578 70.0 14 -0.045210689306259155
2.759214401245117 2.789233922958374 -0.06848324835300446 59.0 7 -0.04520838335156441
3.278914213180542 3.31343412399292 1.2490607500076294 123.0 15 -0.04520608112215996
2.756549119949341 2.777799129486084 0.06830871850252151 45.0 8 -0.04518304020166397
2.773859977722168 2.793295383453369 0.20630836486816406 50.0 9 -0.045178432017564774
2.7197163105010986 2.738772392272949 -0.7502610087394714 57.0 2 -0.045176129788160324
2.7816262245178223 2.800135612487793 0.3453110456466675 44.0 10 -0.045173823833465576
2.7346880435943604 2.751924514770508 -0.6144746541976929 55.0 3 -0.04517152160406113
2.765413522720337 2.781874895095825 0.4816276729106903 13.0 11 -0.04516921564936638
2.737905263900757 2.753239154815674 -0.476752907037735 55.0 4 -0.04516691341996193
3.2543771266937256 3.2714614868164062 0.7308619618415833 57.0 12 -0.04516460746526718
2.7526674270629883 2.767117977142334 -0.3414762020111084 57.0 5 -0.04516230523586273
3.2612831592559814 3.2772629261016846 0.8987103700637817 72.0 13 -0.045159999281167984
2.750499963760376 2.763009786605835 -0.20431959629058838 63.0 6 -0.045157697051763535
3.275437116622925 3.2891860008239746 1.071666955947876 71.0 14 -0.04515539109706879
2.766108989715576 2.7767534255981445 -0.06841342896223068 57.0 7 -0.04515308886766434
3.2822794914245605 3.293757200241089 1.2459548711776733 123.0 15 -0.04515078291296959
2.7634010314941406 2.765331506729126 0.06823890656232834 45.0 8 -0.0451277457177639
2.772296190261841 2.7722971439361572 0.2054709792137146 51.0 9 -0.0451231375336647
2.716766595840454 2.7167675495147705 -0.7468264698982239 58.0 2 -0.045120831578969955
2.787155866622925 2.7861838340759277 0.3447881042957306 46.0 10 -0.045118529349565506
2.7344958782196045 2.732588291168213 -0.6122846007347107 56.0 3 -0.04511622339487076
