# .PCD v0.7 - Point Cloud Data file format
VERSION 0.7
FIELDS x y z intensity ring time
SIZE 4 4 4 4 4 4
TYPE F F F F F F
COUNT 1 1 1 1 1 1
WIDTH 548
HEIGHT 1
VIEWPOINT 0 0 0 1 0 0 0
POINTS 548
DATA ascii
-0.9241246581077576 2.200556516647339 -0.12508295476436615 1.0 6 -0.060170676559209824
-2.696725368499756 6.42153263092041 1.607950210571289 100.0 14 -0.060168374329805374
-2.649996757507324 6.313346862792969 -0.1195140853524208 1.0 7 -0.060166068375110626
-2.6965463161468506 6.4273810386657715 1.867638349533081 47.0 15 -0.06016376614570618
-1.291641116142273 3.0907976627349854 -0.8975844979286194 5.0 0 -0.06014302745461464
-0.8794011473655701 2.105372190475464 0.03982638940215111 2.0 8 -0.06014072522521019
-1.4632610082626343 3.5049095153808594 -0.8768593072891235 1.0 1 -0.06013842299580574
-0.8579564690589905 2.055039882659912 0.11670918762683868 2.0 9 -0.06013611704111099
-0.8974323868751526 2.150651216506958 -0.45298057794570923 3.0 2 -0.06013381481170654
-0.8612847924232483 2.0650391578674316 0.19575178623199463 1.0 10 -0.060131508857011795
-0.9637850522994995 2.31193208694458 -0.3967178463935852 2.0 3 -0.060129206627607346
-2.6844711303710938 6.44268798828125 0.856985330581665 67.0 11 -0.0601269006729126
-0.935289204120636 2.2446792125701904 -0.2985799014568329 1.0 4 -0.06012459844350815
-2.6808459758758545 6.437150955200195 1.104427456855774 67.0 12 -0.0601222924888134
-0.9524886012077332 2.2882065773010254 -0.21684348583221436 1.0 5 -0.06011999025940895
-2.6840314865112305 6.451143741607666 1.3581784963607788 100.0 13 -0.0601176843047142
-2.5698609352111816 6.17977237701416 -0.35075560212135315 1.0 6 -0.06011538207530975
-2.673546552658081 6.42910623550415 1.6075003147125244 100.0 14 -0.060113076120615005
-0.9164034128189087 2.20477032661438 -0.041676346212625504 1.0 7 -0.060110773891210556
-2.6666808128356934 6.418915271759033 1.862462043762207 47.0 15 -0.06010846793651581
-1.2858189344406128 3.105773448944092 -0.9006903171539307 6.0 0 -0.06008773297071457
-0.860181450843811 2.0787127017974854 0.03926791250705719 2.0 8 -0.06008543074131012
-1.4724856615066528 3.560164451599121 -0.8894565105438232 1.0 1 -0.06008312478661537
-0.8496107459068298 2.054182291030884 0.11649984866380692 2.0 9 -0.06008082255721092
-0.8962964415550232 2.1681299209594727 -0.45603352785110474 3.0 2 -0.060078516602516174
-0.8483457565307617 2.053152322769165 0.19435729086399078 1.0 10 -0.060076214373111725
-0.9621458053588867 2.329721689224243 -0.3992207944393158 2.0 3 -0.06007390841841698
-2.660820722579956 6.446048259735107 0.8562541007995605 69.0 11 -0.06007160618901253
-0.9248113036155701 2.2404284477233887 -0.2976049780845642 1.0 4 -0.06006930023431778
-2.6587297916412354 6.444180488586426 1.1041146516799927 69.0 12 -0.06006699800491333
-0.9357811212539673 2.269249439239502 -0.21475175023078918 1.0 5 -0.06006469205021858
-2.652151107788086 6.434596538543701 1.352835774421692 100.0 13 -0.06006238982081413
-2.5523955821990967 6.195648193359375 -0.35117432475090027 1.0 6 -0.060060083866119385
-2.651468276977539 6.436135768890381 1.6070505380630493 100.0 14 -0.060057781636714935
-0.8892917037010193 2.1597211360931396 -0.0407688245177269 1.0 7 -0.06005547568202019
-2.638029098510742 6.409857273101807 1.857285499572754 47.0 15 -0.06005317345261574
-1.2747788429260254 3.1082329750061035 -0.9001726508140564 5.0 0 -0.0600324384868145
-0.8532838225364685 2.0815534591674805 0.03926791250705719 2.0 8 -0.06003013253211975
-1.4518046379089355 3.543389320373535 -0.8840577006340027 2.0 1 -0.0600278303027153
-0.8469760417938232 2.068225383758545 0.11712788045406342 2.0 9 -0.060025524348020554
-0.8920770883560181 2.1783573627471924 -0.4575599730014801 4.0 2 -0.060023222118616104
-0.8415329456329346 2.0559542179107666 0.19435729086399078 1.0 10 -0.060020916163921356
-0.9521703124046326 2.3274147510528564 -0.39828217029571533 2.0 3 -0.06001861393451691
-2.636422872543335 6.4474873542785645 0.8552790880203247 69.0 11 -0.06001630797982216
-0.916984498500824 2.243643283843994 -0.2976049780845642 1.0 4 -0.06001400575041771
-2.636967420578003 6.455249786376953 1.104427456855774 71.0 12 -0.06001169979572296
-0.928250253200531 2.2723402976989746 -0.21475175023078918 1.0 5 -0.06000939756631851
-2.6263442039489746 6.432451248168945 1.3505462408065796 95.0 13 -0.060007091611623764
-2.5227816104888916 6.181887626647949 -0.3499182462692261 1.0 6 -0.060004789382219315
-2.629723072052002 6.447155952453613 1.6075003147125244 100.0 14 -0.06000248342752457
-0.8847665190696716 2.1702194213867188 -0.040908440947532654 1.0 7 -0.06000018119812012
-2.6141788959503174 6.415449619293213 1.856250286102295 47.0 15 -0.05999787896871567
-1.277004599571228 3.1448822021484375 -0.909490168094635 1.0 0 -0.05997714027762413
-0.8490201830863953 2.0919313430786133 0.03940753638744354 2.0 8 -0.05997483804821968
-1.4343000650405884 3.535794258117676 -0.8809083700180054 3.0 1 -0.05997253209352493
-0.825493335723877 2.0360019207000732 0.11513911187648773 1.0 9 -0.05997022986412048
-0.8822552561759949 2.175999879837036 -0.4564151465892792 4.0 2 -0.059967923909425735
-0.8373438715934753 2.06626558303833 0.1950545459985733 1.0 10 -0.059965621680021286
-0.932917058467865 2.303260564804077 -0.3935891389846802 2.0 3 -0.05996331572532654
-2.6094329357147217 6.445610523223877 0.8538166880607605 82.0 11 -0.05996101349592209
-0.9091476202011108 2.246830463409424 -0.2976049780845642 1.0 4 -0.05995870754122734
-2.6151602268218994 6.466246128082275 1.1047402620315552 69.0 12 -0.05995640531182289
-0.918819010257721 2.2718722820281982 -0.21440312266349792 1.0 5 -0.05995409935712814
-2.6024045944213867 6.437938213348389 1.349782943725586 100.0 13 -0.059951797127723694
-0.8895941376686096 2.2018215656280518 -0.12445490807294846 1.0 6 -0.059949494898319244
-2.6013660430908203 6.441839218139648 1.6039010286331177 100.0 14 -0.059947188943624496
-2.5627007484436035 6.349282741546631 -0.1195140853524208 1.0 7 -0.05994488671422005
-2.590324640274048 6.420951843261719 1.8552149534225464 47.0 15 -0.0599425807595253
-0.9777967929840088 2.4323437213897705 -0.7024349570274353 1.0 0 -0.05992184579372406
-0.8357479572296143 2.08003830909729 0.039128296077251434 3.0 8 -0.05991953983902931
-1.435746431350708 3.575138807296753 -0.8894565105438232 1.0 1 -0.05991723760962486
-0.846653163433075 2.109304666519165 0.1191166415810585 1.0 9 -0.059914931654930115
-0.8688041567802429 2.164490222930908 -0.45336219668388367 4.0 2 -0.059912629425525665
-0.830125629901886 2.069176197052002 0.1950545459985733 1.0 10 -0.05991032347083092
-0.9204598069190979 2.2955029010772705 -0.391711950302124 2.0 3 -0.05990802124142647
-2.586918830871582 6.454679489135742 0.8538166880607605 80.0 11 -0.05990571901202202
-0.8924406170845032 2.227877378463745 -0.294680118560791 2.0 4 -0.05990341305732727
-2.5844945907592773 6.455163955688477 1.1012988090515137 67.0 12 -0.05990111082792282
-0.9168069362640381 2.289863109588623 -0.21579761803150177 1.0 5 -0.05989880487322807
-2.5799176692962646 6.4469828605651855 1.349782943725586 100.0 13 -0.059896502643823624
-0.8819023370742798 2.20491361618042 -0.12445490807294846 1.0 6 -0.059894196689128876
-2.573798418045044 6.438215255737305 1.6007517576217651 100.0 14 -0.059891894459724426
-2.5123250484466553 6.287625789642334 -0.11818769574165344 1.0 7 -0.05988958850502968
-2.5678937435150146 6.42995548248291 1.8552149534225464 47.0 15 -0.05988728627562523
-0.9692997336387634 2.4357423782348633 -0.7024349570274353 1.0 0 -0.05986654758453369
-0.8329169154167175 2.0940914154052734 0.039337724447250366 3.0 8 -0.05986424535512924
-0.820109486579895 2.06398868560791 0.11639518290758133 1.0 9 -0.059859637171030045
-0.859067976474762 2.162036657333374 -0.45221734046936035 4.0 2 -0.059857334941625595
-0.8258398175239563 2.0794677734375 0.19575178623199463 1.0 10 -0.05985502898693085
-0.9241023659706116 2.328077793121338 -0.3967178463935852 2.0 3 -0.0598527267575264
-2.5599782466888428 6.452600002288818 0.8523542881011963 84.0 11 -0.05985042080283165
-0.8831953406333923 2.227288007736206 -0.2941926121711731 2.0 4 -0.0598481185734272
-2.5568525791168213 6.451290130615234 1.0991086959838867 65.0 12 -0.05984581261873245
-2.4680252075195312 6.227166175842285 -0.5860351920127869 1.0 5 -0.059843510389328
-2.5573959350585938 6.455949783325195 1.349782943725586 100.0 13 -0.059841204434633255
-0.8742008209228516 2.2079782485961914 -0.12445490807294846 1.0 6 -0.059838902205228806
-2.5498766899108887 6.443535804748535 1.5998520851135254 100.0 14 -0.05983659625053406
-2.4947760105133057 6.307514190673828 -0.11839712411165237 1.0 7 -0.05983429402112961
-2.5397531986236572 6.424507141113281 1.8510738611221313 47.0 15 -0.05983198806643486
-0.9530024528503418 2.419339418411255 -0.6967409253120422 29.0 0 -0.05981125310063362
-0.8212072253227234 2.0858218669891357 0.039128296077251434 3.0 8 -0.05980895087122917
-0.9583422541618347 2.4353842735290527 -0.6042185425758362 5.0 1 -0.059806644916534424
-0.8070510029792786 2.0519697666168213 0.11555780470371246 1.0 9 -0.059804342687129974
-0.8572639226913452 2.179638624191284 -0.45527029037475586 6.0 2 -0.059802036732435226
-0.8098294734954834 2.060086727142334 0.19366006553173065 1.0 10 -0.05979973450303078
-0.9138036966323853 2.3257737159729004 -0.39577925205230713 2.0 3 -0.05979742854833603
-2.5388879776000977 6.4651923179626465 0.8528417348861694 86.0 11 -0.05979512631893158
-0.8797674775123596 2.2414445877075195 -0.2956550419330597 2.0 4 -0.05979282036423683
-2.5350375175476074 6.462015628814697 1.099421501159668 67.0 12 -0.05979051813483238
-2.434629440307617 6.2060675621032715 -0.5832462310791016 1.0 5 -0.059788212180137634
-2.530543088912964 6.453871726989746 1.3474931716918945 100.0 13 -0.059785909950733185
-0.8766912221908569 2.2370500564575195 -0.12592032551765442 1.0 6 -0.05978360399603844
-2.5287885665893555 6.456026554107666 1.6007517576217651 100.0 14 -0.05978130176663399
-2.478573799133301 6.331081390380859 -0.11867636442184448 1.0 7 -0.05977899581193924
-2.5144975185394287 6.426136493682861 1.8490034341812134 47.0 15 -0.05977669358253479
-0.9501660466194153 2.4370501041412354 -0.7008820176124573 2.0 0 -0.05975595861673355
-0.8095643520355225 2.0774965286254883 0.038918863981962204 4.0 8 -0.0597536526620388
-0.9420549273490906 2.4187402725219727 -0.5992696285247803 11.0 1 -0.059751350432634354
-0.8100273013114929 2.0808310508728027 0.11702320724725723 2.0 9 -0.059749044477939606
-0.8510752320289612 2.18627667427063 -0.45603352785110474 8.0 2 -0.059746742248535156
-0.8026329278945923 2.062901258468628 0.19366006553173065 1.0 10 -0.05974443629384041
-0.919998049736023 2.3657705783843994 -0.4020366370677948 2.0 3 -0.05974213406443596
-2.5119917392730713 6.462913990020752 0.8513793349266052 86.0 11 -0.05973982810974121
-0.8704997897148132 2.2408013343811035 -0.29516759514808655 3.0 4 -0.05973752588033676
-2.5124666690826416 6.470824718475342 1.099421501159668 67.0 12 -0.059735219925642014
-0.8927780985832214 2.2993381023406982 -0.21579761803150177 1.0 5 -0.059732917696237564
-2.5023186206817627 6.448022842407227 1.3444403409957886 100.0 13 -0.059730611741542816
-0.8573204278945923 2.21030330657959 -0.12424556910991669 1.0 6 -0.05972830951213837
-2.5062389373779297 6.464814186096191 1.6007517576217651 100.0 14 -0.05972600355744362
-2.440565824508667 6.298672676086426 -0.11790846288204193 1.0 7 -0.05972370132803917
-2.492049217224121 6.43487548828125 1.8490034341812134 48.0 15 -0.05972139537334442
-0.812749445438385 2.106288433074951 0.03940753638744354 5.0 8 -0.05969961732625961
-0.9669869542121887 2.5073065757751465 -0.6204150319099426 1.0 1 -0.059697311371564865
-0.7973760366439819 2.068596601486206 0.11618582904338837 2.0 9 -0.059695009142160416
-0.844850480556488 2.1928975582122803 -0.4567967355251312 10.0 2 -0.05969270318746567
-0.7979369759559631 2.0711288452148438 0.19418299198150635 2.0 10 -0.05969040095806122
-0.9149875640869141 2.3761818408966064 -0.4032880961894989 2.0 3 -0.05968809500336647
-2.48341703414917 6.452681541442871 0.8489419221878052 84.0 11 -0.05968579277396202
-0.8602138757705688 2.23626446723938 -0.2941926121711731 2.0 4 -0.05968348681926727
-2.4874489307403564 6.469902515411377 1.097857117652893 65.0 12 -0.059681184589862823
-0.8804590702056885 2.2912814617156982 -0.21475175023078918 1.0 5 -0.059678878635168076
-2.478389024734497 6.453052043914795 1.343677043914795 100.0 13 -0.059676576405763626
-0.8510306477546692 2.2170119285583496 -0.12445490807294846 1.0 6 -0.05967427045106888
-2.4784998893737793 6.456716537475586 1.5967026948928833 100.0 14 -0.05967196822166443
-2.423964262008667 6.317932605743408 -0.11811788380146027 1.0 7 -0.05966966226696968
-2.467930793762207 6.435887813568115 1.8469327688217163 47.0 15 -0.05966736003756523
-1.2074167728424072 3.161912441253662 -0.9069019556045532 2.0 0 -0.05964662507176399
-0.8085887432098389 2.1185944080352783 0.039582058787345886 8.0 8 -0.059644319117069244
-0.7848077416419983 2.0584418773651123 0.11545313149690628 2.0 9 -0.05963971093297005
-0.8305150866508484 2.1794686317443848 -0.45336219668388367 12.0 2 -0.0596374087035656
-0.7995630502700806 2.098242998123169 0.19644904136657715 2.0 10 -0.05963510274887085
-0.9048656225204468 2.3758277893066406 -0.40266236662864685 2.0 3 -0.0596328005194664
-2.4597485065460205 6.461740970611572 0.8489419221878052 88.0 11 -0.05963049456477165
-0.8534230589866638 2.2431132793426514 -0.294680118560791 3.0 4 -0.0596281923353672
-2.460911750793457 6.471590042114258 1.096605658531189 65.0 12 -0.059625886380672455
-0.876301646232605 2.3056676387786865 -0.21579761803150177 1.0 5 -0.059623584151268005
-2.456113576889038 6.465764045715332 1.3444403409957886 100.0 13 -0.05962127819657326
-0.8514067530632019 2.242522716522217 -0.12571097910404205 1.0 6 -0.05961897596716881
-2.452744722366333 6.460291385650635 1.5953530073165894 100.0 14 -0.05961667001247406
-2.433424711227417 6.412777423858643 -0.11972350627183914 1.0 7 -0.05961436778306961
-2.444324016571045 6.44489049911499 1.8469327688217163 47.0 15 -0.05961206182837486
-1.1937726736068726 3.1608946323394775 -0.90534907579422 5.0 0 -0.059591326862573624
-0.800818681716919 2.1215436458587646 0.039582058787345886 8.0 8 -0.059589024633169174
-0.779028058052063 2.064906120300293 0.11566247045993805 2.0 9 -0.05958441644906998
-0.8222100734710693 2.1805174350738525 -0.45298057794570923 11.0 2 -0.05958211049437523
-0.780625581741333 2.071329116821289 0.19366006553173065 1.0 10 -0.05957980826497078
-0.8836185932159424 2.345853805541992 -0.39703071117401123 1.0 3 -0.05957750231027603
-2.4360499382019043 6.470712661743164 0.8489419221878052 84.0 11 -0.05957520008087158
-0.8437981605529785 2.2425100803375244 -0.2941926121711731 3.0 4 -0.059572894126176834
-2.4327428340911865 6.465349197387695 1.0941027402877808 78.0 12 -0.059570591896772385
-0.8640404939651489 2.297523260116577 -0.21475175023078918 1.0 5 -0.05956828594207764
-2.4321486949920654 6.4706220626831055 1.343677043914795 100.0 13 -0.05956598371267319
-0.8253119587898254 2.196869373321533 -0.12298951297998428 1.0 6 -0.05956367775797844
-2.4269962310791016 6.46376371383667 1.5940033197402954 100.0 14 -0.05956137552857399
-0.8294494152069092 2.2090537548065186 -0.04118768125772476 1.0 7 -0.05955907329916954
-2.416383743286133 6.4389142990112305 1.8427916765213013 46.0 15 -0.05955676734447479
-1.184083342552185 3.1686620712280273 -0.906384289264679 6.0 0 -0.05953603237867355
-0.7909784317016602 2.116694927215576 0.03944243863224983 8.0 8 -0.059533726423978806
-1.3534259796142578 3.623753786087036 -0.8930557370185852 3.0 1 -0.059531424194574356
-0.7711165547370911 2.065742015838623 0.11555780470371246 2.0 9 -0.05952911823987961
-0.8166518211364746 2.188892364501953 -0.45412543416023254 12.0 2 -0.05952681601047516
-0.7733908891677856 2.0740413665771484 0.19366006553173065 1.0 10 -0.05952451005578041
-0.8703135848045349 2.3339638710021973 -0.39452776312828064 2.0 3 -0.05952220782637596
-2.4152703285217285 6.480615615844727 0.8491856455802917 88.0 11 -0.05951990187168121
-0.8384352922439575 2.2508769035339355 -0.2949238419532776 3.0 4 -0.059517599642276764
-2.4108471870422363 6.475653648376465 1.0944156646728516 81.0 12 -0.059515297412872314
-0.8379495143890381 2.2519755363464355 -0.21021965146064758 1.0 5 -0.059512991458177567
-2.4065682888031006 6.4676127433776855 1.3413872718811035 100.0 13 -0.05951068922877312
-0.8263759016990662 2.2220582962036133 -0.12424556910991669 1.0 6 -0.05950838327407837
-2.40486741065979 6.469950199127197 1.5935533046722412 100.0 14 -0.05950608104467392
-0.8314820528030396 2.2381789684295654 -0.041676346212625504 1.0 7 -0.05950377508997917
-2.3898563385009766 6.43644380569458 1.8396857976913452 46.0 15 -0.05950147286057472
-1.1722294092178345 3.168947219848633 -0.90534907579422 6.0 0 -0.059480734169483185
-0.7801182866096497 2.110064744949341 0.03926791250705719 9.0 8 -0.059478431940078735
-1.3299603462219238 3.5992093086242676 -0.885857343673706 3.0 1 -0.05947612598538399
-0.7635700702667236 2.0664138793945312 0.11545313149690628 8.0 9 -0.05947382375597954
-0.8093891739845276 2.1915884017944336 -0.45412543416023254 12.0 2 -0.05947151780128479
-0.7720276713371277 2.0915474891662598 0.1950545459985733 1.0 10 -0.05946921557188034
-0.8512212038040161 2.307335376739502 -0.38952183723449707 2.0 3 -0.05946691334247589
-2.3864545822143555 6.472243785858154 0.846992015838623 82.0 11 -0.05946460738778114
-0.8353785872459412 2.2668280601501465 -0.29662999510765076 3.0 4 -0.059462305158376694
-2.3900442123413086 6.485466003417969 1.0947284698486328 78.0 12 -0.059459999203681946
-0.8359865546226501 2.2696986198425293 -0.21161414682865143 1.0 5 -0.059457696974277496
-2.3799092769622803 6.464918613433838 1.3390976190567017 100.0 13 -0.05945539101958275
-0.8186149597167969 2.224929094314575 -0.12424556910991669 1.0 6 -0.0594530887901783
-2.3829426765441895 6.480134010314941 1.5940033197402954 100.0 14 -0.05945078283548355
-0.8337182402610779 2.2671995162963867 -0.042165014892816544 1.0 7 -0.0594484806060791
-2.3678340911865234 6.442519664764404 1.8391681909561157 46.0 15 -0.059446174651384354
-1.1140244007110596 3.0442118644714355 -0.8685967326164246 12.0 0 -0.059425439685583115
-0.7772404551506042 2.1239075660705566 0.03947734460234642 9.0 8 -0.05942313373088837
-1.107831597328186 3.0289270877838135 -0.7445880174636841 14.0 1 -0.05942083150148392
-0.7529232501983643 2.059687852859497 0.11492977291345596 11.0 9 -0.05941852927207947
-0.8024083375930786 2.196244239807129 -0.45450708270072937 11.0 2 -0.05941622331738472
-0.7619889378547668 2.0867435932159424 0.19435729086399078 1.0 10 -0.05941392108798027
-0.8530515432357788 2.336122751235962 -0.3939020335674286 2.0 3 -0.05941161513328552
-2.3622548580169678 6.472663879394531 0.846017062664032 88.0 11 -0.05940931290388107
-0.8224154710769653 2.254666566848755 -0.294680118560791 3.0 4 -0.059407006949186325
-2.364683151245117 6.486346244812012 1.0934770107269287 78.0 12 -0.059404704719781876
-0.8621625900268555 2.3662028312683105 -0.22032971680164337 1.0 5 -0.05940239876508713
-2.3584561347961426 6.472775936126709 1.3390976190567017 92.0 13 -0.05940009653568268
-0.8167002201080322 2.242644786834717 -0.12508295476436615 1.0 6 -0.05939779058098793
-2.3567733764648438 6.475183010101318 1.5908540487289429 100.0 14 -0.05939548835158348
-2.3473129272460938 6.4561920166015625 1.8407211303710938 46.0 15 -0.05939088016748428
-1.1032644510269165 3.0460734367370605 -0.8680790662765503 41.0 0 -0.059370145201683044
-0.7691406607627869 2.124727487564087 0.03944243863224983 9.0 8 -0.059367839246988297
-1.1025550365447998 3.047435998916626 -0.748187243938446 60.0 1 -0.05936553701758385
-0.7423335313796997 2.0529119968414307 0.11440641433000565 9.0 9 -0.0593632310628891
-0.7931174635887146 2.193354368209839 -0.45336219668388367 9.0 2 -0.05936092883348465
-0.7577731013298035 2.096754312515259 0.1950545459985733 1.0 10 -0.0593586228787899
-0.8448911309242249 2.3390865325927734 -0.3939020335674286 1.0 3 -0.05935632064938545
-2.3396480083465576 6.480869770050049 0.846017062664032 82.0 11 -0.059354014694690704
-0.8091496825218201 2.2425856590270996 -0.2927301824092865 3.0 4 -0.059351712465286255
-2.3359973430633545 6.4778361320495605 1.0906611680984497 76.0 12 -0.05934940651059151
-0.853898286819458 2.3691978454589844 -0.22032971680164337 1.0 5 -0.05934710428118706
-2.33451771736145 6.4772748947143555 1.338334321975708 97.0 13 -0.05934479832649231
-0.8088663220405579 2.2454822063446045 -0.12508295476436615 1.0 6 -0.05934249609708786
-2.331517219543457 6.476035118103027 1.5890543460845947 100.0 14 -0.05934019014239311
-2.322145462036133 6.457075595855713 1.8386505842208862 46.0 15 -0.059335581958293915
-1.0862324237823486 3.0337271690368652 -0.8634203672409058 18.0 0 -0.059314846992492676
-0.7644160985946655 2.134929895401001 0.039582058787345886 7.0 8 -0.059312544763088226
-1.0899416208267212 3.0457613468170166 -0.7468375563621521 58.0 1 -0.05931023880839348
-0.7378538250923157 2.0630128383636475 0.11482509225606918 8.0 9 -0.05930793657898903
-0.7850725650787354 2.196246862411499 -0.45336219668388367 9.0 2 -0.05930563062429428
-0.744720995426178 2.084507465362549 0.19366006553173065 1.0 10 -0.05930332839488983
-0.838969886302948 2.3496084213256836 -0.3951534926891327 2.0 3 -0.059301022440195084
-2.318347454071045 6.492734909057617 0.8465045094490051 86.0 11 -0.059298720210790634
-0.802650511264801 2.249135732650757 -0.29321765899658203 3.0 4 -0.059296414256095886
-2.310718297958374 6.478508472442627 1.0894097089767456 76.0 12 -0.05929411202669144
-0.8121732473373413 2.2783281803131104 -0.21161414682865143 1.0 5 -0.05929180607199669
-2.312077522277832 6.4894866943359375 1.3390976190567017 97.0 13 -0.05928950384259224
-0.8126910328865051 2.282299041748047 -0.12696704268455505 1.0 6 -0.05928719788789749
-2.303846836090088 6.4735212326049805 1.5863549709320068 100.0 14 -0.05928489565849304
-0.7911580204963684 2.223055124282837 -0.04118768125772476 1.0 7 -0.05928259342908859
-2.2970006465911865 6.457862377166748 1.8365800380706787 46.0 15 -0.059280287474393845
-1.0704764127731323 3.022932291030884 -0.8592792749404907 10.0 0 -0.059259552508592606
-0.7479121685028076 2.113211154937744 0.039128296077251434 4.0 8 -0.05925724655389786
-1.0768206119537354 3.044224500656128 -0.7454878091812134 58.0 1 -0.05925494432449341
-0.7376099228858948 2.0864174365997314 0.1159764900803566 3.0 9 -0.05925263836979866
-0.778710663318634 2.2026755809783936 -0.45412543416023254 9.0 2 -0.05925033614039421
-0.7334569096565247 2.0758228302001953 0.19261418282985687 1.0 10 -0.05924803018569946
-0.8366823792457581 2.3692867755889893 -0.3979693353176117 2.0 3 -0.05924572795629501
-2.2912299633026123 6.491829872131348 0.8452858328819275 88.0 11 -0.059243422001600266
-0.7996848821640015 2.2670388221740723 -0.29516759514808655 3.0 4 -0.059241119772195816
-2.286956310272217 6.486934661865234 1.0894097089767456 76.0 12 -0.05923881381750107
-0.8201135993003845 2.3262462615966797 -0.21579761803150177 1.0 5 -0.05923651158809662
-2.2854976654052734 6.48640775680542 1.3368079662322998 95.0 13 -0.05923420935869217
-0.7927772998809814 2.2512128353118896 -0.12508295476436615 1.0 6 -0.05923190340399742
-2.281881093978882 6.483362197875977 1.5868048667907715 100.0 14 -0.05922960117459297
-2.26947283744812 6.455301761627197 1.8334741592407227 46.0 15 -0.059224992990493774
-1.0580029487609863 3.0211803913116455 -0.8577263355255127 6.0 0 -0.05920425429940224
-0.7431739568710327 2.1233584880828857 0.03926791250705719 3.0 8 -0.05920195206999779
-1.0603973865509033 3.031409502029419 -0.7414387464523315 61.0 1 -0.05919964611530304
-0.732959508895874 2.0965209007263184 0.11639518290758133 2.0 9 -0.05919734388589859
-0.7690739035606384 2.1998207569122314 -0.45298057794570923 9.0 2 -0.05919503793120384
-0.7301502227783203 2.089655876159668 0.19366006553173065 1.0 10 -0.05919273570179939
-0.8277561068534851 2.3703277111053467 -0.3976564407348633 2.0 3 -0.059190429747104645
-2.2639777660369873 6.486668109893799 0.8435796499252319 86.0 11 -0.059188127517700195
-0.7924209237098694 2.271690607070923 -0.29541128873825073 3.0 4 -0.059185825288295746
-2.264296770095825 6.494878768920898 1.0894097089767456 76.0 12 -0.059183519333601
-0.8054289817810059 2.310281753540039 -0.21405449509620667 1.0 5 -0.05918121710419655
-2.2576756477355957 6.479514122009277 1.3337548971176147 97.0 13 -0.0591789111495018
-0.779660165309906 2.2388768196105957 -0.12424556910991669 1.0 6 -0.05917660892009735
-2.2605154514312744 6.494969844818115 1.5877046585083008 100.0 14 -0.0591743029654026
-0.7515788078308105 2.1606664657592773 -0.03993110731244087 1.0 7 -0.059172000735998154
-2.24819278717041 6.466834545135498 1.8345094919204712 46.0 15 -0.059169694781303406
-1.0493463277816772 3.030332088470459 -0.8592792749404907 3.0 0 -0.05914895981550217
-0.7370660305023193 2.1297190189361572 0.039337724447250366 3.0 8 -0.05914665386080742
-1.0472604036331177 3.0277259349823 -0.7396391034126282 63.0 1 -0.05914435163140297
-0.7220852375030518 2.0876147747039795 0.11576715111732483 2.0 9 -0.05914204567670822
-0.7633141279220581 2.2080583572387695 -0.45412543416023254 7.0 2 -0.05913974344730377
-0.7280569672584534 2.1072566509246826 0.1950545459985733 1.0 10 -0.05913744121789932
-0.815608024597168 2.361999988555908 -0.39577925205230713 1.0 3 -0.059135135263204575
-2.2400240898132324 6.490778923034668 0.8430922031402588 82.0 11 -0.059132833033800125
-0.7825440168380737 2.268813133239746 -0.294680118560791 3.0 4 -0.05913052707910538
-2.241459608078003 6.4986162185668945 1.0887839794158936 76.0 12 -0.05912822484970093
-0.7882698178291321 2.2867085933685303 -0.21161414682865143 1.0 5 -0.05912591889500618
-2.2350423336029053 6.487355709075928 1.3337548971176147 97.0 13 -0.05912361666560173
-0.7718396186828613 2.2415850162506104 -0.12424556910991669 1.0 6 -0.05912131071090698
-2.230221748352051 6.480708122253418 1.5823057889938354 100.0 14 -0.05911900848150253
-0.7769443988800049 2.257690191268921 -0.041676346212625504 1.0 7 -0.059116702526807785
-2.2248520851135254 6.468773365020752 1.8329565525054932 46.0 15 -0.059114400297403336
-1.046897530555725 3.057736396789551 -0.8660085797309875 1.0 0 -0.0590936653316021
-0.7338854074478149 2.143502950668335 0.0395471528172493 6.0 8 -0.05909135937690735
-1.0353221893310547 3.0256505012512207 -0.7382894158363342 59.0 1 -0.0590890571475029
-0.7199645042419434 2.105240821838379 0.1166045218706131 1.0 9 -0.05908675119280815
-0.756872296333313 2.2144248485565186 -0.4548886716365814 7.0 2 -0.0590844489634037
-0.7271367907524109 2.1286399364471436 0.1967976689338684 1.0 10 -0.059082143008708954
-0.812879741191864 2.379645824432373 -0.39828217029571533 1.0 3 -0.059079840779304504
-2.2172062397003174 6.494414329528809 0.8426047563552856 82.0 11 -0.059077534824609756
-0.7750164866447449 2.271395683288574 -0.294680118560791 2.0 4 -0.05907523259520531
-2.2155752182006836 6.497052192687988 1.0872197151184082 78.0 12 -0.05907292664051056
-0.7802833914756775 2.2894458770751953 -0.21161414682865143 1.0 5 -0.05907062441110611
-2.2160518169403076 6.502164840698242 1.3352813720703125 95.0 13 -0.05906831845641136
-0.7553868293762207 2.2176637649536133 -0.12278016656637192 1.0 6 -0.05906601622700691
-2.206836223602295 6.4825334548950195 1.5809561014175415 100.0 14 -0.059063710272312164
-0.7368542551994324 2.1657323837280273 -0.03993110731244087 1.0 7 -0.059061408042907715
-2.202878475189209 6.478329658508301 1.8334741592407227 46.0 15 -0.05905910208821297
-1.0274572372436523 3.0337448120117188 -0.858244001865387 2.0 0 -0.05903836712241173
-0.7283225059509277 2.151733875274658 0.039651867002248764 7.0 8 -0.05903606489300728
-1.0253781080245972 3.031092405319214 -0.7387393116950989 63.0 1 -0.05903375893831253
-0.724498987197876 2.141671895980835 0.1184886172413826 1.0 9 -0.05903145670890808
-0.7476388216018677 2.2113425731658936 -0.4537437856197357 6.0 2 -0.05902915075421333
-0.727726936340332 2.1536900997161865 0.19888940453529358 1.0 10 -0.059026848524808884
-0.7931912541389465 2.3487815856933594 -0.3926505744457245 1.0 3 -0.059024542570114136
-2.1945245265960693 6.502113342285156 0.8426047563552856 84.0 11 -0.059022240340709686
-0.7670825123786926 2.2740871906280518 -0.294680118560791 2.0 4 -0.05901993438601494
-2.190227746963501 6.493133544921875 1.0853424072265625 83.0 12 -0.05901763215661049
-0.7726863622665405 2.2920210361480713 -0.21161414682865143 1.0 5 -0.05901532620191574
-2.190835475921631 6.502418041229248 1.3337548971176147 95.0 13 -0.05901302397251129
-0.7680364847183228 2.280857563018799 -0.12612967193126678 1.0 6 -0.059010718017816544
-2.1854357719421387 6.493892192840576 1.5818560123443604 100.0 14 -0.059008415788412094
-2.1770739555358887 6.472781181335449 1.829850673675537 46.0 15 -0.0590038076043129
-1.0101139545440674 3.0171618461608887 -0.8525499701499939 4.0 0 -0.05898307263851166
-0.7199128270149231 2.1503448486328125 0.039582058787345886 7.0 8 -0.05898076668381691
-1.0171767473220825 3.040019989013672 -0.7400889992713928 67.0 1 -0.05897846445441246
-0.743622362613678 2.2237420082092285 0.1228848323225975 1.0 9 -0.05897615849971771
-0.7411593198776245 2.217663526535034 -0.45450708270072937 6.0 2 -0.05897385627031326
-2.1789205074310303 6.523454189300537 0.6017232537269592 28.0 10 -0.058971550315618515
-0.7866501212120056 2.3551459312438965 -0.39327630400657654 1.0 3 -0.058969248086214066
-2.1729488372802734 6.509355545043945 0.8426047563552856 86.0 11 -0.05896694213151932
-0.7645635008811951 2.291682720184326 -0.29662999510765076 2.0 4 -0.05896463990211487
-2.1694252490997314 6.5063605308532715 1.0862810611724854 81.0 12 -0.05896233394742012
-0.7961757779121399 2.389214038848877 -0.22032971680164337 1.0 5 -0.05896003171801567
-2.165534734725952 6.498472213745117 1.331465244293213 97.0 13 -0.05895772576332092
-0.7592069506645203 2.27960205078125 -0.12592032551765442 1.0 6 -0.05895542353391647
-2.1626596450805664 6.4974045753479 1.5809561014175415 100.0 14 -0.058953121304512024
-2.1514203548431396 6.471175193786621 1.8272625207901 46.0 15 -0.05894851312041283
-1.0061759948730469 3.0388338565826416 -0.8577263355255127 25.0 0 -0.05892777442932129
-0.7130310535430908 2.154743194580078 0.039616964757442474 3.0 8 -0.05892547219991684
-1.0010523796081543 3.026900053024292 -0.7360398769378662 63.0 1 -0.05892316624522209
-0.7358559370040894 2.2263240814208984 0.1228848323225975 1.0 9 -0.05892086401581764
-0.7387305498123169 2.2350211143493652 -0.4575599730014801 6.0 2 -0.058918558061122894
-2.156024217605591 6.52686071395874 0.6013745665550232 82.0 10 -0.058916255831718445
-0.7641815543174744 2.3147342205047607 -0.3860803246498108 2.0 3 -0.0589139498770237
-2.1464829444885254 6.505589962005615 0.8411422967910767 84.0 11 -0.05891164764761925
-0.7503421306610107 2.2754852771759033 -0.2941926121711731 2.0 4 -0.0589093416929245
-2.146080493927002 6.51201868057251 1.0859681367874146 83.0 12 -0.05890703946352005
-2.1391544342041016 6.4948039054870605 1.329175591468811 100.0 13 -0.05890243127942085
-0.7400038242340088 2.2480902671813965 -0.12403623014688492 1.0 6 -0.0589001290500164
-2.1399645805358887 6.5049147605896 1.5809561014175415 100.0 14 -0.058897823095321655
-0.7457430958747864 2.2681875228881836 -0.041676346212625504 1.0 7 -0.058895520865917206
-2.128213882446289 6.476810932159424 1.8267449140548706 46.0 15 -0.05889321491122246
-0.9985656142234802 3.0515079498291016 -0.8603145480155945 45.0 0 -0.05887247994542122
-0.7055047154426575 2.157219171524048 0.039616964757442474 2.0 8 -0.05887017399072647
-0.7290949821472168 2.231987953186035 -0.4564151465892792 5.0 2 -0.058863263577222824
-2.135084390640259 6.5400285720825195 0.6018975377082825 92.0 10 -0.058860961347818375
-0.7652871012687683 2.3455567359924316 -0.39077335596084595 1.0 3 -0.05885865539312363
-2.121297836303711 6.505494117736816 0.8401673436164856 86.0 11 -0.05885635316371918
-0.7411649227142334 2.274315595626831 -0.29370513558387756 3.0 4 -0.05885404720902443
-2.1227259635925293 6.51759147644043 1.0856553316116333 85.0 12 -0.05885174497961998
-2.1164684295654297 6.502231597900391 1.329175591468811 100.0 13 -0.05884713679552078
-0.7321525812149048 2.250659465789795 -0.12403623014688492 1.0 6 -0.058844830840826035
-2.111823797225952 6.495665073394775 1.5769069194793701 100.0 14 -0.058842528611421585
-2.1055939197540283 6.4842000007629395 1.8267449140548706 46.0 15 -0.05883792042732239
-0.9908804893493652 3.0641655921936035 -0.8629027009010315 55.0 0 -0.05881718173623085
-0.696125864982605 2.1539602279663086 0.03951225057244301 1.0 8 -0.0588148795068264
-0.9816932082176208 3.0393784046173096 -0.7373896241188049 1.0 1 -0.05881257727742195
-1.301928997039795 4.033259868621826 0.22211383283138275 1.0 9 -0.0588102713227272
-0.718283474445343 2.2251780033111572 -0.45450708270072937 4.0 2 -0.058807969093322754
-2.107961893081665 6.534168243408203 0.6006773710250854 93.0 10 -0.058805663138628006
-0.7607324719429016 2.359494209289551 -0.3926505744457245 1.0 3 -0.058803360909223557
-2.0985748767852783 6.51285982131958 0.8401673436164856 88.0 11 -0.05880105495452881
-0.7356560826301575 2.284446954727173 -0.294680118560791 3.0 4 -0.05879875272512436
-2.096332550048828 6.513678550720215 1.0837781429290771 85.0 12 -0.05879644677042961
-0.7715315818786621 2.3972856998443604 -0.22032971680164337 1.0 5 -0.05879414454102516
-2.0925543308258057 6.505842685699463 1.3284122943878174 100.0 13 -0.058791838586330414
-0.7414063811302185 2.30644154548645 -0.12696704268455505 1.0 6 -0.058789536356925964
-2.086158037185669 6.493720054626465 1.5746575593948364 100.0 14 -0.058787230402231216
-2.081768035888672 6.487830638885498 1.825709581375122 46.0 15 -0.05878262221813202
-0.9813536405563354 3.071286201477051 -0.8639379739761353 29.0 0 -0.05876188725233078
-0.6971185803413391 2.1830461025238037 0.04000091552734375 1.0 8 -0.05875958502292633
-1.2842018604278564 4.026362895965576 0.22148579359054565 1.0 9 -0.05875497683882713
-0.7087224721908569 2.222060203552246 -0.45336219668388367 2.0 2 -0.058752670884132385
-2.0815083980560303 6.530097007751465 0.5996314883232117 90.0 10 -0.058750368654727936
-0.750092625617981 2.3546066284179688 -0.391399085521698 1.0 3 -0.05874806270003319
-2.07582950592041 6.520145416259766 0.8401673436164856 86.0 11 -0.05874576047062874
-0.7306861877441406 2.296459674835205 -0.29589879512786865 3.0 4 -0.05874345451593399
-2.0699894428253174 6.509661674499512 1.081900954246521 85.0 12 -0.05874115228652954
-2.072211742401123 6.520590782165527 1.3299387693405151 100.0 13 -0.058736544102430344
-0.722467839717865 2.274751663208008 -0.12508295476436615 1.0 6 -0.058734238147735596
-2.0652451515197754 6.506535530090332 1.5760072469711304 100.0 14 -0.058731935918331146
-0.6917171478271484 2.180568218231201 -0.03993110731244087 1.0 7 -0.0587296299636364
-2.058523178100586 6.493217468261719 1.8251919746398926 46.0 15 -0.05872732773423195
-0.9776063561439514 3.0968000888824463 -0.8701496720314026 14.0 0 -0.05870659276843071
-0.7087474465370178 2.2464914321899414 0.041117873042821884 1.0 8 -0.05870428681373596
-0.7307393550872803 2.3176076412200928 -0.561028003692627 1.0 1 -0.05870198458433151
-1.270140290260315 4.030820846557617 0.22148579359054565 1.0 9 -0.058699678629636765
-0.6980120539665222 2.215157985687256 -0.45145413279533386 2.0 2 -0.058697376400232315
-2.0569074153900146 6.531621932983398 0.5991085767745972 87.0 10 -0.05869507044553757
-0.7383112907409668 2.345905065536499 -0.38952183723449707 1.0 3 -0.05869276821613312
-2.0518670082092285 6.523563385009766 0.8396798372268677 84.0 11 -0.05869046226143837
-0.7220708131790161 2.297102212905884 -0.2956550419330597 2.0 4 -0.05868816003203392
-2.047255277633667 6.516847133636475 1.081900954246521 85.0 12 -0.05868585407733917
-2.0447347164154053 6.512799263000488 1.3268858194351196 100.0 13 -0.058681245893239975
-0.7145224809646606 2.2772598266601562 -0.12508295476436615 1.0 6 -0.058678943663835526
-2.0407726764678955 6.508126258850098 1.5746575593948364 100.0 14 -0.05867663770914078
-0.7140013575553894 2.27837872505188 -0.041676346212625504 1.0 7 -0.05867433547973633
-2.031224012374878 6.485614776611328 1.8210508823394775 46.0 15 -0.05867203325033188
-1.0105010271072388 3.240356922149658 -0.909490168094635 1.0 0 -0.05865129455924034
-0.7180082201957703 2.305259943008423 -0.557428777217865 1.0 1 -0.058646686375141144
-1.259624719619751 4.046671390533447 0.22211383283138275 1.0 9 -0.058644384145736694
-0.6972779035568237 2.2400753498077393 -0.45603352785110474 1.0 2 -0.058642078191041946
-2.0358688831329346 6.544469833374023 0.5996314883232117 93.0 10 -0.0586397759616375
-0.7230801582336426 2.3258323669433594 -0.3857674300670624 1.0 3 -0.05863747000694275
-2.024369478225708 6.51552152633667 0.8377299904823303 86.0 11 -0.0586351677775383
-0.7010968923568726 2.257901430130005 -0.29029279947280884 1.0 4 -0.05863286182284355
-2.0244929790496826 6.523954391479492 1.081900954246521 85.0 12 -0.0586305595934391
-2.0184974670410156 6.508646488189697 1.3245961666107178 100.0 13 -0.058625951409339905
-0.706569492816925 2.27974009513855 -0.12508295476436615 1.0 6 -0.058623649179935455
-2.0186173915863037 6.517071723937988 1.5751073360443115 100.0 14 -0.05862134322524071
-0.6764770746231079 2.1853442192077637 -0.03993110731244087 1.0 7 -0.05861904099583626
-2.009716033935547 6.49635648727417 1.822086215019226 46.0 15 -0.05861673504114151
-0.5476455688476562 1.7779406309127808 -0.4984855055809021 1.0 0 -0.05859600007534027
-0.5758734345436096 1.8719050884246826 -0.4521516263484955 1.0 1 -0.058591391891241074
-1.2384470701217651 4.028134822845459 0.22085775434970856 1.0 9 -0.058589085936546326
-0.6790685653686523 2.2087175846099854 -0.44916439056396484 1.0 2 -0.058586783707141876
-2.0106728076934814 6.543918132781982 0.5989342331886292 93.0 10 -0.05858447775244713
-0.7010411024093628 2.2830214500427246 -0.3782585859298706 1.0 3 -0.05858217552304268
-2.000450611114502 6.518752098083496 0.8372424840927124 84.0 11 -0.05857987329363823
-0.6932114958763123 2.2603347301483154 -0.29029279947280884 1.0 4 -0.05857756733894348
-2.0028672218322754 6.534758567810059 1.082526683807373 85.0 12 -0.05857526510953903
-0.7087923884391785 2.3125782012939453 -0.21161414682865143 1.0 5 -0.058572959154844284
-1.9934673309326172 6.508143901824951 1.32306969165802 100.0 13 -0.058570656925439835
-0.698607861995697 2.2821922302246094 -0.12508295476436615 1.0 6 -0.05856835097074509
-1.991866946220398 6.51103401184082 1.571958065032959 100.0 14 -0.05856604874134064
-0.70626300573349 2.3100802898406982 -0.042165014892816544 1.0 7 -0.05856374278664589
-1.9870284795761108 6.503331661224365 1.822086215019226 46.0 15 -0.05856144055724144
-0.5453712344169617 1.7927790880203247 -0.5021089315414429 37.0 0 -0.0585407018661499
-0.5438435077667236 1.7899976968765259 -0.4319060444831848 16.0 1 -0.058536097407341
-1.2208961248397827 4.020967483520508 0.22022973001003265 1.0 9 -0.058533791452646255
-0.546437680721283 1.799668312072754 -0.36559006571769714 1.0 2 -0.058531489223241806
-1.988394856452942 6.552803993225098 0.5991085767745972 87.0 10 -0.05852918326854706
-0.6598191857337952 2.1758131980895996 -0.36011216044425964 1.0 3 -0.05852688103914261
-1.9765303134918213 6.5218963623046875 0.8367549777030945 84.0 11 -0.05852457508444786
-0.6945232152938843 2.2931385040283203 -0.2941926121711731 1.0 4 -0.05852227285504341
-1.975467324256897 6.526584148406982 1.0800236463546753 85.0 12 -0.05851996690034866
-0.7007160782814026 2.3150382041931152 -0.21161414682865143 1.0 5 -0.058517664670944214
-1.9718725681304932 6.5188212394714355 1.3238328695297241 100.0 13 -0.058515358716249466
-0.6906366944313049 2.2846171855926514 -0.12508295476436615 1.0 6 -0.058513056486845016
-1.9651833772659302 6.50488805770874 1.5688087940216064 100.0 14 -0.05851075053215027
-0.6612039804458618 2.1900136470794678 -0.03993110731244087 1.0 7 -0.05850844830274582
-1.9643138647079468 6.510228633880615 1.822086215019226 46.0 15 -0.05850614234805107
-0.5379987359046936 1.7909713983535767 -0.5010737180709839 48.0 0 -0.05848540738224983
-0.5392714738845825 1.7974849939346313 -0.43325576186180115 50.0 1 -0.058480799198150635
-1.208000898361206 4.0290303230285645 0.22043907642364502 1.0 9 -0.058478496968746185
-0.5305675268173218 1.7695952653884888 -0.3591025471687317 40.0 2 -0.05847619101405144
-1.9609354734420776 6.544435501098633 0.5977140665054321 87.0 10 -0.05847388878464699
-0.536055326461792 1.7901699542999268 -0.2959740459918976 9.0 3 -0.05847158282995224
-1.9554612636566162 6.534460544586182 0.837486207485199 78.0 11 -0.05846928060054779
-0.5392014980316162 1.8029662370681763 -0.2310643047094345 2.0 4 -0.05846697464585304
-1.9526715278625488 6.533440589904785 1.0800236463546753 85.0 12 -0.05846467241644859
-1.9502308368682861 6.529426574707031 1.3245961666107178 100.0 13 -0.058460064232349396
-0.6689478158950806 2.241082191467285 -0.12257081270217896 1.0 6 -0.05845775827765465
-1.9458057880401611 6.522913455963135 1.5715081691741943 100.0 14 -0.0584554560482502
-0.6535558700561523 2.192308187484741 -0.03993110731244087 1.0 7 -0.05845315009355545
-1.9382688999176025 6.505936622619629 1.81898033618927 46.0 15 -0.058450847864151
-0.5311948657035828 1.7909862995147705 -0.5005560517311096 64.0 0 -0.05843011289834976
-0.5341002345085144 1.8030935525894165 -0.43415555357933044 54.0 1 -0.058425504714250565
-1.1859935522079468 4.006410598754883 0.21897365152835846 1.0 9 -0.05842319875955582
-0.5277312397956848 1.782731533050537 -0.3613922595977783 60.0 2 -0.05842089653015137
-1.9363850355148315 6.545508861541748 0.5971911549568176 90.0 10 -0.05841859057545662
-0.5253223776817322 1.776875615119934 -0.293471097946167 56.0 3 -0.05841628834605217
-1.9298288822174072 6.5317277908325195 0.8362675309181213 86.0 11 -0.05841398239135742
-0.533467173576355 1.8067411184310913 -0.23130804300308228 49.0 4 -0.05841168016195297
-1.927615761756897 6.532639503479004 1.0787721872329712 88.0 12 -0.058409374207258224
-0.5277805328369141 1.7886343002319336 -0.16315554082393646 5.0 5 -0.058407071977853775
-1.9240965843200684 6.524895668029785 1.3223063945770264 100.0 13 -0.05840476602315903
-0.529009222984314 1.795106291770935 -0.09807758778333664 0.0 6 -0.05840246379375458
-1.9208205938339233 6.522188663482666 1.5697084665298462 100.0 14 -0.05840015783905983
-0.6312201619148254 2.1446993350982666 -0.03902358189225197 1.0 7 -0.05839785560965538
-1.9122745990753174 6.501543045043945 1.815874457359314 46.0 15 -0.05839554965496063
-0.524709165096283 1.7908841371536255 -0.5000383853912354 76.0 0 -0.05836820602416992
-0.5248346924781799 1.7936327457427979 -0.43145614862442017 73.0 1 -0.058363597840070724
-0.521816074848175 1.784471869468689 -0.3613922595977783 65.0 2 -0.05835898965597153
-1.9118726253509521 6.542332649230957 0.5963196158409119 87.0 10 -0.05835668742656708
-0.5205350518226624 1.7824002504348755 -0.29409682750701904 80.0 3 -0.05835438147187233
-1.9070442914962769 6.534280776977539 0.8357800245285034 84.0 11 -0.05835207924246788
-0.525804877281189 1.8027833700180054 -0.23057681322097778 96.0 4 -0.05834977328777313
-1.9081544876098633 6.546580791473389 1.0800236463546753 88.0 12 -0.05834747105836868
-0.5224041938781738 1.7922873497009277 -0.1633298546075821 79.0 5 -0.058345165103673935
-1.9002506732940674 6.523701190948486 1.3207799196243286 100.0 13 -0.058342862874269485
-0.5208209753036499 1.789179801940918 -0.0976589024066925 34.0 6 -0.05834055691957474
-1.9019049406051636 6.537878513336182 1.571958065032959 100.0 14 -0.05833825469017029
-0.5202727913856506 1.7896240949630737 -0.032531287521123886 8.0 7 -0.05833594873547554
-1.889627456665039 6.504138469696045 1.814839243888855 46.0 15 -0.05833364650607109
-0.5195283889770508 1.7964162826538086 -0.5010737180709839 76.0 0 -0.05831291154026985
-0.5163508057594299 1.7865968942642212 0.03246147558093071 5.0 8 -0.058310605585575104
-0.515867292881012 1.7860926389694214 -0.42920663952827454 88.0 1 -0.058308303356170654
-0.5162065029144287 1.7884379625320435 0.09755422919988632 1.0 9 -0.058305997401475906
-0.5155842900276184 1.7862823009490967 -0.3613922595977783 87.0 2 -0.05830369517207146
-1.8917862176895142 6.558537483215332 0.5971911549568176 90.0 10 -0.05830138921737671
-0.5164990425109863 1.791798710823059 -0.29534831643104553 85.0 3 -0.05829908698797226
-1.8820271492004395 6.533267021179199 0.8348050713539124 88.0 11 -0.05829678103327751
-0.5156650543212891 1.7912542819976807 -0.22887064516544342 99.0 4 -0.05829447880387306
-1.884200096130371 6.549403667449951 1.0793979167938232 85.0 12 -0.058292172849178314
-0.5166959762573242 1.796014428138733 -0.16350416839122772 96.0 5 -0.058289870619773865
-1.8763834238052368 6.526519775390625 1.320016622543335 100.0 13 -0.05828756466507912
-0.5112627744674683 1.77946937084198 -0.097030870616436 81.0 6 -0.05828526243567467
-1.87261962890625 6.522000312805176 1.5665591955184937 100.0 14 -0.05828295648097992
-0.5118169188499451 1.7837406396865845 -0.03239166736602783 72.0 7 -0.05828065425157547
-1.8679755926132202 6.514409065246582 1.815874457359314 47.0 15 -0.05827834829688072
-0.5143145322799683 1.8019342422485352 -0.5021089315414429 76.0 0 -0.05825761333107948
-0.5035286545753479 1.765312671661377 0.032042618840932846 69.0 8 -0.058255311101675034
-0.5085605978965759 1.7841345071792603 -0.42830681800842285 87.0 1 -0.058253005146980286
-0.507771372795105 1.782545566558838 0.09713554382324219 61.0 9 -0.058250702917575836
-0.5082696676254272 1.7842949628829956 -0.36062902212142944 87.0 2 -0.05824839696288109
-1.8683338165283203 6.563185691833496 0.5970168113708496 87.0 10 -0.05824609473347664
-0.510240912437439 1.793590784072876 -0.29534831643104553 100.0 3 -0.05824378877878189
-1.8602941036224365 6.543615818023682 0.8352925181388855 86.0 11 -0.05824148654937744
-0.5077812671661377 1.7873151302337646 -0.22813943028450012 84.0 4 -0.058239180594682693
-1.8597068786621094 6.550241470336914 1.07845938205719 89.0 12 -0.058236878365278244
-0.5109672546386719 1.7997239828109741 -0.16367848217487335 91.0 5 -0.058234572410583496
-1.852516770362854 6.5292534828186035 1.3192534446716309 100.0 13 -0.05823227018117905
-0.5104967355728149 1.800458312034607 -0.09807758778333664 100.0 6 -0.0582299642264843
-1.8477154970169067 6.520998001098633 1.564759612083435 100.0 14 -0.05822766199707985
-0.5034076571464539 1.7778202295303345 -0.03225204721093178 93.0 7 -0.0582253597676754
-1.8452260494232178 6.5208892822265625 1.815874457359314 46.0 15 -0.05822305381298065
-0.5038319826126099 1.7888425588607788 -0.4979678690433502 78.0 0 -0.05820231884717941
-0.5016981959342957 1.7824586629867554 0.032321859151124954 100.0 8 -0.058200012892484665
-0.5033854246139526 1.789650559425354 -0.42920663952827454 89.0 1 -0.058197710663080215
-0.5015463829040527 1.7843071222305298 0.09713554382324219 100.0 9 -0.05819540470838547
-0.4999135732650757 1.7784981727600098 -0.3591025471687317 90.0 2 -0.05819310247898102
-1.8432589769363403 6.561994552612305 0.5963196158409119 87.0 10 -0.05819079652428627
-0.5039774179458618 1.7953609228134155 -0.29534831643104553 100.0 3 -0.05818849429488182
-1.8363703489303589 6.5462470054626465 0.8348050713539124 88.0 11 -0.05818618834018707
-0.5010038614273071 1.7871651649475098 -0.22789569199085236 85.0 4 -0.05818388611078262
-1.8272403478622437 6.522453784942627 1.072827696800232 85.0 12 -0.058181583881378174
-0.49877017736434937 1.7803926467895508 -0.1617610603570938 87.0 5 -0.058179277926683426
