# .PCD v0.7 - Point Cloud Data file format
VERSION 0.7
FIELDS x y z intensity ring time
SIZE 4 4 4 4 4 4
TYPE F F F F F F
COUNT 1 1 1 1 1 1
WIDTH 542
HEIGHT 1
VIEWPOINT 0 0 0 1 0 0 0
POINTS 542
DATA ascii
2.051546096801758 -0.1272750347852707 -0.5507669448852539 54.0 0 -0.06034442409873009
2.247312307357788 -0.1398138403892517 0.03930281847715378 43.0 8 -0.06034212186932564
2.1433444023132324 -0.13372114300727844 -0.49579212069511414 79.0 1 -0.06033981591463089
2.2884039878845215 -0.14277125895023346 0.12016335874795914 1.0 9 -0.06033751368522644
2.1710410118103027 -0.13582949340343475 -0.42283275723457336 89.0 2 -0.06033520773053169
3.636929512023926 -0.228178933262825 0.3188157081604004 57.0 10 -0.06033290550112724
2.158769369125366 -0.1358182430267334 -0.3425915241241455 87.0 3 -0.060330599546432495
3.647303581237793 -0.23010799288749695 0.4487229585647583 100.0 11 -0.060328297317028046
1.9593391418457031 -0.12395782023668289 -0.24105757474899292 64.0 4 -0.0603259913623333
3.6688413619995117 -0.2321096807718277 0.5822491645812988 96.0 12 -0.06032368913292885
1.960554838180542 -0.12437828630208969 -0.1718711256980896 47.0 5 -0.0603213831782341
3.6756350994110107 -0.23382769525051117 0.7159153819084167 93.0 13 -0.06031908094882965
2.3121209144592285 -0.14749212563037872 -0.12141943722963333 33.0 6 -0.0603167749941349
3.695054769515991 -0.2363581508398056 0.8548140525817871 97.0 14 -0.060314472764730453
2.2430734634399414 -0.14348061382770538 -0.0392330102622509 31.0 7 -0.060312166810035706
3.6919093132019043 -0.23680394887924194 0.9912769794464111 111.0 15 -0.060309864580631256
2.0568723678588867 -0.1348145455121994 -0.5523198843002319 51.0 0 -0.06028912961483002
2.2508270740509033 -0.14752700924873352 0.039372626692056656 38.0 8 -0.06028682366013527
2.140944719314575 -0.14070020616054535 -0.4953422546386719 74.0 1 -0.06028452143073082
2.303835153579712 -0.15180900692939758 0.121000736951828 1.0 9 -0.06028221547603607
2.1646766662597656 -0.14301873743534088 -0.42168790102005005 93.0 2 -0.06027991324663162
3.6599671840667725 -0.24245314300060272 0.32090744376182556 92.0 10 -0.060277607291936874
2.1622493267059326 -0.1432373821735382 -0.34321725368499756 90.0 3 -0.060275305062532425
3.658405065536499 -0.24299100041389465 0.4501853883266449 97.0 11 -0.06027299910783768
1.9549559354782104 -0.13019074499607086 -0.2405700981616974 61.0 4 -0.06027069687843323
3.677863836288452 -0.24557292461395264 0.583813488483429 100.0 12 -0.06026839092373848
1.976012110710144 -0.13228581845760345 -0.17326560616493225 47.0 5 -0.06026608869433403
3.6865928173065186 -0.24680210649967194 0.7182050943374634 92.0 13 -0.06026378273963928
2.3175976276397705 -0.15555986762046814 -0.12173344939947128 31.0 6 -0.06026148051023483
3.690361976623535 -0.2483484297990799 0.8539142608642578 97.0 14 -0.06025917828083038
2.2565250396728516 -0.15225185453891754 -0.03947734460234642 27.0 7 -0.060256872326135635
3.6910603046417236 -0.24968966841697693 0.9912769794464111 113.0 15 -0.060254570096731186
2.0564138889312744 -0.14163462817668915 -0.5523198843002319 58.0 0 -0.06023383140563965
2.260272979736328 -0.1560717076063156 0.0395471528172493 30.0 8 -0.0602315291762352
2.1443288326263428 -0.14844179153442383 -0.49624204635620117 70.0 1 -0.06022922322154045
2.3272011280059814 -0.16150932013988495 0.1222568079829216 1.0 9 -0.060226920992136
2.15439772605896 -0.14951664209365845 -0.41977980732917786 100.0 2 -0.060224615037441254
3.6591429710388184 -0.2545887231826782 0.32090744376182556 100.0 10 -0.060222312808036804
2.171588897705078 -0.15147142112255096 -0.3447815775871277 93.0 3 -0.060220006853342056
3.6614949703216553 -0.2560366690158844 0.45067286491394043 100.0 11 -0.06021770462393761
1.9703314304351807 -0.13812455534934998 -0.2425200194120407 60.0 4 -0.06021539866924286
3.6691019535064697 -0.25785568356513977 0.5825620293617249 98.0 12 -0.06021309643983841
1.9934499263763428 -0.14009486138820648 -0.17483441531658173 46.0 5 -0.06021079421043396
3.701375961303711 -0.2607730031013489 0.7212580442428589 93.0 13 -0.06020848825573921
2.3389556407928467 -0.16519667208194733 -0.1228848323225975 26.0 6 -0.06020618602633476
3.6972479820251465 -0.26177915930747986 0.8557138442993164 97.0 14 -0.060203880071640015
2.2799160480499268 -0.16182662546634674 -0.039896201342344284 42.0 7 -0.060201577842235565
3.6901662349700928 -0.26257234811782837 0.9912769794464111 113.0 15 -0.06019927188754082
2.052053689956665 -0.14853306114673615 -0.5512846112251282 55.0 0 -0.06017853692173958
2.2577199935913086 -0.16381587088108063 0.03951225057244301 21.0 8 -0.06017623096704483
2.1418538093566895 -0.15578460693359375 -0.49579212069511414 61.0 1 -0.06017392873764038
2.3385746479034424 -0.1705031543970108 0.1228848323225975 1.0 9 -0.06017162278294563
2.1421144008636475 -0.15617944300174713 -0.4174901247024536 81.0 2 -0.060169320553541183
3.6463096141815186 -0.26648858189582825 0.3198615610599518 100.0 10 -0.060167018324136734
2.1572563648223877 -0.15804046392440796 -0.3425915241241455 83.0 3 -0.060164712369441986
3.672457218170166 -0.2696883976459503 0.4521353244781494 100.0 11 -0.06016241014003754
1.9856752157211304 -0.1461673080921173 -0.24446991086006165 61.0 4 -0.06016010418534279
3.668179512023926 -0.2706616520881653 0.5825620293617249 100.0 12 -0.06015780195593834
1.9889748096466064 -0.14675922691822052 -0.17448578774929047 50.0 5 -0.06015549600124359
3.6886959075927734 -0.2728227972984314 0.7189683318138123 93.0 13 -0.06015319377183914
2.368241786956787 -0.1755751222372055 -0.12445490807294846 24.0 6 -0.060150887817144394
3.7079720497131348 -0.27554991841316223 0.8584132790565491 100.0 14 -0.060148585587739944
2.283325672149658 -0.17008110880851746 -0.03996601328253746 49.0 7 -0.0601462796330452
3.689227342605591 -0.2754518389701843 0.9912769794464111 113.0 15 -0.06014397740364075
2.059227466583252 -0.15627990663051605 -0.5533550977706909 55.0 0 -0.06012323871254921
2.2690978050231934 -0.17260579764842987 0.03972167521715164 12.0 8 -0.06012093648314476
2.1335246562957764 -0.16266755759716034 -0.49399253726005554 68.0 1 -0.06011863425374031
2.337965250015259 -0.17866526544094086 0.1228848323225975 1.0 9 -0.06011632829904556
2.1611318588256836 -0.16515180468559265 -0.421306312084198 86.0 2 -0.06011402606964111
3.653303623199463 -0.2798236310482025 0.3205588161945343 100.0 10 -0.060111720114946365
2.154721975326538 -0.16541852056980133 -0.3422786593437195 75.0 3 -0.060109417885541916
3.6556596755981445 -0.28128769993782043 0.4501853883266449 100.0 11 -0.06010711193084717
1.9930697679519653 -0.1537082940340042 -0.2454448938369751 56.0 4 -0.06010480970144272
3.6809988021850586 -0.28452998399734497 0.584752082824707 96.0 12 -0.06010250374674797
2.0142743587493896 -0.1556972712278366 -0.17675185203552246 51.0 5 -0.06010020151734352
3.679891586303711 -0.28509050607681274 0.7174418568611145 93.0 13 -0.06009789556264877
2.367614507675171 -0.1838407665491104 -0.12445490807294846 20.0 6 -0.060095593333244324
3.7069876194000244 -0.28849145770072937 0.8584132790565491 97.0 14 -0.060093287378549576
2.2747433185577393 -0.17742836475372314 -0.03982638940215111 18.0 7 -0.060090985149145126
3.6959471702575684 -0.2889302372932434 0.9933475852012634 111.0 15 -0.06008867919445038
2.066372871398926 -0.16407868266105652 -0.5554257035255432 55.0 0 -0.06006794422864914
2.282435417175293 -0.18163584172725677 0.03996601328253746 8.0 8 -0.06006564199924469
2.117403268814087 -0.16887450218200684 -0.4903933107852936 68.0 1 -0.06006333604454994
2.337327480316162 -0.18682518601417542 0.1228848323225975 1.0 9 -0.06006103381514549
2.1468429565429688 -0.17159955203533173 -0.41863495111465454 66.0 2 -0.060058727860450745
3.6642205715179443 -0.29352888464927673 0.3216046690940857 100.0 10 -0.060056425631046295
2.1639766693115234 -0.1737293004989624 -0.343843013048172 82.0 3 -0.06005411967635155
3.6586129665374756 -0.2943650186061859 0.45067286491394043 97.0 11 -0.0600518174469471
1.992521047592163 -0.16066446900367737 -0.2454448938369751 50.0 4 -0.06004951149225235
3.687859296798706 -0.2980137765407562 0.5860036015510559 93.0 12 -0.0600472092628479
2.0395357608795166 -0.16481369733810425 -0.17901790142059326 58.0 5 -0.06004490330815315
3.690614938735962 -0.2988848388195038 0.7197315692901611 93.0 13 -0.0600426010787487
2.3649675846099854 -0.19194260239601135 -0.12435024976730347 38.0 6 -0.060040295124053955
3.7098426818847656 -0.3017454743385315 0.8593130707740784 100.0 14 -0.060037992894649506
2.2800896167755127 -0.18585501611232758 -0.03993110731244087 1.0 7 -0.06003568693995476
3.6987669467926025 -0.302144318819046 0.9943828582763672 108.0 15 -0.06003338471055031
2.075413942337036 -0.1720888614654541 -0.558013916015625 57.0 0 -0.06001264974474907
2.303708553314209 -0.1914234161376953 0.040349964052438736 2.0 8 -0.06001034379005432
2.122627019882202 -0.17674972116947174 -0.4917430281639099 72.0 1 -0.06000804156064987
2.368506669998169 -0.19764022529125214 0.12455958873033524 1.0 9 -0.060005735605955124
2.136448383331299 -0.17827612161636353 -0.41672685742378235 71.0 2 -0.060003433376550674
3.665159225463867 -0.306483656167984 0.3217789828777313 96.0 10 -0.060001127421855927
2.1495776176452637 -0.18012726306915283 -0.34165289998054504 77.0 3 -0.05999882519245148
3.6615192890167236 -0.3074663579463959 0.45116034150123596 100.0 11 -0.05999651923775673
2.003816843032837 -0.1686173975467682 -0.2469073086977005 69.0 4 -0.05999421700835228
3.6789228916168213 -0.3102210462093353 0.584752082824707 93.0 12 -0.05999191105365753
2.0508599281311035 -0.17293646931648254 -0.18006375432014465 54.0 5 -0.05998960882425308
3.6973743438720703 -0.3124268651008606 0.7212580442428589 92.0 13 -0.059987302869558334
2.362293004989624 -0.200028195977211 -0.12424556910991669 23.0 6 -0.059985000640153885
3.704883098602295 -0.31436389684677124 0.8584132790565491 100.0 14 -0.05998269468545914
3.6263608932495117 -0.30833864212036133 -0.06352675706148148 68.0 7 -0.05998039245605469
3.7092387676239014 -0.3160375952720642 0.9974886178970337 106.0 15 -0.05997809022665024
2.06710147857666 -0.17866691946983337 -0.5559433102607727 57.0 0 -0.0599573515355587
2.3488478660583496 -0.20343227684497833 0.041152775287628174 1.0 8 -0.05995504930615425
2.12393856048584 -0.18432649970054626 -0.49219295382499695 68.0 1 -0.0599527433514595
3.6492011547088623 -0.3173384666442871 0.19196830689907074 77.0 9 -0.059950441122055054
2.129945993423462 -0.18522238731384277 -0.4155820310115814 82.0 2 -0.059948135167360306
3.656127691268921 -0.31858378648757935 0.3210817575454712 99.0 10 -0.059945832937955856
2.154839515686035 -0.18814504146575928 -0.3425915241241455 73.0 3 -0.05994352698326111
3.6643788814544678 -0.32059159874916077 0.4516478180885315 97.0 11 -0.05994122475385666
2.0210134983062744 -0.17717120051383972 -0.2491009682416916 80.0 4 -0.05993891879916191
3.6778175830841064 -0.3230609893798828 0.584752082824707 96.0 12 -0.05993661656975746
2.054213523864746 -0.1804429441690445 -0.1804123967885971 49.0 5 -0.059934310615062714
3.7001726627349854 -0.32567545771598816 0.7220212817192078 92.0 13 -0.059932008385658264
2.359591007232666 -0.20809747278690338 -0.1241409033536911 18.0 6 -0.059929706156253815
3.69793963432312 -0.3267798125743866 0.8570635914802551 93.0 14 -0.05992740020155907
3.6431894302368164 -0.322582483291626 -0.06384090334177017 100.0 7 -0.05992509797215462
3.6965675354003906 -0.3279590308666229 0.9943828582763672 111.0 15 -0.05992279201745987
2.062617301940918 -0.1855352222919464 -0.554908037185669 57.0 0 -0.05990205705165863
3.6367034912109375 -0.3277662992477417 0.06373618543148041 60.0 8 -0.05989975109696388
2.1194002628326416 -0.19138875603675842 -0.4912931025028229 66.0 1 -0.05989744886755943
3.677908420562744 -0.33277428150177 0.1935383826494217 100.0 9 -0.059895142912864685
2.1351518630981445 -0.19318687915802002 -0.41672685742378235 89.0 2 -0.059892840683460236
3.6549932956695557 -0.3313440680503845 0.3210817575454712 96.0 10 -0.05989053472876549
2.167940378189087 -0.19691653549671173 -0.3447815775871277 54.0 3 -0.05988823249936104
3.6750988960266113 -0.33446016907691956 0.4531102478504181 100.0 11 -0.05988593026995659
2.0322439670562744 -0.18530632555484772 -0.250563383102417 80.0 4 -0.05988362431526184
3.6806018352508545 -0.3362564444541931 0.5853778123855591 96.0 12 -0.05988132208585739
2.06745982170105 -0.18888124823570251 -0.18163256347179413 59.0 5 -0.05987901613116264
3.6990132331848145 -0.33858951926231384 0.7220212817192078 90.0 13 -0.059876713901758194
2.3091273307800293 -0.21177257597446442 -0.12152409553527832 8.0 6 -0.059874407947063446
3.704538583755493 -0.34039929509162903 0.8588631749153137 94.0 14 -0.059872105717659
3.630093574523926 -0.33419764041900635 -0.06363147497177124 96.0 7 -0.05986979976296425
3.699247360229492 -0.3412152826786041 0.9954180717468262 106.0 15 -0.0598674975335598
2.0619571208953857 -0.1927339732646942 -0.554908037185669 57.0 0 -0.05984675884246826
3.6176183223724365 -0.3387807011604309 0.06342204660177231 53.0 8 -0.05984445661306381
2.112898826599121 -0.19823956489562988 -0.4899434447288513 70.0 1 -0.05984215438365936
3.6687703132629395 -0.34486281871795654 0.19311968982219696 91.0 9 -0.059839848428964615
2.1364192962646484 -0.20082248747348785 -0.4171084761619568 68.0 2 -0.059837546199560165
3.6657159328460693 -0.3452211916446686 0.3221276104450226 96.0 10 -0.05983524024486542
2.20263934135437 -0.20782285928726196 -0.3504132330417633 86.0 3 -0.05983293801546097
3.666003942489624 -0.3465394079685211 0.4521353244781494 100.0 11 -0.05983063206076622
2.0296084880828857 -0.19221189618110657 -0.2503196597099304 67.0 4 -0.05982832983136177
3.6912050247192383 -0.3502216339111328 0.58725506067276 93.0 12 -0.05982602387666702
2.0767054557800293 -0.19703786075115204 -0.18250411748886108 80.0 5 -0.05982372164726257
3.6958541870117188 -0.35131362080574036 0.7216396331787109 86.0 13 -0.059821415692567825
2.262643814086914 -0.21547666192054749 -0.1191166415810585 31.0 6 -0.059819113463163376
3.726607322692871 -0.35554948449134827 0.864262044429779 100.0 14 -0.05981680750846863
3.6368677616119385 -0.347628116607666 -0.06377109885215759 98.0 7 -0.05981450527906418
3.7018802165985107 -0.3544943034648895 0.9964533448219299 108.0 15 -0.05981219932436943
2.0689632892608643 -0.20067641139030457 -0.5569786429405212 57.0 0 -0.05979146435856819
3.624375104904175 -0.3521800637245178 0.06356166303157806 51.0 8 -0.05978916212916374
2.0986168384552 -0.20429208874702454 -0.4867940843105316 74.0 1 -0.059786856174468994
3.6655561923980713 -0.3574732840061188 0.19301502406597137 88.0 9 -0.059784553945064545
2.166969060897827 -0.2113276869058609 -0.4232143759727478 68.0 2 -0.0597822479903698
3.6724205017089844 -0.3587897717952728 0.3228248655796051 99.0 10 -0.05977994576096535
2.1861729621887207 -0.21397089958190918 -0.3479103147983551 79.0 3 -0.0597776398062706
3.660820722579956 -0.35894662141799927 0.4516478180885315 97.0 11 -0.05977533757686615
2.040778636932373 -0.20045970380306244 -0.25178205966949463 54.0 4 -0.0597730316221714
3.68996000289917 -0.3631042242050171 0.58725506067276 96.0 12 -0.05977072939276695
2.070056438446045 -0.20370036363601685 -0.1819811910390854 63.0 5 -0.059768423438072205
3.696559429168701 -0.3644050061702728 0.7220212817192078 90.0 13 -0.059766121208667755
2.2638654708862305 -0.22356972098350525 -0.11922132223844528 68.0 6 -0.05976381525397301
3.7156472206115723 -0.3675963580608368 0.862012505531311 100.0 14 -0.05976151302456856
3.635632038116455 -0.360321044921875 -0.06377109885215759 100.0 7 -0.05975920706987381
3.7083096504211426 -0.3681776225566864 0.9985239505767822 106.0 15 -0.05975690484046936
2.0740163326263428 -0.20847679674625397 -0.5585315227508545 55.0 0 -0.05973616987466812
3.6430201530456543 -0.36683282256126404 0.06391071528196335 80.0 8 -0.05973386391997337
2.1056466102600098 -0.2123987078666687 -0.488593727350235 72.0 1 -0.059731561690568924
3.658324718475342 -0.36966389417648315 0.19270101189613342 91.0 9 -0.059729255735874176
2.18575119972229 -0.22086431086063385 -0.4270305633544922 93.0 2 -0.05972695350646973
3.6711456775665283 -0.371606707572937 0.3228248655796051 96.0 10 -0.05972464755177498
2.1913084983825684 -0.22219860553741455 -0.3488488793373108 70.0 3 -0.05972234532237053
3.6634955406188965 -0.3721242845058441 0.4521353244781494 100.0 11 -0.05972003936767578
2.071664810180664 -0.21079736948013306 -0.2556819021701813 54.0 4 -0.05971773713827133
3.684739828109741 -0.3755817413330078 0.586629331111908 96.0 12 -0.059715431183576584
2.0951004028320312 -0.21355143189430237 -0.1842472404241562 46.0 5 -0.059713128954172134
3.7069835662841797 -0.3785027265548706 0.7243109941482544 90.0 13 -0.059710822999477386
2.2451891899108887 -0.22964170575141907 -0.11827926337718964 62.0 6 -0.05970852077007294
3.7104640007019043 -0.3801668584346771 0.861112654209137 97.0 14 -0.05970621481537819
3.630373477935791 -0.3726012110710144 -0.06370127946138382 96.0 7 -0.05970391258597374
3.710845470428467 -0.38151493668556213 0.999559223651886 106.0 15 -0.05970160663127899
2.067549467086792 -0.2147546112537384 -0.5569786429405212 52.0 0 -0.05968594551086426
3.645761251449585 -0.37932538986206055 0.06398051977157593 79.0 8 -0.05968364328145981
2.114622116088867 -0.22039015591144562 -0.4908432364463806 63.0 1 -0.05968133732676506
3.6610515117645264 -0.38220807909965515 0.1929103434085846 91.0 9 -0.05967903509736061
2.183053970336914 -0.2279074490070343 -0.42664891481399536 89.0 2 -0.05967672914266586
3.669893264770508 -0.3837786316871643 0.3228248655796051 96.0 10 -0.059674426913261414
2.2082412242889404 -0.2313162088394165 -0.3516647219657898 55.0 3 -0.059672120958566666
3.670138120651245 -0.3850994110107422 0.4531102478504181 100.0 11 -0.059669818729162216
2.0867481231689453 -0.21932606399059296 -0.2576318085193634 50.0 4 -0.05966751277446747
3.683474063873291 -0.3877986967563629 0.586629331111908 96.0 12 -0.05966521054506302
2.102306604385376 -0.22133229672908783 -0.1849444955587387 56.0 5 -0.05966290459036827
3.7154700756073 -0.3918229639530182 0.7262190580368042 89.0 13 -0.05966060236096382
2.2543463706970215 -0.23813481628894806 -0.11880263686180115 58.0 6 -0.059658296406269073
3.714996576309204 -0.3930842876434326 0.8624624013900757 100.0 14 -0.059655994176864624
3.6311066150665283 -0.3848486840724945 -0.06373618543148041 93.0 7 -0.059653688222169876
3.7057175636291504 -0.3934105634689331 0.9985239505767822 108.0 15 -0.05965138599276543
2.0667872428894043 -0.22197040915489197 -0.5569786429405212 49.0 0 -0.05963065102696419
3.6364622116088867 -0.39119359850883484 0.06384090334177017 79.0 8 -0.05962834507226944
2.164215564727783 -0.23319830000400543 -0.5025407075881958 66.0 1 -0.05962604284286499
3.669623613357544 -0.39605677127838135 0.1934337019920349 88.0 9 -0.05962373688817024
2.1783413887023926 -0.2351049929857254 -0.42588570713996887 71.0 2 -0.05962143465876579
3.6685311794281006 -0.3965866267681122 0.3228248655796051 99.0 10 -0.059619128704071045
2.2133121490478516 -0.23966094851493835 -0.35260334610939026 57.0 3 -0.059616826474666595
3.680612564086914 -0.39919254183769226 0.4545727074146271 100.0 11 -0.05961452051997185
2.103731393814087 -0.22853834927082062 -0.2598254680633545 32.0 4 -0.0596122182905674
3.6919167041778564 -0.4017224609851837 0.5881936550140381 91.0 12 -0.05960991233587265
2.1015212535858154 -0.22866937518119812 -0.1849444955587387 67.0 5 -0.0596076101064682
3.7043211460113525 -0.40372639894485474 0.7243109941482544 90.0 13 -0.05960530415177345
2.241588592529297 -0.2447020560503006 -0.11817460507154465 49.0 6 -0.059603001922369
3.72135066986084 -0.4068969190120697 0.864262044429779 100.0 14 -0.059600695967674255
3.625765562057495 -0.39708590507507324 -0.06366638094186783 92.0 7 -0.059598393738269806
3.7004811763763428 -0.40592217445373535 0.9974886178970337 106.0 15 -0.05959608778357506
2.0948007106781006 -0.23237842321395874 -0.5647432208061218 44.0 0 -0.05957535281777382
3.643024206161499 -0.40476810932159424 0.06398051977157593 76.0 8 -0.05957305058836937
2.1653249263763428 -0.24096691608428955 -0.5029906034469604 74.0 1 -0.05957074463367462
3.6781437397003174 -0.4099699854850769 0.19395707547664642 94.0 9 -0.05956844240427017
2.195067882537842 -0.24466469883918762 -0.42932024598121643 36.0 2 -0.059566136449575424
3.6750450134277344 -0.4102739989757538 0.3235221207141876 96.0 10 -0.059563834220170975
2.216388463973999 -0.24782440066337585 -0.3532290756702423 62.0 3 -0.05956152826547623
3.679196834564209 -0.41203781962394714 0.4545727074146271 100.0 11 -0.05955922603607178
2.1660478115081787 -0.24296118319034576 -0.267625093460083 40.0 4 -0.05955692008137703
3.702270030975342 -0.41593044996261597 0.5900708436965942 91.0 12 -0.05955461785197258
2.110609769821167 -0.23711583018302917 -0.18581604957580566 61.0 5 -0.05955231189727783
3.7048401832580566 -0.416873961687088 0.7246925830841064 86.0 13 -0.05955000966787338
2.2427055835723877 -0.25274884700775146 -0.11827926337718964 55.0 6 -0.059547703713178635
3.7334628105163574 -0.42141440510749817 0.8674113154411316 100.0 14 -0.059545401483774185
3.642240524291992 -0.41176149249076843 -0.06398051977157593 98.0 7 -0.059543099254369736
3.710559129714966 -0.42014095187187195 1.0005944967269897 104.0 15 -0.05954079329967499
2.1419596672058105 -0.2451816201210022 -0.5776841640472412 64.0 0 -0.05952005833387375
3.6455626487731934 -0.4179377257823944 0.0640503317117691 76.0 8 -0.059517752379179
2.178022623062134 -0.250079870223999 -0.506139874458313 51.0 1 -0.05951545014977455
3.672722101211548 -0.42235028743743896 0.19374772906303406 91.0 9 -0.0595131441950798
2.223456621170044 -0.255689799785614 -0.4350445568561554 44.0 2 -0.059510841965675354
3.677548885345459 -0.4235556721687317 0.3238707184791565 99.0 10 -0.059508536010980606
2.235133409500122 -0.25782310962677 -0.35635775327682495 69.0 3 -0.05950623378157616
3.6737921237945557 -0.4244224429130554 0.45408520102500916 100.0 11 -0.05950392782688141
2.218428611755371 -0.256680965423584 -0.2742060422897339 60.0 4 -0.05950162559747696
3.700795888900757 -0.4288512170314789 0.5900708436965942 91.0 12 -0.05949932336807251
2.1493520736694336 -0.24906867742538452 -0.18930228054523468 43.0 5 -0.05949701741337776
3.7072629928588867 -0.4302563965320587 0.7254558801651001 89.0 13 -0.05949471518397331
2.2199866771698 -0.2580392360687256 -0.11712788045406342 51.0 6 -0.059492409229278564
3.724226474761963 -0.43354272842407227 0.865611732006073 100.0 14 -0.059490106999874115
3.650712251663208 -0.4256306290626526 -0.06415504217147827 100.0 7 -0.05948780104517937
3.720582962036133 -0.4344349503517151 1.0037003755569458 108.0 15 -0.05948549881577492
2.1487648487091064 -0.2535625696182251 -0.579754650592804 62.0 0 -0.05946476012468338
3.6520252227783203 -0.43159934878349304 0.06418995559215546 79.0 8 -0.05946245789527893
3.661308526992798 -0.4339923560619354 0.19322437047958374 88.0 9 -0.05945784971117973
2.230349063873291 -0.26437389850616455 -0.43657100200653076 21.0 2 -0.059455543756484985
3.6879191398620605 -0.4377993643283844 0.3249166011810303 96.0 10 -0.059453241527080536
2.2361814975738525 -0.26585686206817627 -0.35667064785957336 66.0 3 -0.059450939297676086
3.6742594242095947 -0.43747854232788086 0.4543289542198181 96.0 11 -0.05944863334298134
2.2411727905273438 -0.2672436833381653 -0.27713093161582947 69.0 4 -0.05944633111357689
3.6992762088775635 -0.4417668282985687 0.5900708436965942 91.0 12 -0.05944402515888214
2.1623177528381348 -0.2582235634326935 -0.1905224472284317 44.0 5 -0.05944172292947769
3.70963716506958 -0.44366079568862915 0.7262190580368042 86.0 13 -0.059439416974782944
2.2408862113952637 -0.26839959621429443 -0.11827926337718964 51.0 6 -0.059437114745378494
3.716885805130005 -0.44584378600120544 0.864262044429779 100.0 14 -0.059434808790683746
3.6353063583374023 -0.43670186400413513 -0.06391071528196335 98.0 7 -0.0594325065612793
3.722879648208618 -0.4478810429573059 1.0047355890274048 106.0 15 -0.05943020060658455
2.144031286239624 -0.2605954110622406 -0.5787193775177002 63.0 0 -0.05940946564078331
3.654466390609741 -0.4448279142379761 0.06425976008176804 81.0 8 -0.05940715968608856
2.319370985031128 -0.2827285826206207 -0.5394326448440552 1.0 1 -0.05940485745668411
3.6736490726470947 -0.4484642446041107 0.19395707547664642 91.0 9 -0.05940255522727966
2.3093128204345703 -0.28191158175468445 -0.45221734046936035 1.0 2 -0.059400249272584915
3.678457736968994 -0.4497028589248657 0.32421937584877014 96.0 10 -0.059397947043180466
2.24896502494812 -0.27534133195877075 -0.35886070132255554 46.0 3 -0.05939564108848572
3.686502456665039 -0.4519924521446228 0.4560351073741913 100.0 11 -0.05939333885908127
2.2520480155944824 -0.27651673555374146 -0.2785933315753937 64.0 4 -0.05939103290438652
3.69771146774292 -0.454677015542984 0.5900708436965942 91.0 12 -0.05938873067498207
2.1633808612823486 -0.2660130560398102 -0.19069677591323853 33.0 5 -0.05938642472028732
3.719756841659546 -0.4580467939376831 0.7285087704658508 83.0 13 -0.059384122490882874
2.249846935272217 -0.2774423062801361 -0.11880263686180115 47.0 6 -0.059381816536188126
3.7307794094085693 -0.46072614192962646 0.867861270904541 100.0 14 -0.059379514306783676
3.6337599754333496 -0.4493888020515442 -0.06391071528196335 98.0 7 -0.05937720835208893
3.713624954223633 -0.4599238336086273 1.0026650428771973 108.0 15 -0.05937490612268448
2.1316070556640625 -0.26663917303085327 -0.5756136178970337 62.0 0 -0.05935417115688324
3.64892315864563 -0.4570845663547516 0.06418995559215546 86.0 8 -0.05935186520218849
2.3299713134765625 -0.29227831959724426 -0.5421320796012878 1.0 1 -0.05934956297278404
3.678006172180176 -0.462031751871109 0.19427108764648438 88.0 9 -0.059347257018089294
2.320002555847168 -0.29143908619880676 -0.45450708270072937 1.0 2 -0.059344954788684845
3.676865577697754 -0.4625403881072998 0.32421937584877014 99.0 10 -0.0593426488339901
2.2519097328186035 -0.28368377685546875 -0.3594864308834076 36.0 3 -0.05934034660458565
3.6849019527435303 -0.4648580253124237 0.4560351073741913 97.0 11 -0.0593380406498909
2.2589468955993652 -0.285371333360672 -0.27956831455230713 57.0 4 -0.05933573842048645
3.7039411067962646 -0.46857336163520813 0.5913223624229431 91.0 12 -0.0593334324657917
2.1881351470947266 -0.2768137454986572 -0.19296279549598694 26.0 5 -0.05933113023638725
3.7103450298309326 -0.4700414538383484 0.7269822955131531 81.0 13 -0.059328824281692505
2.2548089027404785 -0.28604817390441895 -0.1191166415810585 38.0 6 -0.059326522052288055
3.731081485748291 -0.4739917814731598 0.8683111071586609 100.0 14 -0.05932421609759331
3.648038864135742 -0.46408912539482117 -0.06418995559215546 100.0 7 -0.05932191386818886
3.715829849243164 -0.47337231040000916 1.0037003755569458 104.0 15 -0.05931960791349411
2.144076108932495 -0.2758036255836487 -0.5792370438575745 51.0 0 -0.05929887294769287
3.6512718200683594 -0.47032982110977173 0.06425976008176804 79.0 8 -0.05929657071828842
2.278686046600342 -0.29392778873443604 -0.5304346084594727 1.0 1 -0.059294264763593674
3.6902365684509277 -0.47665852308273315 0.19500379264354706 94.0 9 -0.059291962534189224
2.3657007217407227 -0.305571585893631 -0.4636658728122711 1.0 2 -0.059289656579494476
3.6752285957336426 -0.47537216544151306 0.32421937584877014 99.0 10 -0.05928735435009003
3.687194347381592 -0.4782285690307617 0.4565226137638092 100.0 11 -0.05928274616599083
2.2736856937408447 -0.2953001856803894 -0.28151822090148926 47.0 4 -0.05928044021129608
3.7042415142059326 -0.4817543923854828 0.5916352272033691 85.0 12 -0.05927813798189163
2.2128403186798096 -0.2877905070781708 -0.19522884488105774 30.0 5 -0.059275832027196884
3.7106282711029053 -0.4832436442375183 0.7273639440536499 90.0 13 -0.059273529797792435
2.2537968158721924 -0.293917179107666 -0.1191166415810585 29.0 6 -0.05927122384309769
3.737133741378784 -0.48802220821380615 0.8701107501983643 100.0 14 -0.05926892161369324
3.650362014770508 -0.47733888030052185 -0.06425976008176804 100.0 7 -0.05926661938428879
3.7179853916168213 -0.48684167861938477 1.0047355890274048 111.0 15 -0.05926431342959404
2.169912815093994 -0.2868303656578064 -0.5864839553833008 8.0 0 -0.0592435784637928
3.6535727977752686 -0.48359712958335876 0.06432957202196121 84.0 8 -0.05924127250909805
2.277646064758301 -0.3018800914287567 -0.5304346084594727 1.0 1 -0.059238970279693604
3.676671028137207 -0.48796042799949646 0.19437576830387115 94.0 9 -0.059236664324998856
2.352942705154419 -0.3122778534889221 -0.4613761901855469 1.0 2 -0.059234362095594406
3.6893470287323 -0.49029797315597534 0.3256138265132904 99.0 10 -0.05923205614089966
2.3438639640808105 -0.31190553307533264 -0.3745041489601135 1.0 3 -0.05922975391149521
3.6776316165924072 -0.49004754424095154 0.45554763078689575 100.0 11 -0.05922744795680046
2.276576280593872 -0.3037601113319397 -0.2820056974887848 22.0 4 -0.05922514572739601
3.712327480316162 -0.49598968029022217 0.5931995511054993 98.0 12 -0.05922283977270126
2.2374954223632812 -0.29894307255744934 -0.19749490916728973 31.0 5 -0.059220537543296814
3.710864782333374 -0.49645349383354187 0.727745532989502 89.0 13 -0.059218235313892365
2.2606754302978516 -0.3028433322906494 -0.11953534185886383 24.0 6 -0.05921592935919762
3.7276813983917236 -0.5000278949737549 0.8683111071586609 100.0 14 -0.05921362712979317
3.6526377201080322 -0.4906105101108551 -0.06432957202196121 100.0 7 -0.05921132117509842
3.7200927734375 -0.5003319382667542 1.0057708024978638 111.0 15 -0.05920901894569397
2.2378129959106445 -0.3037573993206024 -0.6051189303398132 1.0 0 -0.05918828025460243
3.6637513637542725 -0.4979633390903473 0.06453900039196014 91.0 8 -0.05918597802519798
2.2958879470825195 -0.3124566078186035 -0.5349336266517639 1.0 1 -0.059183672070503235
3.684840202331543 -0.5021398067474365 0.19489912688732147 100.0 9 -0.059181369841098785
2.3518383502960205 -0.32048922777175903 -0.4613761901855469 1.0 2 -0.05917906388640404
3.695509433746338 -0.504250705242157 0.3263110816478729 100.0 10 -0.05917676165699959
2.32710337638855 -0.3179459571838379 -0.37200120091438293 1.0 3 -0.05917445570230484
3.6896660327911377 -0.5047653317451477 0.4572538137435913 100.0 11 -0.05917215347290039
2.326637029647827 -0.3187096118927002 -0.2883428931236267 2.0 4 -0.05916985124349594
3.7125306129455566 -0.5092135667800903 0.5935124158859253 100.0 12 -0.05916754528880119
2.258151054382324 -0.30972975492477417 -0.19941233098506927 25.0 5 -0.059165243059396744
3.7207794189453125 -0.5110065937042236 0.7300352454185486 100.0 13 -0.059162937104701996
2.265540599822998 -0.3115490674972534 -0.11984935402870178 6.0 6 -0.059160634875297546
3.727843999862671 -0.5133026838302612 0.8687610626220703 100.0 14 -0.0591583289206028
3.6608073711395264 -0.5047231912612915 -0.06450409442186356 100.0 7 -0.05915602669119835
3.733633279800415 -0.5154279470443726 1.0099120140075684 111.0 15 -0.0591537207365036
2.3094472885131836 -0.32169491052627563 -0.6247891783714294 1.0 0 -0.05913298577070236
3.6659514904022217 -0.5113016366958618 0.06460881233215332 100.0 8 -0.059130679816007614
2.306363582611084 -0.32208603620529175 -0.5376330614089966 1.0 1 -0.059128377586603165
3.683154821395874 -0.5143563747406006 0.19489912688732147 100.0 9 -0.05912607163190842
3.5970261096954346 -0.5029684901237488 -0.7059933543205261 57.0 2 -0.05912376940250397
3.687807559967041 -0.5163186192512512 0.3257881700992584 100.0 10 -0.05912146717309952
3.6190598011016846 -0.5073375105857849 -0.5788075923919678 85.0 3 -0.05911916121840477
3.689847707748413 -0.5179175138473511 0.45749756693840027 100.0 11 -0.05911685898900032
3.636681079864502 -0.5111022591590881 -0.4509166181087494 100.0 4 -0.05911455303430557
3.7029969692230225 -0.5204222798347473 0.5922609567642212 98.0 12 -0.05911225080490112
2.2728400230407715 -0.31983137130737305 -0.20080682635307312 10.0 5 -0.059109944850206375
3.7248048782348633 -0.5248131155967712 0.7311801314353943 93.0 13 -0.059107642620801926
3.7376067638397217 -0.5279474854469299 0.8714604377746582 100.0 14 -0.05910303443670273
3.643273115158081 -0.5146226286888123 -0.06422485411167145 100.0 7 -0.05910072848200798
3.7280778884887695 -0.5272652506828308 1.0088766813278198 108.0 15 -0.05909842625260353
2.281536340713501 -0.3259296119213104 -0.6175422668457031 1.0 0 -0.05907769128680229
3.652358293533325 -0.5217587947845459 0.06439937651157379 73.0 8 -0.059075385332107544
3.6035711765289307 -0.5154311060905457 -0.8404171466827393 46.0 1 -0.059073083102703094
3.6694741249084473 -0.5255109667778015 0.19427108764648438 63.0 9 -0.05907077714800835
3.6030220985412598 -0.5166360139846802 -0.7075197696685791 72.0 2 -0.0590684749186039
3.680065870285034 -0.5283388495445251 0.32526522874832153 77.0 10 -0.05906616896390915
3.6134464740753174 -0.5187744498252869 -0.5781818628311157 77.0 3 -0.0590638667345047
3.6861445903778076 -0.5298681259155273 0.4572538137435913 73.0 11 -0.05906156077980995
3.6290719509124756 -0.5223106741905212 -0.4501853883266449 72.0 4 -0.0590592585504055
3.7050681114196777 -0.533908486366272 0.5928866863250732 66.0 12 -0.059056952595710754
3.638284921646118 -0.5249330997467041 -0.3216046690940857 82.0 5 -0.059054650366306305
3.7133285999298096 -0.5357604026794434 0.7292720079421997 63.0 13 -0.05905234441161156
3.653015375137329 -0.5277092456817627 -0.1934337019920349 93.0 6 -0.05905004218220711
3.7493362426757812 -0.5422917008399963 0.8746097683906555 100.0 14 -0.05904773622751236
3.6374967098236084 -0.5267636775970459 -0.06415504217147827 77.0 7 -0.05904543399810791
3.72239089012146 -0.5397210121154785 1.0078414678573608 113.0 15 -0.05904312804341316
3.5993916988372803 -0.5263776183128357 -0.974712610244751 1.0 0 -0.05902239307761192
3.6406219005584717 -0.5330561995506287 0.06422485411167145 60.0 8 -0.059020090848207474
3.5998222827911377 -0.5277241468429565 -0.8399673104286194 56.0 1 -0.059017784893512726
3.679474115371704 -0.5400568842887878 0.19489912688732147 61.0 9 -0.059015482664108276
3.5974042415618896 -0.5280110239982605 -0.706756591796875 68.0 2 -0.05901317670941353
3.674351453781128 -0.5399601459503174 0.3249166011810303 75.0 10 -0.05901087448000908
3.5998878479003906 -0.5296593308448792 -0.5763046741485596 67.0 3 -0.05900856852531433
3.6823089122772217 -0.5424427390098572 0.45701009035110474 75.0 11 -0.05900626629590988
3.6311542987823486 -0.5355545878410339 -0.45067286491394043 70.0 4 -0.059003960341215134
3.6953649520874023 -0.5456839799880981 0.5916352272033691 65.0 12 -0.059001658111810684
3.638495445251465 -0.5372862219810486 -0.3217789828777313 73.0 5 -0.058999352157115936
3.6958987712860107 -0.5464219450950623 0.7262190580368042 64.0 13 -0.05899704992771149
3.6333696842193604 -0.5378254055976868 -0.19249166548252106 74.0 6 -0.05899474397301674
3.7493481636047363 -0.5556616187095642 0.8750596642494202 100.0 14 -0.05899244174361229
3.643548011779785 -0.5406317710876465 -0.06429466605186462 79.0 7 -0.05899013578891754
3.728127956390381 -0.5538468360900879 1.0099120140075684 111.0 15 -0.05898783355951309
3.5898900032043457 -0.537793755531311 -0.9726420044898987 1.0 0 -0.05896709859371185
3.650604486465454 -0.5475407838821411 0.06443428248167038 58.0 8 -0.058964792639017105
3.5960307121276855 -0.5399972200393677 -0.83951735496521 61.0 1 -0.058962490409612656
3.675591230392456 -0.5526004433631897 0.1947944462299347 65.0 9 -0.05896018445491791
3.603304862976074 -0.541732668876648 -0.708283007144928 68.0 2 -0.05895788222551346
3.6783547401428223 -0.5536723732948303 0.32543954253196716 72.0 10 -0.05895557627081871
3.609736919403076 -0.5439881682395935 -0.5781818628311157 73.0 3 -0.05895327404141426
3.674504518508911 -0.554404616355896 0.45627886056900024 78.0 11 -0.05895096808671951
3.6214113235473633 -0.5470404624938965 -0.44969791173934937 68.0 4 -0.058948665857315063
3.6992969512939453 -0.5594660639762878 0.5925738215446472 67.0 12 -0.058946359902620316
3.6365976333618164 -0.5499836802482605 -0.3217789828777313 63.0 5 -0.058944057673215866
3.7094976902008057 -0.5616710782051086 0.7292720079421997 61.0 13 -0.05894175171852112
3.6354196071624756 -0.5511036515235901 -0.19270101189613342 77.0 6 -0.05893944948911667
3.743532180786133 -0.5681611895561218 0.8741598725318909 100.0 14 -0.05893714725971222
3.6614086627960205 -0.556350827217102 -0.06464371830224991 79.0 7 -0.05893484130501747
3.733811378479004 -0.5680192112922668 1.0119824409484863 113.0 15 -0.05893253907561302
3.6565771102905273 -0.5614945292472839 0.06457390636205673 58.0 8 -0.058909498155117035
3.599902629852295 -0.5534347891807556 -0.8408671021461487 59.0 1 -0.05890719220042229
3.675614356994629 -0.5657311677932739 0.19489912688732147 61.0 9 -0.05890488997101784
3.5955705642700195 -0.5534112453460693 -0.707138180732727 66.0 2 -0.05890258401632309
3.6882147789001465 -0.5683295130729675 0.32648542523384094 70.0 10 -0.05890028178691864
3.619529962539673 -0.558392345905304 -0.5800590515136719 68.0 3 -0.05889797583222389
3.6823558807373047 -0.5687426924705505 0.45749756693840027 75.0 11 -0.05889567360281944
3.615556240081787 -0.5590715408325195 -0.44921043515205383 64.0 4 -0.058893367648124695
3.6953697204589844 -0.5720734596252441 0.5922609567642212 63.0 12 -0.058891065418720245
3.644500255584717 -0.5641984343528748 -0.3226505517959595 70.0 5 -0.058888763189315796
3.707514524459839 -0.5746161937713623 0.7292720079421997 60.0 13 -0.05888645723462105
3.653210163116455 -0.5668526887893677 -0.19374772906303406 74.0 6 -0.0588841550052166
3.739600896835327 -0.5809259414672852 0.8737099766731262 100.0 14 -0.05888184905052185
3.6554925441741943 -0.5685136318206787 -0.06457390636205673 79.0 7 -0.0588795468211174
3.739441156387329 -0.582237958908081 1.0140531063079834 113.0 15 -0.05887724086642265
3.66249680519104 -0.57549649477005 0.06471352279186249 58.0 8 -0.058854199945926666
3.609499216079712 -0.5678144693374634 -0.8435665369033813 51.0 1 -0.05885189771652222
3.681508779525757 -0.5798008441925049 0.195317804813385 58.0 9 -0.05884959176182747
3.5974960327148438 -0.5665696859359741 -0.7079014182090759 61.0 2 -0.05884728953242302
3.6783361434936523 -0.5799590945243835 0.3257881700992584 68.0 10 -0.05884498730301857
3.6312172412872314 -0.5731794834136963 -0.5822491645812988 62.0 3 -0.05884268134832382
3.694073438644409 -0.583761990070343 0.45920372009277344 70.0 11 -0.05884037911891937
3.629268169403076 -0.5741703510284424 -0.45116034150123596 60.0 4 -0.058838073164224625
3.705056667327881 -0.5868233442306519 0.5941381454467773 55.0 12 -0.058835770934820175
3.638573169708252 -0.576293408870697 -0.3223019242286682 62.0 5 -0.05883346498012543
3.7209982872009277 -0.5900140404701233 0.7323249578475952 59.0 13 -0.05883116275072098
3.66107177734375 -0.5811669230461121 -0.19427108764648438 64.0 6 -0.05882885679602623
3.743323802947998 -0.5948936343193054 0.8750596642494202 100.0 14 -0.05882655456662178
3.649535655975342 -0.5806416869163513 -0.06450409442186356 67.0 7 -0.05882424861192703
3.7373859882354736 -0.595287561416626 1.0140531063079834 115.0 15 -0.05882194638252258
2.016153573989868 -0.323657363653183 -0.5471434593200684 1.0 0 -0.058801207691431046
3.672311782836914 -0.5901813507080078 0.06492295116186142 18.0 8 -0.058798905462026596
4.359777927398682 -0.7014454007148743 -1.01947820186615 15.0 1 -0.05879660323262215
3.738723039627075 -0.601523756980896 0.1984579712152481 15.0 9 -0.0587942972779274
4.3630523681640625 -0.7027534246444702 -0.8590221405029297 17.0 2 -0.05879199504852295
3.707760810852051 -0.5978701114654541 0.3285771608352661 9.0 10 -0.0587896890938282
4.356593608856201 -0.7032734155654907 -0.6989492774009705 16.0 3 -0.05878738686442375
4.389530658721924 -0.7101626396179199 -0.5459746718406677 16.0 4 -0.058782778680324554
5.93196439743042 -0.9597061276435852 0.9517473578453064 72.0 12 -0.058780472725629807
3.713102340698242 -0.6020564436912537 0.7311801314353943 66.0 13 -0.05877586454153061
4.414088726043701 -0.7165077328681946 -0.23436042666435242 19.0 6 -0.05877356231212616
3.752765655517578 -0.6098320484161377 0.8777590990066528 100.0 14 -0.05877125635743141
4.419347763061523 -0.7181529998779297 -0.0781518742442131 19.0 7 -0.05876895412802696
3.727764368057251 -0.606437087059021 1.0119824409484863 113.0 15 -0.058766648173332214
4.414267539978027 -0.7244462370872498 0.07808206230401993 19.0 8 -0.058743610978126526
4.351658821105957 -0.7149513363838196 -1.018128514289856 15.0 1 -0.05874130502343178
4.451993942260742 -0.7322337627410889 0.23645387589931488 18.0 9 -0.05873900279402733
4.348949432373047 -0.7160652279853821 -0.8567324280738831 19.0 2 -0.05873669683933258
4.448747158050537 -0.7332947254180908 0.3944668769836426 13.0 10 -0.05873439460992813
4.360084056854248 -0.718680202960968 -0.6998878717422485 17.0 3 -0.05873208865523338
4.459746837615967 -0.7359073758125305 0.5549930334091187 16.0 11 -0.058729786425828934
4.3989033699035645 -0.7266562581062317 -0.5474371314048767 15.0 4 -0.058727480471134186
5.934424877166748 -0.9813735485076904 0.9526860117912292 78.0 12 -0.058725178241729736
4.387299537658691 -0.7263127565383911 -0.3890632390975952 15.0 5 -0.05872287228703499
3.705274820327759 -0.6134042739868164 0.7300352454185486 66.0 13 -0.05872057005763054
4.409717559814453 -0.7308146953582764 -0.23425576090812683 24.0 6 -0.05871826410293579
3.7622575759887695 -0.6241870522499084 0.8804585337638855 100.0 14 -0.05871596187353134
4.416813850402832 -0.7335750460624695 -0.0781518742442131 23.0 7 -0.058713655918836594
3.7370588779449463 -0.6213468313217163 1.0150883197784424 113.0 15 -0.058711353689432144
2.013903856277466 -0.3373733162879944 -0.5471434593200684 1.0 0 -0.058690618723630905
4.4077677726745605 -0.7391890287399292 0.07801225781440735 20.0 8 -0.05868831276893616
4.339527606964111 -0.7285239100456238 -1.0158790349960327 21.0 1 -0.05868601053953171
4.437592506408691 -0.7457834482192993 0.23582583665847778 20.0 9 -0.05868370458483696
4.350423336029053 -0.731133759021759 -0.8574957251548767 26.0 2 -0.05868140235543251
4.450220584869385 -0.7487044334411621 0.39481550455093384 15.0 10 -0.05867909640073776
4.3653411865234375 -0.735207736492157 -0.7011393904685974 27.0 3 -0.05867679417133331
4.439533710479736 -0.7485001087188721 0.55279940366745 18.0 11 -0.058674488216638565
4.372851371765137 -0.738042414188385 -0.5445122718811035 24.0 4 -0.058672185987234116
5.938754558563232 -1.0033990144729614 0.9539375305175781 78.0 12 -0.05866988003253937
4.392724990844727 -0.7421852946281433 -0.38976046442985535 20.0 5 -0.05866757780313492
3.7205328941345215 -0.6292809844017029 0.7334697842597961 66.0 13 -0.05866527184844017
4.4150166511535645 -0.7475367784500122 -0.23467445373535156 39.0 6 -0.05866296961903572
3.748527765274048 -0.6353619694709778 0.8777590990066528 100.0 14 -0.05866066366434097
4.4280266761779785 -0.7513296604156494 -0.07839620858430862 35.0 7 -0.05865836143493652
3.742485523223877 -0.6356818079948425 1.01715886592865 115.0 15 -0.058656059205532074
2.01271390914917 -0.3444010615348816 -0.5471434593200684 1.0 0 -0.058635320514440536
4.411073207855225 -0.7555834054946899 0.07811697572469711 29.0 8 -0.05863301828503609
4.329276084899902 -0.7423499226570129 -1.0140794515609741 13.0 1 -0.05863071233034134
4.423151969909668 -0.7592417597770691 0.23519782721996307 20.0 9 -0.05862841010093689
4.338170051574707 -0.7446544170379639 -0.8555876016616821 17.0 2 -0.05862610414624214
4.4495439529418945 -0.764571487903595 0.39498981833457947 25.0 10 -0.05862380191683769
4.351067066192627 -0.7484319806098938 -0.6992621421813965 17.0 3 -0.058621495962142944
4.432981014251709 -0.7633185982704163 0.552311897277832 16.0 11 -0.058619193732738495
4.370248317718506 -0.7533019781112671 -0.5445122718811035 22.0 4 -0.05861688777804375
5.935215473175049 -1.024122953414917 0.9539375305175781 78.0 12 -0.0586145855486393
4.384217262268066 -0.7564978003501892 -0.38923752307891846 20.0 5 -0.05861227959394455
3.7221827507019043 -0.6429325938224792 0.7342330813407898 66.0 13 -0.0586099773645401
4.3927001953125 -0.7595405578613281 -0.23362773656845093 26.0 6 -0.05860767513513565
3.7462868690490723 -0.6484428644180298 0.8777590990066528 100.0 14 -0.0586053691804409
4.397792816162109 -0.7620022892951965 -0.07790753990411758 22.0 7 -0.05860306695103645
3.751664400100708 -0.6507225632667542 1.020264744758606 115.0 15 -0.058600760996341705
2.0114996433258057 -0.3514246642589569 -0.5471434593200684 1.0 0 -0.058580026030540466
4.4005303382873535 -0.7695984840393066 0.07797735929489136 27.0 8 -0.05857772007584572
4.332416534423828 -0.7584654688835144 -1.015429139137268 37.0 1 -0.05857541784644127
4.432277679443359 -0.7767452597618103 0.23582583665847778 38.0 9 -0.05857311189174652
4.331676483154297 -0.7591150999069214 -0.8548243045806885 52.0 2 -0.05857080966234207
4.427223205566406 -0.7766559720039368 0.39324668049812317 22.0 10 -0.058568503707647324
4.3503737449646 -0.763957142829895 -0.6995750069618225 19.0 3 -0.058566201478242874
4.436155319213867 -0.7798190116882324 0.5530431270599365 16.0 11 -0.058563899248838425
4.371501922607422 -0.7692403793334961 -0.5449997186660767 88.0 4 -0.05856159329414368
5.935495376586914 -1.0455197095870972 0.9545632004737854 78.0 12 -0.05855929106473923
4.391361236572266 -0.7735251188278198 -0.3901090919971466 66.0 5 -0.05855698511004448
3.723782539367676 -0.6566033959388733 0.7349963188171387 66.0 13 -0.05855468288064003
4.399856090545654 -0.7766051292419434 -0.23415108025074005 77.0 6 -0.05855237692594528
3.751676559448242 -0.6628721356391907 0.8795586824417114 94.0 14 -0.05855007469654083
4.395105838775635 -0.7773487567901611 -0.07790753990411758 64.0 7 -0.058547768741846085
3.745565414428711 -0.6631407737731934 1.0192294120788574 115.0 15 -0.058545466512441635
2.010260581970215 -0.3584439754486084 -0.5471434593200684 1.0 0 -0.0585247278213501
4.393879413604736 -0.7842516899108887 0.07790753990411758 73.0 8 -0.05852242559194565
4.345089435577393 -0.7763258218765259 -1.0190283060073853 48.0 1 -0.0585201233625412
4.4275736808776855 -0.7918604612350464 0.2357211709022522 62.0 9 -0.05851781740784645
4.330933094024658 -0.7745765447616577 -0.8552060127258301 67.0 2 -0.058515515178442
4.434291839599609 -0.7938606142997742 0.3941182792186737 45.0 10 -0.05851320922374725
4.345736026763916 -0.7787895798683167 -0.6992621421813965 22.0 3 -0.058510906994342804
4.433405876159668 -0.7952993512153625 0.5530431270599365 16.0 11 -0.058508601039648056
4.359021186828613 -0.7827409505844116 -0.5437811017036438 79.0 4 -0.05850629881024361
5.927921295166016 -1.0655332803726196 0.9539375305175781 78.0 12 -0.05850399285554886
4.380790710449219 -0.787439227104187 -0.3894118666648865 100.0 5 -0.05850169062614441
3.721467971801758 -0.6695977449417114 0.7349963188171387 67.0 13 -0.05849938467144966
4.4108781814575195 -0.794437050819397 -0.23488380014896393 96.0 6 -0.05849708244204521
3.7589290142059326 -0.677692711353302 0.8818081617355347 97.0 14 -0.058494776487350464
4.40614128112793 -0.795171856880188 -0.0781518742442131 81.0 7 -0.058492474257946014
3.743227958679199 -0.6762111783027649 1.0192294120788574 117.0 15 -0.058490168303251266
4.29929256439209 -0.7820889949798584 -1.170897364616394 7.0 0 -0.05846943333745003
4.393082618713379 -0.799942672252655 0.07794244587421417 39.0 8 -0.05846713110804558
4.330850124359131 -0.7893915772438049 -1.0163289308547974 36.0 1 -0.05846482515335083
4.424782752990723 -0.8073108196258545 0.2357211709022522 30.0 9 -0.05846252292394638
4.3339972496032715 -0.790746808052063 -0.856350839138031 34.0 2 -0.05846021696925163
4.425613880157471 -0.8082605004310608 0.3935953378677368 28.0 10 -0.05845791473984718
