# .PCD v0.7 - Point Cloud Data file format
VERSION 0.7
FIELDS x y z intensity ring time
SIZE 4 4 4 4 4 4
TYPE F F F F F F
COUNT 1 1 1 1 1 1
WIDTH 545
HEIGHT 1
VIEWPOINT 0 0 0 1 0 0 0
POINTS 545
DATA ascii
-1.9278509616851807 0.8749175667762756 0.1109522357583046 76.0 9 -0.04261718690395355
-2.011232376098633 0.9127585291862488 -0.42932024598121643 5.0 2 -0.0426148846745491
-3.114894390106201 1.4142895936965942 0.29929283261299133 50.0 10 -0.042612578719854355
-2.0251290798187256 0.9199178814888 -0.35229045152664185 10.0 3 -0.042610276490449905
-2.087337017059326 0.9486160278320312 0.28151822090148926 13.0 11 -0.042607974261045456
-2.0221168994903564 0.9194011688232422 -0.2727436125278473 1.0 4 -0.04260566830635071
-2.0084643363952637 0.9136167168617249 0.34947463870048523 1.0 12 -0.04260336607694626
-1.9748249053955078 0.8987313508987427 -0.18982520699501038 8.0 5 -0.04260106012225151
-1.948593258857727 0.8872033953666687 -0.1122082993388176 11.0 6 -0.04259645193815231
-3.069788694381714 1.3983356952667236 0.7787805795669556 74.0 14 -0.042594149708747864
-1.9197258949279785 0.8748696446418762 -0.036824580281972885 13.0 7 -0.042591843754053116
-3.0602784156799316 1.3952935934066772 0.9012079238891602 76.0 15 -0.042589541524648666
-2.20810866355896 1.0104848146438599 -0.650671124458313 1.0 0 -0.04256880283355713
-1.8510708808898926 0.8470955491065979 0.03553309664130211 6.0 8 -0.04256650060415268
-2.188253402709961 1.001860499382019 -0.5556291341781616 2.0 1 -0.04256419837474823
-1.9284168481826782 0.8833051323890686 0.11116158217191696 70.0 9 -0.04256189242005348
-2.007873296737671 0.9201239943504333 -0.42932024598121643 6.0 2 -0.04255959019064903
-3.1078786849975586 1.4248664379119873 0.2991184890270233 43.0 10 -0.042557284235954285
-2.012766122817993 0.9232162833213806 -0.35072609782218933 10.0 3 -0.042554982006549835
-2.071382522583008 0.9501025080680847 0.2798120379447937 18.0 11 -0.04255267605185509
-2.0297205448150635 0.93142169713974 -0.2742060422897339 1.0 4 -0.04255037382245064
-2.030395984649658 0.9321606755256653 0.35385480523109436 1.0 12 -0.04254806786775589
-1.9662444591522217 0.9031240344047546 -0.18930228054523468 9.0 5 -0.04254576563835144
-2.0675621032714844 0.9500977396965027 0.44229528307914734 1.0 13 -0.04254345968365669
-1.9435136318206787 0.8935056328773499 -0.11210363358259201 11.0 6 -0.04254115745425224
-3.0788066387176514 1.4160921573638916 0.7823798060417175 75.0 14 -0.042538851499557495
-1.9166605472564697 0.8815649747848511 -0.036824580281972885 11.0 7 -0.042536549270153046
-3.0536344051361084 1.4051600694656372 0.9006903171539307 72.0 15 -0.0425342433154583
-1.8406927585601807 0.8505188822746277 0.03539348021149635 6.0 8 -0.04251120612025261
-3.145068407058716 1.453891634941101 -0.7999260425567627 10.0 1 -0.04250890016555786
-1.9197279214859009 0.8878520727157593 0.11084756255149841 68.0 9 -0.04250659793615341
-2.0082132816314697 0.9287755489349365 -0.4300835132598877 6.0 2 -0.042504291981458664
-3.119159460067749 1.443236231803894 0.3006872832775116 38.0 10 -0.042501989752054214
-1.9987754821777344 0.925257682800293 -0.3488488793373108 9.0 3 -0.04249968379735947
-2.0408668518066406 0.9451748728752136 0.276155948638916 24.0 11 -0.04249738156795502
-1.9938721656799316 0.9238330125808716 -0.2698187232017517 1.0 4 -0.04249507561326027
-1.9911221265792847 0.9229810237884521 0.3475974202156067 1.0 12 -0.04249277338385582
-1.9683433771133423 0.9128392934799194 -0.18982520699501038 8.0 5 -0.04249046742916107
-2.0642330646514893 0.9573091268539429 0.44229528307914734 1.0 13 -0.04248816519975662
-1.9385712146759033 0.8994433283805847 -0.11199896037578583 12.0 6 -0.042485859245061874
-3.0879855155944824 1.4333946704864502 0.7859790325164795 75.0 14 -0.042483557015657425
-1.9025344848632812 0.8835304379463196 -0.036615148186683655 8.0 7 -0.04248125106096268
-3.06072735786438 1.422041416168213 0.9043138027191162 74.0 15 -0.04247894883155823
-2.8206231594085693 1.315278172492981 -0.8339149951934814 1.0 0 -0.04245821386575699
-1.8467741012573242 0.8611648678779602 0.035568006336688995 6.0 8 -0.04245590791106224
-3.122313976287842 1.4566224813461304 -0.7954270243644714 15.0 1 -0.04245360568165779
-1.9184272289276123 0.895392119884491 0.1109522357583046 76.0 9 -0.04245129972696304
-2.0296998023986816 0.947758674621582 -0.43542614579200745 6.0 2 -0.042448997497558594
-3.1156539916992188 1.4555022716522217 0.3008616268634796 23.0 10 -0.042446691542863846
-2.0096874237060547 0.9392679333686829 -0.3513518273830414 9.0 3 -0.042444389313459396
-2.0249669551849365 0.9464091658592224 0.27444979548454285 41.0 11 -0.04244208335876465
-1.9870388507843018 0.9291057586669922 -0.26933127641677856 1.0 4 -0.0424397811293602
-1.9860986471176147 0.9290885925292969 0.34728455543518066 2.0 12 -0.04243747517466545
-1.9759721755981445 0.9247719049453735 -0.19087107479572296 8.0 5 -0.042435172945261
-2.0607104301452637 0.9648685455322266 0.44229528307914734 1.0 13 -0.042432866990566254
-1.9207923412322998 0.8997645974159241 -0.11116158217191696 12.0 6 -0.042430564761161804
-3.079181671142578 1.4430500268936157 0.7850792407989502 74.0 14 -0.042428258806467056
-1.9103028774261475 0.8952581882476807 -0.036824580281972885 9.0 7 -0.04242595657706261
-3.0697383880615234 1.439276933670044 0.9084548950195312 76.0 15 -0.04242365062236786
-2.837456703186035 1.3339954614639282 -0.840126633644104 6.0 0 -0.04240727424621582
-1.8439080715179443 0.8672842979431152 0.035568006336688995 6.0 8 -0.04240497201681137
-3.105123519897461 1.4611603021621704 -0.7922776341438293 29.0 1 -0.04240266606211662
-1.9082192182540894 0.8983461260795593 0.11053354293107986 73.0 9 -0.04240036383271217
-2.0089497566223145 0.9457678198814392 -0.43160995841026306 6.0 2 -0.042398057878017426
-2.1251139640808105 1.0009089708328247 0.20551322400569916 1.0 10 -0.042395755648612976
-2.010300397872925 0.9472615122795105 -0.3519775867462158 9.0 3 -0.04239344969391823
-2.034386396408081 0.9590442180633545 0.276155948638916 42.0 11 -0.04239114746451378
-2.0090830326080322 0.9475449919700623 -0.2727436125278473 1.0 4 -0.04238884150981903
-1.975860834121704 0.9322980046272278 0.34603309631347656 3.0 12 -0.04238653928041458
-1.963886022567749 0.9270662665367126 -0.1899995058774948 9.0 5 -0.04238423332571983
-2.057669162750244 0.9713373184204102 0.44229528307914734 1.0 13 -0.042381931096315384
-1.9233739376068115 0.908353328704834 -0.11147560179233551 9.0 6 -0.042379625141620636
-3.0816810131073 1.4560456275939941 0.7868788242340088 75.0 14 -0.042377322912216187
-1.8838214874267578 0.8904776573181152 -0.036370813846588135 11.0 7 -0.04237501695752144
-3.0719339847564697 1.4527522325515747 0.9105254411697388 74.0 15 -0.04237271472811699
-2.8273122310638428 1.3419020175933838 -0.8385737538337708 7.0 0 -0.04235197976231575
-1.851709008216858 0.8788601756095886 0.03577743470668793 6.0 8 -0.042349673807621
-3.0841612815856934 1.4644666910171509 -0.7882285714149475 30.0 1 -0.04234737157821655
-1.9086799621582031 0.9067157506942749 0.11074289679527283 73.0 9 -0.042345065623521805
-2.005469799041748 0.9531251192092896 -0.43160995841026306 6.0 2 -0.042342763394117355
-2.1160335540771484 1.0061241388320923 0.20499029755592346 6.0 10 -0.04234045743942261
-2.010382890701294 0.9563205242156982 -0.35260334610939026 9.0 3 -0.04233815521001816
-2.023855686187744 0.9627293944358826 0.27518099546432495 43.0 11 -0.04233584925532341
-1.9985932111740112 0.9511400461196899 -0.2717686593532562 1.0 4 -0.04233354702591896
-1.9618935585021973 0.9340938925743103 0.34415584802627563 1.0 12 -0.04233124107122421
-1.953442931175232 0.9304892420768738 -0.18930228054523468 9.0 5 -0.04232893884181976
-2.0540950298309326 0.978873074054718 0.44229528307914734 1.0 13 -0.042326632887125015
-1.9308491945266724 0.9205535054206848 -0.11210363358259201 9.0 6 -0.042324330657720566
-3.083359479904175 1.4706867933273315 0.7886784672737122 74.0 14 -0.04232202470302582
-1.8897258043289185 0.9013528823852539 -0.03654533997178078 15.0 7 -0.04231972247362137
-3.0668442249298096 1.4634665250778198 0.9105254411697388 78.0 15 -0.04231741651892662
-2.820868730545044 1.3509280681610107 -0.8380560874938965 6.0 0 -0.04229668155312538
-1.8268345594406128 0.8752721548080444 0.035358574241399765 6.0 8 -0.04229437932372093
-3.06119966506958 1.4673383235931396 -0.7837295532226562 30.0 1 -0.042292073369026184
-1.9091051816940308 0.9150997996330261 0.1109522357583046 70.0 9 -0.042289771139621735
-2.009211778640747 0.9635151028633118 -0.4331364631652832 6.0 2 -0.04228746518492699
-2.072988748550415 0.994544267654419 0.20115545392036438 6.0 10 -0.04228516295552254
-2.0177173614501953 0.9684608578681946 -0.3544805347919464 9.0 3 -0.04228285700082779
-2.023892641067505 0.97185879945755 0.2756684720516205 42.0 11 -0.04228055477142334
-1.995093822479248 0.958458423614502 -0.2717686593532562 1.0 4 -0.04227824881672859
-1.9425958395004272 0.9332379698753357 0.3413400650024414 1.0 12 -0.04227594658732414
-1.9412041902542114 0.9329869747161865 -0.18843071162700653 12.0 5 -0.042273640632629395
-2.050665855407715 0.9860367774963379 0.44229528307914734 1.0 13 -0.042271338403224945
-1.9312233924865723 0.9290199875831604 -0.11231297254562378 10.0 6 -0.0422690324485302
-3.095766544342041 1.489891767501831 0.7931774854660034 75.0 14 -0.04226673021912575
-1.9009830951690674 0.9148813486099243 -0.036824580281972885 18.0 7 -0.0422644279897213
-3.0651984214782715 1.4758391380310059 0.9115607142448425 76.0 15 -0.04226212203502655
-2.8265726566314697 1.3658095598220825 -0.8411619663238525 7.0 0 -0.04224138706922531
-1.829323649406433 0.8839354515075684 0.03546328842639923 4.0 8 -0.04223908111453056
-3.0317542552948 1.4656068086624146 -0.7774308919906616 31.0 1 -0.042236778885126114
-1.9130914211273193 0.925236165523529 0.11137092113494873 70.0 9 -0.042234472930431366
-2.009370803833008 0.9722328782081604 -0.4338997006416321 6.0 2 -0.042232170701026917
-2.0210845470428467 0.9783364534378052 0.19644904136657715 14.0 10 -0.04222986474633217
-2.003826856613159 0.9699825644493103 -0.35260334610939026 9.0 3 -0.04222756251692772
-2.0045793056488037 0.9707781672477722 0.2734748423099518 25.0 11 -0.04222525656223297
-2.0097692012786865 0.9737245440483093 -0.2742060422897339 1.0 4 -0.04222295433282852
-1.9642119407653809 0.9520761370658875 0.34572020173072815 1.0 12 -0.04222065210342407
-1.9361430406570435 0.9388875365257263 -0.1882563978433609 10.0 5 -0.042218346148729324
-1.9137566089630127 0.9284443259239197 -0.11147560179233551 11.0 6 -0.04221373796463013
-3.0978212356567383 1.5035531520843506 0.794977068901062 70.0 14 -0.04221143573522568
-1.8923814296722412 0.9188910126686096 -0.03671986237168312 15.0 7 -0.04220912978053093
-3.066978931427002 1.489905595779419 0.91363126039505 82.0 15 -0.04220682755112648
-2.8307108879089355 1.3794066905975342 -0.8437501192092896 7.0 0 -0.04218608886003494
-1.8244295120239258 0.8894394040107727 0.03542838618159294 6.0 8 -0.04218378663063049
-3.0056018829345703 1.465929627418518 -0.7720320820808411 30.0 1 -0.042181480675935745
-1.8990803956985474 0.9266534447669983 0.11074289679527283 70.0 9 -0.042179178446531296
-2.0255439281463623 0.9883611798286438 -0.43809744715690613 7.0 2 -0.04217687249183655
-2.0142483711242676 0.9832847714424133 0.1961004137992859 26.0 10 -0.0421745702624321
-1.996878743171692 0.9752371311187744 -0.3519775867462158 9.0 3 -0.04217226803302765
-1.9851261377334595 0.9699264764785767 0.2712811827659607 7.0 11 -0.0421699620783329
-1.9813898801803589 0.9685294032096863 -0.27079370617866516 1.0 4 -0.04216765984892845
-1.9466805458068848 0.9519839286804199 0.34321725368499756 1.0 12 -0.042165353894233704
-1.952540397644043 0.9552718997001648 -0.19017383456230164 9.0 5 -0.042163051664829254
-1.90871000289917 0.9342414140701294 -0.11137092113494873 12.0 6 -0.04215844348073006
-3.0855534076690674 1.5109294652938843 0.7931774854660034 70.0 14 -0.04215613752603531
-1.8981415033340454 0.929889440536499 -0.03689438849687576 9.0 7 -0.04215383529663086
-3.072167158126831 1.5057042837142944 0.9167370796203613 78.0 15 -0.04215152934193611
-2.81870174407959 1.3863619565963745 -0.841679573059082 7.0 0 -0.04213079437613487
-1.8338743448257446 0.9019803404808044 0.03567272052168846 4.0 8 -0.042128488421440125
-2.984729766845703 1.468668818473816 -0.7679829597473145 32.0 1 -0.042126186192035675
-1.8994178771972656 0.935041069984436 0.1109522357583046 70.0 9 -0.042123883962631226
-2.0148630142211914 0.992309033870697 -0.43657100200653076 9.0 2 -0.04212157800793648
-2.0142054557800293 0.9924219846725464 0.19644904136657715 30.0 10 -0.04211927577853203
-2.0039217472076416 0.9877898097038269 -0.35385480523109436 9.0 3 -0.04211696982383728
-1.9746061563491821 0.9733393788337708 0.27030622959136963 2.0 11 -0.04211466759443283
-2.0314080715179443 1.0017797946929932 -0.27810585498809814 1.0 4 -0.04211236163973808
-1.9415740966796875 0.9578994512557983 0.34290438890457153 1.0 12 -0.04211005941033363
-1.9402611255645752 0.9576725959777832 -0.18930228054523468 9.0 5 -0.042107753455638885
-1.9213892221450806 0.9491920471191406 -0.11231297254562378 12.0 6 -0.04210314527153969
-3.085236072540283 1.524817943572998 0.7945271730422974 72.0 14 -0.04210084304213524
-1.8733716011047363 0.9258775115013123 -0.0364755317568779 9.0 7 -0.04209853708744049
-3.0772829055786133 1.5215566158294678 0.9198428988456726 80.0 15 -0.04209623485803604
-2.820767641067505 1.399627447128296 -0.8437501192092896 9.0 0 -0.0420754998922348
-1.8413029909133911 0.9140306711196899 0.035882145166397095 3.0 8 -0.042073193937540054
-2.967109441757202 1.4735302925109863 -0.7648336291313171 31.0 1 -0.042070891708135605
-1.8961427211761475 0.9416651725769043 0.1109522357583046 73.0 9 -0.04206858575344086
-2.0254526138305664 1.0063246488571167 -0.43962395191192627 9.0 2 -0.04206628352403641
-1.991103172302246 0.9896917939186096 0.1945316195487976 23.0 10 -0.04206397756934166
-2.0004613399505615 0.9947792887687683 -0.35385480523109436 9.0 3 -0.04206167533993721
-1.9710254669189453 0.9805701375007629 0.27030622959136963 2.0 11 -0.04205936938524246
-1.9258395433425903 0.9585098028182983 0.34071433544158936 2.0 12 -0.042054761201143265
-1.9333391189575195 0.962664008140564 -0.18895365297794342 9.0 5 -0.042052458971738815
-1.9216392040252686 0.9576749205589294 -0.11252231895923615 10.0 6 -0.04204785078763962
-3.0886142253875732 1.5399266481399536 0.7967766523361206 70.0 14 -0.04204554483294487
-1.8683382272720337 0.9315193295478821 -0.03644062578678131 10.0 7 -0.04204324260354042
-3.071953535079956 1.5322883129119873 0.9198428988456726 82.0 15 -0.04204093664884567
-2.7985894680023193 1.4008183479309082 -0.8385737538337708 7.0 0 -0.042020201683044434
-1.8168035745620728 0.9093908667564392 0.03546328842639923 3.0 8 -0.042017899453639984
-2.95000958442688 1.4772536754608154 -0.7616842985153198 32.0 1 -0.042015593498945236
-1.9035581350326538 0.9536463618278503 0.1115802749991417 70.0 9 -0.04201329126954079
-2.0026206970214844 1.0037121772766113 -0.43542614579200745 9.0 2 -0.04201098531484604
-1.9716072082519531 0.9885981678962708 0.19296279549598694 32.0 10 -0.04200868308544159
-2.005981206893921 1.0058338642120361 -0.3554191291332245 9.0 3 -0.04200637713074684
-1.978408932685852 0.9924413561820984 0.2717686593532562 2.0 11 -0.04200407490134239
-1.9348397254943848 0.9714303612709045 0.34290438890457153 2.0 12 -0.041999466717243195
-1.9299671649932861 0.9694063067436218 -0.18895365297794342 10.0 5 -0.04199716076254845
-1.9130991697311401 0.9613518118858337 -0.1122082993388176 10.0 6 -0.04199255257844925
-3.102642774581909 1.559788703918457 0.8017256259918213 67.0 14 -0.0419902503490448
-1.8793673515319824 0.9452229738235474 -0.03671986237168312 10.0 7 -0.04198794811964035
-3.070037603378296 1.544739007949829 0.9208781719207764 78.0 15 -0.0419856421649456
-2.804276466369629 1.4153136014938354 -0.841679573059082 9.0 0 -0.04196490719914436
-1.8278988599777222 0.922937273979187 0.03574252873659134 3.0 8 -0.041962601244449615
-2.922222375869751 1.476119875907898 -0.7558355927467346 30.0 1 -0.041960299015045166
-1.9002176523208618 0.9602853059768677 0.1115802749991417 70.0 9 -0.04195799306035042
-2.0027856826782227 1.0121186971664429 -0.4361893832683563 6.0 2 -0.04195569083094597
-1.9700963497161865 0.9960299730300903 0.19313712418079376 36.0 10 -0.04195338487625122
-1.9971693754196167 1.0101556777954102 -0.3544805347919464 9.0 3 -0.04195108264684677
-1.9643052816390991 0.9939637780189514 0.27030622959136963 2.0 11 -0.04194877669215202
-1.9367235898971558 0.9808562994003296 0.343843013048172 4.0 12 -0.041944168508052826
-1.9302966594696045 0.9776014685630798 -0.18930228054523468 10.0 5 -0.041941866278648376
-1.9097317457199097 0.968023955821991 -0.1122082993388176 10.0 6 -0.04193725809454918
-3.0989177227020264 1.5714902877807617 0.8021755218505859 68.0 14 -0.04193495586514473
-1.8796230554580688 0.953586995601654 -0.036789670586586 11.0 7 -0.04193264991044998
-3.0784080028533936 1.5624406337738037 0.9250192642211914 78.0 15 -0.04193034768104553
-2.806205987930298 1.4285991191864014 -0.8437501192092896 9.0 0 -0.041909608989953995
-1.8317934274673462 0.932942271232605 0.035882145166397095 2.0 8 -0.041907306760549545
-2.9014246463775635 1.4783499240875244 -0.751786470413208 32.0 1 -0.0419050008058548
-1.8950746059417725 0.9660049080848694 0.11147560179233551 66.0 9 -0.04190269857645035
-2.0132336616516113 1.0262359380722046 -0.43924233317375183 6.0 2 -0.0419003926217556
-1.9843565225601196 1.01195228099823 0.19488023221492767 45.0 10 -0.04189809039235115
-1.995390772819519 1.0180187225341797 -0.35479339957237244 10.0 3 -0.0418957844376564
-1.9431426525115967 0.9917899966239929 0.26786884665489197 3.0 11 -0.04189348220825195
-1.9280104637145996 0.9849148988723755 0.34290438890457153 6.0 12 -0.041888874024152756
-1.933969497680664 0.9879589676856995 -0.1899995058774948 10.0 5 -0.041886571794748306
-2.0261430740356445 1.0354914665222168 0.44229528307914734 1.0 13 -0.04188426584005356
-1.9098975658416748 0.9765027761459351 -0.11241763830184937 10.0 6 -0.04188196361064911
-3.0968830585479736 1.5840728282928467 0.8030753135681152 68.0 14 -0.04187965765595436
-1.89052414894104 0.9674299359321594 -0.03706891089677811 10.0 7 -0.04187735542654991
-3.0832529067993164 1.5784590244293213 0.9281251430511475 80.0 15 -0.041875049471855164
-2.8012020587921143 1.4383858442306519 -0.8437501192092896 9.0 0 -0.041854314506053925
-1.8142958879470825 0.9320213794708252 0.035602912306785583 2.0 8 -0.04185200855135918
-2.885847330093384 1.4831234216690063 -0.7490870356559753 32.0 1 -0.04184970632195473
-1.884755253791809 0.9686322212219238 0.11105691641569138 64.0 9 -0.04184740036725998
-2.002655267715454 1.0296664237976074 -0.4377158582210541 6.0 2 -0.04184509813785553
-1.9790400266647339 1.0179619789123535 0.19470593333244324 45.0 10 -0.04184279590845108
-2.0006072521209717 1.0294971466064453 -0.35635775327682495 9.0 3 -0.04184048995375633
-1.9573185443878174 1.0076525211334229 0.27030622959136963 3.0 11 -0.04183818772435188
-1.9089281558990479 0.9831627011299133 0.34008854627609253 5.0 12 -0.041833579540252686
-1.9411358833312988 1.0001792907714844 -0.1910453885793686 10.0 5 -0.04183127358555794
-1.9631847143173218 1.0119731426239014 0.42932024598121643 1.0 13 -0.04182897135615349
-1.904702067375183 0.9822482466697693 -0.11231297254562378 10.0 6 -0.04182666540145874
-3.0896027088165283 1.5939799547195435 0.8026254177093506 67.0 14 -0.04182436317205429
-1.8730887174606323 0.9663591384887695 -0.036789670586586 10.0 7 -0.04182205721735954
-3.095168352127075 1.5975345373153687 0.9333015084266663 76.0 15 -0.04181975498795509
-2.7858715057373047 1.4428246021270752 -0.8406442999839783 9.0 0 -0.041799020022153854
-1.818298101425171 0.9417108297348022 0.03574252873659134 2.0 8 -0.041796714067459106
-2.8739917278289795 1.4890999794006348 -0.7472874522209167 33.0 1 -0.04179441183805466
-1.892001748085022 0.9807201623916626 0.11168494075536728 63.0 9 -0.04179210588335991
-1.9851059913635254 1.0294203758239746 -0.43466290831565857 6.0 2 -0.04178980365395546
-1.968400478363037 1.0211938619613647 0.19400867819786072 46.0 10 -0.04178749769926071
-2.0077030658721924 1.0415838956832886 -0.3582349717617035 9.0 3 -0.04178519546985626
-1.9539661407470703 1.0141377449035645 0.27030622959136963 3.0 11 -0.041782889515161514
-1.91249680519104 0.9934626221656799 0.3413400650024414 4.0 12 -0.04177828133106232
-1.9305610656738281 1.0032734870910645 -0.19034813344478607 10.0 5 -0.04177597910165787
-1.9842069149017334 1.0311522483825684 0.43466290831565857 1.0 13 -0.04177367314696312
-1.910294771194458 0.9931656718254089 -0.1128363311290741 10.0 6 -0.04177137091755867
-3.0912156105041504 1.607813835144043 0.804425060749054 66.0 14 -0.04176906496286392
-1.8661563396453857 0.9710450172424316 -0.03671986237168312 10.0 7 -0.04176676273345947
-3.08271861076355 1.6047617197036743 0.9312310218811035 76.0 15 -0.041764456778764725
-2.781071424484253 1.4520550966262817 -0.8406442999839783 7.0 0 -0.041743721812963486
-1.8132269382476807 0.9471266865730286 0.03570762276649475 2.0 8 -0.041741419583559036
-2.854959487915039 1.4919019937515259 -0.7436882257461548 33.0 1 -0.04173911362886429
-1.902726650238037 0.9947211742401123 0.11252231895923615 55.0 9 -0.04173681139945984
-1.9729821681976318 1.0314499139785767 -0.4327548146247864 6.0 2 -0.04173450544476509
-1.9632377624511719 1.0267925262451172 0.19383437931537628 49.0 10 -0.04173220321536064
-2.0040552616119385 1.048585295677185 -0.3582349717617035 9.0 3 -0.041729897260665894
-1.9521727561950684 1.0218727588653564 0.2705499529838562 4.0 11 -0.041727595031261444
-1.9125170707702637 1.0019655227661133 0.34196579456329346 5.0 12 -0.04172298684716225
-1.9272233247756958 1.0096700191497803 -0.19034813344478607 10.0 5 -0.0417206808924675
-1.9103540182113647 1.0016828775405884 -0.11304567754268646 10.0 6 -0.0417160727083683
-3.1080191135406494 1.6303620338439941 0.8102737665176392 70.0 14 -0.04171377047896385
-1.8680672645568848 0.980341374874115 -0.036824580281972885 9.0 7 -0.041711464524269104
-3.0770981311798096 1.615512728691101 0.9312310218811035 78.0 15 -0.041709162294864655
-2.7725675106048584 1.4599533081054688 -0.8396090269088745 10.0 0 -0.041688427329063416
-1.8010640144348145 0.9487898945808411 0.03553309664130211 2.0 8 -0.04168612137436867
-2.8342185020446777 1.49368155002594 -0.7396391034126282 38.0 1 -0.04168381914496422
-1.9133769273757935 1.0088083744049072 0.11335969716310501 51.0 9 -0.04168151319026947
-1.9641599655151367 1.0355831384658813 -0.43160995841026306 4.0 2 -0.04167921096086502
-1.963166356086731 1.0354979038238525 0.19418299198150635 48.0 10 -0.04167690500617027
-1.9986357688903809 1.0546525716781616 -0.35792210698127747 8.0 3 -0.04167460277676582
-1.941571831703186 1.0249745845794678 0.26957499980926514 5.0 11 -0.041672296822071075
-1.9142476320266724 1.0114037990570068 0.34290438890457153 6.0 12 -0.04166768863797188
-1.9342570304870605 1.0219758749008179 -0.19139400124549866 10.0 5 -0.04166538640856743
-1.9033149480819702 1.0064773559570312 -0.1128363311290741 11.0 6 -0.04166077822446823
-3.1126441955566406 1.6466686725616455 0.812973141670227 70.0 14 -0.04165847599506378
-1.8752385377883911 0.9924688339233398 -0.03703400865197182 11.0 7 -0.041656170040369034
-3.0850987434387207 1.6334749460220337 0.9353720545768738 78.0 15 -0.041653867810964584
-2.7708663940429688 1.4714351892471313 -0.8406442999839783 10.0 0 -0.04163312911987305
-1.8012731075286865 0.9569474458694458 0.035602912306785583 2.0 8 -0.0416308268904686
-2.801454782485962 1.4889317750930786 -0.7324406504631042 36.0 1 -0.04162852093577385
-1.9098435640335083 1.01548171043396 0.11335969716310501 50.0 9 -0.0416262187063694
-1.9744004011154175 1.0498071908950806 -0.43466290831565857 4.0 2 -0.04162391275167465
-1.9683347940444946 1.0470227003097534 0.1950545459985733 46.0 10 -0.0416216105222702
-2.000173568725586 1.0644067525863647 -0.35886070132255554 7.0 3 -0.041619304567575455
-1.9309732913970947 1.0280137062072754 0.2686000466346741 5.0 11 -0.041617002338171005
-1.9194220304489136 1.0227241516113281 0.34446874260902405 5.0 12 -0.04161239415407181
-1.934194564819336 1.030595302581787 -0.19174262881278992 10.0 5 -0.04161009192466736
-1.8962655067443848 1.0112355947494507 -0.11262699216604233 11.0 6 -0.04160548374056816
-3.1017189025878906 1.6547728776931763 0.8116234540939331 67.0 14 -0.04160317778587341
-1.8841118812561035 1.0055991411209106 -0.03727834299206734 10.0 7 -0.041600875556468964
-3.0930111408233643 1.6515134572982788 0.9395131468772888 78.0 15 -0.041598569601774216
-2.7759313583374023 1.4865705966949463 -0.8437501192092896 10.0 0 -0.04157783463597298
-1.8067351579666138 0.9679510593414307 0.03577743470668793 1.0 8 -0.04157552868127823
-2.789369821548462 1.4950200319290161 -0.7306410670280457 25.0 1 -0.04157322645187378
-1.9027669429779053 1.0202546119689941 0.11315035074949265 51.0 9 -0.04157092049717903
-1.9638031721115112 1.052981972694397 -0.4331364631652832 4.0 2 -0.04156861826777458
-1.9734467267990112 1.0585962533950806 0.19592611491680145 43.0 10 -0.04156631603837013
-2.0103704929351807 1.0788546800613403 -0.3613636791706085 7.0 3 -0.041564010083675385
-1.9308712482452393 1.0366259813308716 0.269087553024292 6.0 11 -0.041561707854270935
-1.9141004085540771 1.0284830331802368 0.34415584802627563 3.0 12 -0.04155709967017174
-1.9463812112808228 1.045828104019165 -0.1933114379644394 8.0 5 -0.04155479371547699
-2.0042014122009277 1.0773468017578125 0.44229528307914734 1.0 13 -0.04155249148607254
-1.9085551500320435 1.0263620615005493 -0.11356903612613678 13.0 6 -0.04155018553137779
-3.101072311401367 1.6683589220046997 0.812973141670227 70.0 14 -0.04154788330197334
-1.8682644367218018 1.0055358409881592 -0.03703400865197182 10.0 7 -0.041545577347278595
-3.09403133392334 1.6659637689590454 0.9415837526321411 76.0 15 -0.041543275117874146
-2.757126808166504 1.488907814025879 -0.8396090269088745 11.0 0 -0.04152253642678261
-1.820939064025879 0.9837563633918762 0.03612648323178291 1.0 8 -0.04152023419737816
-2.773847818374634 1.4991884231567383 -0.727941632270813 10.0 1 -0.04151793196797371
-1.9062213897705078 1.03069007396698 0.11356903612613678 50.0 9 -0.04151562601327896
-1.94629967212677 1.0523602962493896 -0.4300835132598877 3.0 2 -0.04151332378387451
-1.971492052078247 1.0664258003234863 0.1961004137992859 27.0 10 -0.041511017829179764
-2.0170161724090576 1.0915066003799438 -0.3632408678531647 7.0 3 -0.041508715599775314
-1.937714695930481 1.0490299463272095 0.2705499529838562 6.0 11 -0.041506409645080566
-1.920919418334961 1.0408046245574951 0.34603309631347656 3.0 12 -0.04150180146098137
-1.9304559230804443 1.0459716320037842 -0.19209124147891998 9.0 5 -0.04149949923157692
-2.0004284381866455 1.084336280822754 0.44229528307914734 1.0 13 -0.04149719327688217
-1.9102281332015991 1.035874366760254 -0.11388305574655533 20.0 6 -0.04149489104747772
-3.108933210372925 1.6866077184677124 0.816572368144989 70.0 14 -0.041492585092782974
-1.8805605173110962 1.0206358432769775 -0.037348151206970215 10.0 7 -0.041490282863378525
-3.0949881076812744 1.6804410219192505 0.9436542987823486 78.0 15 -0.04148797690868378
-2.745126485824585 1.4948266744613647 -0.8375384211540222 11.0 0 -0.04146724194288254
-1.8174937963485718 0.9901070594787598 0.03612648323178291 1.0 8 -0.04146493971347809
-2.758331060409546 1.5032665729522705 -0.7252422571182251 9.0 1 -0.04146263375878334
-1.9148871898651123 1.0440298318862915 0.11430173367261887 48.0 9 -0.04146033152937889
-1.9460620880126953 1.061026930809021 -0.4308467507362366 1.0 2 -0.04145802557468414
-1.9712555408477783 1.0752098560333252 0.19644904136657715 11.0 10 -0.041455723345279694
-2.0183959007263184 1.1013792753219604 -0.36417946219444275 6.0 3 -0.041453417390584946
-1.9549500942230225 1.067201018333435 0.2734748423099518 4.0 11 -0.041451115161180496
-1.9190081357955933 1.0484505891799927 0.3463459312915802 4.0 12 -0.0414465069770813
-1.926793098449707 1.052703857421875 -0.19209124147891998 10.0 5 -0.04144420102238655
-1.962177038192749 1.0724800825119019 0.43466290831565857 1.0 13 -0.0414418987929821
-1.9101053476333618 1.044452428817749 -0.1140923947095871 13.0 6 -0.041439592838287354
-3.1201233863830566 1.7068020105361938 0.8210713863372803 77.0 14 -0.041437290608882904
-1.8752319812774658 1.0262340307235718 -0.03731324523687363 10.0 7 -0.041434984654188156
-3.0823252201080322 1.6875234842300415 0.9415837526321411 78.0 15 -0.04143268242478371
-2.750051975250244 1.5099787712097168 -0.8406442999839783 11.0 0 -0.04141194745898247
-1.803510308265686 0.9906687140464783 0.03591705113649368 1.0 8 -0.04140964150428772
-2.727449417114258 1.4988075494766235 -0.7184937596321106 23.0 1 -0.04140733927488327
-1.9199820756912231 1.055518627166748 0.11482509225606918 49.0 9 -0.04140503332018852
-1.9526690244674683 1.0734883546829224 -0.4331364631652832 1.0 2 -0.04140273109078407
-2.0268466472625732 1.1147292852401733 0.2023756206035614 1.0 10 -0.041400425136089325
-2.0128085613250732 1.1074655055999756 -0.3638666272163391 6.0 3 -0.041398122906684875
-1.9633859395980835 1.0807197093963623 0.27518099546432495 3.0 11 -0.04139581695199013
-1.923987865447998 1.0599082708358765 0.3479103147983551 2.0 12 -0.04139120876789093
-1.9405581951141357 1.0690367221832275 -0.19383437931537628 9.0 5 -0.04138890653848648
-1.944665789604187 1.0717424154281616 0.43160995841026306 1.0 13 -0.04138660058379173
-1.9064477682113647 1.0511136054992676 -0.1140923947095871 11.0 6 -0.04138429835438728
-3.1039085388183594 1.7120351791381836 0.8183720111846924 64.0 14 -0.041381992399692535
-1.8821436166763306 1.0385704040527344 -0.03752267360687256 9.0 7 -0.041379690170288086
-3.0899460315704346 1.7057416439056396 0.9457248449325562 74.0 15 -0.041377387940883636
-2.7447640895843506 1.519569754600525 -0.8406442999839783 12.0 0 -0.0413566492497921
-1.8000414371490479 0.9969577193260193 0.03591705113649368 1.0 8 -0.04135434702038765
-2.7017459869384766 1.4969854354858398 -0.7130948901176453 33.0 1 -0.0413520410656929
-1.9162856340408325 1.062214732170105 0.11482509225606918 49.0 9 -0.04134973883628845
-1.959212064743042 1.0860092639923096 -0.43542614579200745 1.0 2 -0.041347432881593704
-3.1502857208251953 1.7469500303268433 0.31515514850616455 28.0 10 -0.041345130652189255
-2.0279314517974854 1.125025749206543 -0.3673081696033478 6.0 3 -0.04134282469749451
-1.982165813446045 1.1000896692276 0.2783496081829071 1.0 11 -0.04134052246809006
-1.9220032691955566 1.0675768852233887 0.34822314977645874 4.0 12 -0.04133591428399086
-1.9333311319351196 1.073868989944458 -0.19348573684692383 7.0 5 -0.04133360832929611
-3.107863187789917 1.7269736528396606 0.6911102533340454 45.0 13 -0.04133130609989166
-1.897530198097229 1.0548502206802368 -0.11377837508916855 11.0 6 -0.04132900387048721
-3.1115379333496094 1.7304373979568481 0.8219712376594543 70.0 14 -0.041326697915792465
-1.8872438669204712 1.0499950647354126 -0.0376971997320652 9.0 7 -0.041324395686388016
-3.102541208267212 1.7268513441085815 0.9514188170433044 69.0 15 -0.04132208973169327
-2.742816925048828 1.5310240983963013 -0.841679573059082 10.0 0 -0.04130135476589203
-1.8314688205718994 1.02273428440094 0.036615148186683655 1.0 8 -0.04129904881119728
-2.6913998126983643 1.5035566091537476 -0.7117451429367065 30.0 1 -0.04129674658179283
-1.9092655181884766 1.0666154623031616 0.11461575329303741 49.0 9 -0.041294440627098083
-1.9554094076156616 1.0928411483764648 -0.43542614579200745 1.0 2 -0.041292138397693634
-3.156341791152954 1.7647422552108765 0.31637534499168396 27.0 10 -0.041289832442998886
-2.0429558753967285 1.1427057981491089 -0.37074974179267883 6.0 3 -0.04128753021359444
-3.149364709854126 1.7622843980789185 0.4431169629096985 59.0 11 -0.04128522798418999
-1.9184523820877075 1.0739446878433228 0.34822314977645874 4.0 12 -0.04128061980009079
-1.9486925601959229 1.0913203954696655 -0.19540317356586456 9.0 5 -0.04127831384539604
-3.115518569946289 1.7454876899719238 0.6941632032394409 75.0 13 -0.04127601161599159
-1.8990634679794312 1.0643970966339111 -0.1140923947095871 11.0 6 -0.041273705661296844
-3.11088228225708 1.7436038255691528 0.8233208656311035 67.0 14 -0.041271403431892395
-1.873286247253418 1.0503796339035034 -0.03748776763677597 9.0 7 -0.04126909747719765
-3.1001675128936768 1.739020586013794 0.9524540901184082 69.0 15 -0.0412667952477932
-2.717520236968994 1.528745174407959 -0.8354679346084595 11.0 0 -0.04124605655670166
-1.8524647951126099 1.0425325632095337 0.037103816866874695 1.0 8 -0.04124375432729721
-2.6507394313812256 1.4923957586288452 -0.7022972702980042 2.0 1 -0.04124145209789276
-1.917900800704956 1.0797995328903198 0.1153484508395195 48.0 9 -0.04123914614319801
-1.9517747163772583 1.099319577217102 -0.43542614579200745 1.0 2 -0.041236843913793564
-3.1487364768981934 1.774221420288086 0.31620103120803833 26.0 10 -0.041234537959098816
-2.054642915725708 1.1582039594650269 -0.37356552481651306 4.0 3 -0.041232235729694366
-3.148690700531006 1.7756438255310059 0.443848192691803 61.0 11 -0.04122992977499962
-1.9372466802597046 1.092918872833252 0.35229045152664185 1.0 12 -0.04122532159090042
-1.9433274269104004 1.0967971086502075 -0.19522884488105774 7.0 5 -0.04122301936149597
-3.1199703216552734 1.7616010904312134 0.6964528560638428 61.0 13 -0.041220713406801224
-1.9111744165420532 1.0795294046401978 -0.11503444612026215 11.0 6 -0.041218411177396774
-3.1169607639312744 1.7606194019317627 0.8264702558517456 72.0 14 -0.041216105222702026
-1.8750157356262207 1.0595372915267944 -0.037592481821775436 8.0 7 -0.04121380299329758
-3.09942889213562 1.7521437406539917 0.9540070295333862 76.0 15 -0.04121149703860283
-2.672102451324463 1.5148817300796509 -0.8230445981025696 20.0 0 -0.04119076207280159
-1.8316032886505127 1.0388047695159912 0.03675476834177971 1.0 8 -0.04118845984339714
-2.1661124229431152 1.2290232181549072 -0.5749749541282654 1.0 1 -0.04118615388870239
-1.9299436807632446 1.0950242280960083 0.11629050970077515 49.0 9 -0.04118385165929794
-1.9481184482574463 1.105785846710205 -0.43542614579200745 1.0 2 -0.041181545704603195
-3.1445679664611816 1.7856371402740479 0.31637534499168396 25.0 10 -0.041179243475198746
-2.0387678146362305 1.158181071281433 -0.3713754713535309 3.0 3 -0.041176937520504
-3.1634950637817383 1.797845482826233 0.44677305221557617 60.0 11 -0.04117463529109955
-3.1133551597595215 1.7700693607330322 0.5672314167022705 60.0 12 -0.04117002710700035
-1.9344844818115234 1.1002800464630127 -0.19470593333244324 8.0 5 -0.0411677211523056
-3.1141111850738525 1.7719378471374512 0.6964528560638428 60.0 13 -0.041165418922901154
-1.9093197584152222 1.0868492126464844 -0.11513911187648773 11.0 6 -0.041163112968206406
-3.122960090637207 1.7776943445205688 0.8296195268630981 73.0 14 -0.041160810738801956
-1.8767050504684448 1.0687175989151 -0.0376971997320652 7.0 7 -0.04115850478410721
-3.0969583988189697 1.7643249034881592 0.95504230260849 74.0 15 -0.04115620255470276
-2.6502902507781982 1.5141513347625732 -0.817868173122406 34.0 0 -0.04113546758890152
-1.8732877969741821 1.0706721544265747 0.037662290036678314 1.0 8 -0.04113316163420677
-2.0436041355133057 1.1684892177581787 -0.5434817671775818 1.0 1 -0.04113085940480232
-1.9367048740386963 1.1073664426803589 0.11691854149103165 49.0 9 -0.041128553450107574
-1.9444410800933838 1.1122395992279053 -0.43542614579200745 1.0 2 -0.041126251220703125
-3.1541926860809326 1.8049613237380981 0.31794413924217224 22.0 10 -0.04112394526600838
-1.9783427715301514 1.1325490474700928 -0.3610507845878601 2.0 3 -0.04112164303660393
-3.15407133102417 1.8063523769378662 0.44628557562828064 60.0 11 -0.04111933708190918
-3.133178234100342 1.7951141595840454 0.5719244480133057 82.0 12 -0.04111472889780998
-1.9429253339767456 1.1136244535446167 -0.19592611491680145 5.0 5 -0.04111242666840553
-3.1116244792938232 1.7842081785202026 0.6972161531448364 59.0 13 -0.041110120713710785
-1.898775339126587 1.0891997814178467 -0.1147204264998436 9.0 6 -0.041107818484306335
-3.130570888519287 1.7957980632781982 0.8332187533378601 69.0 14 -0.04110551252961159
-1.8852914571762085 1.081902265548706 -0.03794153034687042 6.0 7 -0.04110321030020714
-3.0961170196533203 1.7774707078933716 0.9565951824188232 72.0 15 -0.04110090434551239
-2.6308016777038574 1.5170581340789795 -0.813727080821991 36.0 0 -0.0412755012512207
-1.8689748048782349 1.0781834125518799 0.037662290036678314 1.0 8 -0.041273199021816254
-2.0726537704467773 1.1961642503738403 -0.5524798035621643 1.0 1 -0.041270893067121506
-1.927054762840271 1.1121366024017334 0.1166045218706131 48.0 9 -0.041268590837717056
-1.939960241317749 1.1200364828109741 -0.43542614579200745 1.0 2 -0.04126628488302231
-3.155548095703125 1.8225908279418945 0.3188157081604004 22.0 10 -0.04126398265361786
-1.9789119958877563 1.1434457302093506 -0.36198940873146057 2.0 3 -0.04126167669892311
-3.146794080734253 1.8189998865127563 0.44628557562828064 59.0 11 -0.04125937446951866
-2.04667067527771 1.1835516691207886 -0.29029279947280884 1.0 4 -0.041257068514823914
-3.124237060546875 1.8066883087158203 0.5716116428375244 65.0 12 -0.041254766285419464
-1.9539607763290405 1.1303937435150146 -0.19749490916728973 7.0 5 -0.041252460330724716
-3.111233949661255 1.8006181716918945 0.6987425684928894 64.0 13 -0.04125015810132027
-1.8995730876922607 1.0998153686523438 -0.11503444612026215 9.0 6 -0.04124785214662552
-3.123020648956299 1.8088963031768799 0.8332187533378601 69.0 14 -0.04124554991722107
-1.8878545761108398 1.0934711694717407 -0.038081150501966476 6.0 7 -0.04124324396252632
-3.1040003299713135 1.7986019849777222 0.9612540006637573 74.0 15 -0.04124094173312187
-2.62214994430542 1.5242903232574463 -0.8126918077468872 34.0 0 -0.04122020676732063
-1.8653889894485474 1.084375262260437 0.037662290036678314 1.0 8 -0.041217900812625885
-2.055199146270752 1.1951935291290283 -0.5488805770874023 2.0 1 -0.041215598583221436
-1.9300661087036133 1.12287437915802 0.11702320724725723 47.0 9 -0.04121329262852669
-3.164663553237915 1.8426165580749512 0.32038450241088867 26.0 10 -0.04120868444442749
-1.9648666381835938 1.1440380811691284 -0.36011216044425964 1.0 3 -0.04120638221502304
-3.1544673442840576 1.8374181985855103 0.44823548197746277 61.0 11 -0.04120407626032829
-1.9329653978347778 1.1263680458068848 -0.2746935188770294 3.0 4 -0.04120177403092384
-3.1213247776031494 1.819571614265442 0.5722373723983765 63.0 12 -0.041199468076229095
-1.9568872451782227 1.1412227153778076 -0.19819216430187225 5.0 5 -0.041197165846824646
-3.1222050189971924 1.820815920829773 0.7025587558746338 63.0 13 -0.0411948598921299
-1.9045411348342896 1.1111408472061157 -0.11555780470371246 9.0 6 -0.04119255766272545
-3.1186888217926025 1.8202234506607056 0.8336686491966248 72.0 14 -0.0411902517080307
-1.8943877220153809 1.106103777885437 -0.03829057887196541 6.0 7 -0.04118794947862625
-3.1043756008148193 1.8133234977722168 0.9633244872093201 80.0 15 -0.0411856435239315
-2.6004114151000977 1.523213267326355 -0.8075154423713684 36.0 0 -0.041164908558130264
-2.5788984298706055 1.5118201971054077 -0.6901498436927795 21.0 1 -0.04116030037403107
-1.936670184135437 1.1353286504745483 0.11765124648809433 47.0 9 -0.04115799814462662
-3.1568174362182617 1.8520928621292114 0.32021018862724304 24.0 10 -0.04115338996052742
-1.9744899272918701 1.1588890552520752 -0.3626151382923126 1.0 3 -0.04115108400583267
-3.1583051681518555 1.8544490337371826 0.44969791173934937 64.0 11 -0.04114878177642822
-1.9529850482940674 1.147183895111084 -0.27810585498809814 2.0 4 -0.041146475821733475
-3.127196788787842 1.8369160890579224 0.5744274258613586 67.0 12 -0.041144173592329025
-1.9651161432266235 1.1547716856002808 -0.19941233098506927 2.0 5 -0.04114186763763428
-3.1293699741363525 1.839663028717041 0.7056117057800293 63.0 13 -0.04113956540822983
-1.921310305595398 1.1299316883087158 -0.11681386828422546 10.0 6 -0.04113725945353508
-3.127432107925415 1.8399931192398071 0.8377177715301514 73.0 14 -0.04113495722413063
-1.8803681135177612 1.1062955856323242 -0.038081150501966476 6.0 7 -0.04113265499472618
-3.101674795150757 1.8255679607391357 0.9643597602844238 76.0 15 -0.04113034904003143
-2.581770896911621 1.5244227647781372 -0.8033743500709534 36.0 0 -0.041109614074230194
-2.572193145751953 1.5193729400634766 -0.6897000074386597 20.0 1 -0.041105005890131
-1.9412922859191895 1.147162914276123 0.11817460507154465 45.0 9 -0.04110269993543625
-3.1503329277038574 1.8631010055541992 0.32021018862724304 20.0 10 -0.04109809175133705
-1.9774372577667236 1.1694526672363281 -0.3638666272163391 1.0 3 -0.0410957895219326
-3.1623892784118652 1.8709770441055298 0.45116034150123596 61.0 11 -0.041093483567237854
-2.0072522163391113 1.1880310773849487 -0.2863929867744446 1.0 4 -0.041091181337833405
-3.120765447616577 1.8478209972381592 0.5744274258613586 67.0 12 -0.041088879108428955
-2.0227854251861572 1.1981788873672485 -0.20568755269050598 1.0 5 -0.04108657315373421
-3.1232521533966064 1.850030541419983 0.7056117057800293 61.0 13 -0.04108427092432976
-1.914116382598877 1.1342604160308838 -0.1166045218706131 8.0 6 -0.04108196496963501
-3.13137149810791 1.8563157320022583 0.8404171466827393 69.0 14 -0.04107966274023056
-1.8954145908355713 1.1240729093551636 -0.03846510127186775 5.0 7 -0.04107735678553581
-3.1019294261932373 1.8403266668319702 0.9664303660392761 76.0 15 -0.04107505455613136
-2.5600991249084473 1.5230984687805176 -0.7981979846954346 16.0 0 -0.041054315865039825
-2.553478479385376 1.5203666687011719 -0.6861007809638977 10.0 1 -0.04104970768094063
-1.951003909111023 1.1621085405349731 0.11901197582483292 44.0 9 -0.04104740545153618
-3.161252975463867 1.8837366104125977 0.32195332646369934 17.0 10 -0.04104279726743698
-1.9597688913345337 1.168256402015686 -0.3613636791706085 1.0 3 -0.04104049503803253
-3.155839204788208 1.8820037841796875 0.45116034150123596 61.0 11 -0.041038189083337784
-1.9962738752365112 1.1909621953964233 -0.28541800379753113 1.0 4 -0.041035886853933334
-3.1329543590545654 1.8698400259017944 0.5778689980506897 65.0 12 -0.041033580899238586
-3.1201465129852295 1.8629343509674072 0.7063749432563782 63.0 13 -0.04102897271513939
-1.9204331636428833 1.1470800638198853 -0.117232546210289 8.0 6 -0.04102667048573494
-3.134909152984619 1.873233437538147 0.8431165814399719 69.0 14 -0.04102436453104019
-1.8966283798217773 1.1337604522705078 -0.038569819182157516 4.0 7 -0.04102206230163574
-3.1054351329803467 1.8570917844772339 0.9695361852645874 82.0 15 -0.041019756346940994
-2.561394214630127 1.5359998941421509 -0.8002685308456421 11.0 0 -0.040999021381139755
-2.566535711288452 1.5403015613555908 -0.6910496354103088 13.0 1 -0.04099441319704056
-1.9520725011825562 1.171995997428894 0.11932599544525146 21.0 9 -0.04099211096763611
-3.178570032119751 1.9091219902038574 0.3243936598300934 16.0 10 -0.04098750278353691
-1.9522924423217773 1.1730552911758423 -0.3607378900051117 1.0 3 -0.04098519682884216
-3.1560561656951904 1.8970990180969238 0.4521353244781494 61.0 11 -0.040982894599437714
-3.1382575035095215 1.8878928422927856 0.5800590515136719 67.0 12 -0.040978286415338516
-3.123718023300171 1.8798877000808716 0.7086646556854248 64.0 13 -0.04097367823123932
-1.9078618288040161 1.1486258506774902 -0.11670918762683868 5.0 6 -0.04097137227654457
-3.133359432220459 1.887181282043457 0.8444663286209106 67.0 14 -0.04096907004714012
-1.8995109796524048 1.1445016860961914 -0.03870943933725357 2.0 7 -0.040966764092445374
-3.108860492706299 1.8739049434661865 0.9726420044898987 80.0 15 -0.040964461863040924
-2.6585216522216797 1.6068886518478394 -0.8323620557785034 10.0 0 -0.040943726897239685
-2.721215009689331 1.646079421043396 -0.7342402935028076 51.0 1 -0.04093911871314049
-1.9633482694625854 1.188109278678894 0.12026803940534592 11.0 9 -0.04093681275844574
-3.1752946376800537 1.9222702980041504 0.32474228739738464 19.0 10 -0.04093220457434654
-3.1528103351593018 1.9101614952087402 0.45262277126312256 64.0 11 -0.040927596390247345
-3.1333377361297607 1.8998593091964722 0.5803719758987427 66.0 12 -0.04092298820614815
-3.130565643310547 1.8989259004592896 0.7117176055908203 66.0 13 -0.04091838002204895
-1.934575080871582 1.173929214477539 -0.11859328299760818 1.0 6 -0.0409160777926445
-3.130084753036499 1.900128960609436 0.8453661203384399 67.0 14 -0.04091377183794975
-1.9091781377792358 1.1594293117523193 -0.03898867964744568 2.0 7 -0.0409114696085453
-3.1155083179473877 1.8927699327468872 0.9767830967903137 82.0 15 -0.040909163653850555
-2.6891930103302 1.6382701396942139 -0.8437501192092896 7.0 0 -0.040888428688049316
-2.7370829582214355 1.6687558889389038 -0.7400889992713928 54.0 1 -0.04088382050395012
-1.9898816347122192 1.2136749029159546 0.12215213477611542 6.0 9 -0.04088151827454567
-3.170266628265381 1.9343794584274292 0.3249166011810303 11.0 10 -0.04087691009044647
-3.154594898223877 1.9263273477554321 0.4538414776325226 12.0 11 -0.040872301906347275
-3.1334288120269775 1.9149055480957031 0.5816234350204468 65.0 12 -0.04086769372224808
-2.0876760482788086 1.2758235931396484 -0.21405449509620667 16.0 5 -0.04086538776755333
-3.137317657470703 1.9180350303649902 0.7147705554962158 60.0 13 -0.04086308553814888
-2.012251138687134 1.2306946516036987 -0.12361754477024078 1.0 6 -0.04086077958345413
-3.1267576217651367 1.913077712059021 0.8462659120559692 63.0 14 -0.04085847735404968
-1.9136468172073364 1.1713067293167114 -0.03916320204734802 2.0 7 -0.04085617512464523
-3.1088829040527344 1.9036327600479126 0.9767830967903137 80.0 15 -0.040853869169950485
-2.6867504119873047 1.6496686935424805 -0.8447853922843933 9.0 0 -0.040833134204149246
-2.736222743988037 1.6813602447509766 -0.7414387464523315 55.0 1 -0.04082852602005005
-2.7245280742645264 1.6748299598693848 -0.6216557621955872 1.0 2 -0.04082391783595085
-2.676828622817993 1.6467950344085693 -0.49777454137802124 19.0 3 -0.040819309651851654
-3.03965425491333 1.8707389831542969 0.43824219703674316 1.0 11 -0.040817003697156906
-2.7333664894104004 1.6828933954238892 -0.39412549138069153 3.0 4 -0.04081470146775246
-3.133453130722046 1.9299753904342651 0.5828748941421509 65.0 12 -0.04081239551305771
-2.0815136432647705 1.2820584774017334 -0.21388019621372223 28.0 5 -0.04081009328365326
-3.137289524078369 1.933093547821045 0.7162970304489136 63.0 13 -0.04080779105424881
-2.069149971008301 1.275439739227295 -0.1273857206106186 26.0 6 -0.04080548509955406
-3.1333303451538086 1.9321633577346802 0.8498651385307312 67.0 14 -0.04080318287014961
-1.9197580814361572 1.1842783689498901 -0.039372626692056656 1.0 7 -0.040800876915454865
-3.1022188663482666 1.914473533630371 0.9767830967903137 78.0 15 -0.040798574686050415
-2.684260845184326 1.6610710620880127 -0.8458206653594971 7.0 0 -0.04077783599495888
-2.730336904525757 1.690901279449463 -0.7414387464523315 52.0 1 -0.04077322781085968
-2.986470937728882 1.8502477407455444 0.18411791324615479 6.0 9 -0.04077092558145523
-2.7320163249969482 1.6926020383834839 -0.6247087121009827 45.0 2 -0.04076861962676048
-2.9568521976470947 1.8326107263565063 0.30434784293174744 7.0 10 -0.04076631739735603
-2.6928892135620117 1.6696611642837524 -0.5018418431282043 56.0 3 -0.040764011442661285
-2.9673149585723877 1.8405301570892334 0.4287363886833191 4.0 11 -0.040761709213256836
-2.7241017818450928 1.6903313398361206 -0.393638014793396 10.0 4 -0.040759406983852386
-3.1384456157684326 1.948194146156311 0.5850650072097778 62.0 12 -0.04075710102915764
