# .PCD v0.7 - Point Cloud Data file format
VERSION 0.7
FIELDS x y z intensity ring time
SIZE 4 4 4 4 4 4
TYPE F F F F F F
COUNT 1 1 1 1 1 1
WIDTH 541
HEIGHT 1
VIEWPOINT 0 0 0 1 0 0 0
POINTS 541
DATA ascii
-0.46505627036094666 1.7841029167175293 -0.0321822389960289 11.0 7 -0.03214842826128006
-1.7024134397506714 6.535668849945068 1.8096628189086914 63.0 15 -0.03214612603187561
-0.4652891755104065 1.7952616214752197 -0.49693259596824646 81.0 0 -0.03212539106607437
-0.4642588794231415 1.7925745248794556 0.032321859151124954 11.0 8 -0.03212308511137962
-0.4653068780899048 1.7979137897491455 -0.4287567436695099 85.0 1 -0.032120782881975174
-0.46406838297843933 1.7944194078445435 0.09713554382324219 29.0 9 -0.032118476927280426
-0.4625575840473175 1.7885775566101074 -0.3591025471687317 90.0 2 -0.03211617469787598
-1.698948860168457 6.574080944061279 0.5940535664558411 93.0 10 -0.03211386874318123
-0.46577340364456177 1.803609013557434 -0.2950354218482971 100.0 3 -0.03211156651377678
-1.6934162378311157 6.562126636505127 0.8321239948272705 88.0 11 -0.03210926055908203
-0.461483359336853 1.7895766496658325 -0.2269207388162613 85.0 4 -0.03210695832967758
-1.6862993240356445 6.54398775100708 1.0703247785568237 87.0 12 -0.032104652374982834
-0.4603804349899292 1.7865890264511108 -0.16141243278980255 91.0 5 -0.032102350145578384
-1.6895028352737427 6.561158180236816 1.316963791847229 100.0 13 -0.032100044190883636
-0.46336907148361206 1.8007879257202148 -0.09744956344366074 40.0 6 -0.03209774196147919
-1.6820183992385864 6.541546821594238 1.5593607425689697 100.0 14 -0.03209543600678444
-0.4583285450935364 1.7837785482406616 -0.03214733302593231 12.0 7 -0.03209313377737999
-1.6767083406448364 6.530345439910889 1.806557059288025 63.0 15 -0.03209082782268524
-0.45902004837989807 1.796874761581421 -0.49693259596824646 81.0 0 -0.033393144607543945
-0.45453694462776184 1.78062105178833 0.032077521085739136 12.0 8 -0.033390842378139496
-0.4590285122394562 1.7995269298553467 -0.4287567436695099 87.0 1 -0.03338853642344475
-0.45811569690704346 1.7959483861923218 0.09713554382324219 30.0 9 -0.0333862341940403
-0.4563118517398834 1.7901811599731445 -0.3591025471687317 90.0 2 -0.03338392823934555
-1.6735329627990723 6.570316314697266 0.5931819677352905 85.0 10 -0.0333816260099411
-0.457038938999176 1.7956520318984985 -0.293471097946167 100.0 3 -0.03337932005524635
-1.668543815612793 6.560301780700684 0.8311489820480347 90.0 11 -0.033377017825841904
-0.4552341103553772 1.791176438331604 -0.2269207388162613 85.0 4 -0.033374711871147156
-1.6636173725128174 6.545713901519775 1.0696990489959717 86.0 12 -0.033372409641742706
-0.45119816064834595 1.7765986919403076 -0.16036656498908997 98.0 5 -0.03337010368704796
-1.6646595001220703 6.559403896331787 1.3154373168945312 100.0 13 -0.03336780145764351
-0.4575716555118561 1.8043303489685059 -0.09755422919988632 31.0 6 -0.03336549550294876
-1.6610870361328125 6.554934978485107 1.5611604452133179 100.0 14 -0.03336319327354431
-0.45339271426200867 1.7891656160354614 -0.03221714124083519 12.0 7 -0.033360887318849564
-1.652199625968933 6.524631977081299 1.8034511804580688 63.0 15 -0.033358585089445114
-0.4527445137500763 1.7984662055969238 -0.49693259596824646 85.0 0 -0.033337850123643875
-0.4466765224933624 1.7743618488311768 0.03193790465593338 12.0 8 -0.03333554416894913
-0.45115727186203003 1.7934796810150146 -0.4269571304321289 87.0 1 -0.03333324193954468
-0.4513565003871918 1.7955996990203857 0.097030870616436 32.0 9 -0.03333093598484993
-0.45101624727249146 1.7955715656280518 -0.35986578464508057 90.0 2 -0.03332863375544548
-1.651559591293335 6.579983234405518 0.5935305953025818 85.0 10 -0.03332632780075073
-0.4506013095378876 1.7952418327331543 -0.29315823316574097 100.0 3 -0.03332402557134628
-1.6448464393615723 6.5580973625183105 0.8301740288734436 94.0 11 -0.033321719616651535
-0.4502565264701843 1.79652738571167 -0.22740821540355682 85.0 4 -0.033319417387247086
-1.6417196989059448 6.555313587188721 1.0703247785568237 86.0 12 -0.03331711143255234
-0.44596171379089355 1.7820284366607666 -0.16071519255638123 93.0 5 -0.03331480920314789
-1.63813054561615 6.54584264755249 1.3116211891174316 100.0 13 -0.03331250324845314
-0.4491625428199768 1.796149730682373 -0.097030870616436 23.0 6 -0.03331020101904869
-1.6388697624206543 6.558516025543213 1.5607105493545532 100.0 14 -0.03330789506435394
-0.44956719875335693 1.8004378080368042 -0.03239166736602783 11.0 7 -0.03330559283494949
-1.6312832832336426 6.537858009338379 1.8055217266082764 63.0 15 -0.033303286880254745
-0.44677844643592834 1.7999576330184937 -0.49693259596824646 81.0 0 -0.033282551914453506
-0.44192472100257874 1.7817329168319702 0.032042618840932846 12.0 8 -0.03328024968504906
-0.4420807957649231 1.7836945056915283 -0.42425769567489624 87.0 1 -0.03327794373035431
-0.4422055184841156 1.7855321168899536 0.0964028462767601 33.0 9 -0.03327564150094986
-0.44505980610847473 1.7970571517944336 -0.35986578464508057 90.0 2 -0.03327333554625511
-1.6287682056427002 6.58155632019043 0.5931819677352905 85.0 10 -0.03327103331685066
-0.44433149695396423 1.7968039512634277 -0.29315823316574097 100.0 3 -0.033268727362155914
-1.6209932565689087 6.559943675994873 0.8296865224838257 90.0 11 -0.033266425132751465
-0.4416029453277588 1.7884521484375 -0.226189523935318 89.0 4 -0.03326411917805672
-1.6188256740570068 6.561004638671875 1.0703247785568237 86.0 12 -0.03326181694865227
-0.44291386008262634 1.795103669166565 -0.1617610603570938 98.0 5 -0.03325951099395752
-1.6162126064300537 6.555332660675049 1.3123843669891357 100.0 13 -0.03325720876455307
-0.4448007047176361 1.8054640293121338 -0.09744956344366074 18.0 6 -0.03325490280985832
-1.614570140838623 6.5585198402404785 1.5593607425689697 100.0 14 -0.03325260058045387
-0.446146160364151 1.813646912574768 -0.032601095736026764 13.0 7 -0.03325029835104942
-1.6075279712677002 6.539760589599609 1.8044863939285278 63.0 15 -0.033247992396354675
-0.44141077995300293 1.8052592277526855 -0.4979678690433502 81.0 0 -0.033227257430553436
-0.4361776113510132 1.7852070331573486 0.032077521085739136 13.0 8 -0.03322495147585869
-0.43770015239715576 1.792799472808838 -0.4260573089122772 89.0 1 -0.03322264924645424
-0.4364430010318756 1.7890052795410156 0.09650751203298569 40.0 9 -0.03322034329175949
-0.43692249059677124 1.7909706830978394 -0.3583393096923828 90.0 2 -0.03321804106235504
-1.606732726097107 6.5910725593566895 0.5935305953025818 85.0 10 -0.033215735107660294
-0.4385237991809845 1.8002632856369019 -0.293471097946167 100.0 3 -0.033213432878255844
-1.5990221500396729 6.56942081451416 0.8301740288734436 92.0 11 -0.033211126923561096
-0.43629691004753113 1.7938402891159058 -0.22667700052261353 84.0 4 -0.03320882469415665
-1.5940457582473755 6.5589375495910645 1.06907320022583 84.0 12 -0.0332065224647522
-0.4357035458087921 1.792766809463501 -0.16141243278980255 93.0 5 -0.03320421651005745
-1.5951718091964722 6.56856632232666 1.313910722732544 100.0 13 -0.033201914280653
-0.44603288173675537 1.8380601406097412 -0.09912431240081787 23.0 6 -0.03319960832595825
-1.5893689393997192 6.554646968841553 1.5571112632751465 100.0 14 -0.0331973060965538
-0.4383994936943054 1.8093630075454712 -0.0324963815510273 17.0 7 -0.033195000141859055
-1.5856038331985474 6.549086570739746 1.8055217266082764 63.0 15 -0.033192697912454605
-0.43329688906669617 1.79927659034729 -0.4958973228931427 81.0 0 -0.03317195922136307
-0.4318142831325531 1.794495701789856 0.03221714124083519 12.0 8 -0.03316965699195862
-0.43326306343078613 1.801895022392273 -0.4278569221496582 89.0 1 -0.03316735103726387
-0.4295754134654999 1.7865585088729858 0.09629816561937332 45.0 9 -0.03316504880785942
-0.4302099049091339 1.7905757427215576 -0.3579576909542084 93.0 2 -0.03316274285316467
-1.5818536281585693 6.588891983032227 0.5928333401679993 85.0 10 -0.03316044062376022
-0.43223825097084045 1.8017827272415161 -0.293471097946167 100.0 3 -0.033158138394355774
-1.5760822296142578 6.574962139129639 0.8301740288734436 90.0 11 -0.033155832439661026
-0.42910727858543396 1.7914913892745972 -0.226189523935318 89.0 4 -0.03315353021025658
-1.5755090713500977 6.577634811401367 1.0712634325027466 88.0 12 -0.03315122425556183
-0.42758744955062866 1.7865263223648071 -0.16071519255638123 93.0 5 -0.03314892202615738
-1.5726916790008545 6.576003551483154 1.3142924308776855 100.0 13 -0.03314661607146263
-0.4442558288574219 1.8590316772460938 -0.1001710295677185 25.0 6 -0.03314431384205818
-1.5673826932907104 6.563945770263672 1.5580110549926758 100.0 14 -0.033142007887363434
-0.4291453957557678 1.7971917390823364 -0.03225204721093178 18.0 7 -0.033139705657958984
-1.5611854791641235 6.543034076690674 1.8024158477783203 63.0 15 -0.033137399703264236
-0.42612165212631226 1.7970186471939087 -0.49486202001571655 81.0 0 -0.033116664737463
-0.4235537052154541 1.786189317703247 0.032042618840932846 11.0 8 -0.03311435878276825
-0.4272848665714264 1.8033220767974854 -0.4278569221496582 85.0 1 -0.0331120565533638
-0.42563682794570923 1.7977650165557861 0.09682153165340424 45.0 9 -0.03310975432395935
-0.42440852522850037 1.7939773797988892 -0.3583393096923828 94.0 2 -0.0331074483692646
-1.5579291582107544 6.5904951095581055 0.592484712600708 83.0 10 -0.03310514613986015
-0.42398831248283386 1.7935943603515625 -0.2919067442417145 100.0 3 -0.033102840185165405
-1.555184245109558 6.584015846252441 0.8306615352630615 90.0 11 -0.033100537955760956
-0.4249876141548157 1.8006327152252197 -0.22716447710990906 88.0 4 -0.03309823200106621
-1.548459768295288 6.56579065322876 1.0684475898742676 86.0 12 -0.03309592977166176
-0.42043593525886536 1.784129023551941 -0.16036656498908997 96.0 5 -0.03309362381696701
-1.5468246936798096 6.563984394073486 1.310857892036438 100.0 13 -0.03309132158756256
-0.44083473086357117 1.8721593618392944 -0.100799061357975 29.0 6 -0.03308901563286781
-1.5442728996276855 6.563416481018066 1.5566614866256714 100.0 14 -0.033086713403463364
-0.4265318810939789 1.8142515420913696 -0.032531287521123886 19.0 7 -0.033084407448768616
-1.5356841087341309 6.537160396575928 1.7993099689483643 63.0 15 -0.033082105219364166
-0.4219185709953308 1.8059465885162354 -0.49693259596824646 81.0 0 -0.03306137025356293
-0.4164082407951355 1.783761978149414 0.03197281062602997 9.0 8 -0.03305906429886818
-0.4192163050174713 1.7972115278244019 -0.4260573089122772 89.0 1 -0.03305676206946373
-0.42103344202041626 1.8050017356872559 0.09713554382324219 45.0 9 -0.03305445611476898
-0.4175662100315094 1.791550636291504 -0.35757607221603394 94.0 2 -0.03305215388536453
-1.535163164138794 6.5917439460754395 0.5921360850334167 85.0 10 -0.033049847930669785
-0.4177244305610657 1.7950634956359863 -0.2919067442417145 100.0 3 -0.033047545701265335
-1.52859365940094 6.5739359855651855 0.8287115693092346 95.0 11 -0.03304523974657059
-0.4204978942871094 1.8098393678665161 -0.22813943028450012 86.0 4 -0.03304293751716614
-1.5271265506744385 6.572812557220459 1.0687603950500488 84.0 12 -0.03304063156247139
-0.41451671719551086 1.7855135202407837 -0.16036656498908997 100.0 5 -0.03303832933306694
-1.524344563484192 6.571256637573242 1.31123948097229 100.0 13 -0.03303602337837219
-0.4342983067035675 1.87368643283844 -0.100799061357975 29.0 6 -0.03303372114896774
-1.5235495567321777 6.578259468078613 1.558910846710205 100.0 14 -0.033031415194272995
-0.4223175644874573 1.823448657989502 -0.03267090395092964 21.0 7 -0.033029112964868546
-1.515741229057312 6.549745082855225 1.8013806343078613 63.0 15 -0.0330268070101738
-0.41561245918273926 1.807408332824707 -0.49693259596824646 81.0 0 -0.03300607204437256
-0.41138654947280884 1.7890307903289795 0.032042618840932846 9.0 8 -0.03300376981496811
-0.410636305809021 1.7871962785720825 -0.42335790395736694 89.0 1 -0.03300146386027336
-0.4124952554702759 1.7967275381088257 0.09661218523979187 42.0 9 -0.03299916163086891
-0.41306620836257935 1.8006514310836792 -0.3591025471687317 94.0 2 -0.032996855676174164
-1.5130329132080078 6.60094690322876 0.592484712600708 85.0 10 -0.032994553446769714
-0.41221120953559875 1.798364281654358 -0.2922196090221405 100.0 3 -0.032992247492074966
-1.5058972835540771 6.575099945068359 0.8282241225242615 93.0 11 -0.03298994526267052
-0.4091794192790985 1.7880029678344727 -0.22521455585956573 89.0 4 -0.03298763930797577
-1.5068142414093018 6.589657783508301 1.070637583732605 88.0 12 -0.03298533707857132
-0.4100562632083893 1.7947190999984741 -0.1610638052225113 96.0 5 -0.03298303112387657
-1.4994821548461914 6.562878131866455 1.3085681200027466 100.0 13 -0.03298072889447212
-0.4267484247684479 1.8692749738693237 -0.10048504173755646 30.0 6 -0.032978422939777374
-1.4995613098144531 6.573775768280029 1.5566614866256714 100.0 14 -0.032976120710372925
-0.4159494936466217 1.8249118328094482 -0.03267090395092964 21.0 7 -0.032973818480968475
-1.4928704500198364 6.554996013641357 1.8013806343078613 63.0 15 -0.03297151252627373
-0.41047027707099915 1.8125447034835815 -0.4979678690433502 81.0 0 -0.03295077756047249
-0.40469732880592346 1.7885055541992188 0.03200771287083626 11.0 8 -0.03294847160577774
-0.40611469745635986 1.7962216138839722 -0.4251575171947479 89.0 1 -0.03294616937637329
-0.4053420126438141 1.7942599058151245 0.0964028462767601 42.0 9 -0.03294386342167854
-0.4050486385822296 1.7944221496582031 -0.35757607221603394 94.0 2 -0.032941561192274094
-1.4911330938339233 6.605928421020508 0.592484712600708 85.0 10 -0.032939255237579346
-0.4072346091270447 1.8055732250213623 -0.29315823316574097 100.0 3 -0.032936953008174896
-1.4820683002471924 6.576442241668701 0.8277366757392883 99.0 11 -0.03293464705348015
-0.40467944741249084 1.7971669435501099 -0.226189523935318 86.0 4 -0.0329323448240757
-1.483801007270813 6.59487771987915 1.070637583732605 88.0 12 -0.03293003886938095
-0.4037894010543823 1.7961394786834717 -0.1610638052225113 98.0 5 -0.0329277366399765
-1.4762800931930542 6.5721611976623535 1.3093314170837402 100.0 13 -0.03292543441057205
-0.42251816391944885 1.882519245147705 -0.10111307352781296 30.0 6 -0.032923128455877304
-1.4740430116653442 6.567562103271484 1.553961992263794 100.0 14 -0.032920826226472855
-0.4082643985748291 1.8204988241195679 -0.032566189765930176 20.0 7 -0.03291852027177811
-1.4699784517288208 6.5601677894592285 1.8013806343078613 63.0 15 -0.03291621804237366
-0.40298423171043396 1.8102656602859497 -0.49693259596824646 85.0 0 -0.03289547935128212
-0.39944231510162354 1.7958325147628784 0.032112427055835724 10.0 8 -0.03289317712187767
-0.40037357807159424 1.8015028238296509 -0.4260573089122772 89.0 1 -0.03289087116718292
-0.39962849020957947 1.7996330261230469 0.09661218523979187 41.0 9 -0.03288856893777847
-0.39676839113235474 1.7882280349731445 -0.3560495972633362 94.0 2 -0.032886262983083725
-1.4651864767074585 6.603569030761719 0.5917875170707703 87.0 10 -0.032883960753679276
-0.4014696180820465 1.810910701751709 -0.293783962726593 100.0 3 -0.03288165479898453
-1.4588115215301514 6.585707187652588 0.8282241225242615 95.0 11 -0.03287935256958008
-0.3972322344779968 1.7947616577148438 -0.22570204734802246 89.0 4 -0.03287705034017563
-1.452796459197998 6.569410800933838 1.0656317472457886 84.0 12 -0.03287474438548088
-0.39634332060813904 1.793716549873352 -0.16071519255638123 100.0 5 -0.03287244215607643
-1.4547228813171387 6.589029788970947 1.3116211891174316 100.0 13 -0.03287013620138168
-0.415615975856781 1.8840551376342773 -0.10111307352781296 30.0 6 -0.032867833971977234
-1.4499632120132446 6.572920322418213 1.553961992263794 100.0 14 -0.032865528017282486
-0.4020191729068756 1.823935866355896 -0.032601095736026764 21.0 7 -0.032863225787878036
-1.4434328079223633 6.5541911125183105 1.7982748746871948 63.0 15 -0.03286091983318329
-0.39386892318725586 1.8004074096679688 -0.4938267767429352 81.0 0 -0.03284018486738205
-0.3902958929538727 1.7855632305145264 0.03190299868583679 10.0 8 -0.0328378789126873
-0.3937675952911377 1.8029582500457764 -0.4260573089122772 87.0 1 -0.03283557668328285
-0.39249134063720703 1.797114610671997 0.0964028462767601 47.0 9 -0.032833270728588104
-0.39052343368530273 1.7896021604537964 -0.3560495972633362 94.0 2 -0.032830968499183655
-1.440125823020935 6.605000972747803 0.5914388298988342 87.0 10 -0.032828666269779205
-0.39356768131256104 1.806579828262329 -0.29284536838531494 100.0 3 -0.03282636031508446
-1.4346623420715332 6.591009616851807 0.8282241225242615 95.0 11 -0.03282405808568001
-0.3934977054595947 1.8077754974365234 -0.22716447710990906 88.0 4 -0.03282175213098526
-1.4348952770233154 6.597605228424072 1.0693861246109009 88.0 12 -0.03281944990158081
-0.3883877396583557 1.7873011827468872 -0.1600179374217987 98.0 5 -0.03281714394688606
-1.4275466203689575 6.574881553649902 1.307804822921753 100.0 13 -0.03281484171748161
-0.40819039940834045 1.8815906047821045 -0.10090373456478119 30.0 6 -0.032812535762786865
-1.4282513856887817 6.583654403686523 1.555311679840088 100.0 14 -0.032810233533382416
-0.3948031961917877 1.821419358253479 -0.032531287521123886 16.0 7 -0.03280792757868767
-1.419726014137268 6.555413246154785 1.7972395420074463 63.0 15 -0.03280562534928322
-0.3895231783390045 1.8092578649520874 -0.4958973228931427 85.0 0 -0.03278489038348198
-0.38437211513519287 1.786847710609436 0.03190299868583679 10.0 8 -0.03278258442878723
-0.38614898920059204 1.7966331243515015 -0.42425769567489624 87.0 1 -0.03278028219938278
-0.38736945390701294 1.8023115396499634 0.09661218523979187 47.0 9 -0.032777976244688034
-0.38623592257499695 1.79856538772583 -0.35757607221603394 97.0 2 -0.032775674015283585
-1.416541337966919 6.6019487380981445 0.5907416343688965 87.0 10 -0.03277336806058884
-0.38550466299057007 1.7982174158096313 -0.2912810146808624 100.0 3 -0.03277106583118439
-1.4103044271469116 6.584084510803223 0.8267617225646973 99.0 11 -0.03276875987648964
-0.38833263516426086 1.8129525184631348 -0.2276519387960434 84.0 4 -0.03276645764708519
-1.413833737373352 6.606190204620361 1.070011854171753 88.0 12 -0.03276415169239044
-0.3832922577857971 1.7924758195877075 -0.16036656498908997 93.0 5 -0.03276184946298599
-1.4040961265563965 6.5718994140625 1.3062784671783447 100.0 13 -0.032759543508291245
-0.4015311300754547 1.8809808492660522 -0.100799061357975 32.0 6 -0.032757241278886795
-1.4060027599334717 6.586449146270752 1.5548617839813232 100.0 14 -0.03275493532419205
-0.3883442282676697 1.8207628726959229 -0.0324963815510273 16.0 7 -0.0327526330947876
-1.3979809284210205 6.560084819793701 1.7972395420074463 63.0 15 -0.03275032714009285
-0.38352081179618835 1.8105396032333374 -0.4958973228931427 85.0 0 -0.03272959217429161
-0.37927305698394775 1.7920252084732056 0.03197281062602997 9.0 8 -0.03272728994488716
-0.380188524723053 1.7979038953781128 -0.42425769567489624 89.0 1 -0.03272498399019241
-0.37942391633987427 1.7958364486694336 0.09619349241256714 45.0 9 -0.032722681760787964
-0.3810807466506958 1.8036781549453735 -0.3583393096923828 91.0 2 -0.032720375806093216
-1.3962880373001099 6.614407062530518 0.5914388298988342 87.0 10 -0.032718073576688766
-0.37953895330429077 1.7994860410690308 -0.2912810146808624 100.0 3 -0.03271576762199402
-1.3876426219940186 6.584840297698975 0.8262742161750793 97.0 11 -0.03271346539258957
-0.37668532133102417 1.7890443801879883 -0.22448335587978363 85.0 4 -0.03271115943789482
-1.3899502754211426 6.60722017288208 1.0693861246109009 88.0 12 -0.03270885720849037
-0.37816593050956726 1.7976367473602295 -0.16071519255638123 98.0 5 -0.032706551253795624
-1.384716510772705 6.588047981262207 1.3085681200027466 100.0 13 -0.032704249024391174
-0.3998069763183594 1.903802752494812 -0.10195045173168182 32.0 6 -0.032701943069696426
-1.381800889968872 6.58559513092041 1.5535120964050293 100.0 14 -0.03269964084029198
-0.38280627131462097 1.826021671295166 -0.032566189765930176 15.0 7 -0.03269733488559723
-1.3758670091629028 6.56870698928833 1.7982748746871948 63.0 15 -0.03269503265619278
-0.377986341714859 1.8156499862670898 -0.49693259596824646 87.0 0 -0.03267429769039154
-0.3738293945789337 1.7972538471221924 0.032042618840932846 8.0 8 -0.03267199173569679
-0.3731185793876648 1.7954038381576538 -0.42335790395736694 89.0 1 -0.03266968950629234
-0.37152916193008423 1.789327621459961 0.095774807035923 43.0 9 -0.032667383551597595
-0.3715897500514984 1.7896192073822021 -0.3552863597869873 97.0 2 -0.032665081322193146
-1.3739985227584839 6.623143196105957 0.5917875170707703 87.0 10 -0.0326627753674984
-0.3748593032360077 1.8085368871688843 -0.2925325036048889 100.0 3 -0.03266047313809395
-1.3654552698135376 6.593531131744385 0.8267617225646973 97.0 11 -0.0326581671833992
-0.3724486827850342 1.8000680208206177 -0.22570204734802246 84.0 4 -0.03265586495399475
-1.3616808652877808 6.586883068084717 1.0653188228607178 84.0 12 -0.0326535589993
-0.3735024929046631 1.8067501783370972 -0.16141243278980255 96.0 5 -0.032651256769895554
-1.3617128133773804 6.592841148376465 1.3085681200027466 100.0 13 -0.032648950815200806
-0.39396584033966064 1.9090988636016846 -0.10215979814529419 34.0 6 -0.032646648585796356
-1.3576252460479736 6.584652423858643 1.5521622896194458 100.0 14 -0.03264434635639191
-0.37643033266067505 1.827346682548523 -0.032566189765930176 16.0 7 -0.03264204040169716
-1.3537065982818604 6.577253818511963 1.7993099689483643 63.0 15 -0.03263973817229271
-0.37087151408195496 1.8131730556488037 -0.4958973228931427 89.0 0 -0.03261899948120117
-0.36675313115119934 1.7946293354034424 0.03197281062602997 7.0 8 -0.03261669725179672
-0.3676283657550812 1.8005139827728271 -0.42425769567489624 85.0 1 -0.032614391297101974
-0.3672765791416168 1.8003984689712524 0.09629816561937332 44.0 9 -0.032612089067697525
-0.36612486839294434 1.7947527170181274 -0.3560495972633362 94.0 2 -0.03260978311300278
-1.348087191581726 6.614233016967773 0.5905672907829285 90.0 10 -0.03260748088359833
-0.36972689628601074 1.815641164779663 -0.293471097946167 100.0 3 -0.03260517492890358
-1.3432209491729736 6.602148056030273 0.8272491693496704 97.0 11 -0.03260287269949913
-0.36418625712394714 1.791630506515503 -0.22448335587978363 85.0 4 -0.03260056674480438
-1.3398609161376953 6.597403526306152 1.0662574768066406 88.0 12 -0.03259826451539993
-0.36370787024497986 1.792486310005188 -0.1600179374217987 100.0 5 -0.03259596228599548
-1.3386894464492798 6.597554683685303 1.3085681200027466 100.0 13 -0.032593656331300735
-0.388092577457428 1.9143774509429932 -0.10236913710832596 36.0 6 -0.032591354101896286
-1.334633708000183 6.589351177215576 1.5521622896194458 100.0 14 -0.03258904814720154
-0.3668759763240814 1.8129700422286987 -0.032286953181028366 14.0 7 -0.03258674591779709
-1.32844078540802 6.570578098297119 1.7962043285369873 63.0 15 -0.03258443996310234
-0.3619426488876343 1.803155541419983 -0.49279147386550903 87.0 0 -0.0325637049973011
-0.3612730801105499 1.7998199462890625 0.032042618840932846 7.0 8 -0.032561399042606354
-0.3621070981025696 1.8056079149246216 -0.4251575171947479 89.0 1 -0.032559096813201904
-0.36138343811035156 1.803627610206604 0.0964028462767601 46.0 9 -0.032556790858507156
-0.3599300682544708 1.7980074882507324 -0.3564312160015106 99.0 2 -0.03255448862910271
-1.3222711086273193 6.61131477355957 0.589870035648346 93.0 10 -0.03255218639969826
-0.360360711812973 1.8034244775772095 -0.2912810146808624 100.0 3 -0.03254988044500351
-1.3201714754104614 6.606795787811279 0.8272491693496704 99.0 11 -0.03254757821559906
-0.3598727583885193 1.8026243448257446 -0.22570204734802246 94.0 4 -0.03254527226090431
-1.3183672428131104 6.6097893714904785 1.0675089359283447 88.0 12 -0.03254297003149986
-0.3582286834716797 1.7976526021957397 -0.16036656498908997 100.0 5 -0.032540664076805115
-1.3122005462646484 6.5908637046813965 1.3062784671783447 100.0 13 -0.032538361847400665
-0.38574960827827454 1.9392935037612915 -0.10362520813941956 39.0 6 -0.03253605589270592
-1.3119944334030151 6.601844310760498 1.553961992263794 100.0 14 -0.03253375366330147
-0.36249545216560364 1.8240461349487305 -0.03246147558093071 15.0 7 -0.03253144770860672
-1.3047460317611694 6.571385383605957 1.7951689958572388 63.0 15 -0.03252914547920227
-0.3563929498195648 1.8081990480422974 -0.4938267767429352 83.0 0 -0.03250840678811073
-0.3539016842842102 1.7972078323364258 0.03197281062602997 7.0 8 -0.032506104558706284
-0.35398244857788086 1.7992745637893677 -0.42335790395736694 87.0 1 -0.032503802329301834
-0.3554704189300537 1.8068379163742065 0.09650751203298569 48.0 9 -0.032501496374607086
-0.35327255725860596 1.7973265647888184 -0.3560495972633362 94.0 2 -0.03249919414520264
-1.2999545335769653 6.619800090789795 0.5902186632156372 90.0 10 -0.03249688819050789
-0.35444319248199463 1.8066099882125854 -0.29159387946128845 100.0 3 -0.03249458596110344
-1.2944153547286987 6.603798866271973 0.8262742161750793 97.0 11 -0.03249228000640869
-0.3547897934913635 1.8117235898971558 -0.22667700052261353 90.0 4 -0.03248997777700424
-1.2926307916641235 6.600780963897705 1.0653188228607178 85.0 12 -0.032487671822309494
-0.35195106267929077 1.7988921403884888 -0.16036656498908997 100.0 5 -0.032485369592905045
-1.288431167602539 6.591550827026367 1.3055152893066406 100.0 13 -0.0324830636382103
-0.37553301453590393 1.9229861497879028 -0.1026831567287445 41.0 6 -0.03248076140880585
-1.2889399528503418 6.606383800506592 1.553961992263794 100.0 14 -0.0324784554541111
-0.3534451127052307 1.8115614652633667 -0.03221714124083519 10.0 7 -0.03247615322470665
-1.281058669090271 6.572107315063477 1.7941336631774902 63.0 15 -0.0324738472700119
-0.3508141338825226 1.8132249116897583 -0.49486202001571655 87.0 0 -0.03245311230421066
-0.3479403257369995 1.798371434211731 0.03197281062602997 7.0 8 -0.03245081007480621
-0.34801340103149414 1.800438642501831 -0.42335790395736694 87.0 1 -0.032448504120111465
-0.34764593839645386 1.8002235889434814 0.09608882665634155 49.0 9 -0.032446201890707016
-0.34848546981811523 1.8062595129013062 -0.35757607221603394 94.0 2 -0.03244389593601227
-1.2772144079208374 6.626254081726074 0.5903929471969604 87.0 10 -0.03244159370660782
-0.3480759263038635 1.8058358430862427 -0.2912810146808624 100.0 3 -0.03243928775191307
-1.271009087562561 6.6002583503723145 0.8252992630004883 97.0 11 -0.03243698552250862
-0.3480302095413208 1.8089911937713623 -0.226189523935318 88.0 4 -0.03243467956781387
-1.2733087539672852 6.624651908874512 1.0684475898742676 89.0 12 -0.032432377338409424
-0.34529340267181396 1.798153281211853 -0.16019225120544434 100.0 5 -0.032430071383714676
-1.2665669918060303 6.5957865715026855 1.3055152893066406 100.0 13 -0.032427769154310226
-0.3717885911464691 1.9379512071609497 -0.10341586172580719 36.0 6 -0.03242546319961548
-1.2655560970306396 6.60296630859375 1.5521622896194458 100.0 14 -0.03242316097021103
-0.34711894392967224 1.8127843141555786 -0.03221714124083519 8.0 7 -0.03242085501551628
-1.2588404417037964 6.580333232879639 1.7951689958572388 63.0 15 -0.03241855278611183
-0.3447988033294678 1.8143784999847412 -0.49486202001571655 89.0 0 -0.03239781782031059
-0.7970828413963318 4.1983537673950195 0.07459158450365067 19.0 8 -0.032395511865615845
-0.34172695875167847 1.8016422986984253 -0.42335790395736694 89.0 1 -0.032393209636211395
-0.3395009934902191 1.7916144132614136 0.09556546807289124 58.0 9 -0.03239090368151665
-0.34103116393089294 1.7996894121170044 -0.3560495972633362 97.0 2 -0.0323886014521122
-1.2559765577316284 6.634367942810059 0.5907416343688965 87.0 10 -0.03238629549741745
-0.3436053395271301 1.8167448043823242 -0.29284536838531494 100.0 3 -0.032383993268013
-1.2494378089904785 6.612456321716309 0.8262742161750793 95.0 11 -0.03238168731331825
-0.3395037055015564 1.798491358757019 -0.2247270941734314 90.0 4 -0.0323793850839138
-1.2446835041046143 6.599938869476318 1.0637544393539429 82.0 12 -0.032377079129219055
-0.34191277623176575 1.8129936456680298 -0.16141243278980255 100.0 5 -0.032374776899814606
-1.2457181215286255 6.611742973327637 1.307804822921753 100.0 13 -0.03237247094511986
-0.36428219079971313 1.9353116750717163 -0.10320651531219482 36.0 6 -0.03237016871571541
-1.2403371334075928 6.595853328704834 1.5494630336761475 100.0 14 -0.03236786276102066
-0.34005096554756165 1.8100543022155762 -0.03214733302593231 8.0 7 -0.03236556053161621
-1.2365740537643433 6.588485240936279 1.7962043285369873 63.0 15 -0.03236325830221176
-0.33704671263694763 1.8079745769500732 -0.49279147386550903 83.0 0 -0.032342519611120224
-0.7835223078727722 4.207007884979248 0.07469630241394043 13.0 8 -0.032340217381715775
-0.3354363441467285 1.8028241395950317 -0.42335790395736694 87.0 1 -0.03233791142702103
-0.33470454812049866 1.8006432056427002 0.09598415344953537 51.0 9 -0.03233560919761658
-0.33331140875816345 1.7931482791900635 -0.3545231223106384 97.0 2 -0.03233330324292183
-1.2317206859588623 6.6328349113464355 0.5902186632156372 90.0 10 -0.03233100101351738
-0.33798345923423767 1.8218172788619995 -0.293471097946167 100.0 3 -0.03232869505882263
-1.2270700931549072 6.620681285858154 0.8267617225646973 99.0 11 -0.03232639282941818
-0.33394694328308105 1.8035691976547241 -0.22521455585956573 90.0 4 -0.032324086874723434
-1.2230796813964844 6.6120123863220215 1.065005898475647 88.0 12 -0.032321784645318985
-0.33195942640304565 1.7945845127105713 -0.15966932475566864 100.0 5 -0.03231947869062424
-1.2212023735046387 6.6083292961120605 1.3062784671783447 100.0 13 -0.03231717646121979
-0.35788655281066895 1.9385356903076172 -0.10331118851900101 27.0 6 -0.03231487423181534
-1.2183706760406494 6.60589075088501 1.5508127212524414 100.0 14 -0.03231256827712059
-0.333005428314209 1.8072971105575562 -0.032077521085739136 7.0 7 -0.03231026604771614
-1.212867259979248 6.588962078094482 1.7951689958572388 63.0 15 -0.03230796009302139
-0.3314288556575775 1.8129408359527588 -0.4938267767429352 87.0 0 -0.032287225127220154
-0.3280107080936432 1.7960150241851807 0.031868092715740204 2.0 8 -0.032284919172525406
-0.33053991198539734 1.8116525411605835 -0.4251575171947479 90.0 1 -0.032282616943120956
-0.3287756145000458 1.8037654161453247 0.09608882665634155 61.0 9 -0.03228031098842621
-0.3288106918334961 1.8039579391479492 -0.3564312160015106 99.0 2 -0.03227800875902176
-1.2057031393051147 6.621412754058838 0.5888242125511169 90.0 10 -0.03227570280432701
-0.329853892326355 1.8132686614990234 -0.2919067442417145 100.0 3 -0.03227340057492256
-1.203243613243103 6.621017932891846 0.8262742161750793 95.0 11 -0.03227109834551811
-0.3280034065246582 1.8066773414611816 -0.2254583090543747 99.0 4 -0.032268792390823364
-1.200695276260376 6.620129108428955 1.0656317472457886 85.0 12 -0.032266490161418915
-0.3249815106391907 1.791811466217041 -0.15932069718837738 100.0 5 -0.03226418420672417
-1.1981289386749268 6.612551689147949 1.3062784671783447 100.0 13 -0.03226188197731972
-0.35325250029563904 1.951564908027649 -0.10393922030925751 40.0 6 -0.03225957602262497
-1.1970363855361938 6.619691848754883 1.5530622005462646 100.0 14 -0.03225727379322052
-0.32776159048080444 1.814352035522461 -0.0321822389960289 8.0 7 -0.03225496783852577
-1.187802791595459 6.5817484855651855 1.7920631170272827 63.0 15 -0.03225266560912132
-0.3250989019870758 1.814086675643921 -0.4938267767429352 89.0 0 -0.032231926918029785
-0.32279616594314575 1.8030543327331543 0.03197281062602997 1.0 8 -0.032229624688625336
-0.3221559226512909 1.8012855052947998 -0.42245811223983765 90.0 1 -0.032227322459220886
-0.3228289484977722 1.806868076324463 0.09619349241256714 60.0 9 -0.03222501650452614
-0.3221668004989624 1.8031619787216187 -0.3560495972633362 97.0 2 -0.03222271427512169
-1.1839812994003296 6.633427619934082 0.5895214676856995 93.0 10 -0.03222040832042694
-0.32248255610466003 1.808574914932251 -0.2909681499004364 100.0 3 -0.03221810609102249
-1.1780372858047485 6.6134514808654785 0.8248117566108704 97.0 11 -0.032215800136327744
-0.32273778319358826 1.8136743307113647 -0.226189523935318 96.0 4 -0.032213497906923294
-1.1789637804031372 6.632059097290039 1.0668832063674927 88.0 12 -0.032211191952228546
-0.3215150535106659 1.808627963066101 -0.16071519255638123 100.0 5 -0.0322088897228241
-1.1729812622070312 6.605095386505127 1.3039886951446533 100.0 13 -0.03220658376812935
-0.3248070776462555 1.8308600187301636 -0.09744956344366074 7.0 6 -0.0322042815387249
-1.1725631952285767 6.616154670715332 1.551262617111206 100.0 14 -0.03220197558403015
-0.3189855217933655 1.801701545715332 -0.03193790465593338 7.0 7 -0.0321996733546257
-1.1654921770095825 6.589659690856934 1.7930984497070312 63.0 15 -0.032197367399930954
-0.3187640905380249 1.8152104616165161 -0.4938267767429352 89.0 0 -0.032176632434129715
-0.3151186406612396 1.7962915897369385 0.031833190470933914 1.0 8 -0.032174330204725266
-0.31620219349861145 1.8043185472488403 -0.4229080080986023 87.0 1 -0.03217202425003052
-0.3151417076587677 1.800114631652832 0.095774807035923 81.0 9 -0.03216972202062607
-0.3168858289718628 1.8100773096084595 -0.3571944534778595 99.0 2 -0.03216741606593132
-1.160820484161377 6.637519836425781 0.5895214676856995 93.0 10 -0.03216511383652687
-0.31650692224502563 1.8116354942321777 -0.2912810146808624 100.0 3 -0.03216280788183212
-1.1535780429840088 6.609701633453369 0.8238368034362793 95.0 11 -0.03216050565242767
-0.3150414526462555 1.8069674968719482 -0.22521455585956573 94.0 4 -0.032158199697732925
-1.155126690864563 6.632242679595947 1.0662574768066406 88.0 12 -0.032155897468328476
-0.3145155608654022 1.8058136701583862 -0.16036656498908997 100.0 5 -0.03215359151363373
-1.1499162912368774 6.609149932861328 1.3039886951446533 100.0 13 -0.03215128928422928
-0.3163624703884125 1.8201758861541748 -0.09682153165340424 6.0 6 -0.03214898332953453
-1.148126244544983 6.612527847290039 1.5494630336761475 100.0 14 -0.03214668110013008
-0.31440356373786926 1.8126553297042847 -0.032112427055835724 6.0 7 -0.03214437514543533
-1.143143892288208 6.597494125366211 1.7941336631774902 63.0 15 -0.032142072916030884
-0.31242626905441284 1.8163119554519653 -0.4938267767429352 89.0 0 -0.032121337950229645
-0.3108787536621094 1.809205412864685 0.032042618840932846 1.0 8 -0.0321190319955349
-0.3099023997783661 1.8054112195968628 -0.4229080080986023 87.0 1 -0.03211672976613045
-0.308181494474411 1.7972666025161743 0.09556546807289124 81.0 9 -0.0321144238114357
-0.3095705211162567 1.8053672313690186 -0.3560495972633362 97.0 2 -0.03211212158203125
-1.138991117477417 6.649385929107666 0.5902186632156372 90.0 10 -0.0321098156273365
-0.3111802637577057 1.818570613861084 -0.2922196090221405 100.0 3 -0.03210751339793205
-1.1311691999435425 6.61760139465332 0.8243243098258972 99.0 11 -0.032105207443237305
-0.30806419253349304 1.8041424751281738 -0.2247270941734314 92.0 4 -0.032102905213832855
-1.1306383609771729 6.628445148468018 1.065005898475647 88.0 12 -0.03210059925913811
-0.30820968747138977 1.8069005012512207 -0.16036656498908997 100.0 5 -0.03209829702973366
-1.128159523010254 6.6208648681640625 1.3055152893066406 100.0 13 -0.03209599107503891
-0.3086659014225006 1.813393473625183 -0.0964028462767601 6.0 6 -0.03209368884563446
-1.1250354051589966 6.616495609283447 1.5494630336761475 100.0 14 -0.03209138289093971
-0.30539578199386597 1.797970175743103 -0.031833190470933914 6.0 7 -0.03208908066153526
-1.122044563293457 6.61287260055542 1.7972395420074463 63.0 15 -0.032086774706840515
-0.30544206500053406 1.8135814666748047 -0.49279147386550903 89.0 0 -0.032853126525878906
-0.3025713562965393 1.798447608947754 0.031833190470933914 0.0 8 -0.03285082429647446
-0.30488988757133484 1.81416916847229 -0.4247076213359833 90.0 1 -0.03284851834177971
-0.302550345659256 1.800248384475708 0.09567013382911682 98.0 9 -0.03284621611237526
-0.3019660413265228 1.798692226409912 -0.3545231223106384 94.0 2 -0.03284391015768051
-1.1144567728042603 6.645461559295654 0.5895214676856995 90.0 10 -0.03284160792827606
-0.30483072996139526 1.819645643234253 -0.2922196090221405 100.0 3 -0.032839301973581314
-1.109371304512024 6.629341125488281 0.8252992630004883 95.0 11 -0.032836999744176865
-0.3017650544643402 1.8052067756652832 -0.2247270941734314 90.0 4 -0.03283469378948212
-1.1073532104492188 6.624363899230957 1.0637544393539429 85.0 12 -0.03283239156007767
-0.30058833956718445 1.8001047372817993 -0.15966932475566864 100.0 5 -0.03283008560538292
-1.1050398349761963 6.624763011932373 1.3055152893066406 100.0 13 -0.03282778337597847
-0.3043040633201599 1.8262804746627808 -0.097030870616436 6.0 6 -0.03282547742128372
-1.1025738716125488 6.6242265701293945 1.5503627061843872 100.0 14 -0.03282317519187927
-0.3007446229457855 1.8068634271621704 -0.03197281062602997 4.0 7 -0.032820869237184525
-1.0975759029388428 6.601311683654785 1.7930984497070312 63.0 15 -0.032818567007780075
-0.2978532314300537 1.8070122003555298 -0.4907209575176239 85.0 0 -0.032797832041978836
-0.29953232407569885 1.8171988725662231 0.03214733302593231 1.0 8 -0.03279552608728409
-0.29887256026268005 1.8151702880859375 -0.4247076213359833 92.0 1 -0.03279322385787964
-0.2975614368915558 1.8091765642166138 0.09608882665634155 100.0 9 -0.03279091790318489
-0.2963225841522217 1.8036099672317505 -0.3552863597869873 94.0 2 -0.03278861567378044
-1.0902831554412842 6.6434125900268555 0.5889984965324402 87.0 10 -0.03278630971908569
-0.2975156307220459 1.8128494024276733 -0.2909681499004364 100.0 3 -0.032784007489681244
-1.088664174079895 6.640819549560547 0.8262742161750793 93.0 11 -0.032781701534986496
-0.2970598042011261 1.8140337467193604 -0.22570204734802246 92.0 4 -0.032779399305582047
-1.0848591327667236 6.632088661193848 1.0643802881240845 88.0 12 -0.0327770933508873
-0.29301735758781433 1.7932778596878052 -0.15897206962108612 100.0 5 -0.03277479112148285
-1.0824302434921265 6.624516487121582 1.304751992225647 100.0 13 -0.0327724851667881
-0.29695966839790344 1.819394588470459 -0.09661218523979187 6.0 6 -0.03277018293738365
-1.0809160470962524 6.629769325256348 1.5508127212524414 100.0 14 -0.032767876982688904
-0.2937923073768616 1.8039547204971313 -0.03190299868583679 2.0 7 -0.032765574753284454
-1.073287010192871 6.597475051879883 1.7910279035568237 63.0 15 -0.032763268798589706
-0.2924754321575165 1.811804175376892 -0.4917562007904053 90.0 0 -0.03274253383278847
-0.2919134497642517 1.8103365898132324 0.03200771287083626 3.0 8 -0.03274023160338402
-0.2912946045398712 1.808506727218628 -0.4229080080986023 90.0 1 -0.03273792564868927
-0.2921965718269348 1.816119909286499 0.0964028462767601 100.0 9 -0.03273562341928482
-0.2903403043746948 1.8045825958251953 -0.3552863597869873 94.0 2 -0.03273331746459007
-1.0685611963272095 6.648959159851074 0.5891727805137634 90.0 10 -0.03273101523518562
-0.2905590832233429 1.8099759817123413 -0.29034239053726196 100.0 3 -0.032728709280490875
-1.0635955333709717 6.63281774520874 0.8248117566108704 97.0 11 -0.032726407051086426
-0.2913532853126526 1.8189798593521118 -0.226189523935318 90.0 4 -0.03272410109639168
-1.0623246431350708 6.639736652374268 1.065005898475647 88.0 12 -0.03272179886698723
-0.2883284389972687 1.8021091222763062 -0.15966932475566864 100.0 5 -0.03271949291229248
-1.0586845874786377 6.62437629699707 1.3039886951446533 100.0 13 -0.03271719068288803
-0.2887173891067505 1.808586597442627 -0.09598415344953537 6.0 6 -0.03271488472819328
-1.0580724477767944 6.635426998138428 1.551262617111206 100.0 14 -0.032712582498788834
-0.288752943277359 1.812868356704712 -0.032042618840932846 1.0 7 -0.032710280269384384
-1.0502490997314453 6.601181507110596 1.7910279035568237 63.0 15 -0.032707974314689636
-0.2867512106895447 1.816630482673645 -0.49279147386550903 87.0 0 -0.0326872393488884
-0.28683772683143616 1.8192458152770996 0.03214733302593231 2.0 8 -0.03268493339419365
-0.2843739986419678 1.8056623935699463 -0.4220081865787506 89.0 1 -0.0326826311647892
-0.28399258852005005 1.805290937423706 0.095774807035923 100.0 9 -0.03268032521009445
-0.2840389013290405 1.805585265159607 -0.3552863597869873 94.0 2 -0.03267802298069
-1.0459623336791992 6.656585693359375 0.5895214676856995 90.0 10 -0.032675717025995255
-0.285464882850647 1.8187851905822754 -0.29159387946128845 100.0 3 -0.032673414796590805
-1.0404343605041504 6.636490345001221 0.8248117566108704 97.0 11 -0.03267110884189606
-0.28315889835357666 1.8082187175750732 -0.2247270941734314 94.0 4 -0.03266880661249161
-1.0391426086425781 6.64340353012085 1.065005898475647 88.0 12 -0.03266650438308716
-0.28234443068504333 1.8050729036331177 -0.15984363853931427 100.0 5 -0.03266419842839241
-1.0349469184875488 6.624152183532715 1.3032255172729492 100.0 13 -0.03266189619898796
-0.2820940613746643 1.8076101541519165 -0.09587948024272919 5.0 6 -0.03265959024429321
-1.033104419708252 6.627526760101318 1.5485631227493286 100.0 14 -0.03265728801488876
-0.2818073332309723 1.8099135160446167 -0.03197281062602997 1.0 7 -0.032654982060194016
-1.0277924537658691 6.608625888824463 1.7920631170272827 63.0 15 -0.032652679830789566
-0.28158676624298096 1.8252573013305664 -0.49486202001571655 85.0 0 -0.03263194113969803
-0.27926868200302124 1.8123302459716797 0.03200771287083626 3.0 8 -0.03262963891029358
-0.27925461530685425 1.8143483400344849 -0.4238077998161316 87.0 1 -0.03262733295559883
-0.27618101239204407 1.7943787574768066 0.0951467752456665 100.0 9 -0.03262503072619438
-0.27713823318481445 1.8026845455169678 -0.3545231223106384 94.0 2 -0.032622724771499634
-1.023329496383667 6.6641340255737305 0.589870035648346 93.0 10 -0.032620422542095184
-0.27971285581588745 1.8236756324768066 -0.2922196090221405 100.0 3 -0.032618120312690735
-1.016058325767517 6.6322340965271 0.8238368034362793 97.0 11 -0.03261581435799599
-0.2768465578556061 1.8091959953308105 -0.2247270941734314 92.0 4 -0.03261351212859154
-1.0171078443527222 6.64681339263916 1.065005898475647 88.0 12 -0.03261120617389679
-0.2775464653968811 1.8158950805664062 -0.16071519255638123 100.0 5 -0.03260890394449234
-1.0130014419555664 6.635488033294678 1.304751992225647 100.0 13 -0.03260659798979759
-0.27638599276542664 1.8125324249267578 -0.09608882665634155 1.0 6 -0.03260429576039314
-1.0102553367614746 6.633018493652344 1.5490130186080933 100.0 14 -0.032601989805698395
-0.27610448002815247 1.8128149509429932 -0.03200771287083626 1.0 7 -0.032599687576293945
-1.0064542293548584 6.615817546844482 1.7930984497070312 63.0 15 -0.0325973816215992
-0.2734859585762024 1.814767599105835 -0.4917562007904053 89.0 0 -0.03257664665579796
-0.27385270595550537 1.8172012567520142 0.032077521085739136 4.0 8 -0.03257434070110321
-0.2738169729709625 1.8191184997558594 -0.4247076213359833 89.0 1 -0.03257203847169876
-0.27110475301742554 1.803231954574585 0.09556546807289124 100.0 9 -0.03256973624229431
-0.27142658829689026 1.8075240850448608 -0.3552863597869873 97.0 2 -0.032567430287599564
-0.999468207359314 6.66372537612915 0.5895214676856995 90.0 10 -0.032565128058195114
-0.2736641764640808 1.824593186378479 -0.2922196090221405 100.0 3 -0.032562822103500366
-0.9964166283607483 6.651271343231201 0.8257867693901062 95.0 11 -0.03256051987409592
-0.27055129408836365 1.8081408739089966 -0.22448335587978363 99.0 4 -0.03255821391940117
-0.9927301406860352 6.642508506774902 1.0637544393539429 88.0 12 -0.03255591168999672
-0.27003076672554016 1.8089704513549805 -0.1600179374217987 100.0 5 -0.03255360573530197
-0.9904165863990784 6.6349263191223145 1.3039886951446533 100.0 13 -0.03255130350589752
-0.27390769124031067 1.8371442556381226 -0.09734489023685455 1.0 6 -0.032548997551202774
-0.9888293743133545 6.640187740325928 1.549912929534912 100.0 14 -0.032546695321798325
-0.2665382921695709 1.7920104265213013 -0.031623758375644684 1.0 7 -0.03254438936710358
-0.9822203516960144 6.6116461753845215 1.7910279035568237 63.0 15 -0.03254208713769913
-0.2669037878513336 1.8118422031402588 -0.4907209575176239 90.0 0 -0.03252135217189789
-0.2692538797855377 1.8300166130065918 0.032286953181028366 4.0 8 -0.03251904621720314
-0.2680324614048004 1.8239191770553589 -0.4256074130535126 92.0 1 -0.03251674398779869
-0.2668384611606598 1.8179998397827148 0.09629816561937332 100.0 9 -0.03251443803310394
-0.2648612856864929 1.8045291900634766 -0.3545231223106384 97.0 2 -0.03251213580369949
-0.9756292104721069 6.65517520904541 0.5884755849838257 90.0 10 -0.032509829849004745
-0.2661491632461548 1.8177192211151123 -0.2909681499004364 100.0 3 -0.032507527619600296
-0.9726170301437378 6.65078067779541 0.8252992630004883 95.0 11 -0.03250522166490555
-0.2650982439517975 1.8149670362472534 -0.22521455585956573 92.0 4 -0.0325029194355011
-0.970109224319458 6.649842739105225 1.0643802881240845 85.0 12 -0.03250061348080635
-0.263454794883728 1.8059130907058716 -0.15966932475566864 100.0 5 -0.0324983112514019
-0.9672484993934631 6.638343334197998 1.3039886951446533 100.0 13 -0.03249600529670715
-0.26662981510162354 1.8321598768234253 -0.097030870616436 1.0 6 -0.032493703067302704
-0.9656461477279663 6.643598556518555 1.549912929534912 100.0 14 -0.032491397112607956
-0.262868195772171 1.810740351676941 -0.03193790465593338 1.0 7 -0.032489094883203506
-0.9585791826248169 6.611210823059082 1.7899925708770752 63.0 15 -0.03248678892850876
-0.2616766393184662 1.8204114437103271 -0.49279147386550903 89.0 0 -0.03246605396270752
-0.2603079378604889 1.813130497932434 0.03197281062602997 6.0 8 -0.03246375173330307
-0.26000407338142395 1.8132697343826294 -0.4229080080986023 92.0 1 -0.03246144577860832
-0.260490357875824 1.818920373916626 0.09629816561937332 100.0 9 -0.03245914354920387
-0.25911688804626465 1.809329867362976 -0.3552863597869873 97.0 2 -0.032456837594509125
-0.9523969292640686 6.658539295196533 0.5884755849838257 90.0 10 -0.032454535365104675
-0.25868460536003113 1.8108150959014893 -0.2897166609764099 100.0 3 -0.03245222941040993
-0.9477114677429199 6.642344951629639 0.8238368034362793 93.0 11 -0.03244992718100548
-0.25932255387306213 1.8198118209838867 -0.22570204734802246 100.0 4 -0.03244762122631073
-0.9480025768280029 6.661011219024658 1.0656317472457886 88.0 12 -0.03244531899690628
-0.2571489214897156 1.8068218231201172 -0.15966932475566864 100.0 5 -0.03244301304221153
-0.9429635405540466 6.633904457092285 1.3024622201919556 100.0 13 -0.03244071081280708
-0.2588295340538025 1.8231921195983887 -0.09650751203298569 1.0 6 -0.032438404858112335
-0.9427216649055481 6.648858547210693 1.5503627061843872 100.0 14 -0.032436102628707886
-0.25822773575782776 1.8235267400741577 -0.03214733302593231 1.0 7 -0.032433800399303436
-0.9360383749008179 6.618342399597168 1.7910279035568237 63.0 15 -0.03243149444460869
-0.25478461384773254 1.8174874782562256 -0.4917562007904053 90.0 0 -0.03241075947880745
-0.2545313835144043 1.8179888725280762 0.032042618840932846 7.0 8 -0.0324084535241127
-0.25313279032707214 1.8103063106536865 -0.4220081865787506 92.0 1 -0.03240615129470825
-0.2535874545574188 1.8158624172210693 0.09608882665634155 100.0 9 -0.032403845340013504
-0.252799928188324 1.8102232217788696 -0.3552863597869873 94.0 2 -0.032401543110609055
-0.9296972155570984 6.665770053863525 0.5888242125511169 93.0 10 -0.03239923715591431
-0.2531791627407074 1.8175764083862305 -0.290655255317688 100.0 3 -0.03239693492650986
-0.9234269261360168 6.637747764587402 0.8228618502616882 93.0 11 -0.03239462897181511
-0.2518754303455353 1.8128410577774048 -0.2247270941734314 96.0 4 -0.03239232674241066
-0.9242007732391357 6.660367012023926 1.065005898475647 85.0 12 -0.03239002078771591
-0.251935213804245 1.81560218334198 -0.16036656498908997 100.0 5 -0.03238771855831146
