# .PCD v0.7 - Point Cloud Data file format
VERSION 0.7
FIELDS x y z intensity ring time
SIZE 4 4 4 4 4 4
TYPE F F F F F F
COUNT 1 1 1 1 1 1
WIDTH 543
HEIGHT 1
VIEWPOINT 0 0 0 1 0 0 0
POINTS 543
DATA ascii
0.9537662863731384 1.2020597457885742 -0.18841002881526947 49.0 4 -0.006089529022574425
3.167222499847412 3.990313768386841 0.8068891167640686 77.0 12 -0.006087224930524826
0.9537668824195862 1.201629877090454 -0.13421984016895294 55.0 5 -0.006084921304136515
3.188762903213501 4.016016483306885 0.9967862963676453 68.0 13 -0.006082617212086916
0.9602450132369995 1.2089247703552246 -0.08091139793395996 52.0 6 -0.006080313120037317
3.1981019973754883 4.024888515472412 1.1868418455123901 89.0 14 -0.006078009027987719
0.9643268585205078 1.2131950855255127 -0.027051230892539024 48.0 7 -0.006075705401599407
3.2006349563598633 4.025190830230713 1.3779526948928833 121.0 15 -0.0060734013095498085
1.0198420286178589 1.278907060623169 0.028552137315273285 45.0 8 -0.006050361320376396
0.9721978902816772 1.2187237739562988 -0.3599216938018799 26.0 1 -0.0060480572283267975
1.0238044261932373 1.2834163904190063 0.08604031801223755 1.0 9 -0.006045753136277199
0.956386387348175 1.1984736919403076 -0.2980436682701111 53.0 2 -0.0060434490442276
3.1485471725463867 3.944117546081543 0.4415310025215149 59.0 10 -0.006041144952178001
0.9528512954711914 1.193189263343811 -0.24184772372245789 47.0 3 -0.00603884132578969
3.1681230068206787 3.9657998085021973 0.6232398748397827 78.0 11 -0.006036537233740091
0.9627029299736023 1.205094337463379 -0.18938496708869934 50.0 4 -0.006034233141690493
3.176737070083618 3.9751601219177246 0.8059504628181458 79.0 12 -0.006031929049640894
0.9579552412033081 1.1982934474945068 -0.13421984016895294 55.0 5 -0.006029624957591295
3.19295334815979 3.992593765258789 0.993733286857605 66.0 13 -0.006027321331202984
0.970697283744812 1.2133636474609375 -0.08143475651741028 54.0 6 -0.006025017239153385
3.1956050395965576 3.9944798946380615 1.1809931993484497 86.0 14 -0.0060227131471037865
0.9633470773696899 1.2037452459335327 -0.02691161073744297 47.0 7 -0.006020409055054188
3.197061538696289 3.9934422969818115 1.3707057237625122 121.0 15 -0.006018104963004589
1.0090540647506714 1.2568066120147705 0.02813328057527542 46.0 8 -0.005995064973831177
0.9725730419158936 1.210935354232788 -0.35857200622558594 24.0 1 -0.005992761347442865
1.0505666732788086 1.3080440759658813 0.08792441338300705 37.0 9 -0.005990457255393267
0.9615853428840637 1.1968258619308472 -0.2984252870082855 51.0 2 -0.005988153163343668
3.1541192531585693 3.924337863922119 0.4404851198196411 50.0 10 -0.005985849071294069
0.951851487159729 1.1838650703430176 -0.2405962347984314 47.0 3 -0.005983544979244471
3.161351442337036 3.9305219650268555 0.6193400621414185 82.0 11 -0.005981241352856159
0.9629618525505066 1.1972545385360718 -0.18865376710891724 55.0 4 -0.0059789372608065605
3.1824724674224854 3.9553680419921875 0.8040732741355896 82.0 12 -0.005976633168756962
0.9569264054298401 1.1889020204544067 -0.13352259993553162 57.0 5 -0.005974329076707363
3.1877083778381348 3.959045171737671 0.9880090951919556 71.0 13 -0.0059720249846577644
0.9659458994865417 1.199249505996704 -0.0807020515203476 52.0 6 -0.005969720892608166
3.2063894271850586 3.9808244705200195 1.1800932884216309 81.0 14 -0.005967417266219854
0.9648239612579346 1.197429895401001 -0.026841802522540092 52.0 7 -0.005965113174170256
3.2030136585235596 3.9737932682037354 1.3675999641418457 120.0 15 -0.005962809082120657
0.9780174493789673 1.209909439086914 0.02715594507753849 45.0 8 -0.005939769092947245
0.9692315459251404 1.1986112594604492 -0.35587257146835327 25.0 1 -0.005937465000897646
1.037541151046753 1.282629132270813 0.08645901083946228 48.0 9 -0.0059351613745093346
0.9630792737007141 1.1905778646469116 -0.29766204953193665 47.0 2 -0.005932857282459736
0.9570152759552002 1.1822372674942017 -0.24090909957885742 50.0 3 -0.0059282490983605385
3.168120861053467 3.9123036861419678 0.618121325969696 82.0 11 -0.00592594500631094
0.9621362686157227 1.1877166032791138 -0.18767879903316498 55.0 4 -0.005923640914261341
3.1887969970703125 3.935027599334717 0.8021960258483887 82.0 12 -0.00592133728787303
0.9633727669715881 1.1888176202774048 -0.13387121260166168 57.0 5 -0.005919033195823431
3.188455581665039 3.9332025051116943 0.9841929078102112 72.0 13 -0.005916729103773832
0.9623687267303467 1.1867327690124512 -0.0800740197300911 52.0 6 -0.005914425011724234
3.2055323123931885 3.9514479637145996 1.1746944189071655 81.0 14 -0.005912121385335922
0.967738151550293 1.1925017833709717 -0.026806894689798355 56.0 7 -0.0059098172932863235
3.2059059143066406 3.9490904808044434 1.3629411458969116 117.0 15 -0.005907513201236725
0.9771851301193237 1.2002848386764526 0.027016324922442436 52.0 8 -0.0058844732120633125
0.9783324003219604 1.2012646198272705 -0.35767218470573425 24.0 1 -0.005882169120013714
1.033181071281433 1.2681609392166138 0.0857263058423996 37.0 9 -0.005879865027964115
0.9597887396812439 1.1780767440795898 -0.29537233710289 47.0 2 -0.0058775609359145164
0.961136519908905 1.178889274597168 -0.24090909957885742 50.0 3 -0.005872953217476606
3.171720266342163 3.8889153003692627 0.6161714792251587 85.0 11 -0.005870649125427008
0.9574922323226929 1.173583745956421 -0.18597263097763062 49.0 4 -0.005868345033377409
3.182529926300049 3.899385690689087 0.7971901297569275 82.0 12 -0.005866041406989098
0.9649974703788757 1.1823604106903076 -0.13352259993553162 59.0 5 -0.005863737314939499
3.199681520462036 3.9190077781677246 0.9834296107292175 74.0 13 -0.0058614332228899
0.9728227257728577 1.1911003589630127 -0.08059737831354141 54.0 6 -0.0058591291308403015
3.2057442665100098 3.9236338138580322 1.1697455644607544 78.0 14 -0.005856825038790703
0.9643016457557678 1.1798267364501953 -0.026597466319799423 60.0 7 -0.005854520946741104
3.209888219833374 3.9259121417999268 1.3588000535964966 115.0 15 -0.005852217320352793
0.983905017375946 1.1999588012695312 0.027086134999990463 55.0 8 -0.00582917733117938
0.98251873254776 1.1978429555892944 -0.35767218470573425 21.0 1 -0.005826873239129782
1.0274665355682373 1.2521942853927612 0.08488892763853073 35.0 9 -0.005824569147080183
0.9638954997062683 1.174718976020813 -0.29537233710289 47.0 2 -0.005822265055030584
1.0251795053482056 1.24896240234375 0.1413666158914566 0.0 10 -0.005819960962980986
0.9690056443214417 1.1801077127456665 -0.24184772372245789 48.0 3 -0.005817657336592674
3.1814966201782227 3.8732173442840576 0.6154402494430542 89.0 11 -0.0058153532445430756
0.9615832567214966 1.1702340841293335 -0.18597263097763062 44.0 4 -0.005813049152493477
3.1873390674591064 3.877573251724243 0.7950000762939453 86.0 12 -0.005810745060443878
0.9678528308868408 1.1774462461471558 -0.133348286151886 62.0 5 -0.0058084409683942795
3.2033674716949463 3.8956828117370605 0.9803766012191772 71.0 13 -0.005806137342005968
0.9795123338699341 1.1907819509506226 -0.08080672472715378 53.0 6 -0.005803833249956369
3.209512233734131 3.900383472442627 1.1661462783813477 78.0 14 -0.005801529157906771
0.9620600938796997 1.1687337160110474 -0.02642294391989708 63.0 7 -0.005799225065857172
3.2088375091552734 3.89678692817688 1.352588415145874 115.0 15 -0.005796920973807573
0.9753543734550476 1.1810983419418335 0.026737086474895477 52.0 8 -0.005773880984634161
0.9916588664054871 1.2004152536392212 -0.35947179794311523 17.0 1 -0.00577157735824585
1.0076580047607422 1.2193478345870972 0.08290016651153564 28.0 9 -0.005769273266196251
0.9704917669296265 1.1743736267089844 -0.2961355745792389 47.0 2 -0.005766969174146652
1.0257242918014526 1.240769624710083 0.14084367454051971 26.0 10 -0.0057646650820970535
0.9693427085876465 1.17215096950531 -0.24090909957885742 49.0 3 -0.005762360990047455
3.182345151901245 3.846792221069336 0.6130028367042542 91.0 11 -0.005760056897997856
0.9681933522224426 1.1699292659759521 -0.18646010756492615 47.0 4 -0.005757753271609545
3.1869993209838867 3.8496854305267334 0.7915585041046143 82.0 12 -0.005755449179559946
0.9681456089019775 1.169456124305725 -0.1328253448009491 63.0 5 -0.005753145087510347
3.201920986175537 3.8663315773010254 0.9757972955703735 74.0 13 -0.005750840995460749
0.9862110614776611 1.190431833267212 -0.08101607114076614 53.0 6 -0.005748537369072437
3.20943021774292 3.872650623321533 1.1611974239349365 74.0 14 -0.005746233277022839
0.9750680327415466 1.1761443614959717 -0.0266672782599926 60.0 7 -0.00574392918497324
3.207620620727539 3.8677186965942383 1.346376657485962 117.0 15 -0.005741625092923641
0.9756355285644531 1.1730738878250122 0.02663237228989601 48.0 8 -0.005718585103750229
0.998335599899292 1.1999428272247314 -0.3603716194629669 12.0 1 -0.00571628101170063
1.0040308237075806 1.206788182258606 0.08227212727069855 37.0 9 -0.0057139769196510315
0.9858875870704651 1.1845605373382568 -0.29957014322280884 49.0 2 -0.00571167329326272
1.038973093032837 1.2478995323181152 0.14206385612487793 71.0 10 -0.005709369201213121
0.9734281897544861 1.1687604188919067 -0.24090909957885742 49.0 3 -0.005707065109163523
3.1805028915405273 3.8173608779907227 0.610077977180481 91.0 11 -0.005704761017113924
0.9722715020179749 1.1665422916412354 -0.18646010756492615 49.0 4 -0.005702457390725613
3.1959547996520996 3.8345422744750977 0.7906199097633362 86.0 12 -0.005700153298676014
0.9773257374763489 1.1721904277801514 -0.13352259993553162 60.0 5 -0.005697849206626415
3.1977899074554443 3.8340260982513428 0.9704546332359314 75.0 13 -0.0056955451145768166
0.9750063419342041 1.1685789823532104 -0.07976000756025314 57.0 6 -0.005693241022527218
3.2179348468780518 3.8554389476776123 1.159397840499878 74.0 14 -0.005690936930477619
0.9789626598358154 1.1729047298431396 -0.0266672782599926 60.0 7 -0.005688633304089308
3.211760997772217 3.8466804027557373 1.342753291130066 120.0 15 -0.005686329212039709
0.9756686687469482 1.1652326583862305 0.026527658104896545 46.0 8 -0.005663289222866297
1.0010576248168945 1.1951318979263306 -0.3599216938018799 8.0 1 -0.005660985130816698
0.9941271543502808 1.1864360570907593 0.08112073689699173 44.0 9 -0.005658681038767099
0.9975837469100952 1.1901391744613647 -0.3018598258495331 53.0 2 -0.005656377412378788
1.0407620668411255 1.2412118911743164 0.14171522855758667 51.0 10 -0.005654073320329189
0.9811065196990967 1.1700667142868042 -0.24184772372245789 44.0 3 -0.005651769228279591
3.172733783721924 3.7824580669403076 0.6061781644821167 86.0 11 -0.005649465136229992
0.9812383651733398 1.169394612312317 -0.1874350756406784 41.0 4 -0.005647161044180393
3.1940793991088867 3.8052074909210205 0.7868654727935791 77.0 12 -0.0056448569521307945
0.9814112782478333 1.1687719821929932 -0.13352259993553162 51.0 5 -0.005642553325742483
3.205437183380127 3.817385673522949 0.9689280986785889 75.0 13 -0.0056402492336928844
0.9827297329902649 1.1699274778366089 -0.0800740197300911 60.0 6 -0.005637945141643286
3.219418525695801 3.831319808959961 1.1553486585617065 78.0 14 -0.005635641049593687
0.9869108200073242 1.1740726232528687 -0.026771990582346916 58.0 7 -0.005633336957544088
3.2189533710479736 3.828052520751953 1.340165138244629 121.0 15 -0.005631033331155777
0.9771515727043152 1.1587625741958618 0.02645784802734852 55.0 8 -0.005607993341982365
1.0077368021011353 1.1946090459823608 -0.36082151532173157 8.0 1 -0.005605689249932766
0.9969748854637146 1.1814320087432861 0.08101607114076614 46.0 9 -0.005603385157883167
1.016719102859497 1.204829216003418 -0.30643925070762634 65.0 2 -0.005601081065833569
1.0371609926223755 1.2286194562911987 0.14066936075687408 40.0 10 -0.00559877697378397
0.983910083770752 1.165125846862793 -0.24153482913970947 35.0 3 -0.005596472881734371
3.1859185695648193 3.7713592052459717 0.6061781644821167 32.0 11 -0.00559416925534606
0.9840327501296997 1.1644463539123535 -0.18719132244586945 55.0 4 -0.005591865163296461
3.1984145641326904 3.783475875854492 0.7846753597259521 79.0 12 -0.005589561071246862
0.9839951992034912 1.163989782333374 -0.133348286151886 52.0 5 -0.005587256979197264
3.2086024284362793 3.794180154800415 0.9658752083778381 74.0 13 -0.005584953352808952
0.9868072867393494 1.1664901971817017 -0.0800740197300911 58.0 6 -0.005582649260759354
3.2138891220092773 3.797745943069458 1.1486002206802368 81.0 14 -0.005580345168709755
0.9845431447029114 1.1629891395568848 -0.026597466319799423 56.0 7 -0.005578041076660156
3.226052761077881 3.809422016143799 1.3375768661499023 122.0 15 -0.0055757369846105576
0.9850742220878601 1.1599171161651611 0.026562562212347984 60.0 8 -0.005552696995437145
1.021994709968567 1.2029650211334229 -0.36442074179649353 8.0 1 -0.0055503929033875465
0.9997991323471069 1.1764230728149414 0.08091139793395996 44.0 9 -0.005548089276999235
1.0145612955093384 1.1937931776046753 -0.30453118681907654 53.0 2 -0.0055457851849496365
1.0143429040908813 1.193114161491394 0.13700881600379944 41.0 10 -0.005543481092900038
1.0058879852294922 1.1827508211135864 -0.2459149956703186 43.0 3 -0.005541177000850439
0.9958112239837646 1.1700743436813354 -0.18865376710891724 68.0 4 -0.005536569282412529
3.200078010559082 3.7587504386901855 0.7818595170974731 96.0 12 -0.00553426519036293
0.9815946817398071 1.152962327003479 -0.13247673213481903 57.0 5 -0.005531961098313332
3.214188575744629 3.773989200592041 0.9635854959487915 72.0 13 -0.005529657006263733
0.9960545301437378 1.1691195964813232 -0.08049271255731583 60.0 6 -0.005527352914214134
3.2195427417755127 3.777604579925537 1.1459007263183594 81.0 14 -0.005525049287825823
0.98600172996521 1.1565021276474 -0.026527658104896545 56.0 7 -0.005522745195776224
3.223034381866455 3.7790286540985107 1.3308476209640503 123.0 15 -0.0055204411037266254
0.9813182353973389 1.1473536491394043 0.026353133842349052 64.0 8 -0.005497401114553213
1.0426568984985352 1.218639850616455 -0.37026944756507874 5.0 1 -0.005495097022503614
1.0013017654418945 1.169891357421875 0.0807020515203476 43.0 9 -0.005492793396115303
1.0340412855148315 1.2081432342529297 -0.3091106116771698 59.0 2 -0.005490489304065704
1.0120227336883545 1.181998610496521 0.13613726198673248 44.0 10 -0.005488185212016106
1.0087251663208008 1.177732229232788 -0.24560213088989258 55.0 3 -0.005485881119966507
1.0642648935317993 1.242138385772705 0.20084069669246674 0.0 11 -0.005483577027916908
1.0076408386230469 1.1756342649459839 -0.19011619687080383 66.0 4 -0.00548127293586731
3.2041776180267334 3.737060070037842 0.779669463634491 88.0 12 -0.005478969309478998
0.9856131076812744 1.1495290994644165 -0.13247673213481903 57.0 5 -0.0054766652174293995
3.2171168327331543 3.750826120376587 0.960532546043396 71.0 13 -0.005474361125379801
1.0040313005447388 1.170182466506958 -0.08080672472715378 61.0 6 -0.005472057033330202
3.2276318073272705 3.7604289054870605 1.1441011428833008 81.0 14 -0.005469753406941891
0.9900324940681458 1.1530535221099854 -0.026527658104896545 60.0 7 -0.005467449314892292
3.2223610877990723 3.751634120941162 1.3251535892486572 122.0 15 -0.005465145222842693
0.9827075004577637 1.1408905982971191 0.026283323764801025 59.0 8 -0.005442105233669281
1.0367283821105957 1.203182339668274 -0.36667025089263916 6.0 1 -0.005439801141619682
1.009291172027588 1.1709277629852295 0.08101607114076614 45.0 9 -0.005437497049570084
1.0318429470062256 1.1970912218093872 -0.3072025179862976 57.0 2 -0.005435192957520485
1.0148413181304932 1.176950216293335 0.13596294820308685 45.0 10 -0.005432888865470886
1.0167012214660645 1.1786911487579346 -0.24654075503349304 49.0 3 -0.005430585239082575
1.0426571369171143 1.2083574533462524 0.19596591591835022 12.0 11 -0.005428281147032976
1.0130351781845093 1.1736127138137817 -0.1903599202632904 58.0 4 -0.0054259770549833775
3.2094578742980957 3.716881036758423 0.77779221534729 88.0 12 -0.005423673428595066
0.9974327683448792 1.155129313468933 -0.13352259993553162 55.0 5 -0.005421369336545467
3.2109405994415283 3.7172868251800537 0.954808235168457 70.0 13 -0.005419065244495869
1.000274658203125 1.1576035022735596 -0.08017869293689728 54.0 6 -0.00541676115244627
3.2267215251922607 3.7329213619232178 1.1391521692276 78.0 14 -0.005414457060396671
1.0005913972854614 1.1571533679962158 -0.02670218236744404 61.0 7 -0.005412152968347073
3.227853298187256 3.731597423553467 1.3220477104187012 121.0 15 -0.005409848876297474
0.9919250011444092 1.1434959173202515 0.02642294391989708 60.0 8 -0.005386808887124062
1.0307040214538574 1.187781572341919 -0.3630710244178772 2.0 1 -0.00538450526073575
1.0055168867111206 1.1583476066589355 0.08038803189992905 46.0 9 -0.0053822011686861515
1.038589358329773 1.1964468955993652 -0.3079657256603241 57.0 2 -0.005379897076636553
1.0215559005737305 1.1764094829559326 0.1363115906715393 45.0 10 -0.005377592984586954
1.0350589752197266 1.1915394067764282 -0.2499822974205017 58.0 3 -0.005375289358198643
1.0377545356750488 1.1942214965820312 0.19425974786281586 29.0 11 -0.005372985266149044
1.011916160583496 1.1640769243240356 -0.18938496708869934 58.0 4 -0.005370681174099445
3.2107462882995605 3.6922409534454346 0.7749764919281006 86.0 12 -0.005368377082049847
1.0053807497024536 1.1561511754989624 -0.1340455263853073 54.0 5 -0.005366072990000248
3.2187418937683105 3.700131416320801 0.953281819820404 70.0 13 -0.005363768897950649
1.0069313049316406 1.1571184396743774 -0.08038803189992905 61.0 6 -0.005361465271562338
3.2307746410369873 3.7113466262817383 1.1360028982162476 86.0 14 -0.005359161179512739
1.0072507858276367 1.1566699743270874 -0.026771990582346916 61.0 7 -0.0053568570874631405
3.2332465648651123 3.711566209793091 1.3189419507980347 121.0 15 -0.005354552995413542
0.998541533946991 1.1430386304855347 0.026492753997445107 60.0 8 -0.0053315130062401295
1.039973497390747 1.190045714378357 -0.3648706376552582 2.0 1 -0.005329209379851818
1.0056110620498657 1.1503194570541382 0.0800740197300911 50.0 9 -0.005326905287802219
1.0362991094589233 1.1854236125946045 -0.3060576617717743 55.0 2 -0.005324601195752621
1.0204094648361206 1.166837453842163 0.1356143355369568 51.0 10 -0.005322297103703022
1.0418134927749634 1.1908923387527466 -0.25060805678367615 58.0 3 -0.005319993011653423
1.0432244539260864 1.1920852661132812 0.19450348615646362 45.0 11 -0.005317688919603825
1.0107429027557373 1.154563307762146 -0.18841002881526947 57.0 4 -0.005315385293215513
3.2119030952453613 3.667635202407837 0.7721606492996216 92.0 12 -0.0053130812011659145
1.0133485794067383 1.1571310758590698 -0.1345684677362442 55.0 5 -0.005310777109116316
3.2199959754943848 3.675581932067871 0.9498472213745117 72.0 13 -0.005308473017066717
1.0122804641723633 1.1550989151000977 -0.08049271255731583 58.0 6 -0.005306169390678406
3.223156452178955 3.6765997409820557 1.1288044452667236 74.0 14 -0.005303865298628807
1.0033715963363647 1.144126057624817 -0.026562562212347984 63.0 7 -0.005301561206579208
3.241084337234497 3.694451332092285 1.3168714046478271 121.0 15 -0.00529925711452961
1.010250210762024 1.1487303972244263 0.02670218236744404 60.0 8 -0.005296310875564814
1.0361907482147217 1.1778119802474976 -0.3621712327003479 0.0 1 -0.005294006783515215
1.0094197988510132 1.146978497505188 0.0800740197300911 56.0 9 -0.0052917031571269035
1.0311448574066162 1.1716641187667847 -0.30338630080223083 57.0 2 -0.005289399065077305
1.0242736339569092 1.1634470224380493 0.1356143355369568 56.0 10 -0.005287094973027706
1.0444509983062744 1.1859488487243652 -0.25029516220092773 61.0 3 -0.0052847908809781075
1.0497961044311523 1.1915984153747559 0.19499096274375916 56.0 11 -0.005282486788928509
1.0171912908554077 1.1541835069656372 -0.188897505402565 50.0 4 -0.005280183162540197
3.209677219390869 3.640665054321289 0.7687190175056458 96.0 12 -0.005277879070490599
1.0119094848632812 1.1477863788604736 -0.13387121260166168 57.0 5 -0.005275574978441
3.226973533630371 3.6589934825897217 0.948320746421814 72.0 13 -0.005273270886391401
1.0227123498916626 1.1592239141464233 -0.08101607114076614 57.0 6 -0.005270966794341803
3.2301721572875977 3.660047769546509 1.127004861831665 74.0 14 -0.005268663167953491
1.0084837675094604 1.1422911882400513 -0.026597466319799423 60.0 7 -0.0052663590759038925
3.241809129714966 3.670650005340576 1.312212586402893 122.0 15 -0.005264054983854294
1.0076252222061157 1.137711763381958 0.026527658104896545 65.0 8 -0.0052410149946808815
1.0842334032058716 1.2237811088562012 -0.37746790051460266 0.0 1 -0.005238710902631283
1.01341712474823 1.1434482336044312 0.0800740197300911 53.0 9 -0.005236406810581684
1.0391347408294678 1.1724655628204346 -0.30453118681907654 59.0 2 -0.005234103184193373
1.0190764665603638 1.1494284868240356 0.13439415395259857 58.0 10 -0.005231799092143774
1.0446527004241943 1.1778619289398193 -0.24935656785964966 58.0 3 -0.005229495000094175
1.0605361461639404 1.1953516006469727 0.19620966911315918 62.0 11 -0.005227190908044577
1.0343912839889526 1.165472388267517 -0.19133488833904266 44.0 4 -0.005224886815994978
3.2197439670562744 3.6264841556549072 0.7680933475494385 96.0 12 -0.0052225831896066666
1.0132646560668945 1.14126718044281 -0.13352259993553162 57.0 5 -0.005220279097557068
3.224079132080078 3.630094289779663 0.9437413215637207 74.0 13 -0.005217975005507469
1.0320590734481812 1.161618947982788 -0.08143475651741028 55.0 6 -0.0052156709134578705
3.2377512454986572 3.6429226398468018 1.1252052783966064 74.0 14 -0.005213366821408272
1.0137929916381836 1.140259027481079 -0.02663237228989601 63.0 7 -0.00521106319501996
3.2456164360046387 3.6492063999176025 1.3085891008377075 122.0 15 -0.005208759102970362
1.0049344301223755 1.126726508140564 0.026353133842349052 61.0 8 -0.005185719113796949
1.0936884880065918 1.2258051633834839 -0.37926751375198364 0.0 1 -0.005183415021747351
1.0227224826812744 1.1458637714385986 0.08049271255731583 53.0 9 -0.005181110929697752
1.0432214736938477 1.1688309907913208 -0.30453118681907654 59.0 2 -0.005178806837648153
1.0270625352859497 1.150323510169983 0.13491709530353546 54.0 10 -0.005176502745598555
1.0434939861297607 1.1683152914047241 -0.24810509383678436 58.0 3 -0.005174199119210243
1.0527989864349365 1.1783193349838257 0.19401602447032928 60.0 11 -0.0051718950271606445
1.056972622871399 1.1825761795043945 -0.1947472244501114 44.0 4 -0.005169590935111046
3.213949203491211 3.594607353210449 0.7637131810188293 96.0 12 -0.005167286843061447
1.0238819122314453 1.1451499462127686 -0.13439415395259857 50.0 5 -0.0051649827510118484
3.2236433029174805 3.6041834354400635 0.9399251341819763 74.0 13 -0.005162679124623537
1.0334444046020508 1.1550321578979492 -0.08122541010379791 57.0 6 -0.005160375032573938
3.2465481758117676 3.6272435188293457 1.1238555908203125 72.0 14 -0.00515807094052434
1.020435094833374 1.1396926641464233 -0.02670218236744404 63.0 7 -0.005155766848474741
3.2467355728149414 3.6249024868011475 1.303930401802063 122.0 15 -0.005153462756425142
1.0168790817260742 1.132137656211853 0.026562562212347984 63.0 8 -0.00513042276725173
1.1448490619659424 1.274163842201233 -0.3954640030860901 0.0 1 -0.005128119140863419
1.024045467376709 1.139316201210022 0.08028336614370346 53.0 9 -0.00512581504881382
1.051232099533081 1.1695630550384521 -0.30567604303359985 57.0 2 -0.005123510956764221
1.033736228942871 1.1496942043304443 0.13526570796966553 56.0 10 -0.0051212068647146225
1.0475660562515259 1.1646653413772583 -0.24810509383678436 60.0 3 -0.005118902772665024
1.04628324508667 1.1628320217132568 0.19206610321998596 50.0 11 -0.005116599146276712
1.0610945224761963 1.1788792610168457 -0.1947472244501114 48.0 4 -0.005114295054227114
3.2211906909942627 3.577493667602539 0.7624616622924805 96.0 12 -0.005111990962177515
1.0318728685379028 1.1460105180740356 -0.13491709530353546 47.0 5 -0.005109686870127916
3.2309482097625732 3.5870747566223145 0.9383986592292786 74.0 13 -0.005107382778078318
1.0401430130004883 1.154386043548584 -0.08143475651741028 57.0 6 -0.005105079151690006
3.2435340881347656 3.598517656326294 1.1184567213058472 72.0 14 -0.0051027750596404076
1.03244149684906 1.145034670829773 -0.02691161073744297 61.0 7 -0.005100470967590809
3.2516028881073 3.6049420833587646 1.300824522972107 123.0 15 -0.00509816687554121
1.0235079526901245 1.131546974182129 0.02663237228989601 66.0 8 -0.005075126886367798
1.0199745893478394 1.1268500089645386 0.07965533435344696 55.0 9 -0.005070519167929888
1.0434510707855225 1.1527862548828125 -0.3022414743900299 61.0 2 -0.005068215075880289
1.0390807390213013 1.1475554704666138 0.13544002175331116 58.0 10 -0.00506591098383069
1.0569289922714233 1.1668585538864136 -0.24935656785964966 60.0 3 -0.005063606891781092
1.0556678771972656 1.1650564670562744 0.19304105639457703 44.0 11 -0.005061302799731493
1.0598706007003784 1.1692845821380615 -0.19377227127552032 49.0 4 -0.005058999173343182
3.223041296005249 3.55452299118042 0.7599587440490723 96.0 12 -0.005056695081293583
1.0452343225479126 1.1527341604232788 -0.13613726198673248 45.0 5 -0.005054390989243984
3.2328989505767822 3.564140796661377 0.9353457689285278 74.0 13 -0.0050520868971943855
1.0441664457321167 1.1507478952407837 -0.08143475651741028 57.0 6 -0.005049782805144787
3.2455947399139404 3.5756325721740723 1.11485755443573 72.0 14 -0.0050474791787564754
1.0337438583374023 1.1384626626968384 -0.026841802522540092 61.0 7 -0.005045175086706877
3.25897216796875 3.5878493785858154 1.2987539768218994 123.0 15 -0.005042870994657278
1.0328376293182373 1.133880853652954 0.026771990582346916 60.0 8 -0.005019831005483866
1.033320426940918 1.1336147785186768 0.08038803189992905 63.0 9 -0.005015222821384668
1.0501140356063843 1.152038335800171 -0.3030047118663788 59.0 2 -0.005012919194996357
1.0350252389907837 1.1350882053375244 0.13439415395259857 61.0 10 -0.005010615102946758
1.0703145265579224 1.1733777523040771 -0.2515466511249542 55.0 3 -0.00500831101089716
1.0583903789520264 1.1598976850509644 0.19279730319976807 47.0 11 -0.005006006918847561
1.0692987442016602 1.1714426279067993 -0.1947472244501114 48.0 4 -0.005003702826797962
3.214118480682373 3.5199105739593506 0.7549527883529663 86.0 12 -0.0050013987347483635
1.0573129653930664 1.1579060554504395 -0.13718314468860626 45.0 5 -0.004999095108360052
3.242672920227051 3.549934148788452 0.934582531452179 74.0 13 -0.004996791016310453
1.0535658597946167 1.15299391746521 -0.08185344934463501 55.0 6 -0.004994486924260855
3.251483201980591 3.5570883750915527 1.1126079559326172 75.0 14 -0.004992182832211256
1.03501296043396 1.1318955421447754 -0.026771990582346916 61.0 7 -0.004989879205822945
3.2480053901672363 3.5507941246032715 1.2894365787506104 123.0 15 -0.004987575113773346
1.03138267993927 1.1243740320205688 0.02663237228989601 61.0 8 -0.004964535124599934
1.042672872543335 1.1358870267868042 0.08080672472715378 66.0 9 -0.004959926940500736
1.0567835569381714 1.1512593030929565 -0.30376794934272766 61.0 2 -0.0049576228484511375
1.0349385738372803 1.1270654201507568 0.13387121260166168 63.0 10 -0.004955318756401539
1.0623772144317627 1.156541347503662 -0.2487308233976364 58.0 3 -0.0049530151300132275
1.0624319314956665 1.1561968326568604 0.19279730319976807 52.0 11 -0.004950711037963629
1.084128975868225 1.1793943643569946 -0.19669713079929352 44.0 4 -0.00494840694591403
3.2277231216430664 3.510122776031494 0.7552656531333923 92.0 12 -0.004946102853864431
1.0856235027313232 1.180606722831726 -0.14032074809074402 52.0 5 -0.004943798761814833
3.2390928268432617 3.521256685256958 0.9300030469894409 75.0 13 -0.004941495135426521
1.0711085796356201 1.1640061140060425 -0.08290016651153564 53.0 6 -0.004939191043376923
3.2533226013183594 3.5342459678649902 1.1090087890625 75.0 14 -0.004936886951327324
1.0416667461395264 1.1312180757522583 -0.026841802522540092 61.0 7 -0.004934582859277725
3.2472925186157227 3.5252254009246826 1.2842601537704468 123.0 15 -0.0049322787672281265
1.025802731513977 1.1104848384857178 0.02638803981244564 56.0 8 -0.004909238778054714
1.0506991147994995 1.136640191078186 0.08112073689699173 57.0 9 -0.004904631059616804
1.0634613037109375 1.1504462957382202 -0.30453118681907654 59.0 2 -0.004902326967567205
1.0402190685272217 1.1249090433120728 0.1340455263853073 60.0 10 -0.004900022875517607
1.0583592653274536 1.1441254615783691 -0.24685361981391907 48.0 3 -0.004897718783468008
1.0610688924789429 1.146653175354004 0.1918223649263382 53.0 11 -0.004895415157079697
1.0936328172683716 1.1814301013946533 -0.19767209887504578 39.0 4 -0.004893111065030098
3.231902837753296 3.4901392459869385 0.753388524055481 88.0 12 -0.004890806972980499
1.10056734085083 1.1885051727294922 -0.14171522855758667 50.0 5 -0.004888502880930901
3.240692138671875 3.498405694961548 0.9269501566886902 72.0 13 -0.004886198788881302
1.0656627416610718 1.1500049829483032 -0.08216746151447296 49.0 6 -0.0048838951624929905
3.261664390563965 3.5185816287994385 1.107659101486206 78.0 14 -0.004881591070443392
1.0456088781356812 1.1275752782821655 -0.026841802522540092 61.0 7 -0.004879286978393793
3.254323720932007 3.50820255279541 1.2821896076202393 123.0 15 -0.004876982886344194
1.039206624031067 1.1171467304229736 0.02663237228989601 60.0 8 -0.004853942897170782
1.046494960784912 1.124194622039795 0.08049271255731583 53.0 9 -0.004849335178732872
1.0768342018127441 1.156786561012268 -0.3072025179862976 57.0 2 -0.004847031086683273
1.0482125282287598 1.125645637512207 0.1345684677362442 56.0 10 -0.004844726994633675
1.0663862228393555 1.1447601318359375 -0.24779222905635834 55.0 3 -0.004842422902584076
1.0596513748168945 1.1371334791183472 0.19084741175174713 51.0 11 -0.004840118810534477
1.0977504253387451 1.1776050329208374 -0.19767209887504578 38.0 4 -0.004837815184146166
3.2413723468780518 3.4759459495544434 0.7527627348899841 88.0 12 -0.004835511092096567
1.104709506034851 1.1846559047698975 -0.14171522855758667 70.0 5 -0.0048332070000469685
3.243509292602539 3.4770240783691406 0.9242788553237915 70.0 13 -0.00483090290799737
1.0642197132110596 1.140437364578247 -0.08174876868724823 50.0 6 -0.004828598815947771
3.2553107738494873 3.4872307777404785 1.1013604402542114 78.0 14 -0.00482629518955946
1.0522676706314087 1.1268417835235596 -0.02691161073744297 58.0 7 -0.004823991097509861
3.258636713027954 3.488351821899414 1.2790838479995728 123.0 15 -0.004821687005460262
1.0403659343719482 1.110593318939209 0.026562562212347984 61.0 8 -0.00479864701628685
1.0422172546386719 1.1117916107177734 0.07986467331647873 48.0 9 -0.004794038832187653
1.0714670419692993 1.1429939270019531 -0.30453118681907654 55.0 2 -0.004791734740138054
1.0589499473571777 1.1292462348937988 0.13544002175331116 52.0 10 -0.0047894311137497425
1.0730783939361572 1.1439123153686523 -0.2484179586172104 51.0 3 -0.004787127021700144
1.0717648267745972 1.1421126127243042 0.19230984151363373 47.0 11 -0.004784822929650545
1.0991368293762207 1.1708717346191406 -0.19718460738658905 42.0 4 -0.004782518837600946
3.2372584342956543 3.447331190109253 0.749008297920227 88.0 12 -0.004780215211212635
1.1156573295593262 1.1880546808242798 -0.14258678257465363 60.0 5 -0.004777911119163036
3.2475621700286865 3.457094192504883 0.9219891428947449 70.0 13 -0.004775607027113438
1.0873420238494873 1.1570923328399658 -0.0832141786813736 50.0 6 -0.004773302935063839
3.2527801990509033 3.4602279663085938 1.0964114665985107 75.0 14 -0.00477099884301424
1.050715446472168 1.1173346042633057 -0.026771990582346916 61.0 7 -0.004768694750964642
3.262850284576416 3.4685139656066895 1.2759779691696167 122.0 15 -0.00476639112457633
1.0524691343307495 1.11568284034729 0.026771990582346916 63.0 8 -0.004743351135402918
1.0527524948120117 1.1155920028686523 0.08038803189992905 48.0 9 -0.0047387429513037205
1.0767982006072998 1.1406742334365845 -0.3049127757549286 57.0 2 -0.004736438859254122
1.0574134588241577 1.1197489500045776 0.13474278151988983 60.0 10 -0.004734134767204523
1.0838477611541748 1.1473393440246582 -0.2499822974205017 53.0 3 -0.004731831140816212
1.0730185508728027 1.1354787349700928 0.1918223649263382 46.0 11 -0.004729527048766613
1.10867178440094 1.1727982759475708 -0.19815956056118011 44.0 4 -0.004727222956717014
3.2378158569335938 3.42509388923645 0.7465053796768188 82.0 12 -0.004724918864667416
1.1143221855163574 1.1783623695373535 -0.1418895423412323 54.0 5 -0.004722614772617817
3.25421404838562 3.4400315284729004 0.9204626679420471 68.0 13 -0.0047203111462295055
1.1256941556930542 1.1895570755004883 -0.08583097904920578 63.0 6 -0.004718007054179907
3.2527830600738525 3.4361155033111572 1.092362403869629 72.0 14 -0.004715702962130308
1.054415225982666 1.1138437986373901 -0.026771990582346916 58.0 7 -0.0047133988700807095
3.2570674419403076 3.439438581466675 1.269248604774475 121.0 15 -0.004711094778031111
1.0437703132629395 1.0991358757019043 0.02645784802734852 58.0 8 -0.0046880547888576984
1.0580153465270996 1.1133590936660767 0.08049271255731583 50.0 9 -0.004683447070419788
1.0821259021759033 1.138331651687622 -0.305294394493103 55.0 2 -0.00468114297837019
1.0558240413665771 1.1102756261825562 0.1340455263853073 61.0 10 -0.004678838886320591
1.0835624933242798 1.1394445896148682 -0.24904370307922363 49.0 3 -0.004676534794270992
1.0836187601089478 1.1391056776046753 0.19304105639457703 48.0 11 -0.004674231167882681
1.1180288791656494 1.1748671531677246 -0.19913452863693237 47.0 4 -0.004671927075833082
3.2429423332214355 3.406615972518921 0.744940996170044 84.0 12 -0.0046696229837834835
1.1101844310760498 1.1658087968826294 -0.14084367454051971 55.0 5 -0.004667318891733885
3.253418207168579 3.416426181793213 0.9170280694961548 71.0 13 -0.004665014799684286
1.1351433992385864 1.1916018724441528 -0.08624966442584991 63.0 6 -0.004662711173295975
3.2587811946868896 3.4196672439575195 1.0905627012252808 78.0 14 -0.004660407081246376
1.05829656124115 1.1101566553115845 -0.026771990582346916 58.0 7 -0.004658102989196777
3.255720376968384 3.4140682220458984 1.264072299003601 122.0 15 -0.004655798897147179
1.0476009845733643 1.0954853296279907 0.02645784802734852 57.0 8 -0.004632758907973766
1.067419171333313 1.1154308319091797 0.08091139793395996 50.0 9 -0.004628150723874569
1.084537148475647 1.1333187818527222 -0.3049127757549286 49.0 2 -0.0046258470974862576
1.0636335611343384 1.1110856533050537 0.1345684677362442 63.0 10 -0.004623543005436659
1.0861667394638062 1.1342288255691528 -0.2487308233976364 48.0 3 -0.00462123891338706
1.0793488025665283 1.1267155408859253 0.19157861173152924 48.0 11 -0.0046189348213374615
1.1248704195022583 1.173823595046997 -0.1996220052242279 44.0 4 -0.00461663119494915
3.243877410888672 3.3838679790496826 0.7424380779266357 86.0 12 -0.004614327102899551
1.1209378242492676 1.1693122386932373 -0.14171522855758667 54.0 5 -0.004612023010849953
3.2490170001983643 3.3880455493927 0.9124486446380615 71.0 13 -0.004609718918800354
1.1351484060287476 1.1833078861236572 -0.08593565225601196 66.0 6 -0.004607414826750755
3.2639524936676025 3.4012398719787598 1.088313341140747 75.0 14 -0.004605110734701157
1.0760133266448975 1.1208816766738892 -0.027121039107441902 52.0 7 -0.004602807108312845
3.2649424076080322 3.399895191192627 1.2630369663238525 122.0 15 -0.0046005030162632465
1.0555791854858398 1.0961439609527588 0.026562562212347984 60.0 8 -0.004577463027089834
1.075464129447937 1.1160122156143188 0.08122541010379791 66.0 9 -0.004572854842990637
1.1007477045059204 1.1422488689422607 -0.30834734439849854 47.0 2 -0.0045705512166023254
1.070270299911499 1.110235571861267 0.13491709530353546 65.0 10 -0.004568247124552727
1.0997182130813599 1.1403837203979492 -0.2509209215641022 45.0 3 -0.004565943032503128
1.076384425163269 1.1157972812652588 0.1903599202632904 52.0 11 -0.004563638940453529
1.1234463453292847 1.1641768217086792 -0.19864705204963684 46.0 4 -0.004561334848403931
3.2556705474853516 3.372523546218872 0.7424380779266357 59.0 12 -0.004559030756354332
1.130548119544983 1.1711260080337524 -0.1424124836921692 54.0 5 -0.004556727129966021
3.2526419162750244 3.3682096004486084 0.9101589918136597 72.0 13 -0.004554423037916422
1.1337203979492188 1.1735931634902954 -0.08551695942878723 58.0 6 -0.004552118945866823
3.2636170387268066 3.3772146701812744 1.0842641592025757 78.0 14 -0.0045498148538172245
1.102157473564148 1.140122413635254 -0.02767951786518097 58.0 7 -0.004547511227428913
3.2741024494171143 3.3857028484344482 1.2620017528533936 121.0 15 -0.004545207135379314
1.0635756254196167 1.0967589616775513 0.0266672782599926 54.0 8 -0.004522167146205902
1.074987530708313 1.1081387996673584 0.08091139793395996 59.0 9 -0.004517558962106705
1.0937899351119995 1.1271284818649292 -0.305294394493103 47.0 2 -0.004515254870057106
1.0783027410507202 1.1107814311981201 0.13544002175331116 61.0 10 -0.004512950778007507
1.1160781383514404 1.1492918729782104 -0.2537367343902588 52.0 3 -0.004510647151619196
1.0899548530578613 1.1220005750656128 0.19206610321998596 50.0 11 -0.004508343059569597
1.1192028522491455 1.1517062187194824 -0.19718460738658905 48.0 4 -0.0045060389675199986
3.2420554161071777 3.336209774017334 0.7368063926696777 13.0 12 -0.0045037348754704
1.1374070644378662 1.1700294017791748 -0.14276111125946045 54.0 5 -0.004501430783420801
3.261640787124634 3.354020833969116 0.9093957543373108 74.0 13 -0.00449912715703249
1.1336324214935303 1.1653335094451904 -0.08520293980836868 43.0 6 -0.004496823064982891
3.261795997619629 3.351835012435913 1.0797650814056396 72.0 14 -0.004494518972933292
1.1031432151794434 1.1335946321487427 -0.027609705924987793 63.0 7 -0.004492214880883694
3.2785749435424805 3.3679046630859375 1.259413480758667 122.0 15 -0.004489910788834095
1.0727944374084473 1.0989493131637573 0.026806894689798355 52.0 8 -0.004466870799660683
1.0844308137893677 1.1100950241088867 0.0813300833106041 48.0 9 -0.004462263081222773
1.1018345355987549 1.1275156736373901 -0.30643925070762634 49.0 2 -0.004459958989173174
1.0849595069885254 1.109859824180603 0.13578864932060242 60.0 10 -0.004457654897123575
1.1143593788146973 1.1399345397949219 -0.2524852454662323 47.0 3 -0.0044553508050739765
1.0936694145202637 1.1183801889419556 0.19206610321998596 49.0 11 -0.004453047178685665
1.1285688877105713 1.153664231300354 -0.19815956056118011 47.0 4 -0.0044507430866360664
1.181273102760315 1.2071189880371094 0.26750296354293823 1.0 12 -0.004448438994586468
1.135908603668213 1.1603577136993408 -0.14206385612487793 52.0 5 -0.004446134902536869
3.2672512531280518 3.3375751972198486 0.907869279384613 74.0 13 -0.00444383081048727
1.1360934972763062 1.1601403951644897 -0.0850982740521431 37.0 6 -0.004441526718437672
3.270164728164673 3.338216781616211 1.0788652896881104 71.0 14 -0.00443922309204936
1.1112916469573975 1.13402259349823 -0.027714421972632408 60.0 7 -0.004436918999999762
3.2794930934906006 3.345402479171753 1.2552725076675415 123.0 15 -0.004434614907950163
1.0794270038604736 1.0980507135391235 0.02687670662999153 52.0 8 -0.0044115749187767506
1.0840976238250732 1.1020312309265137 0.08101607114076614 45.0 9 -0.0044069672003388405
1.112451195716858 1.1308538913726807 -0.30834734439849854 47.0 2 -0.004404663108289242
1.0830432176589966 1.1005761623382568 0.1350913941860199 50.0 10 -0.004402359016239643
1.1183314323425293 1.1360379457473755 -0.2524852454662323 46.0 3 -0.004400054924190044
1.1045310497283936 1.1216274499893188 0.1932847946882248 45.0 11 -0.004397750832140446
1.1353756189346313 1.1525459289550781 -0.19864705204963684 48.0 4 -0.004395446740090847
1.1840928792953491 1.2015814781188965 0.2671900987625122 9.0 12 -0.004393143113702536
1.13155996799469 1.147871971130371 -0.14101798832416534 50.0 5 -0.004390839021652937
3.262343406677246 3.3093717098236084 0.9032898545265198 75.0 13 -0.004388534929603338
1.1345270872116089 1.1504790782928467 -0.08467958122491837 44.0 6 -0.0043862308375537395
3.276322603225708 3.321232795715332 1.0770657062530518 78.0 14 -0.004383927211165428
1.1264803409576416 1.1415231227874756 -0.027993660420179367 71.0 7 -0.0043816231191158295
3.2748656272888184 3.3174357414245605 1.2490607500076294 122.0 15 -0.004379319027066231
1.0804399251937866 1.0914335250854492 0.026806894689798355 55.0 8 -0.0043562790378928185
1.0907487869262695 1.1010783910751343 0.08122541010379791 45.0 9 -0.004351670853793621
1.1276435852050781 1.1379252672195435 -0.31140029430389404 51.0 2 -0.004349366761744022
1.081459879875183 1.0909385681152344 0.13439415395259857 58.0 10 -0.004347063135355711
1.1224875450134277 1.1319316625595093 -0.2524852454662323 40.0 3 -0.004344759043306112
1.1042460203170776 1.1135367155075073 0.1925535798072815 44.0 11 -0.004342454951256514
1.144983172416687 1.154213547706604 -0.1996220052242279 49.0 4 -0.004340150859206915
1.2035859823226929 1.2128642797470093 0.27063167095184326 20.0 12 -0.004337846767157316
1.1425780057907104 1.1509852409362793 -0.1418895423412323 49.0 5 -0.004335543140769005
3.2606165409088135 3.2834622859954834 0.8994736671447754 75.0 13 -0.004333239048719406
1.1373283863067627 1.1448962688446045 -0.08457491546869278 56.0 6 -0.0043309349566698074
3.2816061973571777 3.3022899627685547 1.0748162269592285 19.0 14 -0.004328630864620209
1.123410701751709 1.1304914951324463 -0.027819136157631874 54.0 7 -0.00432632677257061
3.280975818634033 3.300506114959717 1.2469902038574219 123.0 15 -0.004324023146182299
1.0929054021835327 1.0959618091583252 0.027016324922442436 52.0 8 -0.004300982691347599
1.0919557809829712 1.094245433807373 0.08101607114076614 48.0 9 -0.004296374972909689
1.1316090822219849 1.1339818239212036 -0.31140029430389404 51.0 2 -0.00429407088086009
1.092299222946167 1.0942074060440063 0.13526570796966553 56.0 10 -0.004291767254471779
1.1473695039749146 1.148972988128662 -0.25717827677726746 45.0 3 -0.00428946316242218
1.1111260652542114 1.1122905015945435 0.19304105639457703 43.0 11 -0.0042871590703725815
1.143593430519104 1.1443923711776733 -0.19864705204963684 50.0 4 -0.004284854978322983
1.2024368047714233 1.2028568983078003 0.2693801820278168 33.0 12 -0.004282550886273384
1.1508147716522217 1.1512168645858765 -0.1424124836921692 46.0 5 -0.004280246794223785
3.2595643997192383 3.259565591812134 0.8960390686988831 17.0 13 -0.004277942702174187
1.1356674432754517 1.135271430015564 -0.08415622264146805 52.0 6 -0.004275639075785875
1.1289610862731934 1.1277798414230347 -0.027854040265083313 56.0 7 -0.004271030891686678
3.2903172969818115 3.2857275009155273 1.2459548711776733 123.0 15 -0.004268726799637079
1.1094766855239868 1.1048396825790405 0.027330469340085983 51.0 8 -0.004245686810463667
1.0915213823318481 1.0862008333206177 0.0807020515203476 44.0 9 -0.004241079092025757
1.1341687440872192 1.1286402940750122 -0.3110186755657196 53.0 2 -0.004238774999976158
1.1003493070602417 1.0946036577224731 0.13578864932060242 50.0 10 -0.0042364709079265594
1.1597776412963867 1.153317928314209 -0.2590555250644684 45.0 3 -0.004234166815876961
1.122040867805481 1.1154029369354248 0.19425974786281586 41.0 11 -0.004231862723827362
1.1447646617889404 1.1375951766967773 -0.19815956056118011 52.0 4 -0.004229559097439051
1.1996214389801025 1.1916911602020264 0.26781585812568665 45.0 12 -0.004227255005389452
1.1548266410827637 1.1471924781799316 -0.1424124836921692 54.0 5 -0.004224950913339853
2.86553955078125 2.8456060886383057 0.784988284111023 1.0 13 -0.004222646821290255
1.138205647468567 1.1298935413360596 -0.08405155688524246 57.0 6 -0.004220343194901943
1.128631591796875 1.1196074485778809 -0.027749326080083847 58.0 7 -0.004215735010802746
2.832632541656494 2.8090028762817383 1.0689226388931274 56.0 15 -0.004213430918753147
1.1261237859725952 1.113614559173584 0.02764461189508438 55.0 8 -0.004190390929579735
1.1121622323989868 1.0994243621826172 0.0819581151008606 42.0 9 -0.004185782745480537
1.1408946514129639 1.1274340152740479 -0.3117819130420685 53.0 2 -0.004183479119092226
1.108416199684143 1.094956398010254 0.1363115906715393 54.0 10 -0.004181175027042627
1.1820683479309082 1.1673067808151245 -0.2631227970123291 52.0 3 -0.004178870934993029
1.1428802013397217 1.1282141208648682 0.19718460738658905 41.0 11 -0.00417656684294343
1.1543806791305542 1.1391692161560059 -0.19913452863693237 50.0 4 -0.0041742632165551186
1.1965360641479492 1.1807690858840942 0.26625147461891174 48.0 12 -0.00417195912450552
1.1503134965896606 1.1347594261169434 -0.1413666158914566 50.0 5 -0.004169655032455921
1.27068030834198 1.2530611753463745 0.34689077734947205 0.0 13 -0.0041673509404063225
1.1478325128555298 1.1315217018127441 -0.0844702422618866 55.0 6 -0.004165046848356724
1.222855567932129 1.2050578594207764 0.3963637948036194 0.0 14 -0.004162742756307125
1.132338523864746 1.1158583164215088 -0.027749326080083847 63.0 7 -0.004160439129918814
2.8144078254699707 2.7724785804748535 1.0585699081420898 68.0 15 -0.004158135037869215
1.1255306005477905 1.1056702136993408 0.027539897710084915 57.0 8 -0.004135095048695803
1.1202689409255981 1.0997332334518433 0.08227212727069855 45.0 9 -0.004130486864596605
1.1490267515182495 1.1275702714920044 -0.3129267692565918 51.0 2 -0.004128183238208294
1.107964277267456 1.0868951082229614 0.13578864932060242 58.0 10 -0.004125879146158695
1.1704208850860596 1.1481640338897705 -0.25968125462532043 50.0 3 -0.0041235750541090965
1.1707096099853516 1.1480463743209839 0.20132817327976227 43.0 11 -0.004121270962059498
1.1609874963760376 1.1381139755249023 -0.1996220052242279 50.0 4 -0.004118966870009899
1.2034720182418823 1.179350733757019 0.2668772339820862 48.0 12 -0.0041166627779603004
1.1556904315948486 1.132131576538086 -0.14154092967510223 57.0 5 -0.004114358685910702
1.2411695718765259 1.2158681154251099 0.3377319574356079 2.0 13 -0.00411205505952239
1.1515789031982422 1.127708911895752 -0.0844702422618866 57.0 6 -0.004109750967472792
1.215704083442688 1.190090537071228 0.3927645683288574 5.0 14 -0.004107446875423193
1.1405140161514282 1.116094946861267 -0.027854040265083313 60.0 7 -0.004105143249034882
2.811640739440918 2.750478506088257 1.0539112091064453 61.0 15 -0.004102839156985283
1.130815029144287 1.10313081741333 0.027574801817536354 60.0 8 -0.004079799167811871
1.123909831047058 1.0960118770599365 0.08227212727069855 45.0 9 -0.004075190983712673
1.1541651487350464 1.125124454498291 -0.31330838799476624 49.0 2 -0.0040728868916630745
1.1158435344696045 1.0873862504959106 0.1363115906715393 54.0 10 -0.004070582799613476
1.1786669492721558 1.1482064723968506 -0.2606198489665985 60.0 3 -0.004068278707563877
1.1775540113449097 1.1467227935791016 0.2018156498670578 50.0 11 -0.004065975081175566
1.1677978038787842 1.1368240118026733 -0.20010948181152344 52.0 4 -0.004063670989125967
1.2144538164138794 1.1822426319122314 0.2684415876865387 46.0 12 -0.004061366897076368
1.1580108404159546 1.1269030570983887 -0.1413666158914566 62.0 5 -0.00405906280502677
1.2439987659454346 1.2101596593856812 0.33735033869743347 1.0 13 -0.004056759178638458
1.1540762186050415 1.1222901344299316 -0.08436556905508041 58.0 6 -0.0040544550865888596
1.231029748916626 1.1967062950134277 0.3963637948036194 8.0 14 -0.004052150994539261
1.147076964378357 1.1150941848754883 -0.02792385034263134 60.0 7 -0.004049846902489662
2.8221311569213867 2.7424869537353516 1.0544289350509644 56.0 15 -0.0040475428104400635
1.1416467428207397 1.1063330173492432 0.027749326080083847 54.0 8 -0.004024502821266651
1.132032871246338 1.0962505340576172 0.0825861468911171 44.0 9 -0.004019895102828741
1.1693705320358276 1.1320124864578247 -0.31636133790016174 53.0 2 -0.004017591010779142
1.1525626182556152 1.115351915359497 0.14032074809074402 52.0 10 -0.004015286918729544
