# .PCD v0.7 - Point Cloud Data file format
VERSION 0.7
FIELDS x y z intensity ring time
SIZE 4 4 4 4 4 4
TYPE F F F F F F
COUNT 1 1 1 1 1 1
WIDTH 548
HEIGHT 1
VIEWPOINT 0 0 0 1 0 0 0
POINTS 548
DATA ascii
2.927642345428467 1.6889137029647827 0.5353187918663025 62.0 12 -0.09372223168611526
1.0027951002120972 0.5782644152641296 -0.10127497464418411 50.0 5 -0.09371992945671082
2.9476819038391113 1.6991032361984253 0.6613439917564392 57.0 13 -0.09371761977672577
1.015831470489502 0.5853095054626465 -0.06144241616129875 37.0 6 -0.09371531754732132
2.9413809776306152 1.6947872638702393 0.7837295532226562 57.0 14 -0.09371301531791687
1.0137072801589966 0.5838499665260315 -0.020419316366314888 61.0 7 -0.09371071308851242
2.948287010192871 1.6973940134048462 0.9115607142448425 69.0 15 -0.09370841085910797
1.002482533454895 0.5752893686294556 0.020174982026219368 61.0 8 -0.09368536621332169
0.9927982091903687 0.5692719221115112 0.059977009892463684 47.0 9 -0.09368076175451279
1.0338016748428345 0.5927833318710327 -0.23164214193820953 39.0 2 -0.09367845207452774
0.9939342141151428 0.5696921944618225 0.10022910684347153 49.0 10 -0.09367614984512329
1.0386794805526733 0.5950979590415955 -0.18959859013557434 61.0 3 -0.09367384761571884
1.0335564613342285 0.5919239521026611 0.14624322950839996 23.0 11 -0.09367154538631439
1.014709711074829 0.5808944702148438 -0.14356210827827454 47.0 4 -0.09366923570632935
2.9318056106567383 1.6777020692825317 0.5350059270858765 58.0 12 -0.0936669334769249
1.0012487173080444 0.5729564428329468 -0.10092635452747345 50.0 5 -0.09366463124752045
2.9464831352233887 1.6854203939437866 0.6598175168037415 58.0 13 -0.093662329018116
1.0195008516311646 0.5829287767410278 -0.061547089368104935 48.0 6 -0.09366002678871155
2.947279214859009 1.6845088005065918 0.7837295532226562 61.0 14 -0.0936577171087265
1.0209479331970215 0.5832840800285339 -0.020524028688669205 56.0 7 -0.09365541487932205
2.9390954971313477 1.6784706115722656 0.9069019556045532 64.0 15 -0.0936531126499176
1.0010087490081787 0.5698082447052002 0.02010517194867134 61.0 8 -0.09363006800413132
1.00519597530365 0.5717273354530334 0.06060504540801048 51.0 9 -0.09362546354532242
1.0426907539367676 0.5930532813072205 -0.2331685870885849 45.0 2 -0.09362316131591797
0.9976486563682556 0.5672041773796082 0.10040341317653656 52.0 10 -0.09362085163593292
1.0287284851074219 0.5846367478370667 -0.18740850687026978 60.0 3 -0.09361854940652847
1.0321645736694336 0.5863512754440308 0.14575575292110443 27.0 11 -0.09361624717712402
1.0167311429977417 0.5773491859436035 -0.14356210827827454 48.0 4 -0.09361394494771957
2.9342081546783447 1.6655082702636719 0.5343801975250244 42.0 12 -0.09361164271831512
1.001509666442871 0.5684745907783508 -0.10075203329324722 51.0 5 -0.09360933303833008
2.945518732070923 1.6712487936019897 0.6582910418510437 57.0 13 -0.09360703080892563
1.0232666730880737 0.5803520679473877 -0.061651766300201416 51.0 6 -0.09360472857952118
2.954836130142212 1.6751723289489746 0.7841793894767761 60.0 14 -0.09360242635011673
1.02645742893219 0.5816883444786072 -0.02059384062886238 56.0 7 -0.09360011667013168
2.9314889907836914 1.6605843305587769 0.9027608633041382 63.0 15 -0.09359781444072723
0.9995088577270508 0.5643444061279297 0.020035361871123314 60.0 8 -0.09357477724552155
1.007185697555542 0.5682147741317749 0.06060504540801048 49.0 9 -0.09357016533613205
1.0448572635650635 0.5892279148101807 -0.2331685870885849 45.0 2 -0.0935678631067276
0.9978869557380676 0.5627398490905762 0.10022910684347153 49.0 10 -0.09356556087732315
1.025600552558899 0.578131914138794 -0.1864698976278305 61.0 3 -0.0935632586479187
1.0255578756332397 0.5778720378875732 0.1445370614528656 29.0 11 -0.09356094896793365
1.022199273109436 0.5757451057434082 -0.14404956996440887 48.0 4 -0.0935586467385292
2.941725730895996 1.656224250793457 0.5346930623054504 82.0 12 -0.09355634450912476
1.0035866498947144 0.5647997856140137 -0.10075203329324722 53.0 5 -0.0935540422797203
2.9379353523254395 1.6527419090270996 0.655238151550293 55.0 13 -0.09355173259973526
1.0097190141677856 0.5677869915962219 -0.060709718614816666 54.0 6 -0.09354943037033081
2.965762138366699 1.6677125692367554 0.7855291366577148 61.0 14 -0.09354712814092636
1.0197657346725464 0.5732023119926453 -0.020419316366314888 54.0 7 -0.09354482591152191
2.9389514923095703 1.651288390159607 0.9032785296440125 63.0 15 -0.09354251623153687
1.0050603151321411 0.5626310706138611 0.02010517194867134 69.0 8 -0.09351947903633118
1.002289056777954 0.5606197118759155 0.06018635630607605 53.0 9 -0.09351487457752228
1.0555778741836548 0.5901851058006287 -0.23507671058177948 48.0 2 -0.09351256489753723
1.0034205913543701 0.5610234141349792 0.10057772696018219 46.0 10 -0.09351026266813278
1.0363342761993408 0.5791877508163452 -0.18803425133228302 64.0 3 -0.09350796043872833
1.0259358882904053 0.57314133644104 0.14429330825805664 31.0 11 -0.09350565820932388
1.0208364725112915 0.5700588226318359 -0.14356210827827454 48.0 4 -0.09350334852933884
2.944326400756836 1.6435061693191528 0.5340673327445984 61.0 12 -0.09350104629993439
1.0056499242782593 0.5611178874969482 -0.10075203329324722 53.0 5 -0.09349874407052994
2.943974494934082 1.641960620880127 0.655238151550293 56.0 13 -0.09349644184112549
1.0135375261306763 0.5650551319122314 -0.06081438809633255 57.0 6 -0.09349413216114044
2.9531311988830566 1.6463937759399414 0.7805802226066589 60.0 14 -0.09349182993173599
1.025353193283081 0.5714079141616821 -0.020489124581217766 54.0 7 -0.09348952770233154
2.9466729164123535 1.6414433717727661 0.9037961363792419 66.0 15 -0.0934872254729271
1.010612964630127 0.5608835816383362 0.020174982026219368 69.0 8 -0.09346418082714081
1.002493143081665 0.5561489462852478 0.06008167937397957 61.0 9 -0.09345957636833191
1.0490469932556152 0.5817360281944275 -0.2331685870885849 51.0 2 -0.09345727413892746
1.0124409198760986 0.5612049102783203 0.10127497464418411 49.0 10 -0.09345496445894241
1.0401780605316162 0.5763431787490845 -0.18834713101387024 66.0 3 -0.09345266222953796
1.0262929201126099 0.5684157013893127 0.14404956996440887 34.0 11 -0.09345036000013351
1.0177090167999268 0.5634286999702454 -0.14283087849617004 53.0 4 -0.09344805777072906
2.9414045810699463 1.6284339427947998 0.5325029492378235 60.0 12 -0.09344574809074402
1.0110889673233032 0.5595338344573975 -0.10110066086053848 51.0 5 -0.09344344586133957
2.9496870040893555 1.631676197052002 0.655238151550293 55.0 13 -0.09344114363193512
1.0224953889846802 0.5653793811798096 -0.06123307719826698 57.0 6 -0.09343884140253067
2.9506185054779053 1.6308448314666748 0.7783307433128357 61.0 14 -0.09343653172254562
1.0098402500152588 0.5581517219543457 -0.02014007791876793 54.0 7 -0.09343422949314117
2.952383279800415 1.6311495304107666 0.9037961363792419 64.0 15 -0.09343192726373672
1.0194740295410156 0.5613877177238464 0.020314600318670273 75.0 8 -0.09340889006853104
1.0114279985427856 0.5564970970153809 0.060500368475914 61.0 9 -0.09340427815914154
1.030428409576416 0.5667170882225037 -0.22858919203281403 45.0 2 -0.09340197592973709
1.0021716356277466 0.550949215888977 0.1000547856092453 50.0 10 -0.09339967370033264
1.0507384538650513 0.5776491165161133 -0.18991146981716156 73.0 3 -0.0933973640203476
1.0333915948867798 0.5678770542144775 0.14478079974651337 37.0 11 -0.09339506179094315
1.028270959854126 0.5648294687271118 -0.14404956996440887 56.0 4 -0.0933927595615387
2.936680555343628 1.6124541759490967 0.5306257605552673 58.0 12 -0.09339045733213425
1.00954270362854 0.5540834665298462 -0.10075203329324722 51.0 5 -0.0933881476521492
2.9550821781158447 1.621884822845459 0.655238151550293 56.0 13 -0.09338584542274475
1.0261155366897583 0.5629463791847229 -0.06133774667978287 54.0 6 -0.0933835431933403
2.9560091495513916 1.6210532188415527 0.7783307433128357 61.0 14 -0.09338124096393585
1.0012611150741577 0.5488561987876892 -0.019930649548768997 57.0 7 -0.0933789387345314
2.94789457321167 1.6152633428573608 0.9006903171539307 64.0 15 -0.09337662905454636
1.0144071578979492 0.5539920330047607 0.020174982026219368 67.0 8 -0.09335359185934067
1.0238839387893677 0.5587030649185181 0.0611284039914608 56.0 9 -0.09334897994995117
1.0460892915725708 0.5708197951316833 -0.23164214193820953 49.0 2 -0.09334667772054672
1.002244234085083 0.5466685891151428 0.09988047927618027 54.0 10 -0.09334437549114227
1.044076919555664 0.5692495703697205 -0.18834713101387024 69.0 3 -0.09334207326173782
1.040596842765808 0.5671159029006958 0.14551199972629547 39.0 11 -0.09333976358175278
1.0389522314071655 0.5659852027893066 -0.1452682614326477 57.0 4 -0.09333746135234833
2.942291736602783 1.6021926403045654 0.5306257605552673 60.0 12 -0.09333515912294388
1.0113744735717773 0.5507328510284424 -0.10075203329324722 51.0 5 -0.09333285689353943
2.9572770595550537 1.6096818447113037 0.6544748544692993 53.0 13 -0.09333055466413498
1.0333374738693237 0.5622249841690063 -0.061651766300201416 57.0 6 -0.09332824498414993
2.965074062347412 1.612586259841919 0.779230535030365 57.0 14 -0.09332594275474548
1.0137122869491577 0.5510880947113037 -0.02014007791876793 54.0 7 -0.09332364052534103
2.9467248916625977 1.6012743711471558 0.8986197710037231 64.0 15 -0.09332133829593658
1.0075430870056152 0.5456857681274414 0.020000457763671875 54.0 8 -0.0932982936501503
1.0240709781646729 0.5541757345199585 0.06102372705936432 51.0 9 -0.0932936891913414
1.0567082166671753 0.5718374252319336 -0.23355023562908173 55.0 2 -0.09329138696193695
1.007651448249817 0.5450623631477356 0.10022910684347153 57.0 10 -0.0932890772819519
1.0408447980880737 0.5627827048301697 -0.18740850687026978 64.0 3 -0.09328677505254745
1.0285990238189697 0.5559300780296326 0.14356210827827454 40.0 11 -0.093284472823143
1.039175271987915 0.5614112615585327 -0.14502453804016113 56.0 4 -0.09328217059373856
2.9461288452148438 1.5909730195999146 0.5303128957748413 56.0 12 -0.09327986091375351
1.0132908821105957 0.5471988916397095 -0.10075203329324722 51.0 5 -0.09327755868434906
2.9490559101104736 1.591890811920166 0.6514219641685486 56.0 13 -0.09327525645494461
1.0265052318572998 0.5538722276687622 -0.0611284039914608 56.0 6 -0.09327295422554016
2.9655396938323975 1.5994502305984497 0.7778807878494263 63.0 14 -0.09327064454555511
1.0279507637023926 0.5541896224021912 -0.02038441225886345 63.0 7 -0.09326834231615067
2.952296733856201 1.5909777879714966 0.8986197710037231 66.0 15 -0.09326604008674622
1.0041567087173462 0.5393272042274475 0.01989574357867241 60.0 8 -0.09324300289154053
1.0188645124435425 0.5469975471496582 0.06060504540801048 45.0 9 -0.09323839098215103
1.0673476457595825 0.5727867484092712 -0.23545831441879272 65.0 2 -0.09323608875274658
1.014814853668213 0.5443673133850098 0.10075203329324722 52.0 10 -0.09323378652334213
1.054989218711853 0.5656805038452148 -0.18959859013557434 66.0 3 -0.09323147684335709
1.0340325832366943 0.5542113780975342 0.14404956996440887 40.0 11 -0.09322917461395264
1.0341296195983887 0.5540303587913513 -0.14404956996440887 54.0 4 -0.09322687238454819
2.9513888359069824 1.5811936855316162 0.5303128957748413 35.0 12 -0.09322457015514374
1.0151946544647217 0.5436587333679199 -0.10075203329324722 51.0 5 -0.09322226047515869
2.9545950889587402 1.5815861225128174 0.6514219641685486 53.0 13 -0.09321995824575424
1.0319545269012451 0.552169919013977 -0.06133774667978287 54.0 6 -0.09321765601634979
2.952202081680298 1.5789796113967896 0.7729318737983704 57.0 14 -0.09321535378694534
1.0368362665176392 0.5545498728752136 -0.020524028688669205 66.0 7 -0.0932130441069603
2.9575560092926025 1.5811794996261597 0.8986197710037231 66.0 15 -0.09321074187755585
1.0165283679962158 0.5416365265846252 0.02010517194867134 64.0 8 -0.09318770468235016
1.0172417163848877 0.5415602922439575 0.06039569899439812 47.0 9 -0.09318309277296066
1.0658739805221558 0.5672131180763245 -0.23469506204128265 70.0 2 -0.09318079054355621
1.0255038738250732 0.5455002188682556 0.10162358731031418 46.0 10 -0.09317848831415176
1.0603471994400024 0.5640345215797424 -0.19022433459758759 69.0 3 -0.09317618608474731
1.0411231517791748 0.5535748600959778 0.14478079974651337 44.0 11 -0.09317387640476227
1.042972445487976 0.5543253421783447 -0.14502453804016113 56.0 4 -0.09317157417535782
2.949911594390869 1.5671766996383667 0.5290614366531372 76.0 12 -0.09316927194595337
1.025884747505188 0.5447836518287659 -0.10162358731031418 58.0 5 -0.09316696971654892
2.963291883468628 1.573620319366455 0.6521852016448975 55.0 13 -0.09316466003656387
1.042600154876709 0.5534275770187378 -0.061861105263233185 51.0 6 -0.09316235780715942
2.9574215412139893 1.5691816806793213 0.7729318737983704 66.0 14 -0.09316005557775497
1.0246329307556152 0.5434314012527466 -0.020244792103767395 63.0 7 -0.09315775334835052
2.9664714336395264 1.5726550817489624 0.8996549844741821 66.0 15 -0.09315544366836548
1.0290213823318481 0.5436896681785583 0.020314600318670273 67.0 8 -0.09313240647315979
1.0683737993240356 0.5642432570457458 -0.27893930673599243 1.0 1 -0.09313010424375534
1.02442467212677 0.5408036708831787 0.060709718614816666 42.0 9 -0.09312780201435089
1.0521236658096313 0.555426299571991 -0.2312605082988739 58.0 2 -0.09312549233436584
1.0308315753936768 0.54395592212677 0.10197222232818604 45.0 10 -0.0931231901049614
1.0710457563400269 0.5649374723434448 -0.1917886734008789 64.0 3 -0.09312088787555695
1.0448050498962402 0.5508633852005005 0.14502453804016113 46.0 11 -0.0931185856461525
1.05368173122406 0.5553085803985596 -0.14624322950839996 57.0 4 -0.09311627596616745
2.9431304931640625 1.5504244565963745 0.526871383190155 60.0 12 -0.093113973736763
1.0294482707977295 0.5423075556755066 -0.1017979085445404 57.0 5 -0.09311167150735855
2.968766450881958 1.5632675886154175 0.6521852016448975 56.0 13 -0.0931093692779541
1.0462931394577026 0.5507148504257202 -0.06196577474474907 56.0 6 -0.09310705959796906
2.962881326675415 1.5588480234146118 0.7729318737983704 61.0 14 -0.0931047573685646
1.0300631523132324 0.5417131781578064 -0.020314600318670273 65.0 7 -0.09310245513916016
2.9565529823303223 1.5542010068893433 0.8949962854385376 69.0 15 -0.0931001529097557
1.0309131145477295 0.5400941371917725 0.020314600318670273 69.0 8 -0.09307710826396942
1.0789684057235718 0.5650309920310974 -0.28118881583213806 8.0 1 -0.09307480603456497
1.0298449993133545 0.5390771627426147 0.060919057577848434 44.0 9 -0.09307250380516052
1.0505772829055786 0.5499295592308044 -0.23049728572368622 60.0 2 -0.09307020157575607
1.0327242612838745 0.5403540134429932 0.10197222232818604 49.0 10 -0.09306789189577103
1.0695102214813232 0.5593646168708801 -0.19116292893886566 64.0 3 -0.09306558966636658
1.0572766065597534 0.5527312755584717 0.14648695290088654 45.0 11 -0.09306328743696213
1.0556138753890991 0.5516268610954285 -0.14624322950839996 61.0 4 -0.09306098520755768
2.946773052215576 1.5392276048660278 0.5265584588050842 61.0 12 -0.09305867552757263
1.0278029441833496 0.5368661284446716 -0.10144928097724915 57.0 5 -0.09305637329816818
2.963763475418091 1.5474423170089722 0.6498954892158508 53.0 13 -0.09305407106876373
1.055291771888733 0.5507553219795227 -0.0623844638466835 56.0 6 -0.09305176883935928
2.970032215118408 1.5493980646133423 0.773381769657135 63.0 14 -0.09304946660995483
1.039040446281433 0.5418124198913574 -0.020454220473766327 64.0 7 -0.09304715692996979
2.955108165740967 1.5402988195419312 0.8929257392883301 69.0 15 -0.09304485470056534
1.1125127077102661 0.5781514048576355 -0.3359471559524536 0.0 0 -0.0930241197347641
1.0292428731918335 0.5346488952636719 0.020244792103767395 66.0 8 -0.09302181750535965
1.075745940208435 0.5585669279098511 -0.2798391282558441 18.0 1 -0.0930195078253746
1.0405840873718262 0.5400791168212891 0.06144241616129875 50.0 9 -0.09301720559597015
1.0594607591629028 0.54987633228302 -0.23202376067638397 66.0 2 -0.0930149033665657
1.0292983055114746 0.5339936017990112 0.10144928097724915 52.0 10 -0.09301260113716125
1.0697027444839478 0.5547181963920593 -0.19085006415843964 69.0 3 -0.09301029145717621
1.0486253499984741 0.5435558557510376 0.14502453804016113 46.0 11 -0.09300798922777176
1.0610580444335938 0.5497654676437378 -0.1467307060956955 67.0 4 -0.09300568699836731
2.9503743648529053 1.5280227661132812 0.5262455940246582 58.0 12 -0.09300338476896286
1.033302664756775 0.5349271297454834 -0.1017979085445404 61.0 5 -0.09300108253955841
2.9551987648010254 1.52986741065979 0.6468425393104553 55.0 13 -0.09299877285957336
1.0518862009048462 0.5443148612976074 -0.06207045167684555 59.0 6 -0.09299647063016891
2.9806158542633057 1.5417064428329468 0.7747315168380737 66.0 14 -0.09299416840076447
1.044477939605713 0.5400192141532898 -0.020524028688669205 58.0 7 -0.09299186617136002
2.9621827602386475 1.530861735343933 0.8934433460235596 66.0 15 -0.09298955649137497
1.095732569694519 0.5643396377563477 -0.33025309443473816 4.0 0 -0.09296882152557373
1.038213849067688 0.5347155928611755 0.02038441225886345 66.0 8 -0.09296651929616928
1.0603628158569336 0.5458889603614807 -0.27534011006355286 28.0 1 -0.09296421706676483
1.044238805770874 0.5373575687408447 0.061547089368104935 56.0 9 -0.09296191483736038
1.0667065382003784 0.548683226108551 -0.2331685870885849 61.0 2 -0.09295960515737534
1.0454237461090088 0.5375058650970459 0.10284377634525299 50.0 10 -0.09295730292797089
1.075242519378662 0.5525999665260315 -0.19147580862045288 66.0 3 -0.09295500069856644
1.0434538125991821 0.5362628102302551 0.14404956996440887 46.0 11 -0.09295269846916199
1.0541419982910156 0.5415226221084595 -0.14551199972629547 73.0 4 -0.09295038878917694
2.962719678878784 1.521323323249817 0.5274971127510071 57.0 12 -0.09294808655977249
1.0387085676193237 0.533136785030365 -0.10214652866125107 59.0 5 -0.09294578433036804
2.9607865810394287 1.5190250873565674 0.6468425393104553 55.0 13 -0.09294348210096359
1.0485427379608154 0.5377213954925537 -0.0617564357817173 56.0 6 -0.09294117242097855
2.9637017250061035 1.5192159414291382 0.7688827514648438 63.0 14 -0.0929388701915741
1.057033658027649 0.5418434143066406 -0.020733458921313286 66.0 7 -0.09293656796216965
2.965789556503296 1.5196306705474854 0.8929257392883301 67.0 15 -0.0929342657327652
1.0959750413894653 0.5596330761909485 -0.32973548769950867 12.0 0 -0.09291353076696396
1.0366045236587524 0.5290882587432861 0.020314600318670273 69.0 8 -0.09291122108697891
1.0693001747131348 0.5455410480499268 -0.27713972330093384 50.0 1 -0.09290891885757446
1.0444220304489136 0.5326195359230042 0.06144241616129875 55.0 9 -0.09290661662817001
1.0633682012557983 0.542281448841095 -0.23202376067638397 66.0 2 -0.09290431439876556
1.0526190996170044 0.5365676283836365 0.10336671024560928 54.0 10 -0.09290200471878052
1.0595643520355225 0.5398750305175781 -0.18834713101387024 50.0 3 -0.09289970248937607
1.050718903541565 0.5351377129554749 0.14478079974651337 48.0 11 -0.09289740025997162
1.0720410346984863 0.545760989189148 -0.14770564436912537 80.0 4 -0.09289509803056717
2.950670003890991 1.5014961957931519 0.524368405342102 61.0 12 -0.09289278835058212
1.047758936882019 0.5329394936561584 -0.10284377634525299 61.0 5 -0.09289048612117767
2.973069906234741 1.5122431516647339 0.6483690142631531 55.0 13 -0.09288818389177322
1.0593150854110718 0.5385841727256775 -0.06227979436516762 57.0 6 -0.09288588166236877
2.967249631881714 1.5079776048660278 0.7684328556060791 66.0 14 -0.09288357198238373
1.0465326309204102 0.5316255688667297 -0.020489124581217766 61.0 7 -0.09288126975297928
2.9713387489318848 1.5087510347366333 0.8929257392883301 69.0 15 -0.09287896752357483
1.0842294692993164 0.5486337542533875 -0.32559436559677124 18.0 0 -0.09285823255777359
1.0455824136734009 0.5290778279304504 0.020454220473766327 67.0 8 -0.09285593032836914
1.076414704322815 0.5444440245628357 -0.2784894108772278 52.0 1 -0.0928536206483841
1.0534045696258545 0.5325748324394226 0.061861105263233185 55.0 9 -0.09285131841897964
1.0600924491882324 0.535723090171814 -0.23087888956069946 63.0 2 -0.0928490161895752
1.0456864833831787 0.5282145738601685 0.10249514877796173 59.0 10 -0.09284671396017075
1.068589210510254 0.5395494699478149 -0.18959859013557434 55.0 3 -0.0928444042801857
1.0632127523422241 0.5368348360061646 0.14624322950839996 56.0 11 -0.09284210205078125
1.0810283422470093 0.5455928444862366 -0.14868061244487762 74.0 4 -0.0928397998213768
2.9523653984069824 1.489408254623413 0.5237426161766052 62.0 12 -0.09283749759197235
1.0513919591903687 0.5301756858825684 -0.10301808267831802 63.0 5 -0.0928351879119873
2.9750869274139404 1.4995665550231934 0.6476057171821594 57.0 13 -0.09283288568258286
1.0648491382598877 0.5364954471588135 -0.062489137053489685 59.0 6 -0.0928305834531784
2.974497079849243 1.497969150543213 0.7688827514648438 63.0 14 -0.09282828122377396
1.043023943901062 0.5252712368965149 -0.02038441225886345 65.0 7 -0.0928259789943695
2.9662344455718994 1.4931575059890747 0.8898199200630188 70.0 15 -0.09282366931438446
1.0996626615524292 0.5523519515991211 -0.32973548769950867 34.0 0 -0.09032845497131348
1.0365166664123535 0.5204070806503296 0.020244792103767395 67.0 8 -0.09032615274190903
1.0711530447006226 0.5375630259513855 -0.2766897976398468 52.0 1 -0.09032385051250458
1.06221342086792 0.5328451991081238 0.06227979436516762 53.0 9 -0.09032154083251953
1.0669413805007935 0.5352169275283813 -0.23202376067638397 60.0 2 -0.09031923860311508
1.043687343597412 0.5233232378959656 0.10214652866125107 59.0 10 -0.09031693637371063
1.0613555908203125 0.5319506525993347 -0.18803425133228302 60.0 3 -0.09031463414430618
1.0666687488555908 0.5343813300132751 0.14648695290088654 51.0 11 -0.09031232446432114
1.0756371021270752 0.5386388897895813 -0.14770564436912537 59.0 4 -0.09031002223491669
2.9534976482391357 1.4783565998077393 0.5231168866157532 62.0 12 -0.09030772000551224
1.0529605150222778 0.5270534753799438 -0.10301808267831802 77.0 5 -0.09030541777610779
2.972499370574951 1.4872210025787354 0.6460793018341064 55.0 13 -0.09030310809612274
1.078940749168396 0.5395868420600891 -0.06322184205055237 70.0 6 -0.09030080586671829
2.9771859645843506 1.488264799118042 0.7684328556060791 66.0 14 -0.09029850363731384
1.0518240928649902 0.525567352771759 -0.020524028688669205 63.0 7 -0.0902962014079094
2.9639971256256104 1.4803791046142578 0.8877493143081665 72.0 15 -0.09029389172792435
1.099854826927185 0.5476486682891846 -0.3292178511619568 43.0 0 -0.09027315676212311
1.0383265018463135 0.516786515712738 0.020244792103767395 71.0 8 -0.09027085453271866
1.0712780952453613 0.5329529643058777 -0.27623990178108215 56.0 1 -0.09026855230331421
1.064067006111145 0.5291338562965393 0.06227979436516762 55.0 9 -0.09026625007390976
1.0723190307617188 0.5332373976707458 -0.23278698325157166 60.0 2 -0.09026394039392471
1.047291874885559 0.5205634832382202 0.1023208349943161 57.0 10 -0.09026163816452026
1.0614368915557861 0.5273638963699341 -0.187721386551857 61.0 3 -0.09025933593511581
1.0596381425857544 0.5262396931648254 0.1452682614326477 50.0 11 -0.09025703370571136
1.0828452110290527 0.5375286340713501 -0.14843687415122986 52.0 4 -0.09025472402572632
2.958639621734619 1.4680386781692505 0.5231168866157532 61.0 12 -0.09025242179632187
1.058363437652588 0.5251462459564209 -0.10336671024560928 72.0 5 -0.09025011956691742
2.9671199321746826 1.471601128578186 0.6437895894050598 56.0 13 -0.09024781733751297
1.0682917833328247 0.5296072363853455 -0.062489137053489685 63.0 6 -0.09024550765752792
2.987600803375244 1.4804599285125732 0.769782543182373 67.0 14 -0.09024320542812347
1.0500684976577759 0.5201171636581421 -0.020454220473766327 65.0 7 -0.09024090319871902
2.965684413909912 1.4683088064193726 0.8867141008377075 70.0 15 -0.09023860096931458
1.1104212999343872 0.5480815768241882 -0.3318060338497162 51.0 0 -0.09021786600351334
1.0437109470367432 0.5149281620979309 0.020314600318670273 71.0 8 -0.09021555632352829
1.0731321573257446 0.5292099714279175 -0.27623990178108215 52.0 1 -0.09021325409412384
1.0569502115249634 0.5210012793540955 0.0617564357817173 59.0 9 -0.09021095186471939
1.0724128484725952 0.5286232829093933 -0.23240536451339722 57.0 2 -0.09020864963531494
1.0598256587982178 0.5221888422966003 0.10336671024560928 57.0 10 -0.0902063399553299
1.0703598260879517 0.5271463394165039 -0.1889728605747223 61.0 3 -0.09020403772592545
1.0596874952316284 0.5216611623764038 0.14502453804016113 55.0 11 -0.090201735496521
1.0704654455184937 0.5267347693443298 -0.14648695290088654 49.0 4 -0.09019943326711655
2.9672915935516357 1.4594448804855347 0.5237426161766052 61.0 12 -0.0901971235871315
1.0637658834457397 0.5232070088386536 -0.10371533036231995 65.0 5 -0.09019482135772705
2.9687156677246094 1.4595019817352295 0.6430263519287109 55.0 13 -0.0901925191283226
1.0701335668563843 0.5258757472038269 -0.062489137053489685 74.0 6 -0.09019021689891815
2.97525954246521 1.4614298343658447 0.7652835249900818 63.0 14 -0.0901879146695137
1.0644429922103882 0.522617518901825 -0.020698554813861847 77.0 7 -0.09018560498952866
2.9742591381073 1.4596518278121948 0.8877493143081665 69.0 15 -0.0901833027601242
1.1105926036834717 0.5433528423309326 -0.3312883973121643 48.0 0 -0.09016256779432297
1.052687644958496 0.5147954821586609 0.020454220473766327 74.0 8 -0.09016026556491852
1.0749725103378296 0.5254616141319275 -0.27623990178108215 56.0 1 -0.09015795588493347
1.0515844821929932 0.5138012170791626 0.06133774667978287 61.0 9 -0.09015565365552902
1.0689598321914673 0.5222907662391663 -0.2312605082988739 53.0 2 -0.09015335142612457
1.0616421699523926 0.5184858441352844 0.10336671024560928 56.0 10 -0.09015104919672012
1.0775184631347656 0.526007354259491 -0.18991146981716156 64.0 3 -0.09014873951673508
1.0668542385101318 0.5205702185630798 0.14575575292110443 60.0 11 -0.09014643728733063
1.065160870552063 0.5195137858390808 -0.14551199972629547 52.0 4 -0.09014413505792618
2.958162784576416 1.4421539306640625 0.521239697933197 62.0 12 -0.09014183282852173
1.074540138244629 0.5238562822341919 -0.1045868918299675 59.0 5 -0.09013953059911728
2.980851173400879 1.4525710344314575 0.6445528268814087 58.0 13 -0.09013722091913223
1.0701673030853271 0.5212621688842773 -0.0623844638466835 79.0 6 -0.09013491868972778
2.9715819358825684 1.4467706680297852 0.7630340456962585 66.0 14 -0.09013261646032333
1.064462423324585 0.5180238485336304 -0.02066364884376526 85.0 7 -0.09013031423091888
2.9741249084472656 1.4467248916625977 0.886196494102478 72.0 15 -0.09012800455093384
1.1020530462265015 0.5344149470329285 -0.32818254828453064 48.0 0 -0.0901072695851326
1.0544781684875488 0.5111179947853088 0.020454220473766327 75.0 8 -0.09010496735572815
1.0803078413009644 0.523405134677887 -0.27713972330093384 56.0 1 -0.0901026651263237
1.056966781616211 0.5118681192398071 0.061547089368104935 61.0 9 -0.09010035544633865
1.0725435018539429 0.5194116234779358 -0.23164214193820953 55.0 2 -0.0900980532169342
1.054478645324707 0.5104365944862366 0.10249514877796173 61.0 10 -0.09009575098752975
1.0793482065200806 0.5222426056861877 -0.18991146981716156 58.0 3 -0.0900934487581253
1.0758132934570312 0.5202999711036682 0.1467307060956955 57.0 11 -0.09009114652872086
1.063393235206604 0.5140648484230042 -0.14502453804016113 52.0 4 -0.09008883684873581
2.961399793624878 1.4309602975845337 0.520926833152771 63.0 12 -0.09008653461933136
1.0691862106323242 0.5166350603103638 -0.10388964414596558 57.0 5 -0.09008423238992691
2.97529673576355 1.4370330572128296 0.6422631144523621 58.0 13 -0.09008193016052246
1.0773760080337524 0.520128607749939 -0.06269848346710205 77.0 6 -0.09007962048053741
2.976613759994507 1.4363898038864136 0.7630340456962585 66.0 14 -0.09007731825113297
1.0554577112197876 0.5090922117233276 -0.020454220473766327 79.0 7 -0.09007501602172852
2.9687156677246094 1.431301236152649 0.883090615272522 72.0 15 -0.09007271379232407
1.1004290580749512 0.528891921043396 -0.3271472752094269 50.0 0 -0.09005197137594223
1.0490460395812988 0.5039700865745544 0.020314600318670273 75.0 8 -0.09004966914653778
1.0891550779342651 0.5230048894882202 -0.27893930673599243 59.0 1 -0.09004736691713333
1.0659493207931519 0.5116327404975891 0.06196577474474907 59.0 9 -0.09004506468772888
1.070810079574585 0.5139657258987427 -0.23087888956069946 55.0 2 -0.09004276245832443
1.0562541484832764 0.5067524313926697 0.10249514877796173 59.0 10 -0.09004045277833939
1.0740400552749634 0.5150548815727234 -0.18865999579429626 53.0 3 -0.09003815054893494
1.093733310699463 0.5242640376091003 0.1489243507385254 53.0 11 -0.09003584831953049
1.0759227275848389 0.5154958963394165 -0.14648695290088654 43.0 4 -0.09003354609012604
2.969940423965454 1.4223198890686035 0.521552562713623 63.0 12 -0.09003123641014099
1.0745772123336792 0.5146206021308899 -0.10423827171325684 52.0 5 -0.09002893418073654
2.9732112884521484 1.4232486486434937 0.6407366394996643 53.0 13 -0.09002663195133209
1.0809868574142456 0.5172264575958252 -0.06280315667390823 70.0 6 -0.09002432972192764
2.983367919921875 1.4268306493759155 0.7634838819503784 63.0 14 -0.0900220200419426
1.064444899559021 0.5088550448417664 -0.02059384062886238 79.0 7 -0.09001971781253815
2.966721773147583 1.4175972938537598 0.8810200095176697 72.0 15 -0.0900174155831337
1.1092450618743896 0.5283702611923218 -0.3292178511619568 50.0 0 -0.08999668061733246
1.0471878051757812 0.49858611822128296 0.020244792103767395 75.0 8 -0.08999437838792801
1.0874547958374023 0.5175251960754395 -0.27803951501846313 57.0 1 -0.08999206870794296
1.065925121307373 0.5070509910583496 0.061861105263233185 53.0 9 -0.08998976647853851
1.0850077867507935 0.516128420829773 -0.23355023562908173 60.0 2 -0.08998746424913406
1.0598161220550537 0.5039175748825073 0.10266946256160736 56.0 10 -0.08998516201972961
1.070478916168213 0.508759081363678 -0.187721386551857 51.0 3 -0.08998285233974457
1.0794192552566528 0.5127772092819214 0.1467307060956955 47.0 11 -0.08998055011034012
1.0777157545089722 0.5117367506027222 -0.14648695290088654 41.0 4 -0.08997824788093567
2.9695329666137695 1.409403920173645 0.520613968372345 62.0 12 -0.08997594565153122
1.0637671947479248 0.5048866868019104 -0.10301808267831802 43.0 5 -0.08997363597154617
2.96397066116333 1.406130075454712 0.6376836895942688 58.0 13 -0.08997133374214172
1.0773718357086182 0.5108824372291565 -0.062489137053489685 63.0 6 -0.08996903151273727
2.9865689277648926 1.415574073791504 0.7630340456962585 66.0 14 -0.08996672928333282
1.064407229423523 0.5042803287506104 -0.020558936521410942 77.0 7 -0.08996441960334778
2.973398447036743 1.408059000968933 0.881537675857544 74.0 15 -0.08996211737394333
1.1198174953460693 0.5286186933517456 -0.3318060338497162 51.0 0 -0.08994138240814209
1.0525388717651367 0.4966340661048889 0.020314600318670273 69.0 8 -0.08993908017873764
1.0822045803070068 0.5104007720947266 -0.27623990178108215 59.0 1 -0.08993677794933319
1.0640753507614136 0.5016241073608398 0.061651766300201416 52.0 9 -0.08993446826934814
1.088578462600708 0.5131753087043762 -0.23393183946609497 61.0 2 -0.0899321660399437
1.0687779188156128 0.5036123394966125 0.10336671024560928 48.0 10 -0.08992986381053925
1.0793968439102173 0.5083858370780945 -0.1889728605747223 55.0 3 -0.0899275615811348
1.072222352027893 0.5047786831855774 0.14551199972629547 45.0 11 -0.08992525190114975
1.0651260614395142 0.5012102723121643 -0.1445370614528656 44.0 4 -0.0899229496717453
2.970860004425049 1.3973474502563477 0.5199882388114929 62.0 12 -0.08992064744234085
1.0547057390213013 0.4960820972919464 -0.10197222232818604 49.0 5 -0.0899183452129364
2.9759681224823 1.399115800857544 0.6392101645469666 55.0 13 -0.08991603553295135
1.0719181299209595 0.5037210583686829 -0.06207045167684555 57.0 6 -0.0899137333035469
2.9844369888305664 1.4018255472183228 0.7612344026565552 66.0 14 -0.08991143107414246
1.0679713487625122 0.5014113783836365 -0.02059384062886238 65.0 7 -0.089909128844738
2.978295087814331 1.3976719379425049 0.881537675857544 74.0 15 -0.08990682661533356
1.1251556873321533 0.5263434052467346 -0.33284130692481995 54.0 0 -0.08988608419895172
1.0578888654708862 0.4946512281894684 0.02038441225886345 69.0 8 -0.08988378196954727
1.0839794874191284 0.5066202878952026 -0.27623990178108215 60.0 1 -0.08988147974014282
1.0549627542495728 0.4928343594074249 0.06102372705936432 39.0 9 -0.08987917751073837
1.086805820465088 0.5077100992202759 -0.2331685870885849 61.0 2 -0.08987686783075333
1.0741397142410278 0.5015646815299988 0.10371533036231995 46.0 10 -0.08987456560134888
1.088324785232544 0.5079569816589355 -0.19022433459758759 55.0 3 -0.08987226337194443
1.0685811042785645 0.498514860868454 0.14478079974651337 42.0 11 -0.08986996114253998
1.0650697946548462 0.49665045738220215 -0.14429330825805664 51.0 4 -0.08986765146255493
2.9667670726776123 1.3827967643737793 0.518423855304718 63.0 12 -0.08986534923315048
1.058236837387085 0.4932394027709961 -0.10214652866125107 51.0 5 -0.08986304700374603
2.9772744178771973 1.3870617151260376 0.6384469270706177 58.0 13 -0.08986074477434158
1.0736697912216187 0.4999765157699585 -0.06207045167684555 49.0 6 -0.08985844254493713
2.9787116050720215 1.3864660263061523 0.7585350275039673 61.0 14 -0.08985613286495209
1.058836579322815 0.49261945486068726 -0.02038441225886345 64.0 7 -0.08985383063554764
2.9849071502685547 1.3880823850631714 0.8820553421974182 70.0 15 -0.08985152840614319
1.1147174835205078 0.5167251825332642 -0.3292178511619568 50.0 0 -0.08983079344034195
1.059609055519104 0.49095574021339417 0.02038441225886345 61.0 8 -0.0898284837603569
1.0928148031234741 0.5061088800430298 -0.27803951501846313 59.0 1 -0.08982618153095245
1.0548642873764038 0.4883095622062683 0.060919057577848434 39.0 9 -0.089823879301548
1.0850083827972412 0.502263605594635 -0.23240536451339722 61.0 2 -0.08982157707214355
1.0686509609222412 0.49446576833724976 0.10301808267831802 47.0 10 -0.08981926739215851
1.0918842554092407 0.5049838423728943 -0.1905371993780136 60.0 3 -0.08981696516275406
1.0739185810089111 0.49644744396209717 0.1452682614326477 44.0 11 -0.08981466293334961
1.0722029209136963 0.49542784690856934 -0.14502453804016113 58.0 4 -0.08981236070394516
2.967989683151245 1.3707751035690308 0.517798125743866 63.0 12 -0.08981005847454071
1.0581433773040771 0.4887067675590515 -0.10197222232818604 50.0 5 -0.08980774879455566
2.9874460697174072 1.3791284561157227 0.6395918130874634 60.0 13 -0.08980544656515121
1.0808488130569458 0.49873629212379456 -0.0623844638466835 46.0 6 -0.08980314433574677
2.9817636013031006 1.3752429485321045 0.7580850720405579 60.0 14 -0.08980084210634232
1.0605497360229492 0.4889201521873474 -0.02038441225886345 56.0 7 -0.08979853242635727
2.9721884727478027 1.3695704936981201 0.8768789768218994 72.0 15 -0.08979623019695282
1.1147587299346924 0.5120248198509216 -0.3287002146244049 45.0 0 -0.08977549523115158
1.0467778444290161 0.4805790185928345 0.02010517194867134 47.0 8 -0.08977319300174713
1.0981168746948242 0.5039169192314148 -0.27893930673599243 59.0 1 -0.08977088332176208
1.052931547164917 0.4829593002796173 0.060709718614816666 43.0 9 -0.08976858109235764
1.0921083688735962 0.5009289383888245 -0.23355023562908173 70.0 2 -0.08976627886295319
1.0595039129257202 0.48575013875961304 0.10197222232818604 36.0 10 -0.08976397663354874
1.0882527828216553 0.4987007975578308 -0.18959859013557434 61.0 3 -0.08976167440414429
1.0774495601654053 0.49352264404296875 0.14551199972629547 45.0 11 -0.08975936472415924
1.09017014503479 0.4991191029548645 -0.14721818268299103 61.0 4 -0.08975706249475479
2.969163656234741 1.3587630987167358 0.5171723961830139 63.0 12 -0.08975476026535034
1.063466191291809 0.48666855692863464 -0.1023208349943161 42.0 5 -0.08975245803594589
2.972602367401123 1.35970938205719 0.6353939771652222 58.0 13 -0.08975014835596085
1.0789505243301392 0.4932991862297058 -0.06217512488365173 49.0 6 -0.0897478461265564
2.990091323852539 1.3664454221725464 0.7589848637580872 63.0 14 -0.08974554389715195
1.0604307651519775 0.4843844771385193 -0.02034950442612171 44.0 7 -0.0897432416677475
2.9699220657348633 1.3559770584106445 0.8748083710670471 69.0 15 -0.08974093198776245
1.1235727071762085 0.5113310217857361 -0.3307707607746124 43.0 0 -0.08972019702196121
1.0429881811141968 0.4744383990764618 0.020000457763671875 57.0 8 -0.08971789479255676
1.0963211059570312 0.4984678030014038 -0.27803951501846313 55.0 1 -0.08971559256315231
1.0600658655166626 0.4817596673965454 0.06102372705936432 47.0 9 -0.08971329033374786
1.10457444190979 0.501987099647522 -0.23583993315696716 70.0 2 -0.08971098065376282
1.0466811656951904 0.4754564166069031 0.10057772696018219 39.0 10 -0.08970867842435837
1.0971814393997192 0.49816587567329407 -0.19085006415843964 66.0 3 -0.08970637619495392
1.0665124654769897 0.4840158224105835 0.1438058316707611 48.0 11 -0.08970407396554947
1.0955214500427246 0.4969504475593567 -0.14770564436912537 59.0 4 -0.08970176428556442
2.979285478591919 1.350838303565979 0.5181110501289368 67.0 12 -0.08969946205615997
1.0760459899902344 0.48789018392562866 -0.10336671024560928 13.0 5 -0.08969715982675552
2.9701783657073975 1.3460824489593506 0.6338675618171692 60.0 13 -0.08969485759735107
1.075208067893982 0.48705723881721497 -0.061861105263233185 49.0 6 -0.08969254791736603
2.9930665493011475 1.3551981449127197 0.7585350275039673 61.0 14 -0.08969024568796158
1.0584717988967896 0.4790307283401489 -0.020279696211218834 45.0 7 -0.08968794345855713
2.974637508392334 1.3456010818481445 0.8748083710670471 70.0 15 -0.08968564122915268
1.1253503561019897 0.5074067115783691 -0.3307707607746124 42.0 0 -0.08966490626335144
1.042815089225769 0.4699729084968567 0.019965553656220436 62.0 8 -0.0896625965833664
1.09450101852417 0.49303683638572693 -0.27713972330093384 54.0 1 -0.08966029435396194
1.054456114768982 0.4747771620750427 0.06060504540801048 52.0 9 -0.0896579921245575
1.097368836402893 0.4940989315509796 -0.23393183946609497 63.0 2 -0.08965568989515305
1.0592355728149414 0.47670620679855347 0.10162358731031418 39.0 10 -0.089653380215168
1.1025168895721436 0.4959535002708435 -0.19147580862045288 69.0 3 -0.08965107798576355
1.0663846731185913 0.4794767200946808 0.14356210827827454 55.0 11 -0.0896487757563591
1.093628168106079 0.49149611592292786 -0.14721818268299103 57.0 4 -0.08964647352695465
2.9857850074768066 1.3412389755249023 0.518423855304718 63.0 12 -0.0896441638469696
1.0704728364944458 0.48086512088775635 -0.10266946256160736 2.0 5 -0.08964186161756516
2.9748594760894775 1.3357056379318237 0.6338675618171692 60.0 13 -0.0896395593881607
1.073257327079773 0.48166584968566895 -0.061651766300201416 50.0 6 -0.08963725715875626
2.9871110916137695 1.3399556875228882 0.7558355927467346 61.0 14 -0.08963494747877121
1.0674362182617188 0.4786052405834198 -0.020419316366314888 57.0 7 -0.08963264524936676
2.98636794090271 1.3383703231811523 0.8768789768218994 70.0 15 -0.08963034301996231
1.1271147727966309 0.5034750699996948 -0.3307707607746124 43.0 0 -0.08960960805416107
1.051753044128418 0.4695906937122345 0.02010517194867134 67.0 8 -0.08960730582475662
1.0997744798660278 0.4908019006252289 -0.27803951501846313 48.0 1 -0.08960499614477158
1.0451630353927612 0.4662114381790161 0.059977009892463684 51.0 9 -0.08960269391536713
1.0919151306152344 0.48706597089767456 -0.23240536451339722 63.0 2 -0.08960039168596268
1.0645326375961304 0.4746282398700714 0.10197222232818604 39.0 10 -0.08959808945655823
1.1060456037521362 0.49290627241134644 -0.1917886734008789 76.0 3 -0.08959577977657318
1.0807452201843262 0.4814051687717438 0.1452682614326477 45.0 11 -0.08959347754716873
1.0862699747085571 0.48363831639289856 -0.1459994912147522 56.0 4 -0.08959117531776428
2.9724009037017822 1.3227777481079102 0.5152952075004578 63.0 12 -0.08958887308835983
1.0867067575454712 0.483606219291687 -0.10406395047903061 4.0 5 -0.08958656340837479
2.9830901622772217 1.3269109725952148 0.6346307396888733 60.0 13 -0.08958426117897034
1.0694571733474731 0.4754820168018341 -0.06133774667978287 54.0 6 -0.08958195894956589
2.9864273071289062 1.3271470069885254 0.7544858455657959 63.0 14 -0.08957965672016144
1.0508248805999756 0.46675950288772583 -0.020070267841219902 59.0 7 -0.08957735449075699
2.98749041557312 1.3263691663742065 0.8758436441421509 72.0 15 -0.08957504481077194
1.1359318494796753 0.5026642680168152 -0.33284130692481995 39.0 0 -0.0895543098449707
1.06070077419281 0.4691528081893921 0.020244792103767395 69.0 8 -0.08955200761556625
1.1050456762313843 0.488535612821579 -0.27893930673599243 50.0 1 -0.0895497053861618
1.054010272026062 0.46597304940223694 0.06039569899439812 41.0 9 -0.08954739570617676
1.090017318725586 0.48166418075561523 -0.23164214193820953 63.0 2 -0.08954509347677231
1.0789403915405273 0.4765450060367584 0.10319239646196365 48.0 10 -0.08954279124736786
1.096916913986206 0.48425546288490295 -0.18991146981716156 66.0 3 -0.08954048901796341
1.080603003501892 0.47682806849479675 0.14502453804016113 47.0 11 -0.08953817933797836
1.0952162742614746 0.48304861783981323 -0.14697444438934326 54.0 4 -0.08953587710857391
2.973156213760376 1.3113199472427368 0.5146694779396057 71.0 12 -0.08953357487916946
1.0683344602584839 0.47096899151802063 -0.10214652866125107 20.0 5 -0.08953127264976501
2.985907554626465 1.3156975507736206 0.6342491507530212 61.0 13 -0.08952897042036057
1.0765935182571411 0.474161833524704 -0.061651766300201416 51.0 6 -0.08952666074037552
2.9874751567840576 1.3151432275772095 0.7535860538482666 63.0 14 -0.08952435851097107
1.0468764305114746 0.4608548879623413 -0.019965553656220436 63.0 7 -0.08952205628156662
2.979494571685791 1.3110092878341675 0.8722202181816101 74.0 15 -0.08951975405216217
1.1359102725982666 0.49792078137397766 -0.33232367038726807 33.0 0 -0.08949901163578033
1.0439362525939941 0.45760440826416016 0.01989574357867241 67.0 8 -0.08949670940637589
1.1137993335723877 0.4879968464374542 -0.2807389199733734 50.0 1 -0.08949440717697144
1.059289574623108 0.46389317512512207 0.06060504540801048 37.0 9 -0.08949210494756699
1.095288872718811 0.4794311225414276 -0.23240536451339722 61.0 2 -0.08948980271816254
1.0933747291564941 0.4783658981323242 0.10441257804632187 49.0 10 -0.08948749303817749
1.1057554483413696 0.4837826192378998 -0.19116292893886566 64.0 3 -0.08948519080877304
1.107641577720642 0.4843768775463104 0.14843687415122986 46.0 11 -0.08948288857936859
1.1040879487991333 0.48259401321411133 -0.14794939756393433 53.0 4 -0.08948058634996414
2.9686648845672607 1.2969787120819092 0.5131050944328308 62.0 12 -0.0894782766699791
1.0535390377044678 0.46006065607070923 -0.10057772696018219 40.0 5 -0.08947597444057465
2.986656427383423 1.3042166233062744 0.6334859132766724 62.0 13 -0.0894736722111702
1.081821084022522 0.47218674421310425 -0.061861105263233185 31.0 6 -0.08947136998176575
2.993605852127075 1.30600905418396 0.754036009311676 61.0 14 -0.0894690603017807
1.0631428956985474 0.46359190344810486 -0.020244792103767395 66.0 7 -0.08946675807237625
2.9805104732513428 1.2990578413009644 0.8711849451065063 76.0 15 -0.0894644558429718
1.1588177680969238 0.5033879280090332 -0.338535338640213 37.0 0 -0.08944372087717056
1.0528640747070312 0.4571428894996643 0.020035361871123314 64.0 8 -0.08944141864776611
1.1083452701568604 0.48100295662879944 -0.27893930673599243 48.0 1 -0.08943910896778107
1.0792250633239746 0.46814149618148804 0.061651766300201416 41.0 9 -0.08943680673837662
1.1040769815444946 0.47892168164253235 -0.23393183946609497 63.0 2 -0.08943450450897217
1.0986109972000122 0.4763222932815552 0.10476119816303253 47.0 10 -0.08943220227956772
1.1020002365112305 0.4775632321834564 -0.19022433459758759 69.0 3 -0.08942989259958267
1.1002174615859985 0.4765632152557373 0.14721818268299103 44.0 11 -0.08942759037017822
1.098479151725769 0.4755820035934448 -0.14697444438934326 56.0 4 -0.08942528814077377
2.987677812576294 1.2928836345672607 0.5156080722808838 67.0 12 -0.08942298591136932
1.0459160804748535 0.4526083171367645 -0.09970616549253464 40.0 5 -0.08942067623138428
2.9803779125213623 1.2891088724136353 0.6311962008476257 62.0 13 -0.08941837400197983
1.0687966346740723 0.46206676959991455 -0.06102372705936432 5.0 6 -0.08941607177257538
2.9945688247680664 1.2940046787261963 0.753136157989502 61.0 14 -0.08941376954317093
1.0610827207565308 0.4582929313182831 -0.020174982026219368 63.0 7 -0.08941145986318588
2.985027313232422 1.2886452674865723 0.8711849451065063 74.0 15 -0.08940915763378143
1.1623425483703613 0.5001029968261719 -0.3390529751777649 36.0 0 -0.0893884226679802
1.058127522468567 0.455045223236084 0.02010517194867134 63.0 8 -0.08938612043857574
1.1028562784194946 0.47405269742012024 -0.27713972330093384 45.0 1 -0.0893838182091713
1.0881930589675903 0.46752476692199707 0.06207045167684555 50.0 9 -0.08938150852918625
1.103938341140747 0.47428953647613525 -0.23355023562908173 58.0 2 -0.0893792062997818
1.1039284467697144 0.47405707836151123 0.10510982573032379 45.0 10 -0.08937690407037735
1.1109212636947632 0.4768303632736206 -0.19147580862045288 66.0 3 -0.0893746018409729
1.0982258319854736 0.47115427255630493 0.1467307060956955 36.0 11 -0.08937229216098785
1.096483588218689 0.4701802432537079 -0.14648695290088654 53.0 4 -0.0893699899315834
2.9830942153930664 1.2785564661026 0.5140437483787537 42.0 12 -0.08936768770217896
1.0474895238876343 0.44895482063293457 -0.09970616549253464 46.0 5 -0.0893653854727745
2.995687961578369 1.2833354473114014 0.6334859132766724 16.0 13 -0.08936307579278946
1.0465350151062012 0.4481127858161926 -0.05966299772262573 0.0 6 -0.08936077356338501
2.990109443664551 1.2797105312347412 0.7508866190910339 37.0 14 -0.08935847133398056
1.0700303316116333 0.4577319025993347 -0.020314600318670273 54.0 7 -0.08935616910457611
2.9841785430908203 1.2759383916854858 0.8696320056915283 72.0 15 -0.08935385942459106
1.1818532943725586 0.5036160349845886 -0.3442293405532837 34.0 0 -0.08933312445878983
1.0633888244628906 0.4529162645339966 0.020174982026219368 63.0 8 -0.08933082222938538
1.1224347352981567 0.4778329133987427 -0.2816387414932251 42.0 1 -0.08932851999998093
1.104520559310913 0.46997958421707153 0.06290782243013382 52.0 9 -0.08932621777057648
1.0983610153198242 0.46735867857933044 -0.23202376067638397 60.0 2 -0.08932390809059143
1.1055763959884644 0.4702010154724121 0.10510982573032379 45.0 10 -0.08932160586118698
1.112579107284546 0.4729493260383606 -0.19147580862045288 66.0 3 -0.08931930363178253
1.0998636484146118 0.4673181176185608 0.1467307060956955 25.0 11 -0.08931700140237808
1.0944637060165405 0.4647982716560364 -0.1459994912147522 52.0 4 -0.08931469172239304
2.9711742401123047 1.2611883878707886 0.5112279057502747 6.0 12 -0.08931238949298859
1.061966896057129 0.4505600035190582 -0.10092635452747345 49.0 5 -0.08931008726358414
3.009185791015625 1.276705265045166 0.6353939771652222 1.0 13 -0.08930778503417969
1.0738352537155151 0.4553736746311188 -0.0611284039914608 5.0 6 -0.08930547535419464
1.0697803497314453 0.45321422815322876 -0.020279696211218834 26.0 7 -0.08930087089538574
2.9939510822296143 1.2677744626998901 0.8711849451065063 74.0 15 -0.08929856866598129
1.187251329421997 0.5007822513580322 -0.34526464343070984 30.0 0 -0.08927783370018005
1.0686485767364502 0.45075565576553345 0.020244792103767395 66.0 8 -0.08927552402019501
1.1384611129760742 0.4799685478210449 -0.2852379381656647 38.0 1 -0.08927322179079056
1.1098356246948242 0.46767210960388184 0.06311716884374619 52.0 9 -0.08927091956138611
