# .PCD v0.7 - Point Cloud Data file format
VERSION 0.7
FIELDS x y z intensity ring time
SIZE 4 4 4 4 4 4
TYPE F F F F F F
COUNT 1 1 1 1 1 1
WIDTH 548
HEIGHT 1
VIEWPOINT 0 0 0 1 0 0 0
POINTS 548
DATA ascii
-3.0559005737304688 0.9086811542510986 0.7360398769378662 76.0 14 -0.0647551566362381
-2.9593112468719482 0.8805214762687683 -0.05389302968978882 1.0 7 -0.06475284695625305
-3.049469470977783 0.9079274535179138 0.8525499701499939 88.0 15 -0.0647505447268486
-2.789238214492798 0.8341590762138367 -0.7800806164741516 41.0 0 -0.06472980976104736
-2.9138619899749756 0.8719826936721802 0.05309021845459938 3.0 8 -0.06472750753164291
-2.775991439819336 0.8312531113624573 -0.669004499912262 11.0 1 -0.06472520530223846
-2.9482719898223877 0.8834021687507629 0.1612994372844696 2.0 9 -0.06472289562225342
-2.6705174446105957 0.8001775145530701 -0.5418975949287415 22.0 2 -0.06472059339284897
-3.1012399196624756 0.9298263788223267 0.2832561731338501 43.0 10 -0.06471829116344452
-2.6678051948547363 0.8003796935081482 -0.44114524126052856 37.0 3 -0.06471598893404007
-3.081953287124634 0.9252162575721741 0.3951004445552826 46.0 11 -0.06471367925405502
-2.621709108352661 0.7875484228134155 -0.33611568808555603 20.0 4 -0.06471137702465057
-3.0892491340637207 0.9285821318626404 0.5109150409698486 71.0 12 -0.06470907479524612
-2.984199047088623 0.8970056772232056 -0.2726231813430786 25.0 5 -0.06470677256584167
-3.085170269012451 0.927943229675293 0.6262351274490356 60.0 13 -0.06470446288585663
-2.4384605884552 0.7338935732841492 -0.13345670700073242 34.0 6 -0.06470216065645218
-3.0676379203796387 0.9238376617431641 0.7396391034126282 76.0 14 -0.06469985842704773
-2.9562196731567383 0.8908460736274719 -0.05389302968978882 1.0 7 -0.06469755619764328
-3.0425820350646973 0.9174512624740601 0.8515146970748901 80.0 15 -0.06469525396823883
-2.7715182304382324 0.8394097089767456 -0.7759395241737366 37.0 0 -0.064674511551857
-2.9280240535736084 0.8873692750930786 0.05340436473488808 3.0 8 -0.06467220932245255
-2.787992000579834 0.845462441444397 -0.6726037263870239 11.0 1 -0.0646699070930481
-2.9451706409454346 0.8936875462532043 0.1612994372844696 2.0 9 -0.06466760486364365
-2.6714656352996826 0.8106340169906616 -0.5426608324050903 21.0 2 -0.0646652951836586
-3.097975492477417 0.9406461715698242 0.2832561731338501 43.0 10 -0.06466299295425415
-2.649874448776245 0.8050932884216309 -0.438642293214798 31.0 3 -0.0646606907248497
-3.0938990116119385 0.9405872225761414 0.3970503509044647 53.0 11 -0.06465838849544525
-2.565767526626587 0.7805179953575134 -0.3292909860610962 27.0 4 -0.0646560788154602
-3.0746500492095947 0.9359085559844971 0.5090377926826477 72.0 12 -0.06465377658605576
-3.0285396575927734 0.9224511384963989 -0.2769809365272522 22.0 5 -0.0646514743566513
-3.072521924972534 0.9358475208282471 0.6243270635604858 62.0 13 -0.06464917212724686
-2.443526029586792 0.7447295188903809 -0.13387538492679596 34.0 6 -0.06464686989784241
-3.071850538253784 0.93681401014328 0.7414387464523315 76.0 14 -0.06464456021785736
-2.953091621398926 0.9011605381965637 -0.05389302968978882 1.0 7 -0.06464225798845291
-3.0393612384796143 0.9280655384063721 0.8515146970748901 86.0 15 -0.06463995575904846
-2.7702696323394775 0.8501296639442444 -0.7764571905136108 39.0 0 -0.06461922079324722
-2.92873215675354 0.8987579941749573 0.053474172949790955 3.0 8 -0.06461691111326218
-2.762669086456299 0.8483241200447083 -0.6672048568725586 9.0 1 -0.06461460888385773
-2.955396890640259 0.9080696105957031 0.1620321422815323 2.0 9 -0.06461230665445328
-2.6703529357910156 0.8209976553916931 -0.5430424213409424 23.0 2 -0.06461000442504883
-3.0945072174072266 0.9519938826560974 0.2832561731338501 47.0 10 -0.06460769474506378
-2.62613844871521 0.8084073066711426 -0.4352007210254669 28.0 3 -0.06460539251565933
-3.0868022441864014 0.9502140283584595 0.3965628743171692 55.0 11 -0.06460309028625488
-2.553541898727417 0.7865477204322815 -0.32807230949401855 11.0 4 -0.06460078805685043
-3.094017505645752 0.953616738319397 0.5127922296524048 72.0 12 -0.06459848582744598
-3.044340133666992 0.9388880729675293 -0.2787240743637085 21.0 5 -0.06459617614746094
-3.0765750408172607 0.9494175314903259 0.6258535385131836 62.0 13 -0.06459387391805649
-2.4369635581970215 0.7525020241737366 -0.1336660534143448 34.0 6 -0.06459157168865204
-3.0795674324035645 0.9515184164047241 0.7441381216049194 76.0 14 -0.06458926945924759
-2.9499282836914062 0.9114627242088318 -0.05389302968978882 1.0 7 -0.06458695977926254
-3.0471770763397217 0.9420930743217468 0.8546205163002014 86.0 15 -0.0645846575498581
-2.770975351333618 0.8609404563903809 -0.7774924635887146 34.0 0 -0.06456392258405685
-2.9254183769226074 0.9094856977462769 0.053474172949790955 3.0 8 -0.0645616203546524
-2.7632627487182617 0.8596025109291077 -0.6681046485900879 9.0 1 -0.06455931067466736
-2.9503021240234375 0.9177871942520142 0.1619274616241455 2.0 9 -0.06455700844526291
-2.6655964851379395 0.8297297954559326 -0.5426608324050903 22.0 2 -0.06455470621585846
-3.1063830852508545 0.9675306081771851 0.28465065360069275 50.0 10 -0.06455240398645401
-2.617642641067505 0.8158060908317566 -0.43426209688186646 16.0 3 -0.06455010175704956
-3.085193634033203 0.9621123671531677 0.39680659770965576 55.0 11 -0.06454779207706451
-2.476872444152832 0.7724084258079529 -0.3185664713382721 3.0 4 -0.06454548984766006
-3.090669631958008 0.9644118547439575 0.5127922296524048 72.0 12 -0.06454318761825562
-3.0961976051330566 0.9667298197746277 -0.2837790846824646 1.0 5 -0.06454088538885117
-3.0751161575317383 0.9607365727424622 0.6262351274490356 65.0 13 -0.06453857570886612
-2.436228036880493 0.7616000175476074 -0.13377071917057037 36.0 6 -0.06453627347946167
-3.070815324783325 0.9599810838699341 0.7427884340286255 78.0 14 -0.06453397125005722
-2.9467287063598633 0.9217543601989746 -0.05389302968978882 1.0 7 -0.06453166902065277
-3.0512447357177734 0.9550322890281677 0.8566910624504089 88.0 15 -0.06452935934066772
-2.786534547805786 0.8759177327156067 -0.7826688289642334 27.0 0 -0.06450862437486649
-2.9338316917419434 0.9227817058563232 0.053683605045080185 3.0 8 -0.06450632214546204
-2.910964012145996 0.9161482453346252 -0.7045467495918274 7.0 1 -0.06450401991605759
-2.964388370513916 0.9329621195793152 0.16286951303482056 2.0 9 -0.06450171768665314
-2.6590850353240967 0.837385356426239 -0.5418975949287415 20.0 2 -0.06449940800666809
-3.1145594120025635 0.9814184308052063 0.28569650650024414 50.0 10 -0.06449710577726364
-2.4924662113189697 0.785871684551239 -0.4139256477355957 2.0 3 -0.06449480354785919
-3.087665557861328 0.974129855632782 0.39753782749176025 52.0 11 -0.06449250131845474
-2.387214183807373 0.7531439065933228 -0.30735450983047485 1.0 4 -0.0644901916384697
-3.0931057929992676 0.9764389395713806 0.5137308239936829 77.0 12 -0.06448788940906525
-3.0831451416015625 0.9744788408279419 0.6285248398780823 68.0 13 -0.06448328495025635
-2.439401865005493 0.771481454372406 -0.13408473134040833 34.0 6 -0.0644809752702713
-3.0731890201568604 0.971921980381012 0.7441381216049194 86.0 14 -0.06447867304086685
-2.9436557292938232 0.9315211176872253 -0.05389302968978882 1.0 7 -0.0644763708114624
-3.06095290184021 0.9692275524139404 0.8603145480155945 91.0 15 -0.06447406858205795
-2.8167526721954346 0.8956910967826843 -0.791986346244812 10.0 0 -0.06445333361625671
-2.9345667362213135 0.9337183833122253 0.05375341325998306 3.0 8 -0.06445102393627167
-3.0991709232330322 0.9866876602172852 -0.7508866190910339 28.0 1 -0.06444872170686722
-2.9535017013549805 0.940879225730896 0.16245082020759583 3.0 9 -0.06444641947746277
-2.648810863494873 0.8438157439231873 -0.5403710603713989 19.0 2 -0.06444411724805832
-3.1074912548065186 0.990531325340271 0.28534790873527527 52.0 10 -0.06444180756807327
-2.3581085205078125 0.7521150708198547 -0.39202481508255005 1.0 3 -0.06443950533866882
-3.0863094329833984 0.9849671721458435 0.3977815806865692 55.0 11 -0.06443720310926437
-2.373224973678589 0.7578485608100891 -0.30589208006858826 3.0 4 -0.06443490087985992
-3.0859153270721436 0.9860283136367798 0.5131050944328308 77.0 12 -0.06443259119987488
-3.087376594543457 0.9870890974998474 0.63005131483078 68.0 13 -0.06442798674106598
-2.4406352043151855 0.7807831764221191 -0.1342940777540207 39.0 6 -0.06442568451166153
-3.071633815765381 0.9832376837730408 0.7445880174636841 78.0 14 -0.06442337483167648
-2.9403860569000244 0.9417908787727356 -0.05389302968978882 1.0 7 -0.06442107260227203
-3.046513319015503 0.9763683080673218 0.8572087287902832 96.0 15 -0.06441877037286758
-2.9642372131347656 0.9545663595199585 -0.8344326615333557 4.0 0 -0.06439803540706635
-2.925579071044922 0.9421173334121704 0.0536486990749836 3.0 8 -0.0643957331776619
-3.112401247024536 1.0028796195983887 -0.7549358010292053 29.0 1 -0.06439342349767685
-2.973010301589966 0.9585370421409607 0.16370689868927002 2.0 9 -0.0643911212682724
-2.6569111347198486 0.8571344017982483 -0.5426608324050903 17.0 2 -0.06438881903886795
-3.1000475883483887 1.0006909370422363 0.284999281167984 50.0 10 -0.0643865168094635
-2.34405779838562 0.7571096420288086 -0.3901476263999939 1.0 3 -0.06438420712947845
-3.094187021255493 0.9993945956230164 0.3992440104484558 58.0 11 -0.064381904900074
-2.338453531265259 0.7557502388954163 -0.30174851417541504 3.0 4 -0.06437960267066956
-3.0824546813964844 0.9967942833900452 0.5131050944328308 80.0 12 -0.0643773004412651
-3.0818703174591064 0.9977936744689941 0.629669725894928 71.0 13 -0.06437268853187561
-2.4586572647094727 0.7964947819709778 -0.1354454606771469 46.0 6 -0.06437038630247116
-3.0809860229492188 0.9986947774887085 0.7477373480796814 81.0 14 -0.06436808407306671
-2.9370808601379395 0.9520483016967773 -0.05389302968978882 1.0 7 -0.06436578184366226
-3.0467617511749268 0.9881894588470459 0.858244001865387 98.0 15 -0.06436347216367722
-2.975580930709839 0.969697117805481 -0.8385737538337708 4.0 0 -0.06434273719787598
-2.929711103439331 0.9553136825561523 0.05378831923007965 3.0 8 -0.06434043496847153
-3.1068520545959473 1.0136752128601074 -0.7544858455657959 28.0 1 -0.06433813273906708
-2.9753425121307373 0.9707674980163574 0.16402089595794678 3.0 9 -0.06433582305908203
-2.659501552581787 0.8682321310043335 -0.5438056588172913 2.0 2 -0.06433352082967758
-3.109793186187744 1.0158360004425049 0.28621944785118103 55.0 10 -0.06433121860027313
-2.3113584518432617 0.7554680705070496 -0.3851417005062103 1.0 3 -0.06432891637086868
-3.0923893451690674 1.011346459388733 0.3994877338409424 60.0 11 -0.06432660669088364
-2.354534387588501 0.7704899311065674 -0.3041858971118927 3.0 4 -0.06432430446147919
-3.0920984745025635 1.0118478536605835 0.5152952075004578 82.0 12 -0.06432200223207474
-3.0802342891693115 1.009156584739685 0.63005131483078 68.0 13 -0.06431739777326584
-2.448270559310913 0.8025831580162048 -0.13502678275108337 43.0 6 -0.06431508809328079
-3.084887981414795 1.0118730068206787 0.7495369911193848 81.0 14 -0.06431278586387634
-2.9337399005889893 0.9622949957847595 -0.05389302968978882 1.0 7 -0.0643104836344719
-3.046964645385742 1.0000234842300415 0.8592792749404907 98.0 15 -0.06430818140506744
-2.990525245666504 0.9861271381378174 -0.8437501192092896 4.0 0 -0.06428743898868561
-2.930325508117676 0.966276228427887 0.05385812744498253 3.0 8 -0.06428513675928116
-3.101623058319092 1.0233619213104248 -0.754036009311676 29.0 1 -0.06428283452987671
-2.971935987472534 0.9811468720436096 0.16402089595794678 3.0 9 -0.06428053230047226
-3.113795042037964 1.0291860103607178 0.28691670298576355 54.0 10 -0.06427592039108276
-2.323845386505127 0.768088161945343 -0.3876446485519409 1.0 3 -0.06427361816167831
-3.0890185832977295 1.0215957164764404 0.3994877338409424 60.0 11 -0.06427131593227386
-2.3463125228881836 0.7764227390289307 -0.3034546673297882 2.0 4 -0.06426901370286942
-3.097923755645752 1.0257396697998047 0.5168595314025879 87.0 12 -0.06426670402288437
-3.08805251121521 1.023070216178894 0.6323410272598267 73.0 13 -0.06426209956407547
-2.4418039321899414 0.8094406723976135 -0.134817436337471 45.0 6 -0.06425979733467102
-3.0778160095214844 1.020870327949524 0.7486371397972107 86.0 14 -0.06425748765468597
-2.9303627014160156 0.9725304841995239 -0.05389302968978882 1.0 7 -0.06425518542528152
-3.0581226348876953 1.0155233144760132 0.8634203672409058 100.0 15 -0.06425288319587708
-3.0000669956207275 1.0003161430358887 -0.8473736047744751 5.0 0 -0.06423214823007584
-2.9345221519470215 0.9790306091308594 0.053997743874788284 3.0 8 -0.06422984600067139
-3.107274293899536 1.0372676849365234 -0.7562854886054993 28.0 1 -0.06422753632068634
-2.9760704040527344 0.9940467476844788 0.1644395887851715 3.0 9 -0.06422523409128189
-3.1160337924957275 1.0414009094238281 0.28743961453437805 59.0 10 -0.06422062963247299
-2.3174033164978027 0.7749424576759338 -0.38701891899108887 6.0 3 -0.06421831995248795
-3.0873165130615234 1.03300142288208 0.39973148703575134 67.0 11 -0.0642160177230835
-2.3379411697387695 0.7827176451683044 -0.3027234971523285 11.0 4 -0.06421371549367905
-3.090578317642212 1.035292387008667 0.5162338018417358 91.0 12 -0.0642114132642746
-3.082601547241211 1.0332187414169312 0.6319594383239746 72.0 13 -0.0642068013548851
-2.446537971496582 0.8204995393753052 -0.13523612916469574 47.0 6 -0.06420449912548065
-3.0742335319519043 1.0316085815429688 0.7486371397972107 86.0 14 -0.0642021968960762
-2.926950216293335 0.9827528595924377 -0.05389302968978882 1.0 7 -0.06419988721609116
-3.065546751022339 1.0298833847045898 0.866526186466217 102.0 15 -0.0641975849866867
-2.9764211177825928 1.0039902925491333 -0.841679573059082 4.0 0 -0.06417685002088547
-2.950033664703369 0.9956628680229187 0.05434679239988327 3.0 8 -0.06417454779148102
-3.1091737747192383 1.0499777793884277 -0.757635235786438 30.0 1 -0.06417224556207657
-2.9763667583465576 1.005707859992981 0.16464893519878387 3.0 9 -0.06416993588209152
-2.3081905841827393 0.7799325585365295 -0.4735879600048065 1.0 2 -0.06416763365268707
-3.104830026626587 1.0497190952301025 0.2867423892021179 58.0 10 -0.06416533142328262
-2.3015854358673096 0.7785959243774414 -0.3848288059234619 8.0 3 -0.06416302919387817
-3.0987346172332764 1.0488635301589966 0.40168139338493347 65.0 11 -0.06416071951389313
-2.325793504714966 0.7876899838447571 -0.30150479078292847 21.0 4 -0.06415841728448868
-3.0888164043426514 1.0467082262039185 0.5165466666221619 96.0 12 -0.06415611505508423
-3.087113380432129 1.0461312532424927 -0.28517356514930725 1.0 5 -0.06415381282567978
-3.0919909477233887 1.048385739326477 0.6346307396888733 73.0 13 -0.06415150314569473
-2.4493331909179688 0.8309595584869385 -0.1355501413345337 52.0 6 -0.06414920091629028
-3.0798404216766357 1.0454646348953247 0.7508866190910339 92.0 14 -0.06414689868688583
-2.923501968383789 0.9929639101028442 -0.05389302968978882 1.0 7 -0.06414459645748138
-3.054616928100586 1.0380915403366089 0.8644556403160095 100.0 15 -0.06414228677749634
-2.9674134254455566 1.0125024318695068 -0.840126633644104 4.0 0 -0.0641215518116951
-2.9389708042144775 1.0033693313598633 0.054207175970077515 4.0 8 -0.06411924958229065
-3.1073334217071533 1.0614551305770874 -0.7580850720405579 30.0 1 -0.0641169473528862
-2.9955170154571533 1.023842692375183 0.16590499877929688 3.0 9 -0.06411464512348175
-2.218008279800415 0.758528470993042 -0.4556518793106079 3.0 2 -0.0641123354434967
-3.1086878776550293 1.0631288290023804 0.28743961453437805 58.0 10 -0.06411003321409225
-2.2483911514282227 0.7693579196929932 -0.37638136744499207 9.0 3 -0.0641077309846878
-3.0988104343414307 1.060959815979004 0.402168869972229 65.0 11 -0.06410542875528336
-2.304250717163086 0.7893700003623962 -0.2990674078464508 20.0 4 -0.06410311907529831
-3.100093126296997 1.0626081228256226 0.5190495848655701 96.0 12 -0.06410081684589386
-3.079489231109619 1.056146502494812 -0.2848249673843384 37.0 5 -0.06409851461648941
-3.084414005279541 1.0584369897842407 0.6338675618171692 77.0 13 -0.06409621238708496
-2.459494113922119 0.8444715142250061 -0.13628284633159637 50.0 6 -0.06409390270709991
-3.085387945175171 1.0593732595443726 0.753136157989502 89.0 14 -0.06409160047769547
-2.920017957687378 1.0031628608703613 -0.05389302968978882 1.0 7 -0.06408929824829102
-3.0509746074676514 1.0487478971481323 0.8644556403160095 100.0 15 -0.06408699601888657
-2.9728126525878906 1.0265244245529175 -0.8427148461341858 4.0 0 -0.06406626105308533
-2.931493043899536 1.012829303741455 0.05413736775517464 3.0 8 -0.06406395137310028
-3.1034224033355713 1.07283616065979 -0.7580850720405579 30.0 1 -0.06406164914369583
-2.99174427986145 1.0348149538040161 0.16590499877929688 3.0 9 -0.06405934691429138
-2.179962635040283 0.7544536590576172 -0.44840118288993835 6.0 2 -0.06405704468488693
-3.1047701835632324 1.0745162963867188 0.28743961453437805 61.0 10 -0.06405473500490189
-2.2250232696533203 0.7704828381538391 -0.372939795255661 15.0 3 -0.06405243277549744
-3.0930252075195312 1.0716606378555298 0.40192511677742004 70.0 11 -0.06405013054609299
-2.28633713722229 0.7926090955734253 -0.2971175014972687 25.0 4 -0.06404782831668854
-3.1036431789398193 1.076552152633667 0.520301103591919 93.0 12 -0.06404551863670349
-3.0868914127349854 1.0713459253311157 -0.28587085008621216 39.0 5 -0.06404321640729904
-3.0805137157440186 1.0697349309921265 0.6338675618171692 77.0 13 -0.06404091417789459
-2.4469494819641113 0.8502021431922913 -0.13575948774814606 52.0 6 -0.06403861194849014
-3.092529535293579 1.0745114088058472 0.7558355927467346 89.0 14 -0.0640363097190857
-2.9163215160369873 1.0138585567474365 -0.05389302968978882 1.0 7 -0.06403400003910065
-3.0635318756103516 1.0656354427337646 0.8691143989562988 104.0 15 -0.0640316978096962
-2.979973077774048 1.0412362813949585 -0.8458206653594971 4.0 0 -0.06401096284389496
-2.954188585281372 1.0328054428100586 0.05462603271007538 4.0 8 -0.06400866061449051
-3.0994691848754883 1.0842044353485107 -0.7580850720405579 28.0 1 -0.06400635093450546
-2.9881138801574707 1.0452519655227661 0.16590499877929688 3.0 9 -0.06400404870510101
-2.138402223587036 0.7484383583068848 -0.44038718938827515 9.0 2 -0.06400174647569656
-3.108332872390747 1.0885229110717773 0.28813689947128296 61.0 10 -0.06399944424629211
-2.2184557914733887 0.7773269414901733 -0.37231406569480896 17.0 3 -0.06399713456630707
-3.0909502506256104 1.0836460590362549 0.402168869972229 77.0 11 -0.06399483233690262
-2.2347137928009033 0.7838994860649109 -0.29078027606010437 27.0 4 -0.06399253010749817
-3.1054582595825195 1.0893417596817017 0.521239697933197 91.0 12 -0.06399022787809372
-3.083132743835449 1.082114815711975 -0.28587085008621216 27.0 5 -0.06398792564868927
-3.0934321880340576 1.0863351821899414 0.6373021006584167 85.0 13 -0.06398561596870422
-2.4458510875701904 0.8594012260437012 -0.13586415350437164 55.0 6 -0.06398331373929977
-3.084893226623535 1.0845470428466797 0.7549358010292053 89.0 14 -0.06398101150989532
-2.939175844192505 1.0333176851272583 -0.05438169836997986 1.0 7 -0.06397870928049088
-3.065260648727417 1.0782451629638672 0.8706672787666321 102.0 15 -0.06397639960050583
-2.970855712890625 1.04970121383667 -0.844267725944519 6.0 0 -0.06395566463470459
-2.9545183181762695 1.043928623199463 0.054695840924978256 3.0 8 -0.06395336240530014
-3.1160671710968018 1.1016217470169067 -0.7630340456962585 9.0 1 -0.06395106017589569
-2.9919791221618652 1.0583395957946777 0.1663236916065216 3.0 9 -0.06394875794649124
-2.1080150604248047 0.7460728883743286 -0.43466290831565857 24.0 2 -0.0639464482665062
-3.119539260864258 1.104686975479126 0.2895313799381256 69.0 10 -0.06394414603710175
-2.2158658504486084 0.7846794724464417 -0.37231406569480896 22.0 3 -0.0639418438076973
-3.0948240756988525 1.0965420007705688 0.40314382314682007 75.0 11 -0.06393954157829285
-2.2264888286590576 0.789315402507782 -0.29004907608032227 11.0 4 -0.0639372318983078
-3.1034979820251465 1.1008355617523193 0.521552562713623 93.0 12 -0.06393492966890335
-2.1104724407196045 0.7490155696868896 -0.19592611491680145 2.0 5 -0.0639326274394989
-3.104614019393921 1.101840615272522 0.6403550505638123 87.0 13 -0.06393032521009445
-2.441105604171753 0.8668389320373535 -0.13575948774814606 54.0 6 -0.0639280155301094
-3.0794436931610107 1.094118595123291 0.7544858455657959 92.0 14 -0.06392571330070496
-2.909172534942627 1.0341930389404297 -0.05389302968978882 1.0 7 -0.0639234110713005
-3.074218988418579 1.0934711694717407 0.8742908239364624 106.0 15 -0.06392110884189606
-2.9564425945281982 1.0556495189666748 -0.8411619663238525 5.0 0 -0.06390037387609482
-2.965921401977539 1.0596177577972412 0.054975081235170364 3.0 8 -0.06389806419610977
-3.0072600841522217 1.0749784708023071 0.16737040877342224 3.0 9 -0.06389345973730087
-2.101832389831543 0.7517369985580444 -0.4338997006416321 14.0 2 -0.06389115750789642
-3.113982677459717 1.1143544912338257 0.28935706615448 67.0 10 -0.06388884782791138
-2.190796375274658 0.7844182848930359 -0.36855965852737427 15.0 3 -0.06388654559850693
-3.1077966690063477 1.1133638620376587 0.40533748269081116 83.0 11 -0.06388424336910248
-2.225588798522949 0.7977529764175415 -0.29029279947280884 1.0 4 -0.06388194113969803
-3.099830389022827 1.1111211776733398 0.521552562713623 93.0 12 -0.06387963145971298
-2.0873470306396484 0.7486113905906677 -0.19400867819786072 14.0 5 -0.06387732923030853
-3.1118366718292236 1.1166497468948364 0.6426447629928589 85.0 13 -0.06387502700090408
-2.4324254989624023 0.8733301162719727 -0.1354454606771469 43.0 6 -0.06387272477149963
-3.0884439945220947 1.1094725131988525 0.757635235786438 94.0 14 -0.06387041509151459
-2.0588507652282715 0.7396081686019897 -0.03818586841225624 1.0 7 -0.06386811286211014
-3.0669400691986084 1.1023519039154053 0.8732554912567139 104.0 15 -0.06386581063270569
-2.9527394771575928 1.0659630298614502 -0.8411619663238525 6.0 0 -0.06384507566690445
-2.9623911380767822 1.06944739818573 0.054975081235170364 3.0 8 -0.0638427734375
-3.01288104057312 1.088863492012024 0.16789376735687256 3.0 9 -0.0638381615281105
-2.154583215713501 0.7790974974632263 -0.44534823298454285 1.0 2 -0.06383585929870605
-3.111947774887085 1.1258946657180786 0.2895313799381256 69.0 10 -0.0638335570693016
-3.11155366897583 1.1263662576675415 0.40631240606307983 93.0 11 -0.06382894515991211
-3.107076644897461 1.1259725093841553 0.523429811000824 93.0 12 -0.06382434070110321
-2.064117431640625 0.748422384262085 -0.19209124147891998 24.0 5 -0.06382203102111816
-3.1044249534606934 1.125624418258667 0.6418814659118652 85.0 13 -0.06381972879171371
-2.042746067047119 0.7410773634910583 -0.11388305574655533 38.0 6 -0.06381742656230927
-3.0975704193115234 1.1243624687194824 0.7607845067977905 99.0 14 -0.06381512433290482
-2.0224239826202393 0.7345032095909119 -0.03755757957696915 14.0 7 -0.06381282210350037
-3.0594418048858643 1.1117321252822876 0.8722202181816101 106.0 15 -0.06381051242351532
-2.9382989406585693 1.0717769861221313 -0.8380560874938965 6.0 0 -0.06378293037414551
-2.9586400985717773 1.0797816514968872 0.054975081235170364 4.0 8 -0.06378062814474106
-3.0165657997131348 1.102115511894226 0.1683124452829361 2.0 9 -0.06377601623535156
-3.11942458152771 1.1403125524520874 0.290577232837677 77.0 10 -0.06377141177654266
-3.103874683380127 1.1358565092086792 0.4058249592781067 81.0 11 -0.06376679986715317
-3.112401247024536 1.1402088403701782 0.5249941349029541 91.0 12 -0.06376219540834427
-2.06536602973938 0.756633996963501 -0.19243988394737244 33.0 5 -0.06375989317893982
-3.1004767417907715 1.1364542245864868 0.6418814659118652 85.0 13 -0.06375758349895477
-2.0288960933685303 0.7440767884254456 -0.11325501650571823 75.0 6 -0.06375528126955032
-3.1064326763153076 1.1398673057556152 0.7639338374137878 100.0 14 -0.06375297904014587
-2.014216423034668 0.739490807056427 -0.03745286539196968 59.0 7 -0.06375067681074142
-3.066422939300537 1.1264015436172485 0.8753260374069214 104.0 15 -0.06374836713075638
-2.9291024208068848 1.0800213813781738 -0.8365032076835632 6.0 0 -0.06372763216495514
-2.966109275817871 1.0942554473876953 0.055184509605169296 3.0 8 -0.06372532993555069
-3.0520453453063965 1.1271686553955078 0.17051056027412415 3.0 9 -0.06372072547674179
-3.1229007244110107 1.1539568901062012 0.2912744879722595 80.0 10 -0.0637161135673523
-3.103614330291748 1.1480616331100464 0.40631240606307983 96.0 11 -0.0637115091085434
-3.1176645755767822 1.154496192932129 0.5265584588050842 93.0 12 -0.0637068971991539
-2.0571069717407227 0.7617632746696472 -0.19191694259643555 31.0 5 -0.06370459496974945
-3.1038546562194824 1.1499991416931152 0.6434080004692078 87.0 13 -0.063702292740345
-2.024413585662842 0.7504602074623108 -0.11315035074949265 68.0 6 -0.06369998306035995
-3.1006076335906982 1.1500263214111328 0.7634838819503784 100.0 14 -0.0636976808309555
-2.011622428894043 0.7465177774429321 -0.03745286539196968 78.0 7 -0.06369537860155106
-3.073338508605957 1.1411324739456177 0.8784318566322327 106.0 15 -0.0636930763721466
-2.8854897022247314 1.0753976106643677 -0.8251151442527771 10.0 0 -0.06367234140634537
-2.9772610664367676 1.110192060470581 0.055463749915361404 2.0 8 -0.06367003172636032
-3.1397781372070312 1.1720415353775024 0.17563949525356293 65.0 9 -0.06366542726755142
-2.0986247062683105 0.7833914756774902 -0.43542614579200745 1.0 2 -0.06366312503814697
-3.124452829360962 1.1669421195983887 0.291797399520874 100.0 10 -0.06366081535816193
-2.107607126235962 0.7875822186470032 -0.35635775327682495 1.0 3 -0.06365851312875748
-3.1126034259796143 1.1637547016143799 0.4080185890197754 100.0 11 -0.06365621089935303
-3.1136157512664795 1.1653711795806885 0.5265584588050842 93.0 12 -0.06365159898996353
-2.100947380065918 0.786765992641449 -0.19627472758293152 1.0 5 -0.06364929676055908
-3.1108529567718506 1.1649569272994995 0.6456976532936096 87.0 13 -0.06364699453115463
-2.027392625808716 0.7596246004104614 -0.1134643703699112 69.0 6 -0.06364469230175018
-3.0819764137268066 1.1553709506988525 0.7598847150802612 99.0 14 -0.06364239007234573
-2.009004592895508 0.7535346746444702 -0.03745286539196968 56.0 7 -0.06364008039236069
-3.083806037902832 1.1572836637496948 0.8825729489326477 108.0 15 -0.06363777816295624
-2.8399510383605957 1.0702961683273315 -0.8132094740867615 29.0 0 -0.063617043197155
-2.9789814949035645 1.1226928234100342 0.05556846410036087 1.0 8 -0.06361474096775055
-3.1431422233581543 1.1858142614364624 0.17605817317962646 57.0 9 -0.06361012905836105
-2.0957396030426025 0.7910775542259216 -0.43542614579200745 1.0 2 -0.0636078268289566
-3.123882532119751 1.1797938346862793 0.29214605689048767 100.0 10 -0.06360552459955215
-2.104706287384033 0.7953022718429565 -0.35635775327682495 1.0 3 -0.06360321491956711
-3.117807149887085 1.1781210899353027 0.4092372953891754 100.0 11 -0.06360091269016266
-2.1186320781707764 0.8009863495826721 -0.27810585498809814 1.0 4 -0.06359861046075821
-3.1076810359954834 1.1755346059799194 0.5262455940246582 98.0 12 -0.06359630823135376
-3.1139066219329834 1.179131269454956 0.6472241282463074 85.0 13 -0.06359169632196426
-2.020859479904175 0.7656350135803223 -0.11325501650571823 18.0 6 -0.06358939409255981
-3.1032323837280273 1.1763287782669067 0.7661833167076111 100.0 14 -0.06358709186315536
-2.002622365951538 0.7591253519058228 -0.0373830571770668 56.0 7 -0.06358478963375092
-3.0761349201202393 1.1666710376739502 0.881537675857544 106.0 15 -0.06358247995376587
-2.839808225631714 1.0815781354904175 -0.8142447471618652 48.0 0 -0.06356174498796463
-2.0125057697296143 0.7668919563293457 0.037592481821775436 4.0 8 -0.06355944275856018
-2.1450035572052 0.81781005859375 -0.529984712600708 1.0 1 -0.06355714052915573
-3.142716884613037 1.198201060295105 0.17626751959323883 59.0 9 -0.06355483084917068
-3.1253297328948975 1.1928225755691528 0.29266899824142456 91.0 10 -0.06355022639036179
-2.1019175052642822 0.8026437163352966 -0.35635775327682495 1.0 3 -0.06354792416095734
-3.1208856105804443 1.1923737525939941 0.4102122485637665 100.0 11 -0.06354562193155289
-2.0231053829193115 0.7729529142379761 -0.26591894030570984 1.0 4 -0.06354331225156784
-3.1090941429138184 1.1884912252426147 0.5271841883659363 96.0 12 -0.06354101002216339
-3.113438606262207 1.191397786140442 0.6479873657226562 85.0 13 -0.06353640556335449
-3.0920348167419434 1.183825969696045 0.7643837332725525 100.0 14 -0.063531793653965
-2.003694772720337 0.767541766166687 -0.03745286539196968 25.0 7 -0.06352949142456055
-3.0684361457824707 1.1760190725326538 0.880502462387085 106.0 15 -0.0635271891951561
-2.828993797302246 1.0882152318954468 -0.8121742010116577 43.0 0 -0.06350644677877426
-1.9838242530822754 0.7635060548782349 0.037103816866874695 24.0 8 -0.06350414454936981
-2.08408522605896 0.8025100827217102 -0.5155878663063049 2.0 1 -0.06350184231996536
-3.146181583404541 1.211487054824829 0.17668621242046356 58.0 9 -0.06349954009056091
-2.0426743030548096 0.7869735360145569 -0.42550405859947205 1.0 2 -0.06349723786115646
-3.102766275405884 1.1960139274597168 0.29092586040496826 31.0 10 -0.06349492818117142
-2.0365800857543945 0.785442054271698 -0.34572020173072815 1.0 3 -0.06349262595176697
-3.105802297592163 1.198428750038147 0.4087498188018799 89.0 11 -0.06349032372236252
-2.0760910511016846 0.8010964393615723 -0.2732310891151428 1.0 4 -0.06348802149295807
-3.090393304824829 1.1931034326553345 0.5246812701225281 85.0 12 -0.06348571181297302
-3.0820021629333496 1.1910992860794067 0.6422631144523621 77.0 13 -0.06348110735416412
-3.0771865844726562 1.1898562908172607 0.7616842985153198 85.0 14 -0.06347649544477463
-3.051908254623413 1.1813057661056519 0.8768789768218994 96.0 15 -0.06347189098596573
-2.8361737728118896 1.1017879247665405 -0.815280020236969 37.0 0 -0.06345115602016449
-2.066882610321045 0.8037664294242859 -0.511988639831543 2.0 1 -0.063446544110775
-3.134488344192505 1.2195652723312378 0.17626751959323883 58.0 9 -0.06344424188137054
-2.0144386291503906 0.7837768197059631 -0.4201614260673523 1.0 2 -0.0634419396519661
-3.0932135581970215 1.2041276693344116 0.29040294885635376 38.0 10 -0.06343963742256165
-2.065256357192993 0.8043790459632874 -0.35103899240493774 4.0 3 -0.0634373277425766
-3.0685179233551025 1.19574773311615 0.4043624997138977 70.0 11 -0.06343502551317215
-2.0658838748931885 0.805454671382904 -0.27225613594055176 1.0 4 -0.0634327232837677
-3.086210012435913 1.2038837671279907 0.5246812701225281 85.0 12 -0.06343042105436325
-3.0688908100128174 1.1977441310882568 0.6403550505638123 71.0 13 -0.06342580914497375
-1.9813778400421143 0.7737024426460266 -0.11147560179233551 1.0 6 -0.0634235069155693
-3.073014259338379 1.2005904912948608 0.7616842985153198 92.0 14 -0.06342120468616486
-3.058560609817505 1.1961742639541626 0.8799847960472107 94.0 15 -0.06341659277677536
-2.848299980163574 1.1185309886932373 -0.8199387788772583 32.0 0 -0.06339585781097412
-2.8439831733703613 1.1174085140228271 -0.7054465413093567 24.0 1 -0.06339125335216522
-3.1395058631896973 1.2341526746749878 0.17679087817668915 56.0 9 -0.06338894367218018
-1.9713575839996338 0.7753466367721558 -0.41176581382751465 1.0 2 -0.06338664144277573
-3.1036112308502197 1.2212932109832764 0.291797399520874 42.0 10 -0.06338433921337128
-2.067808151245117 0.8141141533851624 -0.3519775867462158 7.0 3 -0.06338203698396683
-3.0864906311035156 1.215178370475769 0.4072873890399933 78.0 11 -0.06337972730398178
-2.0519778728485107 0.8082958459854126 -0.27079370617866516 1.0 4 -0.06337742507457733
-3.085664749145508 1.216097354888916 0.5253069996833801 82.0 12 -0.06337512284517288
-2.064798355102539 0.8141780495643616 -0.19418299198150635 1.0 5 -0.06337282061576843
-3.0681324005126953 1.2104259729385376 0.6411182284355164 71.0 13 -0.06337051093578339
-1.9971065521240234 0.788291871547699 -0.11252231895923615 1.0 6 -0.06336820870637894
-3.05953049659729 1.2082667350769043 0.7594348192214966 83.0 14 -0.06336590647697449
-1.9901052713394165 0.785930335521698 -0.037348151206970215 1.0 7 -0.06336360424757004
-3.072333574295044 1.213942527770996 0.8851611614227295 92.0 15 -0.06336130201816559
-2.8695180416107178 1.1384403705596924 -0.8271856904029846 25.0 0 -0.06334055960178375
-2.0035998821258545 0.7953044176101685 0.037627387791872025 1.0 8 -0.0633382573723793
-2.83805775642395 1.1271048784255981 -0.704996645450592 46.0 1 -0.06333595514297485
-3.155597448348999 1.2532124519348145 0.17794226109981537 14.0 9 -0.0633336529135704
-1.9795862436294556 0.7865725159645081 -0.4140555262565613 1.0 2 -0.06333134323358536
-3.0937750339508057 1.22991144657135 0.2912744879722595 40.0 10 -0.06332904100418091
-2.0631179809570312 0.8205976486206055 -0.3516647219657898 4.0 3 -0.06332673877477646
-3.083860158920288 1.2272166013717651 0.40753111243247986 83.0 11 -0.06332443654537201
-2.0785105228424072 0.8275597095489502 -0.2746935188770294 1.0 4 -0.06332212686538696
-3.075895071029663 1.2246688604354858 0.524368405342102 87.0 12 -0.06331982463598251
-2.0804529190063477 0.8287543654441833 -0.19592611491680145 2.0 5 -0.06331752240657806
-3.0839500427246094 1.2291232347488403 0.6453160643577576 67.0 13 -0.06331522017717361
-2.005474090576172 0.7996969223022461 -0.11315035074949265 5.0 6 -0.06331291794776917
-3.0697743892669678 1.224716067314148 0.7630340456962585 83.0 14 -0.06331060826778412
-1.961346983909607 0.782498300075531 -0.036859482526779175 1.0 7 -0.06330830603837967
-3.057312488555908 1.2203619480133057 0.8820553421974182 92.0 15 -0.06330600380897522
-2.8960111141204834 1.1606676578521729 -0.8359856009483337 13.0 0 -0.06328526884317398
-1.952690839767456 0.7826023697853088 0.03671986237168312 1.0 8 -0.06328295916318893
-2.828878402709961 1.1343343257904053 -0.7036469578742981 51.0 1 -0.06328065693378448
-2.020477533340454 0.8105885982513428 0.1140923947095871 11.0 9 -0.06327835470438004
-1.973184585571289 0.7920151948928833 -0.4132923185825348 1.0 2 -0.06327605247497559
-3.0913116931915283 1.2414450645446777 0.29144880175590515 42.0 10 -0.06327374279499054
-2.0457210540771484 0.8215445876121521 -0.3491617739200592 4.0 3 -0.06327144056558609
-3.087141752243042 1.2403968572616577 0.4085060954093933 85.0 11 -0.06326913833618164
-2.05365252494812 0.8255627751350403 -0.2717686593532562 1.0 4 -0.06326683610677719
-3.08443021774292 1.2405580282211304 0.5265584588050842 82.0 12 -0.06326453387737274
-2.0701539516448975 0.8330357670783997 -0.19522884488105774 1.0 5 -0.0632622241973877
-3.068929433822632 1.2349458932876587 0.6430263519287109 68.0 13 -0.06325992196798325
-2.006516456604004 0.8078348636627197 -0.11335969716310501 9.0 6 -0.0632576197385788
-3.0711190700531006 1.2370736598968506 0.7643837332725525 81.0 14 -0.06325531750917435
-1.9660228490829468 0.7923294305801392 -0.03699910268187523 5.0 7 -0.0632530078291893
-3.049450635910034 1.2295817136764526 0.8810200095176697 92.0 15 -0.06325070559978485
-2.9064724445343018 1.176061749458313 -0.840126633644104 14.0 0 -0.06322997063398361
-1.920290470123291 0.7774070501327515 0.0361613854765892 1.0 8 -0.06322766840457916
-2.8104515075683594 1.138350009918213 -0.7000477313995361 51.0 1 -0.06322535872459412
-2.019486665725708 0.8183866143226624 0.11419706791639328 27.0 9 -0.06322305649518967
-1.9851036071777344 0.8044530749320984 -0.4163452684879303 1.0 2 -0.06322075426578522
-3.0908706188201904 1.2531867027282715 0.291797399520874 42.0 10 -0.06321845203638077
-2.046501636505127 0.8301661610603333 -0.34978750348091125 6.0 3 -0.06321614980697632
-3.084632158279419 1.251911997795105 0.4087498188018799 89.0 11 -0.06321384012699127
-2.050758123397827 0.8327264189720154 -0.2717686593532562 3.0 4 -0.06321153789758682
-3.0874013900756836 1.254291296005249 0.5278099179267883 82.0 12 -0.06320923566818237
-2.05062198638916 0.8335050344467163 -0.19366006553173065 3.0 5 -0.06320693343877792
-3.0645997524261475 1.2456510066986084 0.6430263519287109 68.0 13 -0.06320462375879288
-1.9999841451644897 0.8133293390274048 -0.11315035074949265 11.0 6 -0.06320232152938843
-3.0794177055358887 1.2529265880584717 0.7675330638885498 83.0 14 -0.06320001929998398
-1.9725054502487183 0.8029571175575256 -0.03717362508177757 8.0 7 -0.06319771707057953
-3.0522964000701904 1.2431336641311646 0.883090615272522 90.0 15 -0.06319540739059448
-2.911083459854126 1.1903619766235352 -0.8427148461341858 12.0 0 -0.06317467242479324
-1.89165198802948 0.7735094428062439 0.03567272052168846 1.0 8 -0.0631723701953888
-2.799246072769165 1.1452019214630127 -0.6982480883598328 47.0 1 -0.06317006796598434
-1.9999819993972778 0.8186217546463013 0.11325501650571823 36.0 9 -0.0631677657365799
-1.9966764450073242 0.8176751136779785 -0.4193982183933258 1.0 2 -0.06316545605659485
-3.097318649291992 1.2690399885177612 0.2928432822227478 41.0 10 -0.0631631538271904
-2.0324788093566895 0.8331658840179443 -0.3479103147983551 6.0 3 -0.06316085159778595
-3.0802433490753174 1.2626718282699585 0.4087498188018799 81.0 11 -0.0631585493683815
-2.0276360511779785 0.8315941095352173 -0.269087553024292 3.0 4 -0.06315623968839645
-3.088486671447754 1.267310380935669 0.5287485718727112 77.0 12 -0.063153937458992
-2.042170524597168 0.8383880257606506 -0.19313712418079376 7.0 5 -0.06315163522958755
-3.067277669906616 1.2598587274551392 0.6445528268814087 68.0 13 -0.0631493330001831
-1.9951423406600952 0.8198949694633484 -0.11304567754268646 11.0 6 -0.06314702332019806
-3.065793037414551 1.2604997158050537 0.7652835249900818 81.0 14 -0.06314472109079361
-1.977088451385498 0.812879204750061 -0.03731324523687363 8.0 7 -0.06314241886138916
-3.0568716526031494 1.2574553489685059 0.8856788277626038 82.0 15 -0.06314011663198471
-2.90333890914917 1.1990422010421753 -0.841679573059082 10.0 0 -0.06311938166618347
-1.8777151107788086 0.775856077671051 0.03546328842639923 1.0 8 -0.06311707198619843
-2.802233934402466 1.1584314107894897 -0.7000477313995361 38.0 1 -0.06311476975679398
-1.987883448600769 0.8217824101448059 0.11273165792226791 45.0 9 -0.06311246752738953
-1.9938098192214966 0.8246403932571411 -0.4193982183933258 1.0 2 -0.06311016529798508
-3.0965516567230225 1.2813676595687866 0.29319190979003906 42.0 10 -0.06310785561800003
-2.044159173965454 0.8463000059127808 -0.3504132330417633 6.0 3 -0.06310555338859558
-3.0865986347198486 1.2785110473632812 0.4102122485637665 78.0 11 -0.06310325115919113
-2.022740602493286 0.8382601737976074 -0.26884379982948303 3.0 4 -0.06310094892978668
-3.0840442180633545 1.2780836820602417 0.5287485718727112 80.0 12 -0.06309863924980164
-2.035550832748413 0.8439847230911255 -0.1927884966135025 6.0 5 -0.06309633702039719
-3.0737416744232178 1.2750712633132935 0.6468425393104553 67.0 13 -0.06309403479099274
-1.9922683238983154 0.826854407787323 -0.11304567754268646 12.0 6 -0.06309173256158829
-3.0667736530303955 1.2734357118606567 0.7666332721710205 83.0 14 -0.06308942288160324
-1.963158369064331 0.8151745796203613 -0.037103816866874695 9.0 7 -0.06308712065219879
-3.0595996379852295 1.271082878112793 0.8877493143081665 80.0 15 -0.06308481842279434
-2.8955700397491455 1.2076822519302368 -0.8406442999839783 9.0 0 -0.0630640834569931
-1.882514476776123 0.7851577997207642 0.035602912306785583 1.0 8 -0.06306178122758865
-2.8127646446228027 1.173721432685852 -0.7036469578742981 29.0 1 -0.06305947154760361
-1.9831600189208984 0.8279471397399902 0.11262699216604233 53.0 9 -0.06305716931819916
-1.9909191131591797 0.8315950632095337 -0.4193982183933258 2.0 2 -0.06305486708879471
-3.0994136333465576 1.295241117477417 0.2938891649246216 41.0 10 -0.06305256485939026
-2.050454616546631 0.8568824529647827 -0.3519775867462158 6.0 3 -0.06305025517940521
-3.0860049724578857 1.2902711629867554 0.410699725151062 75.0 11 -0.06304795295000076
-2.029106378555298 0.848793625831604 -0.27006247639656067 3.0 4 -0.06304565072059631
-3.079564332962036 1.2888405323028564 0.5287485718727112 77.0 12 -0.06304334849119186
-2.025240898132324 0.8480073809623718 -0.19209124147891998 6.0 5 -0.06304103881120682
-3.076740264892578 1.2882905006408691 0.6483690142631531 68.0 13 -0.06303873658180237
-1.9987260103225708 0.8373151421546936 -0.11356903612613678 9.0 6 -0.06303643435239792
-3.0679261684417725 1.2858576774597168 0.7679829597473145 81.0 14 -0.06303413212299347
-1.9713653326034546 0.8266620635986328 -0.03731324523687363 9.0 7 -0.06303182989358902
-3.048018217086792 1.2787655591964722 0.8856788277626038 82.0 15 -0.06302952021360397
-2.887988328933716 1.2157787084579468 -0.8396090269088745 7.0 0 -0.06300878524780273
-1.877919316291809 0.7909475564956665 0.035568006336688995 2.0 8 -0.06300648301839828
-2.115467071533203 0.8914331793785095 -0.529984712600708 1.0 1 -0.06300418078899384
-1.9747363328933716 0.8325373530387878 0.11231297254562378 62.0 9 -0.06300187110900879
-2.0026228427886963 0.8442941308021545 -0.42245110869407654 3.0 2 -0.06299956887960434
-3.0895941257476807 1.3031892776489258 0.2933662235736847 40.0 10 -0.06299726665019989
-2.025611639022827 0.8548184037208557 -0.34822314977645874 8.0 3 -0.06299496442079544
-3.0961124897003174 1.3072125911712646 0.41264963150024414 79.0 11 -0.0629926547408104
-2.0169880390167236 0.8520087003707886 -0.26884379982948303 2.0 4 -0.06299035251140594
-3.082324981689453 1.3026584386825562 0.5300000309944153 80.0 12 -0.0629880502820015
-2.0169124603271484 0.8523915410041809 -0.19156832993030548 5.0 5 -0.06298574805259705
-3.0722243785858154 1.2990225553512573 0.6483690142631531 66.0 13 -0.0629834458231926
-2.004988431930542 0.8481771945953369 -0.1140923947095871 8.0 6 -0.06298113614320755
-3.0652129650115967 1.2973192930221558 0.7684328556060791 83.0 14 -0.0629788339138031
-1.9611021280288696 0.8304194808006287 -0.03717362508177757 9.0 7 -0.06297653168439865
-3.0506515502929688 1.2924110889434814 0.8877493143081665 80.0 15 -0.0629742294549942
-2.880171298980713 1.2243400812149048 -0.8385737538337708 7.0 0 -0.06295348703861237
-1.8604254722595215 0.7912368774414062 0.03528876602649689 2.0 8 -0.06295118480920792
-2.112342119216919 0.8988127112388611 -0.529984712600708 1.0 1 -0.06294888257980347
-1.9828442335128784 0.8441188931465149 0.11294099688529968 68.0 9 -0.06294658035039902
-2.0068893432617188 0.8543551564216614 -0.4239776134490967 3.0 2 -0.06294427812099457
-3.094191551208496 1.3178696632385254 0.29423779249191284 42.0 10 -0.06294196844100952
-2.0189807415008545 0.8603357076644897 -0.3475974202156067 9.0 3 -0.06293966621160507
-3.0915307998657227 1.3180115222930908 0.41264963150024414 81.0 11 -0.06293736398220062
-2.028609037399292 0.8652747869491577 -0.27079370617866516 1.0 4 -0.06293506175279617
-3.0850260257720947 1.316511869430542 0.5312514901161194 76.0 12 -0.06293275207281113
-2.0102591514587402 0.8578631281852722 -0.19121968746185303 7.0 5 -0.06293044984340668
-3.067671537399292 1.309738039970398 0.6483690142631531 68.0 13 -0.06292814761400223
-2.003852128982544 0.8559553623199463 -0.11419706791639328 7.0 6 -0.06292584538459778
-3.073209524154663 1.3133717775344849 0.7715821266174316 81.0 14 -0.06292353570461273
-1.9618691205978394 0.838831901550293 -0.03724343329668045 8.0 7 -0.06292123347520828
-3.046121597290039 1.3030520677566528 0.8877493143081665 80.0 15 -0.06291893124580383
-2.875880002975464 1.2343863248825073 -0.8385737538337708 7.0 0 -0.0628981962800026
-1.8723517656326294 0.8040385842323303 0.035568006336688995 3.0 8 -0.06289589405059814
-3.133349657058716 1.3461929559707642 -0.7873287796974182 7.0 1 -0.0628935843706131
-1.9708589315414429 0.846747636795044 0.11241763830184937 70.0 9 -0.06289128214120865
-2.0165205001831055 0.8667823672294617 -0.42664891481399536 3.0 2 -0.0628889799118042
-3.104214906692505 1.3349595069885254 0.2956322729587555 41.0 10 -0.06288667768239975
-2.02685284614563 0.8720619082450867 -0.34947463870048523 9.0 3 -0.0628843680024147
-3.0832645893096924 1.3272252082824707 0.4121621549129486 78.0 11 -0.06288206577301025
-2.014636993408203 0.86763995885849 -0.26933127641677856 1.0 4 -0.0628797635436058
-3.089714765548706 1.330641746520996 0.5328158736228943 68.0 12 -0.06287746131420135
-2.0035932064056396 0.8632978200912476 -0.19087107479572296 8.0 5 -0.06287515163421631
-3.0738980770111084 1.325101375579834 0.6506586670875549 66.0 13 -0.06287284940481186
-1.9751763343811035 0.8518718481063843 -0.11273165792226791 9.0 6 -0.06287054717540741
-3.0632388591766357 1.3217743635177612 0.7702324986457825 78.0 14 -0.06286824494600296
-1.960912823677063 0.8461254835128784 -0.03727834299206734 7.0 7 -0.06286593526601791
-3.0595200061798096 1.320803165435791 0.8929257392883301 78.0 15 -0.06286363303661346
-2.876871109008789 1.2467221021652222 -0.840126633644104 6.0 0 -0.06284289807081223
-1.8678404092788696 0.8094481229782104 0.03553309664130211 2.0 8 -0.06284059584140778
-2.1705405712127686 0.941076397895813 -0.5461812019348145 1.0 1 -0.06283829361200333
-1.9550648927688599 0.8480584621429443 0.11168494075536728 66.0 9 -0.06283598393201828
-2.0080795288085938 0.8714712858200073 -0.42550405859947205 4.0 2 -0.06283368170261383
-3.1050188541412354 1.3481676578521729 0.2961552143096924 40.0 10 -0.06283137947320938
-2.027573585510254 0.8803519010543823 -0.3501003682613373 11.0 3 -0.06282907724380493
-3.0970537662506104 1.3453516960144043 0.41459953784942627 75.0 11 -0.06282676756381989
-2.029954671859741 0.8822279572486877 -0.2717686593532562 1.0 4 -0.06282446533441544
-1.995086431503296 0.8679021000862122 -0.19034813344478607 7.0 5 -0.06281986087560654
-3.076688289642334 1.3384203910827637 0.6521852016448975 66.0 13 -0.06281755119562149
-1.9741723537445068 0.8592138290405273 -0.1128363311290741 8.0 6 -0.06281524896621704
-3.0624122619628906 1.3334813117980957 0.7711322903633118 78.0 14 -0.06281294673681259
-1.9414476156234741 0.8457772731781006 -0.03696419671177864 8.0 7 -0.06281064450740814
-3.065516233444214 1.3361070156097412 0.8960315585136414 74.0 15 -0.0628083348274231
-2.8603310585021973 1.2508372068405151 -0.8365032076835632 6.0 0 -0.06278759986162186
-1.8631718158721924 0.8151612281799316 0.03549819439649582 4.0 8 -0.06278529763221741
-2.217228412628174 0.9705271124839783 -0.5587784647941589 1.0 1 -0.06278299540281296
-1.9539225101470947 0.8556790947914124 0.11178961396217346 70.0 9 -0.06278069317340851
-1.9997837543487549 0.8757631182670593 -0.4243592619895935 3.0 2 -0.06277838349342346
-3.106005907058716 1.3608547449111938 0.2966781258583069 42.0 10 -0.06277608126401901
-2.0262973308563232 0.8882171511650085 -0.3504132330417633 10.0 3 -0.06277377903461456
-3.1087000370025635 1.3633296489715576 0.41679316759109497 52.0 11 -0.06277147680521011
-2.005048990249634 0.8797374367713928 -0.26884379982948303 1.0 4 -0.06276916712522507
-2.078286647796631 0.9123038649559021 0.3594864308834076 1.0 12 -0.06276686489582062
-1.9865721464157104 0.8724576234817505 -0.18982520699501038 8.0 5 -0.06276456266641617
-3.082782506942749 1.3538883924484253 0.6544748544692993 67.0 13 -0.06276226043701172
-1.9729893207550049 0.8669031262397766 -0.11294099688529968 8.0 6 -0.06275995075702667
-3.0702266693115234 1.349652647972107 0.7742815613746643 81.0 14 -0.06275764852762222
-1.9348225593566895 0.8509390354156494 -0.03689438849687576 8.0 7 -0.06275534629821777
-3.0537612438201904 1.3436866998672485 0.8939610123634338 76.0 15 -0.06275304406881332
-1.8639730215072632 0.8232762813568115 0.035568006336688995 4.0 8 -0.06272999942302704
-2.2779958248138428 1.006616234779358 -0.5749749541282654 1.0 1 -0.06272769719362259
-1.9509238004684448 0.8624939322471619 0.11178961396217346 73.0 9 -0.06272539496421814
-1.994765043258667 0.882292628288269 -0.4239776134490967 3.0 2 -0.06272309273481369
