# .PCD v0.7 - Point Cloud Data file format
VERSION 0.7
FIELDS x y z intensity ring time
SIZE 4 4 4 4 4 4
TYPE F F F F F F
COUNT 1 1 1 1 1 1
WIDTH 539
HEIGHT 1
VIEWPOINT 0 0 0 1 0 0 0
POINTS 539
DATA ascii
-2.6545097827911377 -2.275994300842285 0.9369249939918518 46.0 15 -0.02181982435286045
-1.6252034902572632 -1.3900187015533447 -0.5730253458023071 1.0 0 -0.02179908938705921
-2.290489673614502 -1.9583379030227661 0.05260155349969864 7.0 8 -0.021796785295009613
-2.291712760925293 -1.958692193031311 -0.6959986090660095 10.0 1 -0.021794481202960014
-2.657377004623413 -2.2704174518585205 0.18317586183547974 1.0 9 -0.021792177110910416
-2.265839099884033 -1.9358941316604614 -0.5792961716651917 10.0 2 -0.021789873018860817
-2.7179548740386963 -2.321352481842041 0.3127147853374481 11.0 10 -0.021787568926811218
-1.5609021186828613 -1.3326658010482788 -0.325070858001709 1.0 3 -0.02178526483476162
-2.7012574672698975 -2.3054616451263428 0.4360485374927521 34.0 11 -0.02178296074271202
-2.6978554725646973 -2.300930976867676 0.5615997910499573 22.0 12 -0.021778352558612823
-1.4947049617767334 -1.2747949361801147 -0.1718711256980896 0.0 5 -0.021776048466563225
-2.6876747608184814 -2.2914376258850098 0.6865308284759521 56.0 13 -0.021773744374513626
-2.348531723022461 -2.0015861988067627 -0.16171811521053314 1.0 6 -0.021771440282464027
-2.6774985790252686 -2.2811484336853027 0.8120733499526978 8.0 14 -0.02176913619041443
-2.259230136871338 -1.924115777015686 -0.0517987422645092 1.0 7 -0.02176683209836483
-2.659496545791626 -2.264209747314453 0.935889720916748 45.0 15 -0.02176452800631523
-2.306457757949829 -1.9580962657928467 0.05281098559498787 6.0 8 -0.021741488948464394
-2.2821922302246094 -1.9368103742599487 -0.6910496354103088 14.0 1 -0.021739184856414795
-2.6363492012023926 -2.2365775108337402 0.18118709325790405 10.0 9 -0.021736880764365196
-2.272583246231079 -1.9279725551605225 -0.5792961716651917 14.0 2 -0.021734576672315598
-2.7199630737304688 -2.3066961765289307 0.312017560005188 10.0 10 -0.021732272580266
-1.5655444860458374 -1.3272091150283813 -0.325070858001709 1.0 3 -0.0217299684882164
-2.701716661453247 -2.2896013259887695 0.43482983112335205 33.0 11 -0.0217276643961668
-2.701348066329956 -2.287670373916626 0.5606611967086792 20.0 12 -0.021723056212067604
-1.5021862983703613 -1.27214515209198 -0.17221973836421967 0.0 5 -0.021720752120018005
-2.688164472579956 -2.2756991386413574 0.6846227049827576 49.0 13 -0.021718448027968407
-2.392094612121582 -2.024341106414795 -0.16423025727272034 1.0 6 -0.021716143935918808
-2.676518440246582 -2.2642366886138916 0.8093739748001099 8.0 14 -0.02171383984386921
-2.217071533203125 -1.874897837638855 -0.050681788474321365 1.0 7 -0.02171153575181961
-2.6629579067230225 -2.2511708736419678 0.93433678150177 43.0 15 -0.02170923352241516
-2.3331549167633057 -1.9667882919311523 0.05326474457979202 4.0 8 -0.021686192601919174
-2.2814879417419434 -1.922553300857544 -0.6888001561164856 19.0 1 -0.021683888509869576
-2.645667791366577 -2.2286481857299805 0.18129177391529083 65.0 9 -0.021681584417819977
-2.2702901363372803 -1.912438988685608 -0.577006459236145 15.0 2 -0.021679280325770378
-2.7295219898223877 -2.298471450805664 0.3121918737888336 8.0 10 -0.02167697623372078
-1.570168137550354 -1.3217358589172363 -0.325070858001709 1.0 3 -0.02167467214167118
-2.7051360607147217 -2.276322364807129 0.43409866094589233 23.0 11 -0.021672368049621582
-2.6911747455596924 -2.262970447540283 0.5569067597389221 16.0 12 -0.021667759865522385
-1.527966856956482 -1.2848454713821411 -0.1746601164340973 1.0 5 -0.021665455773472786
-2.6990978717803955 -2.2688286304473877 0.6853859424591064 38.0 13 -0.021663153544068336
-2.5153567790985107 -2.1136300563812256 -0.17218531668186188 1.0 6 -0.021660849452018738
-2.6769449710845947 -2.248612880706787 0.8071244359016418 8.0 14 -0.02165854535996914
-2.188380241394043 -1.837571144104004 -0.04987897723913193 2.0 7 -0.02165624126791954
-2.667840003967285 -2.2393782138824463 0.9333015084266663 42.0 15 -0.02165393717586994
-2.3216052055358887 -1.9432299137115479 0.05284588783979416 5.0 8 -0.021630896255373955
-2.2926692962646484 -1.9183286428451538 -0.6901498436927795 23.0 1 -0.021628592163324356
-2.658026933670044 -2.2232441902160645 0.18160578608512878 6.0 9 -0.021626288071274757
-2.264904499053955 -1.8944262266159058 -0.5739535093307495 21.0 2 -0.02162398397922516
-2.7130725383758545 -2.268481492996216 0.3094028830528259 8.0 10 -0.02162167988717556
-1.5747723579406738 -1.3162468671798706 -0.325070858001709 1.0 3 -0.02161937579512596
-2.7115414142608643 -2.2655932903289795 0.4338549077510834 17.0 11 -0.021617073565721512
-2.6929924488067627 -2.2484984397888184 0.555655300617218 16.0 12 -0.021612465381622314
-1.4957373142242432 -1.2488571405410767 -0.17047663033008575 0.0 5 -0.021610161289572716
-2.707000494003296 -2.2593936920166016 0.6853859424591064 39.0 13 -0.021607857197523117
-2.476713180541992 -2.066450357437134 -0.16904516518115997 1.0 6 -0.02160555310547352
-2.6817846298217773 -2.2367587089538574 0.8062246441841125 8.0 14 -0.02160324901342392
-2.1886374950408936 -1.8247995376586914 -0.04973935708403587 2.0 7 -0.02160094492137432
-2.6563491821289062 -2.213972330093384 0.9265722036361694 40.0 15 -0.021598640829324722
-2.2668588161468506 -1.8839876651763916 0.051449693739414215 5.0 8 -0.021575599908828735
-2.290357828140259 -1.9028428792953491 -0.6874504685401917 27.0 1 -0.021573295816779137
-2.662698268890381 -2.211400032043457 0.18139643967151642 5.0 9 -0.021570991724729538
-2.274523973464966 -1.889017105102539 -0.5747166872024536 23.0 2 -0.02156868949532509
-2.716376304626465 -2.255178451538086 0.30887994170188904 7.0 10 -0.02156638540327549
-1.5793571472167969 -1.3107421398162842 -0.325070858001709 1.0 3 -0.02156408131122589
-2.7179055213928223 -2.2548470497131348 0.4336111545562744 15.0 11 -0.021561777219176292
-2.6977829933166504 -2.2365634441375732 0.5550295114517212 13.0 12 -0.021557169035077095
-1.497019648551941 -1.2410855293273926 -0.1701280176639557 0.0 5 -0.021554864943027496
-2.702777862548828 -2.2399086952209473 0.6823329925537109 34.0 13 -0.021552560850977898
-2.490063428878784 -2.0628888607025146 -0.1694638431072235 1.0 6 -0.0215502567589283
-2.688075065612793 -2.2261414527893066 0.8057747483253479 6.0 14 -0.0215479526668787
-2.1595659255981445 -1.7878191471099854 -0.048936549574136734 2.0 7 -0.0215456485748291
-2.6655497550964355 -2.2059178352355957 0.9270898699760437 41.0 15 -0.021543344482779503
-2.295013904571533 -1.8938825130462646 0.051938362419605255 4.0 8 -0.021520305424928665
-2.2864630222320557 -1.886155605316162 -0.6843011379241943 31.0 1 -0.021518001332879066
-2.6611552238464355 -2.1944687366485596 0.18076841533184052 2.0 9 -0.021515697240829468
-2.282618284225464 -1.8823156356811523 -0.5750983357429504 29.0 2 -0.02151339314877987
-2.7288436889648438 -2.249485492706299 0.3094028830528259 7.0 10 -0.02151108905673027
-1.5839228630065918 -1.3052211999893188 -0.325070858001709 1.0 3 -0.02150878496468067
-2.7043099403381348 -2.227675437927246 0.4301988184452057 12.0 11 -0.021506480872631073
-2.7025232315063477 -2.2246217727661133 0.5544037818908691 13.0 12 -0.021501872688531876
-1.5136487483978271 -1.24598228931427 -0.17152249813079834 0.0 5 -0.021499568596482277
-2.695420742034912 -2.217985153198242 0.6785168647766113 30.0 13 -0.021497264504432678
-2.4679417610168457 -2.0300779342651367 -0.16747507452964783 1.0 6 -0.02149496041238308
-2.688303232192993 -2.2105560302734375 0.8035252690315247 8.0 14 -0.02149265632033348
-2.175062656402588 -1.7878880500793457 -0.049145977944135666 2.0 7 -0.021490352228283882
-2.6657702922821045 -2.1904685497283936 0.9245017170906067 40.0 15 -0.021488048136234283
-2.3201723098754883 -1.9010685682296753 0.05235722288489342 2.0 8 -0.021465009078383446
-2.282480001449585 -1.8695192337036133 -0.681151807308197 33.0 1 -0.021462704986333847
-2.6610729694366455 -2.1788389682769775 0.1802450567483902 2.0 9 -0.02146040089428425
-2.290694236755371 -1.8755793571472168 -0.5754799246788025 32.0 2 -0.02145809680223465
-2.7289702892303467 -2.2336363792419434 0.3085313141345978 7.0 10 -0.02145579271018505
-1.5884692668914795 -1.2996841669082642 -0.325070858001709 1.0 3 -0.021453488618135452
-2.701313018798828 -2.209425210952759 0.4284926652908325 9.0 11 -0.021451184526085854
-2.705683708190918 -2.2114241123199463 0.5534651875495911 13.0 12 -0.021446576341986656
-1.5056475400924683 -1.2306040525436401 -0.1701280176639557 0.0 5 -0.021444272249937057
-2.695544719696045 -2.20235276222229 0.6766087412834167 27.0 13 -0.02144196815788746
-2.470372438430786 -2.017660617828369 -0.16716106235980988 1.0 6 -0.02143966406583786
-2.6899657249450684 -2.196228265762329 0.8017256259918213 8.0 14 -0.02143735997378826
-2.2076265811920166 -1.8017802238464355 -0.04973935708403587 2.0 7 -0.021435055881738663
-2.667412757873535 -2.176264524459839 0.9224311113357544 38.0 15 -0.021432751789689064
-2.2880141735076904 -1.8614085912704468 0.051484595984220505 2.0 8 -0.021409712731838226
-2.296550989151001 -1.8676886558532715 -0.683401346206665 41.0 1 -0.021407408639788628
-2.654714584350586 -2.1581974029541016 0.17930300533771515 2.0 9 -0.02140510454773903
-2.2819936275482178 -1.8551872968673706 -0.5716637372970581 31.0 2 -0.02140280045568943
-2.7305657863616943 -2.2190706729888916 0.30783405900001526 7.0 10 -0.02140049636363983
-1.5929964780807495 -1.2941315174102783 -0.325070858001709 1.0 3 -0.021398192271590233
-2.7090091705322266 -2.1999824047088623 0.4284926652908325 8.0 11 -0.021395888179540634
-2.705717086791992 -2.19574236869812 0.5519008636474609 12.0 12 -0.021391279995441437
-1.5161222219467163 -1.2303627729415894 -0.17082524299621582 0.0 5 -0.021388975903391838
-2.7062652111053467 -2.195403814315796 0.6773719787597656 23.0 13 -0.02138667181134224
-2.477400541305542 -2.0090248584747314 -0.16716106235980988 3.0 6 -0.02138436958193779
-2.6794493198394775 -2.1720995903015137 0.7963268160820007 8.0 14 -0.02138206548988819
-2.1843836307525635 -1.7701423168182373 -0.04907616600394249 1.0 7 -0.021379761397838593
-2.6749930381774902 -2.166940212249756 0.9224311113357544 43.0 15 -0.021377457305788994
-2.258718490600586 -1.8245103359222412 0.050681788474321365 2.0 8 -0.021354416385293007
-2.2939600944519043 -1.8523147106170654 -0.6807019710540771 43.0 1 -0.021352112293243408
-2.6684489250183105 -2.153935670852661 0.17972169816493988 3.0 9 -0.02134980820119381
-2.286928415298462 -1.845977544784546 -0.571282148361206 40.0 2 -0.02134750410914421
-2.7289912700653076 -2.202019453048706 0.30678820610046387 7.0 10 -0.021345200017094612
-2.7259435653686523 -2.197988748550415 0.42995506525039673 6.0 11 -0.021340591832995415
-2.6949071884155273 -2.1714115142822266 0.5481464266777039 12.0 12 -0.021335985511541367
-1.4955848455429077 -1.205061912536621 -0.16803626716136932 0.0 5 -0.021333681419491768
-2.707796096801758 -2.1810173988342285 0.6758455038070679 16.0 13 -0.02133137732744217
-2.484398365020752 -2.0003650188446045 -0.16716106235980988 3.0 6 -0.02132907323539257
-2.6870152950286865 -2.162733316421509 0.7963268160820007 9.0 14 -0.021326769143342972
-2.1671793460845947 -1.7437031269073486 -0.04855259507894516 2.0 7 -0.021324465051293373
-2.6704981327056885 -2.1479032039642334 0.9182900190353394 40.0 15 -0.021322160959243774
-2.224514961242676 -1.7840853929519653 0.04977426677942276 5.0 8 -0.021299120038747787
-2.2973709106445312 -1.84185791015625 -0.6798021197319031 48.0 1 -0.02129681594669819
-2.675950765609741 -2.144608497619629 0.17972169816493988 4.0 9 -0.02129451185464859
-2.2826337814331055 -1.8293894529342651 -0.5686108469963074 40.0 2 -0.02129220962524414
-2.714892864227295 -2.175039052963257 0.30434784293174744 6.0 10 -0.021289903670549393
-2.7212016582489014 -2.1785356998443604 0.4280051589012146 6.0 11 -0.021285297349095345
-2.694758176803589 -2.1558210849761963 0.5465821027755737 11.0 12 -0.021280689164996147
-1.4997822046279907 -1.199833869934082 -0.16803626716136932 0.0 5 -0.02127838507294655
-2.700059652328491 -2.1592910289764404 0.6720293164253235 16.0 13 -0.02127608098089695
-2.497605800628662 -1.9966689348220825 -0.1675797551870346 2.0 6 -0.02127377688884735
-2.6823692321777344 -2.1436078548431396 0.7927275896072388 9.0 14 -0.021271472796797752
-2.1670031547546387 -1.7311357259750366 -0.048412974923849106 6.0 7 -0.021269168704748154
-2.668921947479248 -2.131335496902466 0.9151841998100281 43.0 15 -0.021266864612698555
-2.293302059173584 -1.8261358737945557 0.051170457154512405 3.0 8 -0.021285852417349815
-2.288539171218872 -1.8216913938522339 -0.6753031015396118 50.0 1 -0.021283548325300217
-2.6736717224121094 -2.1282594203948975 0.17909365892410278 5.0 9 -0.021281244233250618
-2.285933017730713 -1.8189654350280762 -0.5678476095199585 44.0 2 -0.02127894014120102
-2.73494291305542 -2.175471544265747 0.3057423233985901 7.0 10 -0.02127663604915142
-2.7148044109344482 -2.1579058170318604 0.4258115291595459 4.0 11 -0.021272027865052223
-2.7065320014953613 -2.150559902191162 0.5475206971168518 12.0 12 -0.021267419680953026
-2.6998937129974365 -2.1437480449676514 0.6701211929321289 15.0 13 -0.021262813359498978
-2.49048113822937 -1.9767634868621826 -0.16663770377635956 1.0 6 -0.02126050926744938
-2.6944150924682617 -2.1378660202026367 0.7940772771835327 11.0 14 -0.02125820517539978
-2.1742985248565674 -1.7251830101013184 -0.048447877168655396 10.0 7 -0.02125590108335018
-2.6714344024658203 -2.1188716888427734 0.91363126039505 43.0 15 -0.021253596991300583
-2.344830274581909 -1.854494333267212 0.052182696759700775 2.0 8 -0.021230556070804596
-2.285395383834839 -1.8068406581878662 -0.6726037263870239 45.0 1 -0.021228251978754997
-2.668548822402954 -2.10900616645813 0.17825628817081451 6.0 9 -0.0212259478867054
-2.2968904972076416 -1.8146253824234009 -0.5689924359321594 49.0 2 -0.0212236437946558
-2.728447198867798 -2.1547982692718506 0.3041735291481018 7.0 10 -0.0212213397026062
-2.715712785720825 -2.1439716815948486 0.42483654618263245 4.0 11 -0.021216733381152153
-2.7155728340148926 -2.1423232555389404 0.5478335618972778 13.0 12 -0.021212125197052956
-2.7023627758026123 -2.131136655807495 0.668976366519928 11.0 13 -0.021207517012953758
-2.4829061031341553 -1.9573651552200317 -0.1656956523656845 1.0 6 -0.02120521292090416
-2.6968977451324463 -2.125300645828247 0.7927275896072388 12.0 14 -0.02120290882885456
-2.1850199699401855 -1.7212945222854614 -0.04855259507894516 15.0 7 -0.021200604736804962
-2.675779104232788 -2.1071434020996094 0.9125959873199463 44.0 15 -0.021198300644755363
-2.2176036834716797 -1.7413251399993896 0.049215786159038544 3.0 8 -0.021175259724259377
-2.2886226177215576 -1.796445608139038 -0.6717038750648499 45.0 1 -0.021172955632209778
-2.66646671295166 -2.092280626296997 0.17762824892997742 6.0 9 -0.02117065340280533
-2.290538787841797 -1.797303557395935 -0.5659394860267639 55.0 2 -0.02116834931075573
-2.730875015258789 -2.142049789428711 0.3036506175994873 7.0 10 -0.02116604521870613
-2.7294299602508545 -2.139376640319824 0.4258115291595459 4.0 11 -0.021161437034606934
-2.7043728828430176 -2.1182141304016113 0.5440791249275208 13.0 12 -0.021156828850507736
-2.705148696899414 -2.118058919906616 0.667831540107727 10.0 13 -0.02115222066640854
-2.492868661880493 -1.9511487483978271 -0.16590499877929688 1.0 6 -0.02114991657435894
-2.6843478679656982 -2.1002626419067383 0.7868788242340088 17.0 14 -0.02114761248230934
-2.1925904750823975 -1.7148888111114502 -0.04858750104904175 14.0 7 -0.021145308390259743
-2.6861612796783447 -2.100170373916626 0.91363126039505 49.0 15 -0.021143004298210144
-2.1637399196624756 -1.686853051185608 0.047889403998851776 5.0 8 -0.021119965240359306
-2.2933425903320312 -1.787247896194458 -0.6712539792060852 42.0 1 -0.021117661148309708
-2.6674516201019287 -2.0780506134033203 0.17720957100391388 6.0 9 -0.02111535705626011
-2.2800726890563965 -1.7756274938583374 -0.5617417097091675 46.0 2 -0.02111305296421051
-2.724557876586914 -2.1210110187530518 0.30208179354667664 8.0 10 -0.02111074887216091
-2.7274811267852783 -2.1225221157073975 0.4243490695953369 2.0 11 -0.021106140688061714
-2.7008347511291504 -2.1002726554870605 0.5418890714645386 13.0 12 -0.021101532503962517
-2.708242177963257 -2.1045165061950684 0.6666866540908813 10.0 13 -0.02109692431986332
-2.5457451343536377 -1.9775301218032837 -0.1689404845237732 3.0 6 -0.02109462022781372
-2.6920278072357178 -2.090409994125366 0.7868788242340088 19.0 14 -0.021092316135764122
-2.203301191329956 -1.710904598236084 -0.048692215234041214 10.0 7 -0.021090012043714523
-2.681267499923706 -2.0813045501708984 0.909490168094635 50.0 15 -0.021087707951664925
-2.182560682296753 -1.688700795173645 0.048168644309043884 5.0 8 -0.021064668893814087
-2.313750982284546 -1.7895605564117432 -0.6753031015396118 22.0 1 -0.021062364801764488
-2.6810085773468018 -2.0736143589019775 0.17762824892997742 9.0 9 -0.02106006070971489
-2.2909159660339355 -1.7712599039077759 -0.5628865361213684 53.0 2 -0.02105775661766529
-2.7209103107452393 -2.1029586791992188 0.3008616268634796 10.0 10 -0.021055452525615692
-2.7289581298828125 -2.1076576709747314 0.42337414622306824 4.0 11 -0.021050844341516495
-2.7128405570983887 -2.094453811645508 0.5428276658058167 18.0 12 -0.021046236157417297
-2.712463140487671 -2.092651605606079 0.6659234166145325 8.0 13 -0.0210416279733181
-2.5795187950134277 -1.989366888999939 -0.1707199066877365 3.0 6 -0.0210393238812685
-2.708568572998047 -2.088139057159424 0.7895782589912415 26.0 14 -0.021037019789218903
-2.19342303276062 -1.6909937858581543 -0.04834316670894623 11.0 7 -0.021034715697169304
-2.6762750148773193 -2.0624983310699463 0.90534907579422 50.0 15 -0.021032411605119705
-2.2563297748565674 -1.7338474988937378 0.049669548869132996 8.0 8 -0.021009372547268867
-2.680310010910034 -2.0581612586975098 0.1771048903465271 7.0 9 -0.02100476436316967
-2.2892978191375732 -1.7572758197784424 -0.5609784722328186 51.0 2 -0.02100246027112007
-2.736137866973877 -2.0995123386383057 0.3017331659793854 12.0 10 -0.021000156179070473
-2.7217562198638916 -2.0877225399017334 0.42118048667907715 5.0 11 -0.020995547994971275
-2.721702814102173 -2.0861728191375732 0.5431405305862427 20.0 12 -0.020990939810872078
-2.70536208152771 -2.0728983879089355 0.6624888777732849 8.0 13 -0.02098633162677288
-2.5480477809906006 -1.9516547918319702 -0.1682077795267105 3.0 6 -0.02098402939736843
-2.710836410522461 -2.075591564178467 0.7882285714149475 34.0 14 -0.020981725305318832
-2.2088398933410645 -1.6906192302703857 -0.04855259507894516 8.0 7 -0.020979421213269234
-2.6803901195526123 -2.050795555114746 0.9043138027191162 51.0 15 -0.020977117121219635
-2.244880199432373 -1.712618112564087 0.04928559437394142 9.0 8 -0.020954076200723648
-2.628709077835083 -2.003990888595581 0.1732320338487625 10.0 9 -0.02094946801662445
-2.307603120803833 -1.7591965198516846 -0.5640314221382141 23.0 2 -0.020947163924574852
-2.730407476425171 -2.080766201019287 0.3003386855125427 15.0 10 -0.020944859832525253
-2.7290267944335938 -2.078209638595581 0.42118048667907715 6.0 11 -0.020940251648426056
-2.7273967266082764 -2.0754635334014893 0.5428276658058167 22.0 12 -0.020935645326972008
-2.7063310146331787 -2.0586886405944824 0.6609624028205872 8.0 13 -0.02093103714287281
-2.5309970378875732 -1.9246151447296143 -0.16663770377635956 2.0 6 -0.02092873305082321
-2.708756446838379 -2.0590405464172363 0.7855291366577148 41.0 14 -0.020926428958773613
-2.1924376487731934 -1.6659603118896484 -0.04806393012404442 11.0 7 -0.020924124866724014
-2.6859936714172363 -2.0402586460113525 0.9037961363792419 54.0 15 -0.020921820774674416
-2.2460622787475586 -1.701149582862854 0.049180880188941956 15.0 8 -0.02089877985417843
-2.607022285461426 -1.9731069803237915 0.17134793102741241 10.0 9 -0.02089417167007923
-2.32155704498291 -1.7570545673370361 -0.5659394860267639 28.0 2 -0.020891867578029633
-2.737654209136963 -2.0712225437164307 0.3003386855125427 17.0 10 -0.020889565348625183
-2.72676420211792 -2.0614876747131348 0.41971805691719055 8.0 11 -0.020884957164525986
-2.7314717769622803 -2.063549518585205 0.5422019362449646 27.0 12 -0.02088034898042679
-2.708801031112671 -2.0456788539886475 0.6598175168037415 7.0 13 -0.02087574079632759
-2.4308996200561523 -1.8351424932479858 -0.15962468087673187 1.0 6 -0.020873436704277992
-2.7143714427948 -2.0483994483947754 0.7850792407989502 53.0 14 -0.020871132612228394
-2.1934502124786377 -1.6546846628189087 -0.047959212213754654 12.0 7 -0.020868828520178795
-2.694641590118408 -2.0320334434509277 0.9043138027191162 58.0 15 -0.020866524428129196
-2.245593309402466 -1.6884925365447998 0.0490412637591362 11.0 8 -0.02084348537027836
-2.660200357437134 -1.9987870454788208 0.17438343167304993 9.0 9 -0.02083887718617916
-2.340233325958252 -1.7583742141723633 -0.5689924359321594 28.0 2 -0.020836573094129562
-2.7369017601013184 -2.0556716918945312 0.2994671165943146 23.0 10 -0.020834269002079964
-2.7339437007904053 -2.0519566535949707 0.41971805691719055 9.0 11 -0.020829660817980766
-2.7212750911712646 -2.0409646034240723 0.5387603640556335 28.0 12 -0.02082505263388157
-2.717496395111084 -2.037388801574707 0.6601991653442383 8.0 13 -0.02082044444978237
-2.2758700847625732 -1.7056678533554077 -0.14905281364917755 3.0 6 -0.020818140357732773
-2.709028959274292 -2.0295639038085938 0.7814800143241882 57.0 14 -0.020815836265683174
-2.1880087852478027 -1.6386271715164185 -0.04771488159894943 13.0 7 -0.020813532173633575
-2.684706926345825 -2.0098793506622314 0.8986197710037231 56.0 15 -0.020811228081583977
-2.245063543319702 -1.6758586168289185 0.048901643604040146 16.0 8 -0.02078818902373314
-2.6767663955688477 -1.9966546297073364 0.17501145601272583 7.0 9 -0.02078358083963394
-2.3639748096466064 -1.7626949548721313 -0.5731902718544006 30.0 2 -0.020781276747584343
-2.7364308834075928 -2.039672374725342 0.2985955774784088 27.0 10 -0.020778972655534744
-2.742680788040161 -2.0435874462127686 0.4199617803096771 12.0 11 -0.020774364471435547
-2.7315523624420166 -2.0338120460510254 0.5393860936164856 35.0 12 -0.02076975628733635
-2.715494394302368 -2.020383834838867 0.6579094529151917 7.0 13 -0.020765148103237152
-2.280503749847412 -1.6961230039596558 -0.14894814789295197 5.0 6 -0.020762844011187553
-2.7195770740509033 -2.021946430206299 0.7823798060417175 66.0 14 -0.020760539919137955
-2.203343629837036 -1.6381380558013916 -0.047924306243658066 9.0 7 -0.020758235827088356
-2.6824028491973877 -1.9935823678970337 0.8955139517784119 55.0 15 -0.020755931735038757
-2.2415499687194824 -1.6604771614074707 0.048692215234041214 16.0 8 -0.02073289267718792
-1.9231749773025513 -1.4241141080856323 -0.5524798035621643 1.0 1 -0.02073058858513832
-2.6840665340423584 -1.9868303537368774 0.17501145601272583 7.0 9 -0.020728284493088722
-2.3890490531921387 -1.7684491872787476 -0.5777696371078491 30.0 2 -0.020725980401039124
-2.7419321537017822 -2.028923511505127 0.2984212636947632 35.0 10 -0.020723676308989525
-2.73099946975708 -2.019357919692993 0.41703692078590393 12.0 11 -0.020719068124890327
-2.7342212200164795 -2.020265579223633 0.5384474992752075 43.0 12 -0.02071445994079113
-2.708317756652832 -2.000394105911255 0.6544748544692993 8.0 13 -0.020709851756691933
-2.2623093128204346 -1.6703572273254395 -0.147378072142601 7.0 6 -0.020707547664642334
-2.7266180515289307 -2.012441635131836 0.7823798060417175 70.0 14 -0.020705245435237885
-2.1964597702026367 -1.6205534934997559 -0.047645069658756256 9.0 7 -0.020702941343188286
-2.6834733486175537 -1.9791500568389893 0.8934433460235596 56.0 15 -0.020700637251138687
-2.311772108078003 -1.700029969215393 0.05008840560913086 26.0 8 -0.0206775963306427
-1.9061524868011475 -1.4012330770492554 -0.5461812019348145 1.0 1 -0.0206752922385931
-2.6765010356903076 -1.9668041467666626 0.17406940460205078 6.0 9 -0.020672988146543503
-2.4110281467437744 -1.771723747253418 -0.5815858244895935 30.0 2 -0.020670684054493904
-2.74257493019104 -2.0146217346191406 0.29772400856018066 42.0 10 -0.020668379962444305
-2.7300305366516113 -2.003939390182495 0.4158182442188263 16.0 11 -0.020663771778345108
-2.73966383934021 -2.0095407962799072 0.5381346344947815 45.0 12 -0.02065916359424591
-2.7152841091156006 -1.9909281730651855 0.6544748544692993 10.0 13 -0.020654557272791862
-2.2649037837982178 -1.6600890159606934 -0.14716872572898865 14.0 6 -0.020652253180742264
-2.730482816696167 -2.0006072521209717 0.7814800143241882 77.0 14 -0.020649949088692665
-2.2150094509124756 -1.6223293542861938 -0.047924306243658066 11.0 7 -0.020647644996643066
-2.6856887340545654 -1.9663476943969727 0.8918904662132263 60.0 15 -0.020645340904593468
-2.2950809001922607 -1.675443172454834 0.04959974065423012 37.0 8 -0.02062229998409748
-1.8543620109558105 -1.3532166481018066 -0.529984712600708 1.0 1 -0.020619995892047882
-2.6768953800201416 -1.9527416229248047 0.17365071177482605 6.0 9 -0.020617691799998283
-2.4219560623168945 -1.766768455505371 -0.5827307105064392 27.0 2 -0.020615387707948685
-2.754420042037964 -2.0085577964782715 0.29824694991111755 48.0 10 -0.020613083615899086
-2.730591058731079 -1.9897218942642212 0.41484326124191284 22.0 11 -0.020608477294445038
-2.7354843616485596 -1.9918252229690552 0.5359445214271545 53.0 12 -0.02060386911034584
-2.715867519378662 -1.97681725025177 0.6529484391212463 10.0 13 -0.020599260926246643
-2.2755298614501953 -1.6556980609893799 -0.1474827378988266 19.0 6 -0.020596956834197044
-2.7090823650360107 -1.9704310894012451 0.773381769657135 75.0 14 -0.020594652742147446
-2.2546236515045166 -1.6392831802368164 -0.048657309263944626 16.0 7 -0.020592348650097847
-2.7034752368927 -1.9649114608764648 0.8955139517784119 70.0 15 -0.02059004455804825
-2.3025338649749756 -1.668595314025879 0.04963464289903641 18.0 8 -0.02056700363755226
-1.9158885478973389 -1.387891411781311 -0.5461812019348145 1.0 1 -0.020564701408147812
-2.67722487449646 -1.9386999607086182 0.1732320338487625 6.0 9 -0.020562397316098213
-2.4424195289611816 -1.7686666250228882 -0.5861652493476868 19.0 2 -0.020560093224048615
-2.7436606884002686 -1.986080288887024 0.296329528093338 55.0 10 -0.020557789131999016
-2.7343029975891113 -1.977851390838623 0.4143557846546173 24.0 11 -0.02055318094789982
-2.729612350463867 -1.9730074405670166 0.5334416031837463 55.0 12 -0.02054857276380062
-2.7227516174316406 -1.9673248529434204 0.6529484391212463 11.0 13 -0.020543964579701424
-2.278057813644409 -1.6454055309295654 -0.14727339148521423 18.0 6 -0.020541660487651825
-2.7175233364105225 -1.9621039628982544 0.7738316655158997 78.0 14 -0.020539356395602226
-2.261953592300415 -1.6325733661651611 -0.048692215234041214 15.0 7 -0.020537052303552628
-2.696218252182007 -1.9452890157699585 0.8908551931381226 74.0 15 -0.02053474821150303
-1.6574153900146484 -1.1927297115325928 -0.5471434593200684 1.0 0 -0.02051401324570179
-2.2612686157226562 -1.6266822814941406 0.04862240329384804 16.0 8 -0.02051170915365219
-1.9428714513778687 -1.3971233367919922 -0.5524798035621643 1.0 1 -0.020509405061602592
-2.6872191429138184 -1.9316749572753906 0.17344138026237488 6.0 9 -0.020507100969552994
-2.7424874305725098 -1.970677137374878 0.29545795917510986 56.0 10 -0.020502492785453796
-2.744415283203125 -1.9706103801727295 0.41484326124191284 34.0 11 -0.0204978846013546
-2.734877824783325 -1.9623156785964966 0.5331287384033203 61.0 12 -0.0204932764172554
-2.726411819458008 -1.9555201530456543 0.6521852016448975 15.0 13 -0.020488668233156204
-2.291903018951416 -1.6432629823684692 -0.14779675006866455 20.0 6 -0.020486364141106606
-2.7227721214294434 -1.9514708518981934 0.773381769657135 86.0 14 -0.020484060049057007
-2.279017448425293 -1.6328201293945312 -0.048936549574136734 18.0 7 -0.020481755957007408
-2.69042706489563 -1.9268673658370972 0.8867141008377075 76.0 15 -0.02047945186495781
-2.236013174057007 -1.596699595451355 0.047959212213754654 24.0 8 -0.020456412807106972
-2.6939454078674316 -1.9222828149795532 0.17344138026237488 6.0 9 -0.020451804623007774
-2.744483709335327 -1.9576210975646973 0.294935017824173 60.0 10 -0.020447196438908577
-2.736729145050049 -1.9506490230560303 0.41264963150024414 44.0 11 -0.02044258825480938
-2.7401020526885986 -1.9516109228134155 0.5328158736228943 63.0 12 -0.020437980070710182
-2.7172279357910156 -1.934604525566101 0.6483690142631531 15.0 13 -0.020433371886610985
-2.2862346172332764 -1.6271458864212036 -0.14706405997276306 19.0 6 -0.020431067794561386
-2.729567527770996 -1.9419546127319336 0.773381769657135 86.0 14 -0.020428763702511787
-2.2895920276641846 -1.6283316612243652 -0.0490412637591362 22.0 7 -0.02042645961046219
-2.697136640548706 -1.9174641370773315 0.8867141008377075 76.0 15 -0.02042415738105774
-2.2350475788116455 -1.584259271621704 0.0478195957839489 29.0 8 -0.020401116460561752
-2.693786859512329 -1.9087200164794922 0.17302268743515015 5.0 9 -0.020396508276462555
-2.7496743202209473 -1.9468779563903809 0.29476073384284973 66.0 10 -0.020391900092363358
-2.7337982654571533 -1.9342048168182373 0.41118720173835754 53.0 11 -0.02038729190826416
-2.749784231185913 -1.9447948932647705 0.5334416031837463 63.0 12 -0.020382683724164963
-2.7207579612731934 -1.9228416681289673 0.6476057171821594 21.0 13 -0.020378077402710915
-2.3000566959381104 -1.6249176263809204 -0.14758741855621338 12.0 6 -0.020375773310661316
-2.720411539077759 -1.921173334121704 0.7688827514648438 86.0 14 -0.020373469218611717
-2.2868120670318604 -1.6149624586105347 -0.04886673763394356 23.0 7 -0.02037116512656212
-2.706636667251587 -1.9107377529144287 0.8877493143081665 80.0 15 -0.02036886103451252
-2.2435593605041504 -1.5791406631469727 0.047889403998851776 35.0 8 -0.020345820114016533
-2.6938984394073486 -1.8947092294692993 0.17260399460792542 5.0 9 -0.020341211929917336
-2.7548229694366455 -1.9361227750778198 0.2945863902568817 68.0 10 -0.020336603745818138
-2.7369489669799805 -1.9228461980819702 0.410699725151062 59.0 11 -0.02033199742436409
-2.7355380058288574 -1.920430064201355 0.5293743014335632 62.0 12 -0.020327389240264893
-2.731940507888794 -1.9171918630599976 0.6487506031990051 28.0 13 -0.020322781056165695
-2.303797483444214 -1.6161342859268188 -0.1474827378988266 10.0 6 -0.020320476964116096
-2.7140026092529297 -1.903191089630127 0.7652835249900818 75.0 14 -0.020318172872066498
-2.3038976192474365 -1.6150048971176147 -0.04911107197403908 28.0 7 -0.0203158687800169
-2.713290214538574 -1.9012781381607056 0.8877493143081665 78.0 15 -0.0203135646879673
-1.6737031936645508 -1.1697639226913452 -0.5471434593200684 1.0 0 -0.020292827859520912
-2.2474184036254883 -1.5701547861099243 0.04785449802875519 39.0 8 -0.020290523767471313
-1.5625298023223877 -1.0912529230117798 -0.44000428915023804 0.0 1 -0.020288219675421715
-2.697221040725708 -1.8830070495605469 0.17239466309547424 4.0 9 -0.020285915583372116
-2.754692792892456 -1.9224157333374023 0.2938891649246216 75.0 10 -0.020281309261918068
-2.7436442375183105 -1.9132806062698364 0.410699725151062 67.0 11 -0.02027670107781887
-2.6071858406066895 -1.8174458742141724 -0.39022567868232727 1.0 4 -0.020274396985769272
-2.738983631134033 -1.9086107015609741 0.5287485718727112 62.0 12 -0.020272092893719673
-2.3362114429473877 -1.6273397207260132 -0.24909110367298126 3.0 5 -0.020269788801670074
-2.735394239425659 -1.9053994417190552 0.6479873657226562 28.0 13 -0.020267484709620476
-2.325814962387085 -1.6194959878921509 -0.14852945506572723 7.0 6 -0.020265180617570877
-2.720629930496216 -1.893705129623413 0.7652835249900818 81.0 14 -0.02026287652552128
-2.309521198272705 -1.6069529056549072 -0.04911107197403908 22.0 7 -0.02026057243347168
-2.697706699371338 -1.8763526678085327 0.880502462387085 78.0 15 -0.02025826834142208
-1.576379656791687 -1.0931662321090698 -0.5140146613121033 0.0 0 -0.020237533375620842
-2.259458541870117 -1.5668582916259766 0.04799411818385124 32.0 8 -0.020235229283571243
-1.5983611345291138 -1.107995867729187 -0.44900232553482056 0.0 1 -0.020232925191521645
-2.69392728805542 -1.866755485534668 0.17176662385463715 5.0 9 -0.020230621099472046
-1.6219520568847656 -1.1235119104385376 -0.383526086807251 1.0 2 -0.020228317007422447
-2.7551686763763428 -1.907768726348877 0.29319190979003906 75.0 10 -0.02022601291537285
-2.6621298789978027 -1.8426593542099 -0.5127922296524048 1.0 3 -0.02022370882332325
-2.7470412254333496 -1.9014328718185425 0.4102122485637665 68.0 11 -0.02022140473127365
-2.603719711303711 -1.801557183265686 -0.3887632191181183 15.0 4 -0.020219100639224052
-2.73750638961792 -1.8934191465377808 0.5271841883659363 65.0 12 -0.020216796547174454
-2.3500711917877197 -1.6248409748077393 -0.24996265769004822 6.0 5 -0.020214492455124855
-2.726208448410034 -1.8841992616653442 0.6441711783409119 36.0 13 -0.020212188363075256
-2.4155399799346924 -1.6688592433929443 -0.1538677215576172 1.0 6 -0.020209884271025658
-2.7275521755218506 -1.8837213516235352 0.7652835249900818 74.0 14 -0.02020758017897606
-2.341442823410034 -1.6170638799667358 -0.049669548869132996 31.0 7 -0.02020527608692646
-2.704240083694458 -1.866924524307251 0.880502462387085 76.0 15 -0.02020297199487686
-1.5706380605697632 -1.081084966659546 -0.510908842086792 0.0 0 -0.020182237029075623
-2.288249969482422 -1.5744354724884033 0.04848278686404228 32.0 8 -0.020179932937026024
-1.6505799293518066 -1.1352607011795044 -0.46249938011169434 1.0 1 -0.020177628844976425
-2.7004270553588867 -1.8573404550552368 0.17176662385463715 4.0 9 -0.020175324752926826
-1.6841038465499878 -1.1578855514526367 -0.3972643315792084 1.0 2 -0.020173020660877228
-2.7634527683258057 -1.8992688655853271 0.2933662235736847 77.0 10 -0.02017071656882763
-2.608304262161255 -1.7919679880142212 -0.5012161135673523 9.0 3 -0.02016841247677803
-2.7425379753112793 -1.8834844827651978 0.4085060954093933 74.0 11 -0.02016610838472843
-2.64139986038208 -1.8133485317230225 -0.39339426159858704 18.0 4 -0.020163804292678833
-2.7473559379577637 -1.886088490486145 0.5278099179267883 65.0 12 -0.020161500200629234
-2.3590145111083984 -1.618882417678833 -0.2503112852573395 7.0 5 -0.020159196108579636
-2.7214369773864746 -1.8668968677520752 0.6414998769760132 48.0 13 -0.020156892016530037
-2.503709077835083 -1.716894507408142 -0.15910132229328156 2.0 6 -0.020154587924480438
-2.7325034141540527 -1.873086929321289 0.7648336291313171 72.0 14 -0.02015228383243084
-2.3652162551879883 -1.6213175058364868 -0.05005349963903427 23.0 7 -0.02014997974038124
-2.710740804672241 -1.8574728965759277 0.880502462387085 76.0 15 -0.020147675648331642
-1.6063050031661987 -1.0973910093307495 -0.5212615728378296 1.0 0 -0.020126940682530403
-2.318225622177124 -1.583759069442749 0.04900635778903961 20.0 8 -0.020124636590480804
-1.6318055391311646 -1.1143947839736938 -0.4562007784843445 1.0 1 -0.020122332498431206
-2.703594923019409 -1.8456506729125977 0.17155727744102478 5.0 9 -0.020120028406381607
-2.6384212970733643 -1.80048406124115 -0.6208925247192383 4.0 2 -0.02011772431433201
-2.7700657844543457 -1.889611005783081 0.2933662235736847 77.0 10 -0.02011542022228241
-2.645237445831299 -1.8044588565826416 -0.5071606040000916 25.0 3 -0.02011311613023281
-2.7438480854034424 -1.8710248470306396 0.4077748656272888 81.0 11 -0.020110812038183212
-2.657240152359009 -1.8112878799438477 -0.394856721162796 18.0 4 -0.020108507946133614
-2.745760440826416 -1.8709251880645752 0.5262455940246582 62.0 12 -0.020106203854084015
-2.369591236114502 -1.6140028238296509 -0.25083422660827637 7.0 5 -0.020103899762034416
-2.734102964401245 -1.8622832298278809 0.6430263519287109 50.0 13 -0.020101595669984818
-2.549010753631592 -1.7355599403381348 -0.16161344945430756 3.0 6 -0.020099293440580368
-2.730644941329956 -1.8585330247879028 0.7625840902328491 68.0 14 -0.02009698934853077
-2.3493688106536865 -1.5984280109405518 -0.04959974065423012 21.0 7 -0.02009468525648117
-2.710817813873291 -1.8436540365219116 0.8784318566322327 74.0 15 -0.020092381164431572
-1.6099350452423096 -1.092058539390564 -0.5212615728378296 1.0 0 -0.020071644335985184
-2.3022236824035645 -1.561067819595337 0.04855259507894516 23.0 8 -0.020069340243935585
-1.7405372858047485 -1.1797618865966797 -0.48544439673423767 1.0 1 -0.020067036151885986
-2.6997809410095215 -1.8299514055252075 0.17092925310134888 5.0 9 -0.020064732059836388
-2.655754327774048 -1.7994340658187866 -0.623563826084137 15.0 2 -0.02006242796778679
-2.7713680267333984 -1.8770626783370972 0.2928432822227478 72.0 10 -0.02006012387573719
-2.66951322555542 -1.8073965311050415 -0.5106021761894226 24.0 3 -0.02005781978368759
-2.7454304695129395 -1.8580976724624634 0.4070436358451843 85.0 11 -0.020055515691637993
-2.679988384246826 -1.813124656677246 -0.3972941040992737 18.0 4 -0.020053211599588394
-2.7437691688537598 -1.856275200843811 0.5246812701225281 65.0 12 -0.020050909370183945
-2.3881335258483887 -1.6150652170181274 -0.252228707075119 7.0 5 -0.020048605278134346
-2.7389607429504395 -1.8516285419464111 0.6426447629928589 53.0 13 -0.020046301186084747
-2.5418148040771484 -1.717705249786377 -0.1607760637998581 2.0 6 -0.02004399709403515
-2.7258121967315674 -1.8413538932800293 0.7594348192214966 66.0 14 -0.02004169300198555
-2.389453887939453 -1.614135503768921 -0.05033273994922638 26.0 7 -0.02003938890993595
-2.718517780303955 -1.835735559463501 0.8789495229721069 70.0 15 -0.020037084817886353
-1.6938633918762207 -1.1403757333755493 -0.5471434593200684 1.0 0 -0.020016347989439964
-2.3471992015838623 -1.5802271366119385 0.049390312284231186 18.0 8 -0.020014043897390366
-1.9061119556427002 -1.28278648853302 -0.5304346084594727 1.0 1 -0.020011739805340767
-2.712780475616455 -1.8249762058258057 0.17134793102741241 6.0 9 -0.020009435713291168
-2.6783111095428467 -1.80110764503479 -0.6273800134658813 21.0 2 -0.02000713348388672
-2.767982006072998 -1.8607079982757568 0.291797399520874 75.0 10 -0.02000482752919197
-2.703361749649048 -1.8172686100006104 -0.5159209370613098 28.0 3 -0.02000252529978752
-2.758167266845703 -1.853412389755249 0.4080185890197754 82.0 11 -0.020000221207737923
-2.7189431190490723 -1.826365351676941 -0.402168869972229 43.0 4 -0.019997917115688324
-2.7469522953033447 -1.8444838523864746 0.524055540561676 71.0 12 -0.019995613023638725
-2.370596408843994 -1.5911743640899658 -0.24978835880756378 7.0 5 -0.019993308931589127
-2.7499754428863525 -1.8458184003829956 0.6437895894050598 58.0 13 -0.019991004839539528
-2.534229040145874 -1.7003644704818726 -0.15993870794773102 5.0 6 -0.01998870074748993
-2.735140323638916 -1.8344755172729492 0.7603346109390259 72.0 14 -0.01998639665544033
-2.3900911808013916 -1.6024435758590698 -0.05022802576422691 18.0 7 -0.019984092563390732
-2.7168853282928467 -1.820857286453247 0.8763613104820251 76.0 15 -0.019981788471341133
-2.3330204486846924 -1.5582860708236694 0.04897145554423332 16.0 8 -0.019950708374381065
-1.910800814628601 -1.2757915258407593 -0.5304346084594727 1.0 1 -0.019948404282331467
-2.699516773223877 -1.8017154932022095 0.1700918823480606 6.0 9 -0.019946100190281868
-2.7107090950012207 -1.8091856241226196 -0.6334859132766724 37.0 2 -0.01994379609823227
-2.7628581523895264 -1.8432948589324951 0.290577232837677 77.0 10 -0.01994149200618267
-2.72479510307312 -1.8172123432159424 -0.5187367796897888 58.0 3 -0.019939187914133072
-2.7599875926971436 -1.8399869203567505 0.4072873890399933 78.0 11 -0.019936883822083473
-2.738833427429199 -1.8251947164535522 -0.40411877632141113 48.0 4 -0.019934579730033875
-2.760270357131958 -1.8387839794158936 0.5253069996833801 70.0 12 -0.019932275637984276
-2.373095989227295 -1.5802658796310425 -0.24943974614143372 7.0 5 -0.019929971545934677
-2.7518205642700195 -1.832461953163147 0.6426447629928589 62.0 13 -0.019927669316530228
-2.545431613922119 -1.694385290145874 -0.16025270521640778 7.0 6 -0.01992536522448063
-2.73697829246521 -1.8211995363235474 0.7589848637580872 66.0 14 -0.01992306113243103
-2.4026083946228027 -1.5981032848358154 -0.05036764591932297 17.0 7 -0.01992075704038143
-2.7122795581817627 -1.8034003973007202 0.8727378845214844 67.0 15 -0.019918452948331833
-2.4101157188415527 -1.597642183303833 0.050472360104322433 13.0 8 -0.019895412027835846
-2.679147481918335 -1.774634838104248 0.16841712594032288 6.0 9 -0.01989080384373665
-2.746786594390869 -1.8187484741210938 -0.6403550505638123 57.0 2 -0.01988849975168705
-2.7712576389312744 -1.8342552185058594 0.29075154662132263 72.0 10 -0.01988619565963745
-2.734731674194336 -1.8093938827514648 -0.5193625092506409 49.0 3 -0.019883891567587852
-2.7531487941741943 -1.8215792179107666 0.40533748269081116 73.0 11 -0.019881589338183403
-2.7451882362365723 -1.8156225681304932 -0.40411877632141113 45.0 4 -0.019879285246133804
-2.7567851543426514 -1.822601079940796 0.523429811000824 68.0 12 -0.019876981154084206
-2.3852460384368896 -1.5763671398162842 -0.25013697147369385 7.0 5 -0.019874677062034607
-2.738861322402954 -1.809377670288086 0.6380652785301208 63.0 13 -0.019872372969985008
-2.5399584770202637 -1.6773394346237183 -0.1595200151205063 2.0 6 -0.01987006887793541
-2.746887445449829 -1.813303828239441 0.7598847150802612 66.0 14 -0.01986776478588581
-2.348092555999756 -1.5500472784042358 -0.04911107197403908 10.0 7 -0.019865460693836212
-2.721783399581909 -1.7960489988327026 0.8737731575965881 69.0 15 -0.019863156601786613
-2.4025888442993164 -1.580007791519165 0.050193123519420624 14.0 8 -0.019840115681290627
-1.9198808670043945 -1.2620859146118164 -0.5304346084594727 1.0 1 -0.019837811589241028
-2.672281265258789 -1.7560279369354248 0.1675797551870346 6.0 9 -0.01983550935983658
-2.7531187534332275 -1.8091485500335693 -0.6403550505638123 45.0 2 -0.01983320526778698
-2.770981788635254 -1.8201954364776611 0.2900542914867401 65.0 10 -0.01983090117573738
-2.7443337440490723 -1.8020052909851074 -0.5199882388114929 45.0 3 -0.019828597083687782
-2.753169059753418 -1.80711829662323 0.4043624997138977 73.0 11 -0.019826292991638184
-2.736886501312256 -1.7957483530044556 -0.40192511677742004 43.0 4 -0.019823988899588585
-2.766749858856201 -1.8146519660949707 0.524055540561676 66.0 12 -0.019821684807538986
-2.3957324028015137 -1.5713095664978027 -0.25065991282463074 7.0 5 -0.019819380715489388
-2.7484443187713623 -1.8019587993621826 0.6388285160064697 63.0 13 -0.01981707662343979
-2.547468423843384 -1.6695585250854492 -0.15962468087673187 3.0 6 -0.01981477253139019
-2.7401602268218994 -1.7951604127883911 0.7562854886054993 61.0 14 -0.01981246843934059
-2.3219733238220215 -1.5206146240234375 -0.048447877168655396 14.0 7 -0.019810164347290993
-2.7121849060058594 -1.7754802703857422 0.8685967326164246 60.0 15 -0.019807860255241394
-2.376271963119507 -1.5508458614349365 0.04952992871403694 13.0 8 -0.019784821197390556
-2.711853265762329 -1.768509864807129 0.16967318952083588 6.0 9 -0.01978021301329136
-2.7429723739624023 -1.7888038158416748 -0.6365388631820679 34.0 2 -0.01977790892124176
-2.7789881229400635 -1.8115999698638916 0.29022860527038574 63.0 10 -0.01977560482919216
-2.750607490539551 -1.7924140691757202 -0.5199882388114929 42.0 3 -0.019773300737142563
-2.7594597339630127 -1.7974975109100342 0.4043624997138977 70.0 11 -0.019770996645092964
-2.7364842891693115 -1.781851053237915 -0.40095019340515137 40.0 4 -0.019768692553043365
-2.75651216506958 -1.7942063808441162 0.520926833152771 65.0 12 -0.019766388460993767
-2.3928537368774414 -1.5575021505355835 -0.24978835880756378 7.0 5 -0.019764084368944168
-2.7596545219421387 -1.7955660820007324 0.6399734020233154 65.0 13 -0.01976178027689457
-2.5599777698516846 -1.6650117635726929 -0.1600433737039566 2.0 6 -0.01975947618484497
-2.7431421279907227 -1.7834599018096924 0.75538569688797 61.0 14 -0.019757172092795372
-2.3322973251342773 -1.515769124031067 -0.04855259507894516 22.0 7 -0.019754868000745773
-2.7361855506896973 -1.7775795459747314 0.8742908239364624 60.0 15 -0.019752563908696175
-2.4152393341064453 -1.564283013343811 0.05022802576422691 11.0 8 -0.019729524850845337
-2.7210559844970703 -1.7616780996322632 0.16988252103328705 6.0 9 -0.01972491666674614
-2.7426066398620605 -1.7749513387680054 -0.6350123286247253 34.0 2 -0.01972261257469654
-2.776930570602417 -1.796477198600769 0.28935706615448 65.0 10 -0.019720308482646942
-2.755188465118408 -1.7817296981811523 -0.5196753740310669 40.0 3 -0.019718004390597343
-2.7640504837036133 -1.7867765426635742 0.40411877632141113 65.0 11 -0.019715700298547745
-2.742687463760376 -1.772288203239441 -0.40095019340515137 40.0 4 -0.019713396206498146
-2.76078724861145 -1.7839840650558472 0.520613968372345 67.0 12 -0.019711092114448547
-2.3915815353393555 -1.5448157787322998 -0.24909110367298126 7.0 5 -0.01970878802239895
-2.756009101867676 -1.7795331478118896 0.6376836895942688 66.0 13 -0.01970648393034935
-2.5708088874816895 -1.6593142747879028 -0.16035738587379456 2.0 6 -0.01970417983829975
-2.744438648223877 -1.7707040309906006 0.754036009311676 63.0 14 -0.019701875746250153
-2.3406715393066406 -1.5101947784423828 -0.04862240329384804 24.0 7 -0.019699571654200554
-2.7160894870758057 -1.7517430782318115 0.8660085797309875 64.0 15 -0.019697267562150955
-2.373317003250122 -1.5259833335876465 0.04925068840384483 8.0 8 -0.019674228504300117
-2.7456727027893066 -1.7640445232391357 0.17103391885757446 7.0 9 -0.01966962032020092
-2.7487857341766357 -1.765366792678833 -0.6350123286247253 34.0 2 -0.01966731622815132
-2.773124933242798 -1.7803146839141846 0.2883111834526062 65.0 10 -0.019665012136101723
-2.7444586753845215 -1.7619112730026245 -0.5165466666221619 40.0 3 -0.019662708044052124
-2.769960403442383 -1.7776005268096924 0.40411877632141113 66.0 11 -0.019660403952002525
-2.741865873336792 -1.758895754814148 -0.3999752104282379 41.0 4 -0.019658099859952927
-2.7686612606048584 -1.7754019498825073 0.520926833152771 71.0 12 -0.019655795767903328
-2.393604278564453 -1.5343083143234253 -0.24874247610569 7.0 5 -0.01965349167585373
-2.758589506149292 -1.768264889717102 0.6369204521179199 67.0 13 -0.01965118758380413
-2.6351547241210938 -1.688494086265564 -0.16402089595794678 5.0 6 -0.01964888535439968
-2.751936197280884 -1.7626442909240723 0.7544858455657959 66.0 14 -0.019646581262350082
-2.409924030303955 -1.5429896116256714 -0.049948789179325104 25.0 7 -0.019644277170300484
-2.718933582305908 -1.7401686906814575 0.8649733066558838 61.0 15 -0.019641973078250885
-2.4646034240722656 -1.572546362876892 0.05103083327412605 10.0 8 -0.019618932157754898
-2.748445749282837 -1.7523020505905151 0.1708245724439621 9.0 9 -0.0196143239736557
-2.7480034828186035 -1.752020001411438 -0.6334859132766724 34.0 2 -0.019612019881606102
-2.780693292617798 -1.772180438041687 0.28848549723625183 61.0 10 -0.019609715789556503
-2.740596294403076 -1.7459524869918823 -0.5146694779396057 41.0 3 -0.019607411697506905
-2.764427661895752 -1.7604565620422363 0.4024125933647156 72.0 11 -0.019605107605457306
-2.749664306640625 -1.7503794431686401 -0.4002189636230469 37.0 4 -0.019602805376052856
-2.77484130859375 -1.7657272815704346 0.520926833152771 66.0 12 -0.019600501284003258
-2.40398907661438 -1.5291516780853271 -0.2492654174566269 7.0 5 -0.01959819719195366
-2.7481799125671387 -1.7480878829956055 0.6331042647361755 66.0 13 -0.01959589309990406
-2.6562020778656006 -1.688929796218872 -0.16496294736862183 7.0 6 -0.01959358900785446
-2.7613613605499268 -1.7551188468933105 0.75538569688797 61.0 14 -0.019591284915804863
-2.489560127258301 -1.5817524194717407 -0.051484595984220505 19.0 7 -0.019588980823755264
-2.7315146923065186 -1.734809160232544 0.8670438528060913 60.0 15 -0.019586676731705666
