# .PCD v0.7 - Point Cloud Data file format
VERSION 0.7
FIELDS x y z intensity ring time
SIZE 4 4 4 4 4 4
TYPE F F F F F F
COUNT 1 1 1 1 1 1
WIDTH 539
HEIGHT 1
VIEWPOINT 0 0 0 1 0 0 0
POINTS 539
DATA ascii
-0.31514689326286316 6.732614040374756 1.0675089359283447 88.0 12 -0.055376384407281876
-0.08557304739952087 1.834989070892334 -0.16071519255638123 100.0 5 -0.05537407845258713
-0.31305113434791565 6.712924480438232 1.3062784671783447 100.0 13 -0.05537177622318268
-0.08722228556871414 1.8773958683013916 -0.09849628061056137 19.0 6 -0.05536947026848793
-0.31039315462112427 6.706230163574219 1.549912929534912 100.0 14 -0.05536716803908348
-0.08519888669252396 1.8477553129196167 -0.032286953181028366 29.0 7 -0.05536486208438873
-0.3081306517124176 6.708043098449707 1.7993099689483643 64.0 15 -0.05536255985498428
-0.08214574307203293 1.8372873067855835 -0.49279147386550903 90.0 0 -0.055341824889183044
-0.08140680938959122 1.8279094696044922 0.03193790465593338 24.0 8 -0.055339518934488297
-0.08169879019260406 1.841697096824646 -0.4256074130535126 90.0 1 -0.05533721670508385
-0.08075854182243347 1.827705979347229 0.09587948024272919 100.0 9 -0.0553349107503891
-0.08077018707990646 1.8279695510864258 -0.35566797852516174 99.0 2 -0.05533260852098465
-0.29653283953666687 6.7377166748046875 0.590044379234314 32.0 10 -0.0553303025662899
-0.08097296953201294 1.8471789360046387 -0.29284536838531494 100.0 3 -0.05532800033688545
-0.2937096953392029 6.727024555206299 0.8267617225646973 99.0 11 -0.055325694382190704
-0.07968837022781372 1.8324934244155884 -0.22521455585956573 94.0 4 -0.055323392152786255
-0.2911323010921478 6.721831321716309 1.0656317472457886 88.0 12 -0.05532108619809151
-0.07905683666467667 1.8253099918365479 -0.15984363853931427 100.0 5 -0.05531878396868706
-0.2897873818874359 6.717899322509766 1.3070416450500488 100.0 13 -0.05531647801399231
-0.08143945783376694 1.895647644996643 -0.09943832457065582 22.0 6 -0.05531417578458786
-0.2874833643436432 6.718955039978027 1.5526123046875 100.0 14 -0.05531186982989311
-0.07874888926744461 1.8480414152145386 -0.032286953181028366 30.0 7 -0.05530956760048866
-0.28405627608299255 6.693637371063232 1.7951689958572388 63.0 15 -0.055307261645793915
-0.07541409879922867 1.829842209815979 -0.4907209575176239 89.0 0 -0.055286526679992676
-0.07461525499820709 1.818192481994629 0.03176337853074074 21.0 8 -0.055284224450588226
-0.07526908069849014 1.8419710397720337 -0.4256074130535126 92.0 1 -0.05528191849589348
-0.07494693994522095 1.841946005821228 0.09661218523979187 85.0 9 -0.05527961626648903
-0.0743892714381218 1.8282403945922852 -0.35566797852516174 99.0 2 -0.05527731031179428
-0.2730101943016052 6.738710880279541 0.590044379234314 100.0 10 -0.05527500808238983
-0.07420563697814941 1.8395551443099976 -0.29159387946128845 100.0 3 -0.055272702127695084
-0.2707056403160095 6.739910125732422 0.8282241225242615 99.0 11 -0.055270399898290634
-0.07360808551311493 1.8406944274902344 -0.226189523935318 88.0 4 -0.055268093943595886
-0.2681367099285126 6.734650135040283 1.0675089359283447 85.0 12 -0.05526579171419144
-0.07260508835315704 1.8235840797424316 -0.15966932475566864 100.0 5 -0.05526348575949669
-0.26649269461631775 6.722792625427246 1.307804822921753 100.0 13 -0.05526118353009224
-0.07490107417106628 1.8979159593582153 -0.099542997777462 25.0 6 -0.05525887757539749
-0.2642558515071869 6.725759506225586 1.553961992263794 100.0 14 -0.05525657534599304
-0.07253239303827286 1.8542994260787964 -0.03239166736602783 28.0 7 -0.05525427311658859
-0.2606908082962036 6.694587707519531 1.7951689958572388 63.0 15 -0.055251967161893845
-0.0693170577287674 1.8378159999847412 -0.49279147386550903 92.0 0 -0.055231232196092606
-0.06811846792697906 1.8144452571868896 0.03169357031583786 21.0 8 -0.05522892624139786
-0.06854825466871262 1.8344329595565796 -0.4238077998161316 90.0 1 -0.05522662401199341
-0.06814523786306381 1.8322169780731201 0.09608882665634155 86.0 9 -0.05522431805729866
-0.0684443861246109 1.8402601480484009 -0.3579576909542084 99.0 2 -0.05522201582789421
-0.24985598027706146 6.749577522277832 0.5909159183502197 96.0 10 -0.05521970987319946
-0.06771159917116165 1.8378288745880127 -0.2912810146808624 100.0 3 -0.05521740764379501
-0.2468845397233963 6.7328782081604 0.8272491693496704 99.0 11 -0.055215101689100266
-0.06747237592935562 1.8488752841949463 -0.22716447710990906 94.0 4 -0.055212799459695816
-0.2447715550661087 6.739493370056152 1.0681346654891968 88.0 12 -0.05521049350500107
-0.06660109758377075 1.8337818384170532 -0.1605408787727356 100.0 5 -0.05520819127559662
-0.24259687960147858 6.711910724639893 1.3055152893066406 100.0 13 -0.05520588904619217
-0.06755722314119339 1.8782063722610474 -0.09849628061056137 22.0 6 -0.05520358309149742
-0.24105720221996307 6.73443078994751 1.5557615756988525 100.0 14 -0.05520128086209297
-0.06591638922691345 1.8505444526672363 -0.032321859151124954 26.0 7 -0.055198974907398224
-0.2375926822423935 6.703179359436035 1.7972395420074463 63.0 15 -0.055196672677993774
-0.06329740583896637 1.8496313095092773 -0.4958973228931427 90.0 0 -0.05517593398690224
-0.06198897585272789 1.8206676244735718 0.031798284500837326 20.0 8 -0.05517363175749779
-0.062012042850255966 1.830765962600708 -0.4229080080986023 92.0 1 -0.05517132580280304
-0.061614181846380234 1.8284515142440796 0.09587948024272919 78.0 9 -0.05516902357339859
-0.06188754364848137 1.8365638256072998 -0.3571944534778595 99.0 2 -0.05516671761870384
-0.22662921249866486 6.760365009307861 0.5917875170707703 87.0 10 -0.05516441538929939
-0.06063709780573845 1.818311333656311 -0.2881523370742798 96.0 3 -0.055162109434604645
-0.2232474684715271 6.72973108291626 0.8267617225646973 97.0 11 -0.055159807205200195
-0.060494810342788696 1.833227515220642 -0.22521455585956573 92.0 4 -0.055157504975795746
-0.22150227427482605 6.748203754425049 1.0693861246109009 88.0 12 -0.055155199021101
-0.0602644719183445 1.8359943628311157 -0.16071519255638123 100.0 5 -0.05515289679169655
-0.219420924782753 6.720565319061279 1.3070416450500488 100.0 13 -0.0551505908370018
-0.06074262782931328 1.870445728302002 -0.09807758778333664 22.0 6 -0.05514828860759735
-0.217168927192688 6.723544597625732 1.5530622005462646 100.0 14 -0.0551459826529026
-0.059520091861486435 1.85276198387146 -0.032356761395931244 25.0 7 -0.055143680423498154
-0.21456755697727203 6.715553283691406 1.8003453016281128 63.0 15 -0.055141374468803406
-0.05672232061624527 1.845978856086731 -0.49486202001571655 89.0 0 -0.05512063950300217
-0.05575493350625038 1.8248704671859741 0.031868092715740204 23.0 8 -0.05511833354830742
-0.05574069917201996 1.8348667621612549 -0.4238077998161316 92.0 1 -0.05511603131890297
-0.054930221289396286 1.8186737298965454 0.09535612165927887 75.0 9 -0.05511372536420822
-0.054743692278862 1.823041558265686 -0.3545231223106384 97.0 2 -0.05511142313480377
-0.20290835201740265 6.757131576538086 0.5914388298988342 87.0 10 -0.05510912090539932
-0.05499649792909622 1.8422057628631592 -0.2919067442417145 100.0 3 -0.055106814950704575
-0.1998741626739502 6.734437942504883 0.8272491693496704 97.0 11 -0.055104512721300125
-0.053977709263563156 1.8294589519500732 -0.2247270941734314 90.0 4 -0.05510220676660538
-0.19730646908283234 6.7272162437438965 1.0659445524215698 87.0 12 -0.05509990453720093
-0.05376747250556946 1.844169020652771 -0.16141243278980255 100.0 5 -0.05509759858250618
-0.1951300948858261 6.733099460601807 1.3093314170837402 100.0 13 -0.05509529635310173
-0.054115358740091324 1.8786416053771973 -0.09849628061056137 26.0 6 -0.05509299039840698
-0.19380848109722137 6.728157997131348 1.553961992263794 100.0 14 -0.05509068816900253
-0.05288107693195343 1.8469617366790771 -0.03225204721093178 24.0 7 -0.055088382214307785
-0.19112280011177063 6.716261386871338 1.8003453016281128 63.0 15 -0.055086079984903336
-0.04985199123620987 1.842312216758728 -0.4938267767429352 90.0 0 -0.0550653450191021
-0.04922770708799362 1.8310595750808716 0.03197281062602997 20.0 8 -0.05506303906440735
-0.04922198876738548 1.8428510427474976 -0.4256074130535126 90.0 1 -0.0550607368350029
-0.048529379069805145 1.828845500946045 0.09587948024272919 68.0 9 -0.05505843088030815
-0.048165421932935715 1.8271552324295044 -0.3552863597869873 97.0 2 -0.0550561286509037
-0.1780373603105545 6.753847122192383 0.5910902619361877 87.0 10 -0.055053822696208954
-0.04839964583516121 1.848319172859192 -0.29284536838531494 100.0 3 -0.055051520466804504
-0.1753978431224823 6.743063449859619 0.8282241225242615 95.0 11 -0.055049214512109756
-0.04747753590345383 1.8375823497772217 -0.22570204734802246 92.0 4 -0.05504691228270531
-0.1725488156080246 6.723944664001465 1.0653188228607178 85.0 12 -0.05504460632801056
-0.0466013103723526 1.828419804573059 -0.1600179374217987 100.0 5 -0.05504230409860611
-0.17055156826972961 6.737694263458252 1.3100945949554443 100.0 13 -0.05503999814391136
-0.04733022302389145 1.8828206062316895 -0.09870561957359314 26.0 6 -0.05503769591450691
-0.16934461891651154 6.7366156578063965 1.5557615756988525 100.0 14 -0.055035389959812164
-0.04591118544340134 1.8391468524932861 -0.032112427055835724 22.0 7 -0.055033087730407715
-0.1664109230041504 6.713054180145264 1.7993099689483643 63.0 15 -0.05503078177571297
-0.04300841689109802 1.8386198282241821 -0.49279147386550903 89.0 0 -0.05501004680991173
-0.042470190674066544 1.829228401184082 0.03193790465593338 19.0 8 -0.05500774458050728
-0.04237789288163185 1.8391226530075073 -0.4247076213359833 92.0 1 -0.05500543862581253
-0.04237477853894234 1.8389874696731567 0.0964028462767601 46.0 9 -0.05500313639640808
-0.04183156043291092 1.8292748928070068 -0.35566797852516174 99.0 2 -0.05500083044171333
-0.15328356623649597 6.754454135894775 0.5910902619361877 87.0 10 -0.054998528212308884
-0.04131399467587471 1.8346599340438843 -0.290655255317688 100.0 3 -0.054996222257614136
-0.15076905488967896 6.747629642486572 0.8287115693092346 95.0 11 -0.054993920028209686
-0.04115108400583267 1.8417060375213623 -0.226189523935318 92.0 4 -0.05499161407351494
-0.1497381627559662 6.754128456115723 1.070011854171753 89.0 12 -0.05498931184411049
-0.04013141617178917 1.8245875835418701 -0.15966932475566864 100.0 5 -0.05498700588941574
-0.14694413542747498 6.734323024749756 1.3093314170837402 100.0 13 -0.05498470366001129
-0.04075896367430687 1.8829742670059204 -0.09870561957359314 26.0 6 -0.054982397705316544
-0.14600174129009247 6.744958877563477 1.5575611591339111 100.0 14 -0.054980095475912094
-0.03940562158823013 1.8352975845336914 -0.032042618840932846 23.0 7 -0.054977789521217346
-0.14289292693138123 6.7097320556640625 1.7982748746871948 63.0 15 -0.0549754872918129
-0.03698813170194626 1.8426153659820557 -0.4938267767429352 89.0 0 -0.05495475232601166
-0.03640351444482803 1.8293591737747192 0.03193790465593338 18.0 8 -0.05495244637131691
-0.03620241582393646 1.8353562355041504 -0.4238077998161316 92.0 1 -0.05495014414191246
-0.036315999925136566 1.8411147594451904 0.09650751203298569 44.0 9 -0.05494783818721771
-0.03587985411286354 1.8352922201156616 -0.35681283473968506 94.0 2 -0.05494553595781326
-0.13095946609973907 6.758909225463867 0.5914388298988342 87.0 10 -0.054943230003118515
-0.035268109291791916 1.8367619514465332 -0.2909681499004364 100.0 3 -0.054940927773714066
-0.12839041650295258 6.7480926513671875 0.8287115693092346 99.0 11 -0.05493862181901932
-0.03511855751276016 1.8458019495010376 -0.22667700052261353 92.0 4 -0.05493631958961487
-0.12711457908153534 6.742738246917725 1.0681346654891968 87.0 12 -0.05493401363492012
-0.0342298299074173 1.8326785564422607 -0.16036656498908997 100.0 5 -0.05493171140551567
-0.12453701347112656 6.730847358703613 1.3085681200027466 100.0 13 -0.05492940545082092
-0.03451404720544815 1.88309907913208 -0.09870561957359314 26.0 6 -0.05492710322141647
-0.12359625846147537 6.743457317352295 1.5571112632751465 100.0 14 -0.054924800992012024
-0.03353748098015785 1.8474141359329224 -0.03225204721093178 22.0 7 -0.054922495037317276
-0.12077891826629639 6.717894554138184 1.8003453016281128 63.0 15 -0.05492019280791283
-0.0310074333101511 1.8504542112350464 -0.4958973228931427 90.0 0 -0.05489945411682129
-0.03037046454846859 1.8314694166183472 0.03197281062602997 17.0 8 -0.05489715188741684
-0.03005150705575943 1.8315693140029907 -0.4229080080986023 92.0 1 -0.05489484593272209
-0.029791347682476044 1.835239291191101 0.09619349241256714 40.0 9 -0.05489254370331764
-0.029921436682343483 1.8432531356811523 -0.3583393096923828 97.0 2 -0.054890237748622894
-0.10873869061470032 6.77125883102417 0.592484712600708 87.0 10 -0.054887935519218445
-0.029301974922418594 1.8447692394256592 -0.2922196090221405 100.0 3 -0.0548856295645237
-0.10588885843753815 6.740541934967041 0.8277366757392883 99.0 11 -0.05488332733511925
-0.028553219512104988 1.8379738330841064 -0.22570204734802246 88.0 4 -0.0548810213804245
-0.10366646945476532 6.74906587600708 1.06907320022583 87.0 12 -0.05487871915102005
-0.028304755687713623 1.842742919921875 -0.16123811900615692 100.0 5 -0.0548764169216156
-0.10221738368272781 6.7312235832214355 1.3085681200027466 100.0 13 -0.05487411096692085
-0.028239674866199493 1.8812061548233032 -0.09860094636678696 27.0 6 -0.0548718087375164
-0.10011246800422668 6.747744560241699 1.5580110549926758 100.0 14 -0.054869502782821655
-0.027205370366573334 1.8555179834365845 -0.03239166736602783 21.0 7 -0.054867200553417206
-0.09738573431968689 6.72213888168335 1.8013806343078613 63.0 15 -0.05486489459872246
-0.02454834245145321 1.8505511283874512 -0.4958973228931427 89.0 0 -0.05484415963292122
-0.024055294692516327 1.8375627994537354 0.032077521085739136 19.0 8 -0.05484185367822647
-0.02380935288965702 1.8433544635772705 -0.4256074130535126 92.0 1 -0.05483955144882202
-0.023487158119678497 1.8433204889297485 0.09661218523979187 25.0 9 -0.054837245494127274
-0.02338743582367897 1.8354939222335815 -0.35681283473968506 97.0 2 -0.054834943264722824
-0.0851251631975174 6.773589134216309 0.592659056186676 90.0 10 -0.054832641035318375
-0.022910814732313156 1.8488107919692993 -0.29284536838531494 100.0 3 -0.05483033508062363
-0.08240925520658493 6.744840621948242 0.8282241225242615 99.0 11 -0.05482803285121918
-0.022136831656098366 1.8380621671676636 -0.22570204734802246 88.0 4 -0.05482572689652443
-0.08001163601875305 6.741486072540283 1.067821741104126 86.0 12 -0.05482342466711998
-0.022037232294678688 1.856776237487793 -0.16245830059051514 100.0 5 -0.05482111871242523
-0.07876773923635483 6.7354655265808105 1.3093314170837402 100.0 13 -0.05481881648302078
-0.021695373579859734 1.883290410041809 -0.09870561957359314 25.0 6 -0.054816510528326035
-0.07644550502300262 6.738309860229492 1.5557615756988525 100.0 14 -0.054814208298921585
-0.020616944879293442 1.8456038236618042 -0.03221714124083519 20.0 7 -0.05481190234422684
-0.07396439462900162 6.7263007164001465 1.8024158477783203 63.0 15 -0.05480960011482239
-0.01797478273510933 1.839034914970398 -0.49279147386550903 89.0 0 -0.05478886142373085
-0.017660439014434814 1.8396350145339966 0.032112427055835724 16.0 8 -0.0547865591943264
-0.017338352277874947 1.8395291566848755 -0.4247076213359833 92.0 1 -0.05478425696492195
-0.01705213636159897 1.8433911800384521 0.09661218523979187 19.0 9 -0.0547819510102272
-0.016907094046473503 1.8277117013931274 -0.3552863597869873 97.0 2 -0.054779648780822754
-0.061409495770931244 6.765876293182373 0.5919618010520935 90.0 10 -0.054777342826128006
-0.01645839214324951 1.8488794565200806 -0.29284536838531494 100.0 3 -0.054775040596723557
-0.05896700173616409 6.7569966316223145 0.8296865224838257 94.0 11 -0.05477273464202881
-0.015788957476615906 1.8460683822631836 -0.22667700052261353 90.0 4 -0.05477043241262436
-0.05651348829269409 6.745675086975098 1.0684475898742676 86.0 12 -0.05476812645792961
-0.015322455205023289 1.8289493322372437 -0.1600179374217987 100.0 5 -0.05476582422852516
-0.05535092577338219 6.747478485107422 1.3116211891174316 100.0 13 -0.054763518273830414
-0.015249107964336872 1.8993321657180786 -0.099542997777462 23.0 6 -0.054761216044425964
-0.05300188437104225 6.748279094696045 1.5580110549926758 100.0 14 -0.054758910089731216
-0.014143255539238453 1.841665267944336 -0.03214733302593231 19.0 7 -0.05475660786032677
-0.05045398697257042 6.722654819488525 1.8013806343078613 63.0 15 -0.05475430190563202
-0.011531354859471321 1.835222840309143 -0.4917562007904053 90.0 0 -0.05473356693983078
-0.011140593327581882 1.8236883878707886 0.031833190470933914 14.0 8 -0.05473126471042633
-0.010951295495033264 1.8454245328903198 -0.4260573089122772 94.0 1 -0.05472895875573158
-0.010594776831567287 1.8394451141357422 0.0964028462767601 10.0 9 -0.05472665652632713
-0.010572701692581177 1.8356125354766846 -0.35681283473968506 100.0 2 -0.054724350571632385
-0.0378233902156353 6.772026062011719 0.592484712600708 85.0 10 -0.054722048342227936
-0.009971939958631992 1.8429994583129883 -0.2919067442417145 100.0 3 -0.05471974238753319
-0.03542332351207733 6.765102386474609 0.8306615352630615 94.0 11 -0.05471744015812874
-0.009364483878016472 1.8500823974609375 -0.22716447710990906 88.0 4 -0.05471513420343399
-0.03294845297932625 6.741880416870117 1.067821741104126 87.0 12 -0.05471283197402954
-0.00897747091948986 1.836961269378662 -0.16071519255638123 100.0 5 -0.05471052601933479
-0.03183592110872269 6.755483627319336 1.3131475448608398 100.0 13 -0.054708223789930344
-0.00860138051211834 1.8953794240951538 -0.09933365881443024 23.0 6 -0.054705917835235596
-0.029472609981894493 6.754269123077393 1.5593607425689697 100.0 14 -0.054703615605831146
-0.007698191795498133 1.837704062461853 -0.032077521085739136 16.0 7 -0.0547013096511364
-0.026988651603460312 6.722790241241455 1.8013806343078613 63.0 15 -0.05469900742173195
-0.00514712929725647 1.8429794311523438 -0.4938267767429352 89.0 0 -0.05467827245593071
-0.004763708915561438 1.8197166919708252 0.03176337853074074 13.0 8 -0.05467596650123596
-0.00449559697881341 1.8396053314208984 -0.4247076213359833 90.0 1 -0.05467366427183151
-0.004495266359299421 1.8394701480865479 0.0964028462767601 5.0 9 -0.054671358317136765
-0.00416911905631423 1.8376014232635498 -0.3571944534778595 99.0 2 -0.054669056087732315
-0.014190918765962124 6.776102066040039 0.5928333401679993 87.0 10 -0.05466675013303757
-0.003527618944644928 1.83709716796875 -0.2909681499004364 100.0 3 -0.05466444790363312
-0.011792835779488087 6.757243633270264 0.8296865224838257 90.0 11 -0.05466214194893837
-0.002912177238613367 1.8540740013122559 -0.2276519387960434 90.0 4 -0.05465983971953392
-0.01062055118381977 6.761706352233887 1.0709505081176758 87.0 12 -0.05465753376483917
-0.002565610921010375 1.8369814157485962 -0.16071519255638123 100.0 5 -0.05465523153543472
-0.008238500915467739 6.743773937225342 1.310857892036438 100.0 13 -0.054652925580739975
-0.0019596179481595755 1.8714308738708496 -0.09807758778333664 21.0 6 -0.054650623351335526
-0.005898753181099892 6.756279945373535 1.559810757637024 100.0 14 -0.05464831739664078
-0.0016324050957337022 1.869714617729187 -0.03263600170612335 20.0 7 -0.05464601516723633
-0.0046984609216451645 6.730569839477539 1.8034511804580688 63.0 15 -0.05464371293783188
0.0012892888626083732 1.8468496799468994 -0.49486202001571655 89.0 0 -0.05462297424674034
0.0012843110598623753 1.839719295501709 0.032112427055835724 13.0 8 -0.05462067201733589
0.0016052882419899106 1.8396100997924805 -0.4247076213359833 90.0 1 -0.054618366062641144
0.0019282912835478783 1.8414719104766846 0.09650751203298569 1.0 9 -0.054616063833236694
0.0022521407809108496 1.8434945344924927 -0.3583393096923828 97.0 2 -0.054613757878541946
0.009466314688324928 6.780094623565674 0.5931819677352905 87.0 10 -0.0546114556491375
0.0025814906693995 1.848950982093811 -0.29284536838531494 100.0 3 -0.05460914969444275
0.010613705962896347 6.7572455406188965 0.8296865224838257 94.0 11 -0.0546068474650383
0.0032080833334475756 1.8381927013397217 -0.22570204734802246 86.0 4 -0.05460454151034355
0.012980850413441658 6.761702537536621 1.0709505081176758 87.0 12 -0.0546022392809391
0.0038513282779604197 1.838971495628357 -0.16088949143886566 100.0 5 -0.054599933326244354
0.014148025773465633 6.7555437088012695 1.3131475448608398 100.0 13 -0.054597631096839905
0.0042413752526044846 1.8694298267364502 -0.09797292202711105 19.0 6 -0.054595328867435455
0.016503019258379936 6.7543134689331055 1.5593607425689697 100.0 14 -0.05459302291274071
0.004868450108915567 1.8597105741500854 -0.03246147558093071 19.0 7 -0.05459072068333626
0.018805012106895447 6.734408855438232 1.8044863939285278 63.0 15 -0.05458841472864151
0.007459813728928566 1.8584264516830444 -0.4979678690433502 87.0 0 -0.05456767976284027
0.0076973591931164265 1.837704062461853 0.032077521085739136 12.0 8 -0.05456537380814552
0.008027206175029278 1.8395932912826538 -0.4247076213359833 90.0 1 -0.054563071578741074
0.008355828002095222 1.8414539098739624 0.09650751203298569 1.0 9 -0.054560765624046326
0.00832937378436327 1.8356239795684814 -0.35681283473968506 97.0 2 -0.054558463394641876
0.03201422840356827 6.793972969055176 0.5944021344184875 90.0 10 -0.05455615743994713
0.009036011062562466 1.8489307165145874 -0.29284536838531494 100.0 3 -0.05455385521054268
0.03423277288675308 6.76312255859375 0.8304177522659302 96.0 11 -0.05455155298113823
0.009561806917190552 1.8262598514556885 -0.22423960268497467 89.0 4 -0.05454924702644348
0.03654256463050842 6.753714084625244 1.0696990489959717 86.0 12 -0.05454694479703903
0.01005786657333374 1.8588720560073853 -0.16263261437416077 100.0 5 -0.054544638842344284
0.037752915173769 6.7593793869018555 1.313910722732544 100.0 13 -0.054542336612939835
0.010800992138683796 1.8753952980041504 -0.0982869416475296 17.0 6 -0.05454003065824509
0.04007010534405708 6.752265930175781 1.558910846710205 100.0 14 -0.05453772842884064
0.011348300613462925 1.8576823472976685 -0.03242656961083412 17.0 7 -0.05453542247414589
0.04238377884030342 6.7458930015563965 1.8075922727584839 63.0 15 -0.05453312024474144
0.013889389112591743 1.8506618738174438 -0.4958973228931427 90.0 0 -0.0545123815536499
0.014174012467265129 1.8456645011901855 0.03221714124083519 12.0 8 -0.05451007932424545
0.014477879740297794 1.8434513807296753 -0.4256074130535126 90.0 1 -0.054507777094841
0.014912420883774757 1.8573912382125854 0.09734489023685455 0.0 9 -0.054505471140146255
0.014737335965037346 1.8355836868286133 -0.35681283473968506 97.0 2 -0.054503168910741806
0.05566586181521416 6.785851001739502 0.593704879283905 90.0 10 -0.05450086295604706
0.015521751716732979 1.8528382778167725 -0.293471097946167 100.0 3 -0.05449856072664261
0.0579916387796402 6.780827522277832 0.8326114416122437 88.0 11 -0.05449625477194786
0.01611030288040638 1.846065640449524 -0.22667700052261353 84.0 4 -0.05449395254254341
0.06013014540076256 6.755520343780518 1.070011854171753 87.0 12 -0.05449164658784866
0.01642107032239437 1.8448796272277832 -0.16141243278980255 100.0 5 -0.054489344358444214
0.06145280599594116 6.7709856033325195 1.3162004947662354 100.0 13 -0.054487038403749466
0.017273876816034317 1.8673574924468994 -0.09786824882030487 15.0 6 -0.054484736174345016
0.06374844163656235 6.763776779174805 1.5616103410720825 100.0 14 -0.05448243021965027
0.017774777486920357 1.8516327142715454 -0.032321859151124954 16.0 7 -0.05448012799024582
0.06585735827684402 6.737977027893066 1.8055217266082764 63.0 15 -0.05447782203555107
0.020264845341444016 1.8428752422332764 -0.4938267767429352 89.0 0 -0.05445708706974983
0.020526763051748276 1.8376054763793945 0.032077521085739136 12.0 8 -0.05445478484034538
0.02104577049612999 1.8550812005996704 -0.42830681800842285 92.0 1 -0.054452478885650635
0.021396329626441002 1.8573278188705444 0.09734489023685455 0.0 9 -0.054450176656246185
0.021258193999528885 1.8453367948532104 -0.35872092843055725 99.0 2 -0.05444787070155144
0.0793045312166214 6.781630039215088 0.5933562517166138 90.0 10 -0.05444556847214699
0.021942878141999245 1.8488224744796753 -0.29284536838531494 100.0 3 -0.05444326251745224
0.08161478489637375 6.776614189147949 0.8321239948272705 90.0 11 -0.05444096028804779
0.02252953313291073 1.8440132141113281 -0.22643324732780457 92.0 4 -0.05443865433335304
0.08378618210554123 6.761195659637451 1.0709505081176758 87.0 12 -0.05443635210394859
0.022861292585730553 1.8448110818862915 -0.16141243278980255 100.0 5 -0.054434046149253845
0.08499070256948471 6.762877464294434 1.3146740198135376 100.0 13 -0.054431743919849396
0.02379167452454567 1.8672857284545898 -0.09786824882030487 14.0 6 -0.05442943796515465
0.08745728433132172 6.771307468414307 1.5634099245071411 100.0 14 -0.0544271357357502
0.02423856593668461 1.8515595197677612 -0.032321859151124954 16.0 7 -0.05442482978105545
0.0893242135643959 6.733842372894287 1.8044863939285278 63.0 15 -0.054422527551651
0.026808224618434906 1.8505197763442993 -0.4958973228931427 89.0 0 -0.05440179258584976
0.02688293717801571 1.8335237503051758 0.03200771287083626 11.0 8 -0.054399486631155014
0.02740594372153282 1.8472025394439697 -0.42650723457336426 89.0 1 -0.054397184401750565
0.028417786583304405 1.8931884765625 0.09922898560762405 0.0 9 -0.05439487844705582
0.027698224410414696 1.8452513217926025 -0.35872092843055725 99.0 2 -0.05439257621765137
0.10312943160533905 6.79127311706543 0.5942278504371643 87.0 10 -0.05439027026295662
0.02833615243434906 1.8447842597961426 -0.2922196090221405 100.0 3 -0.05438796803355217
0.10526443272829056 6.776288032531738 0.8321239948272705 90.0 11 -0.05438566207885742
0.029122600331902504 1.8538475036621094 -0.2276519387960434 84.0 4 -0.05438335984945297
0.10760805010795593 6.774687767028809 1.0731405019760132 88.0 12 -0.054381053894758224
0.029269594699144363 1.8427278995513916 -0.16123811900615692 100.0 5 -0.054378751665353775
0.10852933675050735 6.758613109588623 1.313910722732544 100.0 13 -0.05437644571065903
0.030018314719200134 1.8492182493209839 -0.09692620486021042 12.0 6 -0.05437414348125458
0.11119074374437332 6.776806354522705 1.564759612083435 100.0 14 -0.05437183752655983
0.03089921921491623 1.8634600639343262 -0.032531287521123886 15.0 7 -0.05436953529715538
0.11296043545007706 6.74121618270874 1.806557059288025 63.0 15 -0.05436722934246063
0.03340698033571243 1.8581410646438599 -0.4979678690433502 87.0 0 -0.0544285774230957
0.03324715793132782 1.8314194679260254 0.03197281062602997 12.0 8 -0.054426275193691254
0.03371048718690872 1.8393019437789917 -0.4247076213359833 90.0 1 -0.054423969238996506
0.03564777597784996 1.9450037479400635 0.10195045173168182 0.0 9 -0.054421667009592056
0.03421230986714363 1.8490691184997559 -0.35948416590690613 99.0 2 -0.05441936105489731
0.1270226240158081 6.8008317947387695 0.5950994491577148 90.0 10 -0.05441705882549286
0.03492401912808418 1.8525742292404175 -0.293471097946167 100.0 3 -0.05441475287079811
0.12899476289749146 6.779848575592041 0.8326114416122437 88.0 11 -0.05441245064139366
0.03528917580842972 1.8378567695617676 -0.22570204734802246 82.0 4 -0.054410144686698914
0.13007500767707825 6.774293422698975 1.0731405019760132 87.0 12 -0.054407842457294464
0.03570134937763214 1.8426145315170288 -0.16123811900615692 100.0 5 -0.054405536502599716
0.13219919800758362 6.762119293212891 1.3146740198135376 100.0 13 -0.05440323427319527
0.03686748445034027 1.8690710067749023 -0.09797292202711105 13.0 6 -0.05440092831850052
0.13468903303146362 6.76858377456665 1.5629600286483765 100.0 14 -0.05439862608909607
0.036999452859163284 1.8593487739562988 -0.03246147558093071 15.0 7 -0.05439632013440132
0.13539068400859833 6.7446675300598145 1.8075922727584839 63.0 15 -0.05439401790499687
0.03989250585436821 1.8580131530761719 -0.4979678690433502 79.0 0 -0.05437328293919563
0.039447713643312454 1.837296724319458 0.032077521085739136 12.0 8 -0.054370976984500885
0.03989361599087715 1.843076467514038 -0.4256074130535126 90.0 1 -0.054368674755096436
0.04243740439414978 1.9448673725128174 0.10195045173168182 0.0 9 -0.05436636880040169
0.04053666070103645 1.8430501222610474 -0.3583393096923828 97.0 2 -0.05436406657099724
0.1509331315755844 6.808314800262451 0.5957966446876526 90.0 10 -0.05436176061630249
0.04115438088774681 1.856398105621338 -0.29409682750701904 100.0 3 -0.05435945838689804
0.15147872269153595 6.779383659362793 0.8326114416122437 90.0 11 -0.05435715243220329
0.0413384772837162 1.835745096206665 -0.2254583090543747 85.0 4 -0.05435485020279884
0.15371625125408173 6.77379846572876 1.0731405019760132 88.0 12 -0.054352544248104095
0.04227019473910332 1.848454236984253 -0.1617610603570938 100.0 5 -0.054350242018699646
0.15480387210845947 6.769495010375977 1.3162004947662354 100.0 13 -0.0543479360640049
0.043202999979257584 1.8749287128448486 -0.0982869416475296 15.0 6 -0.05434563383460045
0.15717758238315582 6.770047664642334 1.5634099245071411 100.0 14 -0.0543433278799057
0.0432562455534935 1.849212646484375 -0.032286953181028366 14.0 7 -0.05434102565050125
0.1592080295085907 6.755741596221924 1.81069815158844 63.0 15 -0.0543387196958065
0.04586181789636612 1.850145697593689 -0.4958973228931427 62.0 0 -0.054317984730005264
0.04601103439927101 1.8431450128555298 0.0321822389960289 10.0 8 -0.054315682500600815
0.04642535001039505 1.8468223810195923 -0.42650723457336426 75.0 1 -0.05431337654590607
0.04645000770688057 1.8350551128387451 -0.35681283473968506 91.0 2 -0.05430876836180687
0.17320679128170013 6.795825958251953 0.5947507619857788 93.0 10 -0.05430646613240242
0.04773601144552231 1.8601925373077393 -0.2947225570678711 100.0 3 -0.05430416017770767
0.17555101215839386 6.794689178466797 0.8345613479614258 88.0 11 -0.05430185794830322
0.04810710623860359 1.8494805097579956 -0.22716447710990906 86.0 4 -0.054299551993608475
0.17731039226055145 6.771245956420898 1.072827696800232 87.0 12 -0.054297249764204025
0.048086363822221756 1.8363537788391113 -0.16071519255638123 100.0 5 -0.05429494380950928
0.17853492498397827 6.772838592529297 1.316963791847229 100.0 13 -0.05429264158010483
0.04990600049495697 1.880756139755249 -0.09860094636678696 45.0 6 -0.05429033562541008
0.18091438710689545 6.7733540534973145 1.5643097162246704 100.0 14 -0.05428803339600563
0.05003387853503227 1.8610440492630005 -0.0324963815510273 26.0 7 -0.05428573116660118
0.1826830506324768 6.75128173828125 1.8096628189086914 63.0 15 -0.05428342521190643
0.05221101641654968 1.8461120128631592 -0.49486202001571655 59.0 0 -0.054262690246105194
0.052445024251937866 1.8429731130599976 0.0321822389960289 15.0 8 -0.054260384291410446
0.053094372153282166 1.8544408082962036 -0.42830681800842285 67.0 1 -0.054258082062006
0.05319404974579811 1.8466564416885376 -0.3591025471687317 80.0 2 -0.0542534738779068
0.19704483449459076 6.799163341522217 0.5950994491577148 93.0 10 -0.05425116792321205
0.05399833992123604 1.852116346359253 -0.293471097946167 100.0 3 -0.0542488656938076
0.19944098591804504 6.799987316131592 0.8352925181388855 86.0 11 -0.054246559739112854
0.05438756197690964 1.8433486223220825 -0.22643324732780457 85.0 4 -0.054244257509708405
0.20117834210395813 6.778483867645264 1.074079155921936 87.0 12 -0.054241955280303955
0.05461396276950836 1.8401576280593872 -0.1610638052225113 100.0 5 -0.05423964932560921
0.20240835845470428 6.780023097991943 1.3184902667999268 100.0 13 -0.05423734709620476
0.056051623076200485 1.866595983505249 -0.09786824882030487 100.0 6 -0.05423504114151001
0.20490825176239014 6.784368515014648 1.5670092105865479 100.0 14 -0.05423273891210556
0.055860649794340134 1.8388714790344238 -0.032112427055835724 74.0 7 -0.05423043295741081
0.20625010132789612 6.750603199005127 1.8096628189086914 63.0 15 -0.05422813072800636
0.05890074372291565 1.8536419868469238 -0.49693259596824646 45.0 0 -0.054207392036914825
0.05874977633357048 1.838781476020813 0.032112427055835724 95.0 8 -0.054205089807510376
0.05925489589571953 1.8445053100585938 -0.4260573089122772 52.0 1 -0.05420278385281563
0.05957687273621559 1.8444973230361938 -0.35872092843055725 80.0 2 -0.05419817566871643
0.22103439271450043 6.806399345397949 0.5957966446876526 93.0 10 -0.05419587343931198
0.06020576134324074 1.8440192937850952 -0.2922196090221405 100.0 3 -0.05419357120990753
0.22298261523246765 6.79329776763916 0.8345613479614258 88.0 11 -0.054191265255212784
0.06095552816987038 1.857046365737915 -0.22813943028450012 90.0 4 -0.054188963025808334
0.22411341965198517 6.791599273681641 1.076269268989563 88.0 12 -0.054186657071113586
0.06090535968542099 1.8359732627868652 -0.16071519255638123 100.0 5 -0.05418435484170914
0.22581389546394348 6.771427154541016 1.316963791847229 100.0 13 -0.05418204888701439
0.06276727467775345 1.8723772764205933 -0.09818226099014282 100.0 6 -0.05417974665760994
0.22760266065597534 6.789494514465332 1.5683587789535522 100.0 14 -0.05417744070291519
0.06256488710641861 1.8566632270812988 -0.03242656961083412 100.0 7 -0.05417513847351074
0.22902584075927734 6.761466979980469 1.812768578529358 47.0 15 -0.054172832518815994
0.06518246233463287 1.8572978973388672 -0.4979678690433502 60.0 0 -0.054152097553014755
0.06519913673400879 1.8485689163208008 0.032286953181028366 100.0 8 -0.05414979159832001
0.06543983519077301 1.846246361732483 -0.42650723457336426 51.0 1 -0.05414748936891556
0.06590328365564346 1.8501754999160767 -0.35986578464508057 50.0 2 -0.05414288118481636
0.24374516308307648 6.8096113204956055 0.5961452722549438 90.0 10 -0.05414057895541191
0.06617803871631622 1.839861512184143 -0.29159387946128845 87.0 3 -0.05413827300071716
0.24551066756248474 6.792520999908447 0.8345613479614258 88.0 11 -0.054135970771312714
0.06668367981910706 1.8449312448501587 -0.22667700052261353 86.0 4 -0.054133664816617966
0.24684768915176392 6.796741008758545 1.0772078037261963 87.0 12 -0.054131362587213516
0.06735625863075256 1.8457164764404297 -0.16158674657344818 100.0 5 -0.05412905663251877
0.24841323494911194 6.774564266204834 1.317726969718933 100.0 13 -0.05412675440311432
0.06757841259241104 1.8342366218566895 -0.09619349241256714 87.0 6 -0.05412444844841957
0.24997133016586304 6.7848076820373535 1.5674591064453125 100.0 14 -0.05412214621901512
0.06923890858888626 1.870434045791626 -0.03267090395092964 100.0 7 -0.054119840264320374
0.25173547863960266 6.768392562866211 1.814839243888855 47.0 15 -0.054117538034915924
0.07171155512332916 1.8667237758636475 -0.5005560517311096 48.0 0 -0.054096803069114685
0.07109802216291428 1.8423478603363037 0.0321822389960289 100.0 8 -0.05409449711441994
0.0716378465294838 1.8479664325714111 -0.4269571304321289 69.0 1 -0.05409219488501549
0.2660945653915405 6.833436489105225 0.3583966791629791 24.0 9 -0.05408988893032074
0.07188429683446884 1.8460233211517334 -0.3591025471687317 65.0 2 -0.05408758670091629
0.2668723165988922 6.8227009773254395 0.5973654389381409 96.0 10 -0.05408528074622154
0.07204671949148178 1.8337100744247437 -0.290655255317688 56.0 3 -0.05408297851681709
0.26834264397621155 6.7996039390563965 0.8355363011360168 88.0 11 -0.054080672562122345
0.07320151478052139 1.8466707468032837 -0.2269207388162613 69.0 4 -0.054078370332717896
0.2703372836112976 6.789916515350342 1.076269268989563 89.0 12 -0.05407606437802315
0.07371948659420013 1.8434792757034302 -0.16141243278980255 98.0 5 -0.0540737621486187
0.2716602683067322 6.793320178985596 1.3215430974960327 100.0 13 -0.05407145619392395
0.0743824765086174 1.8519631624221802 -0.09713554382324219 100.0 6 -0.0540691539645195
0.27357643842697144 6.781946182250977 1.5670092105865479 100.0 14 -0.05406684800982475
0.07431093603372574 1.8342158794403076 -0.032042618840932846 100.0 7 -0.0540645457804203
0.2756727933883667 6.775193691253662 1.8169097900390625 47.0 15 -0.054062239825725555
0.07790355384349823 1.851007103919983 -0.4964149594306946 43.0 0 -0.054041504859924316
0.07778046280145645 1.848082423210144 0.032286953181028366 100.0 8 -0.05403920263051987
0.07833447307348251 1.8535460233688354 -0.42830681800842285 41.0 1 -0.05403689667582512
0.29020193219184875 6.838451862335205 0.3587106764316559 59.0 9 -0.05403459444642067
0.07823239266872406 1.8359401226043701 -0.3571944534778595 66.0 2 -0.05403228849172592
0.2916199862957001 6.8157057762146 0.5968425273895264 93.0 10 -0.05402998626232147
0.07978416234254837 1.8571165800094604 -0.29440969228744507 100.0 3 -0.054027680307626724
0.2923334836959839 6.804575443267822 0.8362675309181213 88.0 11 -0.054025378078222275
0.07981786131858826 1.8503705263137817 -0.22740821540355682 56.0 4 -0.05402307212352753
0.2942063808441162 6.7928786277771 1.076894998550415 87.0 12 -0.05402076989412308
0.08015359193086624 1.8432106971740723 -0.16141243278980255 71.0 5 -0.05401846393942833
0.2970695197582245 6.804047584533691 1.3238328695297241 100.0 13 -0.05401616171002388
0.08143176138401031 1.8576643466949463 -0.09744956344366074 90.0 6 -0.05401385575532913
0.29860153794288635 6.784791946411133 1.5679088830947876 100.0 14 -0.05401155352592468
0.08106439560651779 1.8419363498687744 -0.0321822389960289 100.0 7 -0.05400925129652023
0.2991521954536438 6.770329475402832 1.815874457359314 47.0 15 -0.054006945341825485
0.08453985303640366 1.8545836210250854 -0.49745020270347595 54.0 0 -0.053986210376024246
0.08354846388101578 1.8258111476898193 0.03190299868583679 100.0 8 -0.0539839044213295
0.08557511121034622 1.8629798889160156 -0.4305563271045685 60.0 1 -0.05398160219192505
0.315538614988327 6.84332799911499 0.35902467370033264 52.0 9 -0.0539792962372303
0.08491143584251404 1.8415393829345703 -0.3583393096923828 45.0 2 -0.05397699400782585
0.31504276394844055 6.806684970855713 0.5961452722549438 90.0 10 -0.053974688053131104
0.08507493138313293 1.8311744928359985 -0.29034239053726196 74.0 3 -0.053972385823726654
0.31754741072654724 6.8094072341918945 0.8369987607002258 88.0 11 -0.053970079869031906
0.08595001697540283 1.836185097694397 -0.22570204734802246 89.0 4 -0.05396777763962746
0.3192887306213379 6.795701503753662 1.077520728111267 88.0 12 -0.05396547168493271
0.0863070860505104 1.836949110031128 -0.16088949143886566 88.0 5 -0.05396316945552826
0.3204469084739685 6.7951250076293945 1.3223063945770264 100.0 13 -0.05396086722612381
0.08772735297679901 1.8533786535263062 -0.09724021703004837 63.0 6 -0.05395856127142906
0.32293224334716797 6.797333717346191 1.5710582733154297 100.0 14 -0.05395625904202461
0.08733826130628586 1.8316396474838257 -0.03200771287083626 97.0 7 -0.053953953087329865
0.3239631652832031 6.7691874504089355 1.815874457359314 47.0 15 -0.053951650857925415
0.09148707240819931 1.8639248609542847 -0.5000383853912354 60.0 0 -0.05393091216683388
0.08992084115743637 1.8255083560943604 0.03190299868583679 99.0 8 -0.05392860993742943
0.09130749851465225 1.8470990657806396 -0.4269571304321289 74.0 1 -0.05392630398273468
0.33932721614837646 6.8401899337768555 0.35892000794410706 49.0 9 -0.05392400175333023
0.09163139760494232 1.8471142053604126 -0.35948416590690613 79.0 2 -0.05392169579863548
0.3394926190376282 6.8194732666015625 0.5973654389381409 96.0 10 -0.05391939356923103
0.09166315197944641 1.8348122835159302 -0.2909681499004364 59.0 3 -0.053917087614536285
0.3408195972442627 6.798344135284424 0.8357800245285034 88.0 11 -0.053914785385131836
0.09365609288215637 1.861647367477417 -0.22887064516544342 43.0 4 -0.053912483155727386
0.34360432624816895 6.806382179260254 1.0793979167938232 87.0 12 -0.05391017720103264
0.09332104027271271 1.8485757112503052 -0.16193535923957825 88.0 5 -0.05390787497162819
0.3439675271511078 6.790043354034424 1.3215430974960327 100.0 13 -0.05390556901693344
0.09490658342838287 1.8670239448547363 -0.09797292202711105 100.0 6 -0.05390326678752899
0.34715232253074646 6.805896282196045 1.573307752609253 100.0 14 -0.053900960832834244
0.0939362645149231 1.835317850112915 -0.032077521085739136 81.0 7 -0.053898658603429794
0.34798821806907654 6.77573299407959 1.8179450035095215 47.0 15 -0.053896352648735046
0.09789099544286728 1.861664891242981 -0.49952077865600586 73.0 0 -0.05387561768293381
0.09713494032621384 1.8411587476730347 0.0321822389960289 76.0 8 -0.05387331172823906
0.09796102344989777 1.850661039352417 -0.4278569221496582 75.0 1 -0.05387100949883461
0.3617990016937256 6.835037708282471 0.3587106764316559 49.0 9 -0.05386870354413986
0.09849543869495392 1.8546249866485596 -0.3610106408596039 80.0 2 -0.05386640131473541
0.36371761560440063 6.826205730438232 0.5980626940727234 99.0 10 -0.05386409908533096
0.09922770410776138 1.8561792373657227 -0.29440969228744507 92.0 3 -0.053861793130636215
0.3648689389228821 6.8030595779418945 0.8365112543106079 90.0 11 -0.053859490901231766
0.09897935390472412 1.8395047187805176 -0.226189523935318 82.0 4 -0.05385718494653702
0.36659643054008484 6.813096046447754 1.080649495124817 88.0 12 -0.05385488271713257
0.09998849034309387 1.8522177934646606 -0.1622839868068695 44.0 5 -0.05385257676243782
0.3683059513568878 6.800563335418701 1.3238328695297241 100.0 13 -0.05385027453303337
0.10001321136951447 1.8407551050186157 -0.09661218523979187 48.0 6 -0.05384796857833862
0.3702726364135742 6.792968273162842 1.570608377456665 100.0 14 -0.053845666348934174
0.1014372855424881 1.8609538078308105 -0.032531287521123886 100.0 7 -0.053843360394239426
0.3706650733947754 6.77839994430542 1.81898033618927 47.0 15 -0.053841058164834976
0.10449749231338501 1.8632407188415527 -0.5000383853912354 78.0 0 -0.05382032319903374
0.10245659202337265 1.8268505334854126 0.03193790465593338 100.0 8 -0.05381801724433899
0.10431605577468872 1.8542174100875854 -0.4287567436695099 84.0 1 -0.05381571501493454
0.3856508433818817 6.833733558654785 0.3587106764316559 49.0 9 -0.05381340906023979
0.10452444851398468 1.8464295864105225 -0.35948416590690613 83.0 2 -0.05381110683083534
0.38777098059654236 6.8288726806640625 0.5984113216400146 99.0 10 -0.053808800876140594
0.10504612326622009 1.8499233722686768 -0.293471097946167 93.0 3 -0.053806498646736145
0.3878736197948456 6.80974006652832 0.837486207485199 88.0 11 -0.0538041926920414
0.10507933795452118 1.8391664028167725 -0.226189523935318 89.0 4 -0.05380189046263695
0.389926016330719 6.803885459899902 1.0793979167938232 87.0 12 -0.0537995845079422
0.10725422203540802 1.8657810688018799 -0.16350416839122772 96.0 5 -0.05379728227853775
0.39175868034362793 6.8149847984313965 1.3268858194351196 100.0 13 -0.053794976323843
0.10784189403057098 1.870322585105896 -0.09818226099014282 100.0 6 -0.05379267409443855
0.3930206000804901 6.795594215393066 1.5715081691741943 100.0 14 -0.053790368139743805
0.10642759501934052 1.834635853767395 -0.032077521085739136 45.0 7 -0.053788065910339355
0.3952201306819916 6.7924933433532715 1.823121428489685 46.0 15 -0.05378575995564461
0.11021699011325836 1.8551701307296753 -0.4979678690433502 78.0 0 -0.05376502498984337
0.11026068031787872 1.850435733795166 0.032356761395931244 49.0 8 -0.05376272276043892
0.11125245690345764 1.8616230487823486 -0.4305563271045685 84.0 1 -0.05376041680574417
0.40998250246047974 6.840321063995361 0.3591293692588806 49.0 9 -0.05375811457633972
0.11052903532981873 1.8441129922866821 -0.3591025471687317 90.0 2 -0.053755808621644974
0.4106552302837372 6.831526756286621 0.5987599492073059 96.0 10 -0.053753506392240524
0.11197803169488907 1.8574326038360596 -0.2947225570678711 93.0 3 -0.053751200437545776
0.41260194778442383 6.8241963386535645 0.8394361138343811 88.0 11 -0.05374889820814133
0.11270057410001755 1.85860276222229 -0.22862690687179565 80.0 4 -0.05374659225344658
0.41367220878601074 6.802483081817627 1.0793979167938232 87.0 12 -0.05374429002404213
0.11303737014532089 1.8534632921218872 -0.16245830059051514 95.0 5 -0.05374198406934738
0.41577932238578796 6.817495346069336 1.3276489973068237 100.0 13 -0.05373968183994293
0.11363879591226578 1.857973575592041 -0.09755422919988632 100.0 6 -0.053737375885248184
0.4174536168575287 6.805850505828857 1.5742075443267822 100.0 14 -0.053735073655843735
0.11418028175830841 1.8562084436416626 -0.03246147558093071 100.0 7 -0.05373276770114899
0.41869184374809265 6.787215709686279 1.822086215019226 46.0 15 -0.05373046547174454
0.11701538413763046 1.8547537326812744 -0.4979678690433502 78.0 0 -0.0537097305059433
0.1162143275141716 1.8420566320419312 0.03221714124083519 100.0 8 -0.05370742455124855
0.11787360161542892 1.8631682395935059 -0.4310062527656555 85.0 1 -0.0537051223218441
0.43449121713638306 6.848814010620117 0.35965272784233093 52.0 9 -0.05370281636714935
0.11778545379638672 1.8515326976776123 -0.36062902212142944 87.0 2 -0.053700514137744904
0.43543609976768494 6.825998783111572 0.5984113216400146 96.0 10 -0.053698208183050156
0.11828117817640305 1.8491243124008179 -0.293471097946167 93.0 3 -0.053695905953645706
0.4364221394062042 6.822714805603027 0.8394361138343811 88.0 11 -0.05369359999895096
0.11893221735954285 1.8542362451553345 -0.22813943028450012 75.0 4 -0.05369129776954651
0.437923789024353 6.8088836669921875 1.080649495124817 89.0 12 -0.05368899181485176
0.11925052106380463 1.849081039428711 -0.16210968792438507 93.0 5 -0.05368668958544731
0.4407624304294586 6.815925598144531 1.3276489973068237 100.0 13 -0.053684383630752563
0.12018897384405136 1.8535585403442383 -0.09734489023685455 71.0 6 -0.053682081401348114
0.4422708749771118 6.80233097076416 1.5737576484680176 100.0 14 -0.053679779171943665
0.11988101154565811 1.8438254594802856 -0.03225204721093178 100.0 7 -0.05367747321724892
0.44237643480300903 6.785713195800781 1.822086215019226 46.0 15 -0.05367517098784447
0.12400293350219727 1.862044334411621 -0.5000383853912354 78.0 0 -0.05365443229675293
0.12176734209060669 1.823660969734192 0.03190299868583679 100.0 8 -0.05365213006734848
0.12392022460699081 1.8510574102401733 -0.42830681800842285 85.0 1 -0.05364982411265373
0.45879417657852173 6.85323429107666 0.3599667251110077 49.0 9 -0.05364752188324928
0.12424828857183456 1.8511103391647339 -0.36062902212142944 87.0 2 -0.053645215928554535
0.45979753136634827 6.8323893547058105 0.5991085767745972 99.0 10 -0.053642913699150085
0.12473471462726593 1.8487000465393066 -0.293471097946167 100.0 3 -0.05364060774445534
0.4611561894416809 6.817107677459717 0.8389486074447632 90.0 11 -0.05363830551505089
0.1262083500623703 1.8656929731369019 -0.22960186004638672 73.0 4 -0.05363599956035614
0.46275970339775085 6.823080062866211 1.083152413368225 87.0 12 -0.05363369733095169
0.12543357908725739 1.8446778059005737 -0.1617610603570938 96.0 5 -0.05363139510154724
0.46401944756507874 6.8065104484558105 1.326122522354126 100.0 13 -0.05362908914685249
0.12638646364212036 1.8491421937942505 -0.09713554382324219 17.0 6 -0.053626786917448044
0.46642225980758667 6.824157238006592 1.579156517982483 100.0 14 -0.053624480962753296
0.12631602585315704 1.8433959484100342 -0.03225204721093178 56.0 7 -0.053622178733348846
0.4665917754173279 6.791837215423584 1.8241567611694336 46.0 15 -0.0536198727786541
0.13017752766609192 1.8616228103637695 -0.5000383853912354 78.0 0 -0.05359913781285286
0.12921130657196045 1.8431950807571411 0.03225204721093178 76.0 8 -0.05359683185815811
0.13005749881267548 1.8506362438201904 -0.42830681800842285 85.0 1 -0.05359452962875366
0.48165643215179443 6.853667259216309 0.3600713908672333 52.0 9 -0.053592223674058914
0.1308005452156067 1.8565633296966553 -0.36177387833595276 83.0 2 -0.053589921444654465
0.4830121099948883 6.838776588439941 0.5998058319091797 100.0 10 -0.053587619215250015
0.1312827169895172 1.8541877269744873 -0.29440969228744507 90.0 3 -0.05358531326055527
0.4836213290691376 6.813560962677002 0.8387048840522766 88.0 11 -0.05358301103115082
