# .PCD v0.7 - Point Cloud Data file format
VERSION 0.7
FIELDS x y z intensity ring time
SIZE 4 4 4 4 4 4
TYPE F F F F F F
COUNT 1 1 1 1 1 1
WIDTH 552
HEIGHT 1
VIEWPOINT 0 0 0 1 0 0 0
POINTS 552
DATA ascii
-3.626016139984131 5.8367815017700195 1.335663080215454 35.0 13 -0.04625747725367546
-2.829057216644287 4.555694580078125 -0.2810441255569458 54.0 6 -0.04625517129898071
-3.5992393493652344 5.79819917678833 1.5755572319030762 51.0 14 -0.04625286906957626
-2.8762528896331787 4.635303497314453 -0.09522033482789993 20.0 7 -0.046250563114881516
-3.568079710006714 5.752476692199707 1.8138039112091064 25.0 15 -0.046248260885477066
-1.730725646018982 2.797912836074829 -0.881537675857544 5.0 0 -0.04622752219438553
-2.79850435256958 4.525862693786621 0.0928817018866539 59.0 8 -0.04622521996498108
-1.9651566743850708 3.179377317428589 -0.8629122972488403 3.0 1 -0.04622291401028633
-2.8586041927337646 4.626668453216553 0.2850216329097748 2.0 9 -0.04622061178088188
-2.229992151260376 3.6092560291290283 -0.824676513671875 1.0 2 -0.046218305826187134
-3.67582106590271 5.951662063598633 0.6120076179504395 36.0 10 -0.046216003596782684
-2.616070032119751 4.23743200302124 -0.7887426614761353 1.0 3 -0.046213701367378235
-3.658202886581421 5.927762508392334 0.8552790880203247 22.0 11 -0.04621139541268349
-3.129802942276001 5.073522567749023 -0.7319473624229431 1.0 4 -0.04620909318327904
-3.645498037338257 5.9117913246154785 1.1000473499298096 27.0 12 -0.04620678722858429
-3.0379347801208496 4.926524639129639 -0.5063748955726624 9.0 5 -0.04620448499917984
-3.6262214183807373 5.882828712463379 1.3432954549789429 35.0 13 -0.04620217904448509
-2.7502729892730713 4.46351957321167 -0.274763822555542 77.0 6 -0.04619987681508064
-3.611682653427124 5.863823413848877 1.589954137802124 57.0 14 -0.046197570860385895
-2.8327951431274414 4.601042747497559 -0.09431280940771103 32.0 7 -0.046195268630981445
-3.5732903480529785 5.806028366088867 1.8267449140548706 24.0 15 -0.0461929626762867
-1.7270123958587646 2.8138155937194824 -0.8846435546875 5.0 0 -0.04617222771048546
-2.781644344329834 4.533898830413818 0.09284680336713791 64.0 8 -0.04616992175579071
-1.946915864944458 3.174588680267334 -0.8597630262374878 3.0 1 -0.04616761952638626
-2.8288674354553223 4.6144819259643555 0.283660888671875 1.0 9 -0.04616531729698181
-2.219433069229126 3.6203653812408447 -0.8254397511482239 1.0 2 -0.046163011342287064
-3.684173583984375 6.012022018432617 0.6168883442878723 36.0 10 -0.046160709112882614
-2.6012637615203857 4.246537685394287 -0.7887426614761353 1.0 3 -0.046158403158187866
-3.6602962017059326 5.9777398109436035 0.860641360282898 22.0 11 -0.04615610092878342
-3.6516456604003906 5.968289375305176 1.1081818342208862 30.0 12 -0.04615149274468422
-2.9760074615478516 4.86401891708374 -0.49887949228286743 27.0 5 -0.04614918678998947
-3.624103546142578 5.925597190856934 1.350164532661438 37.0 13 -0.04614688456058502
-2.722175359725952 4.452643394470215 -0.2735077440738678 72.0 6 -0.046144578605890274
-3.6165976524353027 5.917964458465576 1.6012017726898193 52.0 14 -0.046142276376485825
-2.802122116088867 4.587013244628906 -0.09382414072751999 47.0 7 -0.04613997042179108
-3.5771634578704834 5.85803747177124 1.8391681909561157 23.0 15 -0.04613766819238663
-1.7181851863861084 2.821476459503174 -0.8851611614227295 6.0 0 -0.04611693322658539
-2.7678797245025635 4.546998023986816 0.09291661530733109 64.0 8 -0.04611462727189064
-1.9388606548309326 3.1863598823547363 -0.861112654209137 3.0 1 -0.04611232504248619
-2.7979753017425537 4.598245143890381 0.28209084272384644 2.0 9 -0.04611001908779144
-2.216984987258911 3.6448633670806885 -0.8292559385299683 1.0 2 -0.04610771685838699
-3.693181037902832 6.074216365814209 0.6219433546066284 37.0 10 -0.046105410903692245
-2.588474988937378 4.258968353271484 -0.7893683910369873 1.0 3 -0.046103108674287796
-3.6662042140960693 6.034591197967529 0.8669785857200623 24.0 11 -0.04610080271959305
-2.7707595825195312 4.562478542327881 -0.6554133892059326 1.0 4 -0.0460985004901886
-3.662593364715576 6.03101921081543 1.117568016052246 30.0 12 -0.04609619453549385
-2.952805995941162 4.86415958404541 -0.49783360958099365 22.0 5 -0.0460938923060894
-3.632932186126709 5.986886978149414 1.3612314462661743 41.0 13 -0.04609158635139465
-2.7055795192718506 4.460411548614502 -0.2734030783176422 77.0 6 -0.046089284121990204
-3.6151134967803955 5.96221399307251 1.6097497940063477 51.0 14 -0.046086978167295456
-2.781712293624878 4.5877299308776855 -0.09364961087703705 50.0 7 -0.046084675937891006
-3.5887601375579834 5.92108154296875 1.8552149534225464 25.0 15 -0.04608236998319626
-1.7153183221817017 2.83903169631958 -0.888784646987915 5.0 0 -0.04606163501739502
-2.7517523765563965 4.554439067840576 0.0928817018866539 57.0 8 -0.04605933278799057
-1.932314157485962 3.199444055557251 -0.8629122972488403 3.0 1 -0.04605702683329582
-2.779843807220459 4.6045637130737305 0.2818814814090729 2.0 9 -0.04605472460389137
-2.212362289428711 3.666027307510376 -0.832308828830719 1.0 2 -0.046052418649196625
-3.6976850032806396 6.129720211029053 0.6263011693954468 34.0 10 -0.046050116419792175
-2.568216323852539 4.257379531860352 -0.7874912023544312 1.0 3 -0.04604781046509743
-3.6769258975982666 6.097713470458984 0.8742907643318176 26.0 11 -0.04604550823569298
-2.755615472793579 4.571640968322754 -0.6554133892059326 1.0 4 -0.04604320228099823
-3.662928819656372 6.079298496246338 1.1241382360458374 28.0 12 -0.04604090005159378
-2.9861793518066406 4.958066940307617 -0.5063748955726624 12.0 5 -0.04603859409689903
-3.6464860439300537 6.054399013519287 1.3738248348236084 37.0 13 -0.04603629186749458
-2.6918039321899414 4.4710693359375 -0.2735077440738678 73.0 6 -0.046033985912799835
-3.6264736652374268 6.0259294509887695 1.6236968040466309 56.0 14 -0.046031683683395386
-2.7564024925231934 4.581990718841553 -0.09333546459674835 53.0 7 -0.046029381453990936
-3.599928855895996 5.9865498542785645 1.871779441833496 26.0 15 -0.04602707549929619
-1.6969531774520874 2.8297929763793945 -0.8841258883476257 6.0 0 -0.04600634053349495
-2.7399492263793945 4.570878505706787 0.09302133321762085 45.0 8 -0.0460040345788002
-1.925141453742981 3.212855577468872 -0.8647118806838989 3.0 1 -0.04600173234939575
-2.7748258113861084 4.63088846206665 0.2829281985759735 1.0 9 -0.045999426394701004
-2.1890957355499268 3.654817581176758 -0.8281110525131226 2.0 2 -0.045997124165296555
-3.704969882965088 6.188104152679443 0.6310075521469116 37.0 10 -0.04599481821060181
-2.567542791366577 4.290047645568848 -0.7918713688850403 1.0 3 -0.04599251598119736
-3.684152603149414 6.1582112312316895 0.8811154365539551 19.0 11 -0.04599021002650261
-3.6660659313201904 6.130405902862549 1.1313341856002808 30.0 12 -0.04598560184240341
-3.0678610801696777 5.132114410400391 -0.5231087803840637 38.0 5 -0.04598329961299896
-3.6545326709747314 6.115965366363525 1.3848917484283447 41.0 13 -0.04598099738359451
-2.678227663040161 4.48386812210083 -0.27371707558631897 71.0 6 -0.045978691428899765
-3.6333906650543213 6.085399627685547 1.6362940073013306 56.0 14 -0.045976389199495316
-2.7350456714630127 4.580802917480469 -0.09312604367733002 53.0 7 -0.04597408324480057
-3.6028268337249756 6.036609649658203 1.8836851119995117 23.0 15 -0.04597178101539612
-1.6850886344909668 2.832379102706909 -0.883090615272522 6.0 0 -0.04595104232430458
-2.712508201599121 4.559316158294678 0.09260246902704239 22.0 8 -0.04594874009490013
-1.9164680242538452 3.2225723266601562 -0.865611732006073 3.0 1 -0.04594643414020538
-2.7627251148223877 4.647414207458496 0.28334689140319824 3.0 9 -0.045944131910800934
-2.1793341636657715 3.6674997806549072 -0.8292559385299683 1.0 2 -0.045941825956106186
-3.7138731479644775 6.252387523651123 0.6362369060516357 41.0 10 -0.045939523726701736
-2.559354066848755 4.30872917175293 -0.7937486171722412 1.0 3 -0.04593721777200699
-3.6941165924072266 6.22160005569458 0.8884276151657104 22.0 11 -0.04593491554260254
-3.0648605823516846 5.163865089416504 -0.7373095750808716 1.0 4 -0.04593261331319809
-3.6748828887939453 6.194130897521973 1.140720248222351 30.0 12 -0.04593030735850334
-3.048910140991211 5.141078472137451 -0.5229344367980957 48.0 5 -0.04592800512909889
-3.6552624702453613 6.163510799407959 1.3929057121276855 42.0 13 -0.045925699174404144
-2.6623265743255615 4.491006374359131 -0.2736124098300934 70.0 6 -0.045923396944999695
-3.6429924964904785 6.147710800170898 1.6497911214828491 55.0 14 -0.04592109099030495
-2.7180182933807373 4.588602066040039 -0.09309113770723343 55.0 7 -0.0459187887609005
-3.6063408851623535 6.0907063484191895 1.8966261148452759 23.0 15 -0.04591648280620575
-1.6747052669525146 2.8362877368927 -0.8825729489326477 6.0 0 -0.04589574784040451
-2.697594165802002 4.5704779624938965 0.09263737499713898 3.0 8 -0.04589344188570976
-1.9071886539459229 3.2325987815856934 -0.8665115237236023 3.0 1 -0.04589113965630531
-2.7444558143615723 4.653589725494385 0.28313755989074707 4.0 9 -0.045888833701610565
-2.1734986305236816 3.686922788619995 -0.8319272398948669 2.0 2 -0.045886531472206116
-3.7224626541137695 6.3144426345825195 0.6412919163703918 85.0 10 -0.045884229242801666
-2.5442991256713867 4.317636489868164 -0.7937486171722412 1.0 3 -0.04588192328810692
-3.7026000022888184 6.285770416259766 0.895739734172821 40.0 11 -0.04587962105870247
-3.683300018310547 6.257992267608643 1.1501063108444214 30.0 12 -0.04587501287460327
-3.0157899856567383 5.125932216644287 -0.5203197598457336 12.0 5 -0.045872706919908524
-3.6575303077697754 6.219173908233643 1.4024461507797241 41.0 13 -0.045870404690504074
-2.654958963394165 4.516229629516602 -0.27455446124076843 72.0 6 -0.045868098735809326
-3.649164915084839 6.207427978515625 1.6623884439468384 55.0 14 -0.04586579650640488
-2.6948916912078857 4.585993766784668 -0.09284680336713791 52.0 7 -0.04586349055171013
-3.613431930541992 6.151565074920654 1.911637544631958 23.0 15 -0.04586118832230568
-1.66820228099823 2.8490755558013916 -0.8846435546875 6.0 0 -0.04584045335650444
-2.6899142265319824 4.595868110656738 0.09295151382684708 9.0 8 -0.04583814740180969
-1.8953267335891724 3.239567995071411 -0.8665115237236023 3.0 1 -0.04583584517240524
-2.727381944656372 4.663617134094238 0.28313755989074707 3.0 9 -0.045833539217710495
-2.1550161838531494 3.6863908767700195 -0.8300192356109619 1.0 2 -0.045831236988306046
-3.7023088932037354 6.333204746246338 0.6418148875236511 90.0 10 -0.0458289310336113
-2.5344362258911133 4.337166786193848 -0.7956258058547974 1.0 3 -0.04582662880420685
-3.6895503997802734 6.316438674926758 0.8981771469116211 68.0 11 -0.0458243228495121
-3.696183443069458 6.332869052886963 1.1613695621490479 70.0 12 -0.0458197146654129
-2.7821240425109863 4.768673419952393 -0.48301711678504944 11.0 5 -0.04581741243600845
-3.6703150272369385 6.2935919761657715 1.416184425354004 77.0 13 -0.045815106481313705
-2.6544809341430664 4.553538799285889 -0.27622920274734497 72.0 6 -0.045812804251909256
-3.6558303833007812 6.271268844604492 1.6758854389190674 66.0 14 -0.04581049829721451
-2.59852933883667 4.459346771240234 -0.09008932113647461 36.0 7 -0.04580819606781006
-3.624894380569458 6.2231926918029785 1.9297548532485962 21.0 15 -0.04580589011311531
-1.6587191820144653 2.8568408489227295 -0.8851611614227295 4.0 0 -0.04578515514731407
-2.684093952178955 4.624720096588135 0.09333546459674835 11.0 8 -0.04578285291790962
-1.8775736093521118 3.2363786697387695 -0.8638120889663696 3.0 1 -0.045780546963214874
-2.75919508934021 4.756031513214111 0.2881617844104767 1.0 9 -0.045778244733810425
-2.1441056728363037 3.697286605834961 -0.830782413482666 1.0 2 -0.04577593877911568
-3.6820714473724365 6.351902484893799 0.6423377990722656 88.0 10 -0.04577363654971123
-2.5125808715820312 4.336170673370361 -0.7937486171722412 1.0 3 -0.04577133059501648
-3.669358015060425 6.335073471069336 0.8989083766937256 77.0 11 -0.04576902836561203
-3.003739595413208 5.185896396636963 -0.7358471155166626 3.0 4 -0.04576672241091728
-3.661189556121826 6.323507785797119 1.1573022603988647 63.0 12 -0.04576442018151283
-2.9820289611816406 5.152553558349609 -0.5208427309989929 45.0 5 -0.045762114226818085
-3.661102771759033 6.328458309173584 1.4211454391479492 100.0 13 -0.045759811997413635
-2.6695656776428223 4.616374492645264 -0.27947402000427246 58.0 6 -0.04575750604271889
-3.616358757019043 6.253625869750977 1.6677873134613037 42.0 14 -0.04575520381331444
-2.5659334659576416 4.43895959854126 -0.0894959419965744 50.0 7 -0.04575289785861969
-3.6360087394714355 6.292680263519287 1.9473545551300049 28.0 15 -0.04575059562921524
-1.6559884548187256 2.8740427494049072 -0.888784646987915 5.0 0 -0.045729860663414
-2.6707379817962646 4.637061595916748 0.09340527653694153 7.0 8 -0.045727554708719254
-1.8687748908996582 3.2459652423858643 -0.8647118806838989 3.0 1 -0.045725252479314804
-2.9865570068359375 5.18749475479126 0.3137017488479614 3.0 9 -0.045722946524620056
-2.1318321228027344 3.7043771743774414 -0.830782413482666 1.0 2 -0.04572064429521561
-3.651050567626953 6.346807956695557 0.6405947208404541 84.0 10 -0.04571833834052086
-2.5040950775146484 4.35475492477417 -0.7956258058547974 1.0 3 -0.04571603611111641
-3.641406774520874 6.335158348083496 0.89720219373703 71.0 11 -0.04571373015642166
-2.9776241779327393 5.1803388595581055 -0.7336535453796387 3.0 4 -0.04571142792701721
-3.6333093643188477 6.323625564575195 1.1551122665405273 56.0 12 -0.045709121972322464
-2.9609556198120117 5.15550422668457 -0.5201454758644104 27.0 5 -0.045706819742918015
-3.631300449371338 6.325239181518555 1.4177109003067017 92.0 13 -0.04570451378822327
-2.657223701477051 4.630399227142334 -0.2797880470752716 11.0 6 -0.04570221155881882
-3.581049919128418 6.240231513977051 1.6610386371612549 60.0 14 -0.04569990932941437
-2.5581653118133545 4.459585666656494 -0.08974027633666992 55.0 7 -0.04569760337471962
-3.6093573570251465 6.294647693634033 1.9442487955093384 30.0 15 -0.04569530114531517
-1.645488977432251 2.8778417110443115 -0.8882669806480408 5.0 0 -0.04567456245422363
-2.6722159385681152 4.675406455993652 0.09399866312742233 4.0 8 -0.04567226022481918
-1.8628348112106323 3.2606046199798584 -0.8669614195823669 3.0 1 -0.045669954270124435
-2.9416894912719727 5.151060104370117 0.3108755946159363 18.0 9 -0.045667652040719986
-2.119537115097046 3.71142578125 -0.830782413482666 1.0 2 -0.04566534608602524
-3.6220829486846924 6.345037460327148 0.6392002105712891 84.0 10 -0.04566304385662079
-2.479851007461548 4.345877170562744 -0.7924971580505371 1.0 3 -0.04566073790192604
-3.6193959712982178 6.345473766326904 0.8969584107398987 64.0 11 -0.04565843567252159
-2.988037586212158 5.240710258483887 -0.7407218813896179 1.0 4 -0.04565612971782684
-3.607302665710449 6.329403877258301 1.1538608074188232 58.0 12 -0.045653827488422394
-3.059269428253174 5.367819786071777 -0.5405399203300476 17.0 5 -0.045651525259017944
-3.603501081466675 6.325306415557861 1.4150395393371582 87.0 13 -0.045649219304323196
-2.582554340362549 4.535050868988037 -0.2735077440738678 1.0 6 -0.04564691707491875
-3.600700855255127 6.325516700744629 1.6803845167160034 100.0 14 -0.045644611120224
-2.5504934787750244 4.482393264770508 -0.09001951664686203 61.0 7 -0.04564230889081955
-3.5835437774658203 6.300490379333496 1.9421781301498413 30.0 15 -0.0456400029361248
-1.6344809532165527 2.881887197494507 -0.8877493143081665 5.0 0 -0.04561926797032356
-2.6637680530548096 4.698623180389404 0.09427790343761444 4.0 8 -0.045616962015628815
-1.846638560295105 3.2586095333099365 -0.8647118806838989 3.0 1 -0.045614659786224365
-2.9187676906585693 5.152608871459961 0.31035226583480835 9.0 9 -0.04561235383152962
-2.106567859649658 3.7188024520874023 -0.830782413482666 1.0 2 -0.04561005160212517
-3.5950024127960205 6.348974704742432 0.6383286714553833 81.0 10 -0.04560774937272072
-2.4627206325531006 4.351068019866943 -0.7918713688850403 1.0 3 -0.04560544341802597
-3.5884251594543457 6.3425211906433105 0.8947648406028748 64.0 11 -0.04560314118862152
-3.5832409858703613 6.338519096374512 1.1532349586486816 56.0 12 -0.045598533004522324
-3.0640439987182617 5.420093536376953 -0.544723391532898 16.0 5 -0.045596227049827576
-3.575605630874634 6.327590465545654 1.4127498865127563 83.0 13 -0.045593924820423126
-2.5588486194610596 4.530126571655273 -0.27267035841941833 1.0 6 -0.04559161886572838
-3.5738067626953125 6.329564094543457 1.6781350374221802 100.0 14 -0.04558931663632393
-2.5495753288269043 4.517390251159668 -0.09054308384656906 77.0 7 -0.04558701068162918
-3.5577304363250732 6.306231498718262 1.9401075839996338 45.0 15 -0.04558470845222473
-1.6319879293441772 2.901045083999634 -0.8918904662132263 5.0 0 -0.045563969761133194
-2.654212236404419 4.720093250274658 0.09452223777770996 7.0 8 -0.045561667531728745
-1.8419358730316162 3.2769277095794678 -0.867861270904541 3.0 1 -0.045559365302324295
-3.562120199203491 6.339841365814209 0.3811104893684387 5.0 9 -0.04555705934762955
-2.0929243564605713 3.7264978885650635 -0.830782413482666 1.0 2 -0.0455547571182251
-3.5737953186035156 6.363221168518066 0.6385029554367065 85.0 10 -0.04555245116353035
-2.4687910079956055 4.397533893585205 -0.7987545132637024 1.0 3 -0.0455501489341259
-3.559464693069458 6.342889308929443 0.8930586576461792 70.0 11 -0.04554784297943115
-2.7085859775543213 4.828616142272949 -0.6797872185707092 1.0 4 -0.0455455407500267
-3.5572304725646973 6.344095230102539 1.1519834995269775 58.0 12 -0.045543234795331955
-3.080202102661133 5.495593547821045 -0.5511729121208191 22.0 5 -0.045540932565927505
-3.5466339588165283 6.330375671386719 1.410460114479065 85.0 13 -0.04553862661123276
-2.555891513824463 4.563870429992676 -0.2741357684135437 1.0 6 -0.04553632438182831
-3.538361072540283 6.318195343017578 1.671836256980896 100.0 14 -0.04553401842713356
-2.534768581390381 4.528006553649902 -0.09057798981666565 70.0 7 -0.04553171619772911
-3.5300371646881104 6.308495998382568 1.9370018243789673 45.0 15 -0.04552941024303436
-1.613816738128662 2.8935093879699707 -0.8877493143081665 5.0 0 -0.045508675277233124
-2.5687313079833984 4.6075286865234375 0.09207889437675476 1.0 8 -0.045506373047828674
-1.8270677328109741 3.2785494327545166 -0.8665115237236023 3.0 1 -0.045504067093133926
-3.5213654041290283 6.321446895599365 0.3792263865470886 4.0 9 -0.04550176486372948
-2.083071231842041 3.7410049438476562 -0.832308828830719 1.0 2 -0.04549945890903473
-3.5426931381225586 6.362351894378662 0.6371084451675415 85.0 10 -0.04549715667963028
-2.44881272315979 4.399649143218994 -0.7975029945373535 1.0 3 -0.04549485072493553
-3.5294382572174072 6.343748569488525 0.8913524150848389 64.0 11 -0.04549254849553108
-3.5262744426727295 6.3432793617248535 1.1494805812835693 61.0 12 -0.045487940311431885
-3.087137222290039 5.555609226226807 -0.556053638458252 28.0 5 -0.04548563435673714
-3.523406505584717 6.3433332443237305 1.410460114479065 87.0 13 -0.04548333212733269
-2.57792592048645 4.643054962158203 -0.27832263708114624 1.0 6 -0.04548102617263794
-3.509502649307251 6.3209004402160645 1.6691370010375977 100.0 14 -0.04547872394323349
-2.513302803039551 4.528525352478027 -0.0904034674167633 61.0 7 -0.04547641798853874
-3.506889820098877 6.32139253616333 1.9370018243789673 37.0 15 -0.04547411575913429
-1.6041346788406372 2.9010961055755615 -0.8882669806480408 5.0 0 -0.045453380793333054
-2.540219783782959 4.595910549163818 0.0916600376367569 1.0 8 -0.045451074838638306
-1.8140957355499268 3.2835187911987305 -0.8660616278648376 3.0 1 -0.045448772609233856
-3.501208543777466 6.337197780609131 0.3794357180595398 5.0 9 -0.04544646665453911
-2.0700008869171143 3.7482528686523438 -0.832308828830719 1.0 2 -0.04544416442513466
-3.5135741233825684 6.364827632904053 0.6360626220703125 85.0 10 -0.04544185847043991
-2.4383976459503174 4.418971538543701 -0.7993801832199097 1.0 3 -0.04543955624103546
-3.501368522644043 6.347952842712402 0.8901337385177612 63.0 11 -0.045437250286340714
-3.4964818954467773 6.341710090637207 1.1469776630401611 61.0 12 -0.045432642102241516
-3.074455976486206 5.578567028045654 -0.557273805141449 8.0 5 -0.04543033987283707
-3.497454881668091 6.348714351654053 1.4089336395263672 85.0 13 -0.04542803391814232
-2.5944597721099854 4.7115092277526855 -0.2818814814090729 1.0 6 -0.04542573168873787
-3.4834940433502197 6.3285980224609375 1.6677873134613037 100.0 14 -0.04542342573404312
-2.4955523014068604 4.533766269683838 -0.09033365547657013 55.0 7 -0.04542112350463867
-3.4643163681030273 6.296358585357666 1.9256138801574707 33.0 15 -0.04541882127523422
-1.589354395866394 2.8982081413269043 -0.8856788277626038 6.0 0 -0.045398082584142685
-2.5076584815979004 4.572747230529785 0.0910317525267601 2.0 8 -0.045395780354738235
-1.8060081005096436 3.294642686843872 -0.8674113154411316 3.0 1 -0.04539347440004349
-3.477144956588745 6.3458781242370605 0.3792263865470886 5.0 9 -0.04539117217063904
-2.058791399002075 3.758899450302124 -0.8330721259117126 1.0 2 -0.04538886621594429
-3.4798552989959717 6.356081485748291 0.6339708566665649 85.0 10 -0.04538656398653984
-2.4199368953704834 4.420102119445801 -0.7981287240982056 1.0 3 -0.04538425803184509
-3.479343891143799 6.3577880859375 0.8898900151252747 54.0 11 -0.04538195580244064
-2.599865436553955 4.752686023712158 -0.6651629209518433 1.0 4 -0.045379649847745895
-3.4686357975006104 6.343477725982666 1.1451003551483154 61.0 12 -0.045377347618341446
-3.0635628700256348 5.605000019073486 -0.5588425993919373 6.0 5 -0.0453750416636467
-3.4660232067108154 6.341329097747803 1.4047359228134155 90.0 13 -0.04537273943424225
-2.578822612762451 4.720086097717285 -0.2818814814090729 1.0 6 -0.0453704372048378
-3.4578166007995605 6.331564903259277 1.665537714958191 100.0 14 -0.04536813125014305
-2.493124485015869 4.567023754119873 -0.09082232415676117 63.0 7 -0.0453658290207386
-3.4321391582489014 6.289758205413818 1.919919729232788 30.0 15 -0.045363523066043854
-1.5843504667282104 2.911947727203369 -0.8882669806480408 5.0 0 -0.045342788100242615
-2.5117437839508057 4.6183648109436035 0.09176475554704666 4.0 8 -0.04534048214554787
-1.794495701789856 3.30092716217041 -0.8674113154411316 3.0 1 -0.04533817991614342
-3.45035982131958 6.3468451499938965 0.37859833240509033 4.0 9 -0.04533587396144867
-2.0500636100769043 3.772606372833252 -0.8345985412597656 2.0 2 -0.04533357173204422
-3.456855058670044 6.364085674285889 0.6336222290992737 86.0 10 -0.04533126577734947
-2.396951675415039 4.414635181427002 -0.7956258058547974 1.0 3 -0.04532896354794502
-3.442927598953247 6.343723297119141 0.886233925819397 57.0 11 -0.04532666131854057
-2.5737924575805664 4.744284152984619 -0.662725567817688 1.0 4 -0.045324355363845825
-3.4466404914855957 6.353209018707275 1.1447875499725342 63.0 12 -0.045322053134441376
-3.0478098392486572 5.620382308959961 -0.5593655109405518 6.0 5 -0.04531974717974663
-3.4363832473754883 6.3395795822143555 1.40168297290802 92.0 13 -0.04531744495034218
-2.5623295307159424 4.72905969619751 -0.2818814814090729 1.0 6 -0.04531513899564743
-3.434767246246338 6.34188175201416 1.6650878190994263 100.0 14 -0.04531283676624298
-2.487490177154541 4.592849254608154 -0.09117137640714645 63.0 7 -0.04531053081154823
-3.418619155883789 6.314696788787842 1.9240609407424927 30.0 15 -0.045308228582143784
-1.5732594728469849 2.915760040283203 -0.8877493143081665 5.0 0 -0.045287489891052246
-2.505911350250244 4.644266605377197 0.09211380034685135 3.0 8 -0.0452851876616478
-1.7779897451400757 3.2965683937072754 -0.8647118806838989 3.0 1 -0.04528288543224335
-3.413968563079834 6.332479000091553 0.37702828645706177 5.0 9 -0.0452805794775486
-2.035020589828491 3.776282787322998 -0.8338353633880615 1.0 2 -0.04527827724814415
-3.4327309131622314 6.3726043701171875 0.6332736015319824 88.0 10 -0.0452759712934494
-2.387920618057251 4.432993412017822 -0.7975029945373535 1.0 3 -0.04527366906404495
-3.417167901992798 6.346365928649902 0.8850152492523193 56.0 11 -0.045271363109350204
-2.892972946166992 5.375078201293945 -0.7494965195655823 1.0 4 -0.045269060879945755
-3.4225687980651855 6.361722469329834 1.1441618204116821 61.0 12 -0.04526675492525101
-3.0300607681274414 5.634495735168457 -0.5597141981124878 5.0 5 -0.04526445269584656
-3.4153425693511963 6.350939750671387 1.40168297290802 95.0 13 -0.04526214674115181
-2.593916893005371 4.825490474700928 -0.28711506724357605 1.0 6 -0.04525984451174736
-3.4044926166534424 6.336071491241455 1.6605888605117798 100.0 14 -0.04525753855705261
-2.479959487915039 4.617358684539795 -0.09148551523685455 61.0 7 -0.04525523632764816
-3.3929014205932617 6.319782257080078 1.9219902753829956 43.0 15 -0.045252930372953415
-1.569962978363037 2.9328837394714355 -0.8913728594779968 5.0 0 -0.045232195407152176
-2.5028910636901855 4.677670001983643 0.09260246902704239 5.0 8 -0.045229893177747726
-1.7710661888122559 3.311347007751465 -0.8669614195823669 3.0 1 -0.04522758722305298
-3.386354923248291 6.331438064575195 0.3762955665588379 5.0 9 -0.04522528499364853
-2.039146661758423 3.8141753673553467 -0.8407044410705566 1.0 2 -0.04522297903895378
-3.4059433937072754 6.373410224914551 0.6322277188301086 88.0 10 -0.04522067680954933
-2.3780150413513184 4.451756954193115 -0.7993801832199097 1.0 3 -0.045218370854854584
-3.3959274291992188 6.360007286071777 0.8852589726448059 59.0 11 -0.045216068625450134
-2.887277126312256 5.409662246704102 -0.7529088854789734 1.0 4 -0.045213762670755386
-3.392153739929199 6.35560941696167 1.1410330533981323 65.0 12 -0.04521146044135094
-3.0094823837280273 5.640997886657715 -0.5593655109405518 6.0 5 -0.04520915448665619
-3.387608289718628 6.352429389953613 1.3993932008743286 95.0 13 -0.04520685225725174
-2.5770556926727295 4.8345160484313965 -0.28711506724357605 1.0 6 -0.04520454630255699
-3.3750250339508057 6.3341569900512695 1.656989574432373 100.0 14 -0.04520224407315254
-2.4683942794799805 4.632616996765137 -0.0916251391172409 67.0 7 -0.045199938118457794
-3.3737401962280273 6.334410190582275 1.9230256080627441 45.0 15 -0.045197635889053345
-1.5569990873336792 2.933227062225342 -0.8898199200630188 5.0 0 -0.045176900923252106
-2.469552993774414 4.6523847579956055 0.091939277946949 10.0 8 -0.04517459496855736
-1.7591630220413208 3.3154802322387695 -0.8665115237236023 3.0 1 -0.04517229273915291
-3.3558125495910645 6.327339172363281 0.37535351514816284 5.0 9 -0.04516998678445816
-2.0184648036956787 3.8073933124542236 -0.8376515507698059 1.0 2 -0.04516768455505371
-3.3799448013305664 6.378217697143555 0.6315305233001709 82.0 10 -0.04516537860035896
-2.3632402420043945 4.459617614746094 -0.7993801832199097 1.0 3 -0.045163076370954514
-3.3729612827301025 6.367724418640137 0.884771466255188 57.0 11 -0.045160770416259766
-3.364405393600464 6.356935501098633 1.1391559839248657 65.0 12 -0.04515616223216057
-2.9702091217041016 5.6144843101501465 -0.5557050108909607 3.0 5 -0.04515386000275612
-3.366525650024414 6.363627910614014 1.3993932008743286 95.0 13 -0.04515155404806137
-2.5610103607177734 4.8430352210998535 -0.28711506724357605 1.0 6 -0.04514925181865692
-3.3540027141571045 6.345313549041748 1.656989574432373 100.0 14 -0.04514694586396217
-2.451275110244751 4.6394362449646 -0.09159022569656372 58.0 7 -0.045144643634557724
-3.342588186264038 6.329064846038818 1.9178491830825806 43.0 15 -0.045142337679862976
-1.5462371110916138 2.9389142990112305 -0.8898199200630188 5.0 0 -0.04515218734741211
-2.438638687133789 4.637054920196533 0.09145060926675797 69.0 8 -0.04514988511800766
-1.7500473260879517 3.3291096687316895 -0.8683111071586609 3.0 1 -0.04514757916331291
-3.3287038803100586 6.334874629974365 0.3750394880771637 5.0 9 -0.04514527693390846
-1.9990161657333374 3.8043384552001953 -0.8353618383407593 1.0 2 -0.045142970979213715
-3.3444995880126953 6.36763334274292 0.6292644739151001 78.0 10 -0.045140668749809265
-2.346100330352783 4.468658447265625 -0.7993801832199097 1.0 3 -0.04513836279511452
-3.346639633178711 6.377114295959473 0.8842840790748596 57.0 11 -0.04513606056571007
-2.789475679397583 5.317677974700928 -0.7373095750808716 1.0 4 -0.04513375461101532
-3.3408877849578857 6.371557712554932 1.139468789100647 67.0 12 -0.04513145238161087
-2.9764411449432373 5.676505088806152 -0.5607600808143616 6.0 5 -0.04512914642691612
-3.3347737789154053 6.362597465515137 1.396340250968933 100.0 13 -0.04512684419751167
-2.588737964630127 4.941291809082031 -0.2923486828804016 1.0 6 -0.045124538242816925
-3.3278045654296875 6.35469388961792 1.6560897827148438 100.0 14 -0.045122236013412476
-2.4538443088531494 4.687791347503662 -0.09235813468694687 95.0 7 -0.04511993005871773
-3.3110952377319336 6.328160285949707 1.9137080907821655 19.0 15 -0.04511762782931328
-1.5377565622329712 2.947718858718872 -0.8908551931381226 5.0 0 -0.04509689286351204
-2.4205894470214844 4.641992568969727 0.09138079732656479 42.0 8 -0.04509458690881729
-1.7420181035995483 3.342111110687256 -0.8701107501983643 3.0 1 -0.04509228467941284
-3.3047263622283936 6.342911720275879 0.3748301565647125 5.0 9 -0.045089978724718094
-3.3222532272338867 6.379268646240234 0.6292644739151001 81.0 10 -0.045085370540618896
-2.330486297607422 4.476820945739746 -0.7993801832199097 1.0 3 -0.04508306831121445
-3.3133645057678223 6.367624759674072 0.8813591599464417 59.0 11 -0.0450807623565197
-2.8533377647399902 5.485882759094238 -0.7592461109161377 1.0 4 -0.04507846012711525
-3.311337947845459 6.3691582679748535 1.1369657516479492 63.0 12 -0.0450761541724205
-2.9713141918182373 5.715143203735352 -0.5635489821434021 3.0 5 -0.04507385194301605
-3.3016812801361084 6.3532938957214355 1.3917608261108398 95.0 13 -0.045071545988321304
-2.571475028991699 4.950297832489014 -0.2923486828804016 1.0 6 -0.045069243758916855
-3.3029096126556396 6.361082077026367 1.6547400951385498 100.0 14 -0.04506693780422211
-2.4300971031188965 4.682128429412842 -0.09207889437675476 83.0 7 -0.04506463557481766
-3.2872047424316406 6.3362507820129395 1.9126728773117065 22.0 15 -0.04506232962012291
-1.5256832838058472 2.949636697769165 -0.8898199200630188 5.0 0 -0.04504159465432167
-2.428250312805176 4.696597576141357 0.09228832274675369 50.0 8 -0.04503929242491722
-1.7294456958770752 3.346440553665161 -0.8696608543395996 3.0 1 -0.04503698647022247
-3.271566867828369 6.3331146240234375 0.3735741078853607 5.0 9 -0.045034684240818024
-3.29996657371521 6.3908257484436035 0.6292644739151001 81.0 10 -0.045030076056718826
-3.28383731842041 6.36503791809082 0.8794092535972595 57.0 11 -0.04502546787261963
-2.837808847427368 5.502867221832275 -0.7602210640907288 1.0 4 -0.04502316191792488
-3.287273406982422 6.377167701721191 1.1363401412963867 63.0 12 -0.04502085968852043
-3.2794854640960693 6.364779472351074 1.3917608261108398 95.0 13 -0.045016251504421234
-2.508453607559204 4.870464324951172 -0.28711506724357605 1.0 6 -0.045013945549726486
-3.273547410964966 6.358712673187256 1.651140809059143 100.0 14 -0.04501164332032204
-2.411909818649292 4.687026023864746 -0.09200908988714218 55.0 7 -0.04500934109091759
-3.2668356895446777 6.35112190246582 1.9137080907821655 27.0 15 -0.04500703513622284
-1.520666241645813 2.9652585983276367 -0.8929257392883301 5.0 0 -0.0449863001704216
-2.42096209526062 4.722841262817383 0.09263737499713898 64.0 8 -0.04498399421572685
-1.71686589717865 3.350722312927246 -0.8692108988761902 3.0 1 -0.0449816919863224
-3.242154598236084 6.330275058746338 0.37273672223091125 5.0 9 -0.044979386031627655
-3.272188901901245 6.391665458679199 0.6282185912132263 76.0 10 -0.04497477784752846
-3.257981300354004 6.369393825531006 0.8784343004226685 63.0 11 -0.04497016966342926
-3.256903648376465 6.372772216796875 1.1335242986679077 61.0 12 -0.04496556520462036
-3.253674030303955 6.369195938110352 1.390234351158142 92.0 13 -0.044960957020521164
-3.2462267875671387 6.35735559463501 -0.37409743666648865 60.0 6 -0.044958651065826416
-3.247789144515991 6.363157272338867 1.6493412256240845 100.0 14 -0.04495634883642197
-2.3918981552124023 4.688292503356934 -0.09186947345733643 63.0 7 -0.04495404288172722
-3.2393815517425537 6.35215950012207 1.910602331161499 30.0 15 -0.04495174065232277
-1.5068048238754272 2.9636600017547607 -0.8908551931381226 5.0 0 -0.04493100196123123
-2.413522243499756 4.749089241027832 0.09298641979694366 55.0 8 -0.04492869973182678
-1.7086902856826782 3.3636443614959717 -0.8710105419158936 3.0 1 -0.044926393777132034
-3.2182281017303467 6.337993621826172 0.3725273907184601 5.0 9 -0.044924091547727585
-3.242645263671875 6.388835430145264 0.6268240809440613 78.0 10 -0.04491948336362839
-3.2375221252441406 6.3842692375183105 0.8789218068122864 59.0 11 -0.04491487517952919
-3.226604700088501 6.3682427406311035 1.1307084560394287 63.0 12 -0.04491026699542999
-3.2296459674835205 6.377012729644775 1.389471173286438 92.0 13 -0.044905658811330795
-3.2240171432495117 6.368647575378418 -0.37409743666648865 32.0 6 -0.044903356581926346
-3.2211599349975586 6.365760326385498 1.6470917463302612 100.0 14 -0.0449010506272316
-2.358368396759033 4.6627092361450195 -0.09120627492666245 36.0 7 -0.04489874839782715
-3.2084708213806152 6.346189022064209 1.9054259061813354 33.0 15 -0.0448964424431324
-1.4938410520553589 2.963726758956909 -0.8893022537231445 4.0 0 -0.04487570747733116
-2.4068262577056885 4.777130126953125 0.09337037801742554 12.0 8 -0.044873401522636414
-1.6986907720565796 3.3730697631835938 -0.8719103336334229 3.0 1 -0.044871099293231964
-3.193392038345337 6.343835353851318 0.37221336364746094 6.0 9 -0.044868797063827515
-1.1060729026794434 2.197269916534424 -0.4781673550605774 1.0 2 -0.04486649110913277
-3.2095766067504883 6.378758430480957 0.6247323155403137 78.0 10 -0.04486418887972832
-3.213435411453247 6.3919830322265625 0.8784343004226685 59.0 11 -0.04485958069562912
-3.2052409648895264 6.381232738494873 1.1310213804244995 65.0 12 -0.04485497251152992
-3.198558807373047 6.370701313018799 1.3856550455093384 97.0 13 -0.044850364327430725
-3.1971702575683594 6.373482704162598 1.646191954612732 100.0 14 -0.04484575614333153
-3.1819722652435303 6.3487138748168945 1.9028376340866089 35.0 15 -0.04484114795923233
-1.4903953075408936 2.982748031616211 -0.8934433460235596 4.0 0 -0.04482041299343109
-1.6764616966247559 3.35805606842041 -0.8665115237236023 3.0 1 -0.044815804809331894
-3.1694462299346924 6.351369380950928 0.3720040023326874 7.0 9 -0.044813498854637146
-1.104533076286316 2.213414192199707 -0.48083871603012085 54.0 2 -0.0448111966252327
-3.1890709400177 6.39348840713501 0.6250810027122498 78.0 10 -0.04480889067053795
-3.1813650131225586 6.383617401123047 0.8757531642913818 69.0 11 -0.04480428248643875
-3.179422616958618 6.385309219360352 1.1297698020935059 61.0 12 -0.044799674302339554
-3.1745529174804688 6.378311634063721 1.3848917484283447 95.0 13 -0.044795066118240356
-3.173166036605835 6.381114959716797 1.645292043685913 100.0 14 -0.04479045793414116
-3.153773069381714 6.347672939300537 1.899214267730713 40.0 15 -0.04478584975004196
-1.4791162014007568 2.986201286315918 -0.8929257392883301 5.0 0 -0.04476511478424072
-1.667321801185608 3.3691277503967285 -0.867861270904541 3.0 1 -0.044760506600141525
-3.142827033996582 6.353443622589111 0.37148067355155945 8.0 9 -0.044758204370737076
-1.0994107723236084 2.2225353717803955 -0.4819835424423218 90.0 2 -0.04475589841604233
-3.1649692058563232 6.401008605957031 0.6247323155403137 76.0 10 -0.04475359618663788
-1.1019177436828613 2.2295613288879395 -0.3939020335674286 1.0 3 -0.04475129023194313
-3.1555442810058594 6.387565612792969 0.8747782111167908 73.0 11 -0.04474898800253868
-3.153618574142456 6.389283180236816 1.1285183429718018 61.0 12 -0.044744379818439484
-3.1470556259155273 6.378790378570557 1.3826020956039429 90.0 13 -0.044739771634340286
-3.1439809799194336 6.37816858291626 1.641692876815796 100.0 14 -0.04473516345024109
-3.1315977573394775 6.358642578125 1.899214267730713 43.0 15 -0.04473055526614189
-1.4729411602020264 3.000016689300537 -0.8955139517784119 5.0 0 -0.04470982030034065
-1.6607013940811157 3.3854241371154785 -0.8705606460571289 3.0 1 -0.044705212116241455
-3.1155848503112793 6.351278305053711 0.37074795365333557 10.0 9 -0.04470290616154671
-1.087324857711792 2.217545509338379 -0.4800754487514496 85.0 2 -0.04470060393214226
-3.137343168258667 6.4012837409973145 0.6236864924430847 78.0 10 -0.04469829797744751
-1.0906527042388916 2.2262980937957764 -0.3926505744457245 1.0 3 -0.04469599574804306
-3.1271185874938965 6.38606071472168 0.87307208776474 75.0 11 -0.04469368979334831
-1.1270546913146973 2.3016204833984375 -0.31466665863990784 1.0 4 -0.04469138756394386
-3.128073215484619 6.390833854675293 1.1269540786743164 60.0 12 -0.044689081609249115
-3.1247715950012207 6.389736175537109 1.3826020956039429 95.0 13 -0.044684477150440216
-3.115112066268921 6.372801780700684 1.6376436948776245 100.0 14 -0.04467986896634102
-3.109645128250122 6.367257118225098 1.8986966609954834 45.0 15 -0.04467526078224182
-1.4570655822753906 2.9927256107330322 -0.8918904662132263 5.0 0 -0.044654522091150284
-1.6571367979049683 3.406684637069702 -0.8746097683906555 3.0 1 -0.044649913907051086
-3.088388681411743 6.349003314971924 0.3700152337551117 11.0 9 -0.04464761167764664
-1.073097825050354 2.2070138454437256 -0.4770224988460541 75.0 2 -0.04464530572295189
-3.1126132011413574 6.40448522567749 0.6229892373085022 81.0 10 -0.04464300349354744
-1.1126106977462769 2.2903144359588623 -0.4032880961894989 1.0 3 -0.04464069753885269
-3.105058431625366 6.394609451293945 0.8728283047676086 69.0 11 -0.04463839530944824
-1.0621883869171143 2.187488555908203 -0.2985799014568329 1.0 4 -0.04463609308004379
-3.1016860008239746 6.390510082244873 1.1250767707824707 60.0 12 -0.044633787125349045
-3.10014009475708 6.392996788024902 1.3810756206512451 95.0 13 -0.04462917894124985
-1.0845838785171509 2.2375869750976562 -0.13031654059886932 1.0 6 -0.0446268767118454
-3.089710235595703 6.374329566955566 1.6353943347930908 100.0 14 -0.04462457075715065
-1.0619746446609497 2.1919167041778564 -0.04251406341791153 1.0 7 -0.0446222685277462
-3.0817782878875732 6.363623142242432 1.8945554494857788 45.0 15 -0.04461996257305145
-1.4496523141860962 3.002760648727417 -0.8934433460235596 5.0 0 -0.044599227607250214
-1.6424448490142822 3.405139923095703 -0.8728101253509521 3.0 1 -0.044594619423151016
-3.073148250579834 6.3741374015808105 0.37085261940956116 29.0 9 -0.04459231346845627
-1.0649199485778809 2.208792209625244 -0.476640909910202 78.0 2 -0.04459001123905182
-3.0853047370910645 6.402207851409912 0.6217690706253052 85.0 10 -0.04458770900964737
-1.0981520414352417 2.279754161834717 -0.4007851481437683 2.0 3 -0.04458540305495262
-3.0821120738983154 6.401294708251953 0.8723408579826355 73.0 11 -0.04458310082554817
-1.0683192014694214 2.2198026180267334 -0.30247974395751953 1.0 4 -0.044580794870853424
-3.0759363174438477 6.394176959991455 1.1238253116607666 60.0 12 -0.044578492641448975
-1.0917227268218994 2.2694451808929443 -0.22032971680164337 1.0 5 -0.04457618668675423
-3.073817014694214 6.392627239227295 1.3787858486175537 90.0 13 -0.04457388445734978
-1.0702369213104248 2.2267701625823975 -0.12947916984558105 1.0 6 -0.04457157850265503
-3.0674421787261963 6.385075092315674 1.6353943347930908 100.0 14 -0.04456927627325058
-1.040467619895935 2.1667678356170654 -0.04195558279752731 1.0 7 -0.04456697031855583
-3.054532051086426 6.3638916015625 1.8914496898651123 46.0 15 -0.04456466808915138
-1.4358272552490234 3.0008318424224854 -0.8913728594779968 5.0 0 -0.04454393312335014
-1.016356348991394 2.125103712081909 0.041117873042821884 1.0 8 -0.044541627168655396
-1.6330708265304565 3.4161264896392822 -0.8741598725318909 3.0 1 -0.044539324939250946
-3.071547508239746 6.428075313568115 0.37336474657058716 35.0 9 -0.0445370189845562
-1.058050274848938 2.2142672538757324 -0.4770224988460541 71.0 2 -0.04453471675515175
-3.062077760696411 6.411141395568848 0.6215947270393372 90.0 10 -0.044532410800457
-1.0782732963562012 2.2586159706115723 -0.3964049816131592 2.0 3 -0.04453010857105255
-3.0537657737731934 6.399472713470459 0.8706346750259399 73.0 11 -0.0445278026163578
-1.0674004554748535 2.2378523349761963 -0.30442965030670166 1.0 4 -0.044525500386953354
-3.0493452548980713 6.395960330963135 1.1222609281539917 58.0 12 -0.044523194432258606
-2.9049785137176514 6.093153476715088 -0.5905672907829285 1.0 5 -0.044520892202854156
-3.0447282791137695 6.389138698577881 1.3757330179214478 95.0 13 -0.04451858624815941
-1.045278787612915 2.194429636001587 -0.1273857206106186 1.0 6 -0.04451628401875496
-3.040107488632202 6.38518762588501 1.6326948404312134 100.0 14 -0.04451397806406021
-3.059166431427002 6.428099632263184 -0.12426113337278366 1.0 7 -0.04451167583465576
-3.028978109359741 6.367537975311279 1.8893790245056152 46.0 15 -0.044509369879961014
-1.4294815063476562 3.0145535469055176 -0.8939610123634338 6.0 0 -0.044488634914159775
-1.0089315176010132 2.128638982772827 0.041117873042821884 1.0 8 -0.044486332684755325
-1.617798089981079 3.414762258529663 -0.8723602890968323 3.0 1 -0.04448402673006058
-3.0448148250579834 6.429733753204346 0.37284138798713684 42.0 9 -0.04448172450065613
-1.0469529628753662 2.2108497619628906 -0.4754960536956787 57.0 2 -0.04447941854596138
-3.0388288497924805 6.419989109039307 0.6214204430580139 93.0 10 -0.04447711631655693
-1.0813648700714111 2.2855794429779053 -0.4004722833633423 2.0 3 -0.04447481036186218
-3.0263147354125977 6.399326801300049 0.869172215461731 75.0 11 -0.04447250813245773
-1.0426160097122192 2.2056708335876465 -0.29955488443374634 3.0 4 -0.044470202177762985
-3.026158094406128 6.404778480529785 1.1219481229782104 60.0 12 -0.044467899948358536
-1.0758525133132935 2.2770116329193115 -0.22032971680164337 1.0 5 -0.04446559399366379
-3.0215673446655273 6.397953033447266 1.3753513097763062 87.0 13 -0.04446329176425934
-1.0324974060058594 2.187227964401245 -0.1267576962709427 1.0 6 -0.04446098580956459
-3.010317802429199 6.379898548126221 1.6286457777023315 100.0 14 -0.04445868358016014
-1.018491268157959 2.1595098972320557 -0.041676346212625504 1.0 7 -0.04445637762546539
-3.005086898803711 6.374577045440674 1.8883438110351562 46.0 15 -0.044454075396060944
-1.4279884099960327 3.03875732421875 -0.8996549844741821 6.0 0 -0.044433340430259705
-1.0014954805374146 2.1321475505828857 0.041117873042821884 1.0 8 -0.04443103447556496
-1.6149793863296509 3.4397921562194824 -0.8773091435432434 3.0 1 -0.04442873224616051
-3.0172595977783203 6.429474830627441 0.37221336364746094 39.0 9 -0.04442642629146576
-1.0358926057815552 2.2073822021484375 -0.47396957874298096 44.0 2 -0.04442412406206131
-3.013017416000366 6.423341751098633 0.6207231879234314 95.0 10 -0.04442181810736656
-1.0649948120117188 2.2714545726776123 -0.39734360575675964 2.0 3 -0.04441951587796211
-3.0031144618988037 6.408055305480957 0.8689284920692444 78.0 11 -0.044417209923267365
-1.065225601196289 2.2740116119384766 -0.3083294630050659 1.0 4 -0.044414907693862915
-2.999596118927002 6.406357288360596 1.1203837394714355 61.0 12 -0.04441260173916817
-1.067898154258728 2.2807528972625732 -0.22032971680164337 1.0 5 -0.04441029950976372
-2.996717691421509 6.403127670288086 1.3742064237594604 90.0 13 -0.04440799355506897
-2.861304998397827 6.1165618896484375 -0.35389575362205505 1.0 6 -0.04440569132566452
-2.9855542182922363 6.38507080078125 1.627295970916748 100.0 14 -0.04440338909626007
-1.0244934558868408 2.19203782081604 -0.04223482310771942 1.0 7 -0.04440108314156532
-2.9811830520629883 6.381526470184326 1.8873085975646973 47.0 15 -0.04439878091216087
-1.4092165231704712 3.0262107849121094 -0.8944786190986633 5.0 0 -0.044378042221069336
-0.9940462112426758 2.1356306076049805 0.041117873042821884 1.0 8 -0.044375739991664886
-1.6013190746307373 3.4418745040893555 -0.8764093518257141 3.0 1 -0.04437343403697014
-1.0215587615966797 2.1967430114746094 -0.47091662883758545 22.0 2 -0.04436882585287094
-2.985536575317383 6.422980308532715 0.6196773052215576 93.0 10 -0.04436652362346649
-1.0620527267456055 2.28590726852417 -0.3992207944393158 2.0 3 -0.044364217668771744
-2.9782211780548096 6.413097381591797 0.8681973218917847 75.0 11 -0.044361915439367294
-1.07901132106781 2.324530839920044 -0.31466665863990784 1.0 4 -0.044359609484672546
-2.9713938236236572 6.4042463302612305 1.1181936264038086 60.0 12 -0.0443573072552681
-1.0327074527740479 2.2268126010894775 -0.21475175023078918 1.0 5 -0.04435500502586365
-2.9735236167907715 6.411767482757568 1.3738248348236084 85.0 13 -0.0443526990711689
-2.8281757831573486 6.101145267486572 -0.3524303436279297 1.0 6 -0.04435039684176445
-2.9624271392822266 6.393686771392822 1.626846194267273 100.0 14 -0.0443480908870697
-2.8925201892852783 6.24566650390625 -0.120142363011837 1.0 7 -0.04434578865766525
-2.9507720470428467 6.374363422393799 1.8821321725845337 47.0 15 -0.044343482702970505
-1.3989253044128418 3.033109664916992 -0.8949962854385376 5.0 0 -0.044322747737169266
-0.9865859150886536 2.139087438583374 0.041117873042821884 1.0 8 -0.04432044178247452
-1.5876623392105103 3.443904399871826 -0.8755095601081848 3.0 1 -0.04431813955307007
-1.011858344078064 2.1969058513641357 -0.47015342116355896 13.0 2 -0.04431353136897087
-2.9553112983703613 6.419400215148926 0.6182828545570374 91.0 10 -0.04431122913956642
-1.0412814617156982 2.262866735458374 -0.39452776312828064 1.0 3 -0.044308923184871674
-2.9524991512298584 6.416240215301514 0.8672223091125488 73.0 11 -0.044306620955467224
-1.0708911418914795 2.3282828330993652 -0.31466665863990784 1.0 4 -0.044304315000772476
-2.9465465545654297 6.409194469451904 1.1172550916671753 61.0 12 -0.04430201277136803
-2.810234308242798 6.115506172180176 -0.5888242125511169 1.0 5 -0.04429970681667328
-2.9459047317504883 6.413703918457031 1.3719167709350586 92.0 13 -0.04429740458726883
-2.817462682723999 6.136880874633789 -0.35389575362205505 1.0 6 -0.04429509863257408
-2.938161849975586 6.402729511260986 1.6263962984085083 100.0 14 -0.04429279640316963
-0.979141354560852 2.133707284927368 -0.04097824916243553 1.0 7 -0.044290490448474884
-2.9252800941467285 6.377601623535156 1.8800616264343262 47.0 15 -0.044288188219070435
-1.3899357318878174 3.0414884090423584 -0.8960315585136414 5.0 0 -0.0442674495279789
-0.97873854637146 2.1426892280578613 0.041117873042821884 1.0 8 -0.04426514729857445
-1.5709830522537231 3.440836191177368 -0.8732600808143616 3.0 1 -0.04426284506917
-0.9960319399833679 2.1825640201568604 -0.4663371741771698 2.0 2 -0.0442582368850708
-2.9337103366851807 6.431490898132324 0.6184571385383606 81.0 10 -0.04425593093037605
-1.0341951847076416 2.2682855129241943 -0.39484065771102905 2.0 3 -0.0442536287009716
-2.9231984615325928 6.414374351501465 0.8655161261558533 69.0 11 -0.044251322746276855
-1.0623496770858765 2.3321924209594727 -0.31466665863990784 1.0 4 -0.044249020516872406
-2.924154758453369 6.419441223144531 1.1172550916671753 65.0 12 -0.04424671456217766
-1.0270432233810425 2.2557272911071777 -0.21684348583221436 1.0 5 -0.04424441233277321
-2.91536808013916 6.406077861785889 1.368100643157959 97.0 13 -0.04424210637807846
-2.791060447692871 6.13577127456665 -0.35326775908470154 1.0 6 -0.04423980414867401
-2.9133729934692383 6.407625198364258 1.6250464916229248 100.0 14 -0.04423749819397926
-2.857123613357544 6.28391170501709 -0.12049141526222229 1.0 7 -0.044235195964574814
-2.9014029502868652 6.384255409240723 1.8790262937545776 47.0 15 -0.044232890009880066
-1.3753255605697632 3.037522554397583 -0.8934433460235596 4.0 0 -0.04421215504407883
