# .PCD v0.7 - Point Cloud Data file format
VERSION 0.7
FIELDS x y z intensity ring time
SIZE 4 4 4 4 4 4
TYPE F F F F F F
COUNT 1 1 1 1 1 1
WIDTH 546
HEIGHT 1
VIEWPOINT 0 0 0 1 0 0 0
POINTS 546
DATA ascii
-3.062727689743042 1.4223201274871826 0.9048314094543457 74.0 15 -0.0343686118721962
-2.8315887451171875 1.3191884756088257 -0.8370208144187927 1.0 0 -0.03434787690639496
-1.8541743755340576 0.8642212748527527 0.03570762276649475 2.0 8 -0.03434557095170021
-3.127866506576538 1.4585481882095337 -0.7967766523361206 19.0 1 -0.03434326872229576
-1.9620230197906494 0.9153232574462891 0.1134643703699112 55.0 9 -0.03434096276760101
-2.003343105316162 0.9345999360084534 -0.42970186471939087 4.0 2 -0.034338660538196564
-2.0383241176605225 0.9513518214225769 0.1967976689338684 46.0 10 -0.034336354583501816
-2.020754337310791 0.9435816407203674 -0.3532290756702423 12.0 3 -0.034334052354097366
-1.9783704280853271 0.9242112636566162 0.26811257004737854 6.0 11 -0.03433175012469292
-1.9800076484680176 0.9253965020179749 -0.2683563232421875 1.0 4 -0.03432944416999817
-1.9683667421340942 0.9203749895095825 0.34415584802627563 2.0 12 -0.03432714194059372
-1.9653054475784302 0.9193616509437561 -0.18982520699501038 9.0 5 -0.03432483598589897
-2.061047077178955 0.9641491770744324 0.44229528307914734 1.0 13 -0.03432253375649452
-1.9391957521438599 0.9075601696968079 -0.1122082993388176 12.0 6 -0.034320227801799774
-3.077920436859131 1.4411479234695435 0.7846293449401855 74.0 14 -0.034317925572395325
-1.9249463081359863 0.9017104506492615 -0.037103816866874695 12.0 7 -0.03431561961770058
-3.068239688873291 1.4379220008850098 0.907937228679657 76.0 15 -0.03431331738829613
-2.8442158699035645 1.337780237197876 -0.8421972393989563 7.0 0 -0.03429257869720459
-1.85476553440094 0.8723911046981812 0.03577743470668793 2.0 8 -0.03429027646780014
-3.103360414505005 1.460330605506897 -0.7918277978897095 30.0 1 -0.03428797423839569
-1.9570088386535645 0.9213151931762695 0.11335969716310501 58.0 9 -0.03428566828370094
-1.9768146276474 0.9310613870620728 -0.42474085092544556 4.0 2 -0.034283366054296494
-2.036625385284424 0.9596659541130066 0.19697196781635284 48.0 10 -0.034281060099601746
-2.0083487033843994 0.9467695951461792 -0.3516647219657898 11.0 3 -0.034278757870197296
-1.9859060049057007 0.9361898303031921 0.26957499980926514 4.0 11 -0.03427645191550255
-1.9947195053100586 0.94077068567276 -0.27079370617866516 1.0 4 -0.0342741496860981
-1.9562093019485474 0.9230255484580994 0.3425915241241455 1.0 12 -0.03427184373140335
-1.965687870979309 0.9279168248176575 -0.19017383456230164 9.0 5 -0.0342695415019989
-2.011343240737915 0.9498986601829529 0.43237319588661194 1.0 13 -0.03426723554730415
-1.9322447776794434 0.9129551649093628 -0.11199896037578583 13.0 6 -0.034264933317899704
-3.079665184020996 1.4557499885559082 0.7864289283752441 75.0 14 -0.034262627363204956
-1.9181715250015259 0.9067147970199585 -0.03703400865197182 9.0 7 -0.03426032513380051
-3.0736804008483887 1.4535781145095825 0.911043107509613 76.0 15 -0.03425801917910576
-2.832547903060913 1.3443870544433594 -0.840126633644104 6.0 0 -0.03423728421330452
-1.856974720954895 0.8817560076713562 0.035882145166397095 1.0 8 -0.03423498198390007
-3.0821452140808105 1.4641687870025635 -0.7877786159515381 30.0 1 -0.03423267602920532
-1.960834264755249 0.9319115281105042 0.11377837508916855 66.0 9 -0.03423037379980087
-1.977098822593689 0.9396414756774902 -0.42550405859947205 4.0 2 -0.034228067845106125
-2.0260660648345947 0.9633467793464661 0.19627472758293152 48.0 10 -0.034225765615701675
-2.02286958694458 0.962260365486145 -0.35479339957237244 10.0 3 -0.03422345966100693
-1.9824612140655518 0.9434627890586853 0.26957499980926514 5.0 11 -0.03422115743160248
-2.009181261062622 0.9566085338592529 -0.2732310891151428 1.0 4 -0.03421885147690773
-1.9617302417755127 0.9344367384910583 0.34415584802627563 1.0 12 -0.03421654924750328
-1.9568777084350586 0.9325443506240845 -0.18965089321136475 9.0 5 -0.03421424329280853
-2.0080151557922363 0.9569138288497925 0.43237319588661194 1.0 13 -0.03421194106340408
-1.9398635625839233 0.9248511791229248 -0.11262699216604233 10.0 6 -0.034209635108709335
-3.0868771076202393 1.4723646640777588 0.7895782589912415 71.0 14 -0.034207332879304886
-1.9148352146148682 0.9137396812438965 -0.03703400865197182 10.0 7 -0.03420502692461014
-3.0648458003997803 1.4631688594818115 0.9100078344345093 78.0 15 -0.03420272469520569
-2.827601671218872 1.3547592163085938 -0.840126633644104 6.0 0 -0.03418198972940445
-1.8466719388961792 0.8847765922546387 0.03574252873659134 1.0 8 -0.0341796837747097
-3.0594422817230225 1.4664959907531738 -0.7832795977592468 31.0 1 -0.03417738154530525
-1.964773178100586 0.9422045946121216 0.11419706791639328 66.0 9 -0.034175075590610504
-1.9842625856399536 0.9519766569137573 -0.42779380083084106 4.0 2 -0.034172773361206055
-2.015336751937866 0.9673181772232056 0.1955774873495102 49.0 10 -0.03417046740651131
-2.0122063159942627 0.9662471413612366 -0.35354191064834595 10.0 3 -0.03416816517710686
-1.9898927211761475 0.9555323719978333 0.2710374593734741 5.0 11 -0.03416585922241211
-1.995093822479248 0.958458423614502 -0.2717686593532562 1.0 4 -0.03416355699300766
-1.9584563970565796 0.9412788152694702 0.34415584802627563 2.0 12 -0.03416125103831291
-1.9536107778549194 0.9393690228462219 -0.18965089321136475 9.0 5 -0.03415894880890846
-2.008033037185669 0.965969443321228 0.4331364631652832 1.0 13 -0.034156642854213715
-1.9364604949951172 0.9319554567337036 -0.11262699216604233 9.0 6 -0.034154340624809265
-3.0902390480041504 1.4878957271575928 0.7918277978897095 74.0 14 -0.03415203467011452
-1.9116339683532715 0.9204181432723999 -0.03703400865197182 9.0 7 -0.03414973244071007
-3.0632002353668213 1.4755356311798096 0.911043107509613 74.0 15 -0.03414742648601532
-2.823331594467163 1.363635778427124 -0.840126633644104 7.0 0 -0.03411269187927246
-1.836525797843933 0.8874155879020691 0.035602912306785583 1.0 8 -0.03411038964986801
-3.0317542552948 1.4656068086624146 -0.7774308919906616 32.0 1 -0.034108083695173264
-1.968829870223999 0.9521932005882263 0.11461575329303741 68.0 9 -0.034105781465768814
-1.9883314371109009 0.961624801158905 -0.42932024598121643 4.0 2 -0.034103475511074066
-2.0158751010894775 0.9753799438476562 0.19592611491680145 51.0 10 -0.03410117328166962
-2.0002706050872803 0.968261182308197 -0.3519775867462158 9.0 3 -0.03409886732697487
-1.9759935140609741 0.9569346308708191 0.26957499980926514 5.0 11 -0.03409656509757042
-1.9919044971466064 0.9650691747665405 -0.2717686593532562 1.0 4 -0.03409425914287567
-1.9517689943313599 0.946044921875 0.3435301184654236 2.0 12 -0.03409195691347122
-1.9540703296661377 0.9475809931755066 -0.1899995058774948 10.0 5 -0.034089650958776474
-2.019120693206787 0.9791255593299866 0.4361893832683563 1.0 13 -0.034087348729372025
-1.9299291372299194 0.9362903833389282 -0.11241763830184937 10.0 6 -0.03408504277467728
-3.0943150520324707 1.5018513202667236 0.7940772771835327 72.0 14 -0.03408274054527283
-1.9211629629135132 0.932866632938385 -0.03727834299206734 9.0 7 -0.03408043459057808
-3.0652413368225098 1.4890613555908203 0.9131135940551758 80.0 15 -0.03407813236117363
-2.825260639190674 1.3773609399795532 -0.8421972393989563 7.0 0 -0.03405739739537239
-1.8190370798110962 0.8868104815483093 0.035323671996593475 1.0 8 -0.03405509144067764
-3.000347375869751 1.4633667469024658 -0.7706823348999023 30.0 1 -0.03405278921127319
-1.958314299583435 0.9555565714836121 0.11419706791639328 68.0 9 -0.034050483256578445
-1.9971435070037842 0.9749347567558289 -0.4319916069507599 4.0 2 -0.034048181027173996
-2.0194475650787354 0.9862592816352844 0.19662334024906158 51.0 10 -0.03404587507247925
-2.0109074115753174 0.9825232028961182 -0.3544805347919464 9.0 3 -0.0340435728430748
-1.965506672859192 0.9603404998779297 0.2686000466346741 6.0 11 -0.03404126688838005
-1.9813898801803589 0.9685294032096863 -0.27079370617866516 1.0 4 -0.0340389646589756
-1.9662007093429565 0.9615298509597778 0.3466588258743286 2.0 12 -0.03403665870428085
-1.9489611387252808 0.9535207152366638 -0.18982520699501038 12.0 5 -0.034034356474876404
-2.043731927871704 1.0003294944763184 0.44229528307914734 1.0 13 -0.034032050520181656
-1.9211031198501587 0.9407231211662292 -0.11210363358259201 10.0 6 -0.034029748290777206
-3.08178973197937 1.5097525119781494 0.7922776341438293 72.0 14 -0.03402744233608246
-1.9107118844985962 0.9360476136207581 -0.037138719111680984 9.0 7 -0.03402514010667801
-3.073902130126953 1.5065544843673706 0.9172547459602356 76.0 15 -0.03402283415198326
-2.8221688270568848 1.3880672454833984 -0.8427148461341858 7.0 0 -0.03400209918618202
-1.844482421875 0.9075976610183716 0.035882145166397095 1.0 8 -0.03399979695677757
-2.984473466873169 1.4691897630691528 -0.7679829597473145 31.0 1 -0.033997491002082825
-1.9513829946517944 0.9606223702430725 0.11398772895336151 68.0 9 -0.033995188772678375
-1.9778767824172974 0.974093496799469 -0.42855700850486755 5.0 2 -0.03399288281798363
-2.019566774368286 0.9950636625289917 0.19697196781635284 48.0 10 -0.03399058058857918
-2.0180962085723877 0.9947769045829773 -0.35635775327682495 9.0 3 -0.03398827463388443
-1.979777216911316 0.9763182997703552 0.2710374593734741 6.0 11 -0.03398597240447998
-1.9956289529800415 0.9845680594444275 -0.2732310891151428 1.0 4 -0.03398366644978523
-1.9398025274276733 0.9570253491401672 0.3425915241241455 3.0 12 -0.03398136422038078
-1.9563405513763428 0.9656091332435608 -0.19087107479572296 13.0 5 -0.033979058265686035
-1.9909381866455078 0.98311847448349 0.43160995841026306 1.0 13 -0.033976756036281586
-1.917807936668396 0.9474228620529175 -0.11210363358259201 10.0 6 -0.03397445008158684
-3.0869832038879395 1.525681495666504 0.794977068901062 72.0 14 -0.03397214785218239
-1.9056402444839478 0.9418256282806396 -0.037103816866874695 9.0 7 -0.03396984562277794
-3.0720877647399902 1.5189878940582275 0.9182900190353394 84.0 15 -0.03396753966808319
-2.810384511947632 1.3944754600524902 -0.8406442999839783 9.0 0 -0.03394680470228195
-1.8808714151382446 0.9332634806632996 0.03665005415678024 1.0 8 -0.033944498747587204
-2.965620756149292 1.4721468687057495 -0.7643837332725525 31.0 1 -0.033942196518182755
-1.9605399370193481 0.9736462235450745 0.1147204264998436 70.0 9 -0.03393989056348801
-1.9779808521270752 0.9827387928962708 -0.42932024598121643 6.0 2 -0.03393758833408356
-2.0107288360595703 0.9994468688964844 0.19644904136657715 47.0 10 -0.03393528237938881
-2.0147864818573 1.0014636516571045 -0.35635775327682495 9.0 3 -0.03393298014998436
-1.9907481670379639 0.9899492263793945 0.27298733592033386 4.0 11 -0.03393067419528961
-1.9523662328720093 0.9717124104499817 0.3454073667526245 3.0 12 -0.03392606973648071
-1.9565247297286987 0.9742087721824646 -0.19121968746185303 13.0 5 -0.033923763781785965
-1.9806374311447144 0.9862151741981506 0.4300835132598877 1.0 13 -0.033921461552381516
-1.9253817796707153 0.9591205716133118 -0.11273165792226791 10.0 6 -0.03391915559768677
-3.092371702194214 1.5411252975463867 0.7976765036582947 71.0 14 -0.03391685336828232
-1.8969719409942627 0.9457955360412598 -0.03699910268187523 10.0 7 -0.03391454741358757
-3.0736823081970215 1.5331506729125977 0.9203605651855469 80.0 15 -0.03391224518418312
-2.8005614280700684 1.4011942148208618 -0.8390913605690002 9.0 0 -0.03389150649309158
-1.8489910364151 0.9255021214485168 0.036091577261686325 1.0 8 -0.033889204263687134
-2.9465246200561523 1.4755085706710815 -0.7607845067977905 31.0 1 -0.033886898308992386
-1.9589145183563232 0.9813789129257202 0.11482509225606918 66.0 9 -0.033884596079587936
-1.9922643899917603 0.9980865120887756 -0.4331364631652832 6.0 2 -0.03388229012489319
-2.0091845989227295 1.0070019960403442 0.19662334024906158 44.0 10 -0.03387998789548874
-2.0042154788970947 1.0049484968185425 -0.35510629415512085 9.0 3 -0.03387768566608429
-1.9890551567077637 0.9977819323539734 0.2732310891151428 3.0 11 -0.03387537971138954
-2.024364948272705 1.0159368515014648 -0.27810585498809814 1.0 4 -0.03387307748198509
-1.9524933099746704 0.9802937507629395 0.34603309631347656 4.0 12 -0.033870771527290344
-1.9370886087417603 0.9729833602905273 -0.18965089321136475 10.0 5 -0.033868469297885895
-1.973673939704895 0.9913598895072937 0.42932024598121643 1.0 13 -0.03386616334319115
-1.932729721069336 0.9712163805961609 -0.11335969716310501 10.0 6 -0.0338638611137867
-3.097419261932373 1.557162880897522 0.8003758788108826 67.0 14 -0.03386155515909195
-1.9115238189697266 0.9613960385322571 -0.037348151206970215 11.0 7 -0.0338592529296875
-3.0683116912841797 1.5438705682754517 0.9203605651855469 78.0 15 -0.03385694697499275
-2.8023054599761963 1.4149317741394043 -0.8411619663238525 9.0 0 -0.03383621200919151
-1.8243286609649658 0.9211345911026001 0.03567272052168846 1.0 8 -0.033833906054496765
-2.920483112335205 1.4752413034439087 -0.75538569688797 30.0 1 -0.033831603825092316
-1.966172456741333 0.9936159253120422 0.11545313149690628 68.0 9 -0.033829301595687866
-1.9850887060165405 1.0036096572875977 -0.43237319588661194 6.0 2 -0.03382699564099312
-2.007258176803589 1.015258550643921 0.1967976689338684 38.0 10 -0.03382469341158867
-2.009331226348877 1.0167474746704102 -0.35667064785957336 10.0 3 -0.03382238745689392
-1.9837887287139893 1.003822684288025 0.27298733592033386 5.0 11 -0.03382008522748947
-1.9543460607528687 0.9897812604904175 0.34697169065475464 1.0 12 -0.033815477043390274
-1.9407895803451538 0.9833411574363708 -0.19034813344478607 9.0 5 -0.033813171088695526
-1.9787830114364624 1.0030254125595093 0.4312283396720886 4.0 13 -0.03381086885929108
-1.920250654220581 0.973777174949646 -0.1128363311290741 11.0 6 -0.03380856290459633
-3.1055946350097656 1.575557827949524 0.8039751052856445 67.0 14 -0.03380626067519188
-1.9099396467208862 0.9689674973487854 -0.0373830571770668 11.0 7 -0.03380395472049713
-3.073239803314209 1.5598175525665283 0.9234663844108582 78.0 15 -0.03380165249109268
-2.8007919788360596 1.426458477973938 -0.8421972393989563 9.0 0 -0.03378091752529144
-1.8316304683685303 0.9332624673843384 0.035882145166397095 1.0 8 -0.033778611570596695
-2.9029030799865723 1.4797403812408447 -0.7522363662719727 32.0 1 -0.033776309341192245
-1.9555747509002686 0.9968445301055908 0.11503444612026215 66.0 9 -0.0337740033864975
-1.9623349905014038 1.000722050666809 -0.4281754195690155 4.0 2 -0.03377170115709305
-2.017900228500366 1.0295027494430542 0.19819216430187225 29.0 10 -0.0337693952023983
-2.012807607650757 1.0273473262786865 -0.35792210698127747 12.0 3 -0.03376709297299385
-1.987168312072754 1.014697551727295 0.2739623188972473 4.0 11 -0.0337647870182991
-1.9579156637191772 1.0001918077468872 0.34822314977645874 4.0 12 -0.033760178834199905
-1.944441795349121 0.993736743927002 -0.1910453885793686 9.0 5 -0.033757876604795456
-1.9875061511993408 1.0161828994750977 0.4338997006416321 3.0 13 -0.03375557065010071
-1.916839838027954 0.9804742336273193 -0.1128363311290741 10.0 6 -0.03375326842069626
-3.101810932159424 1.587276577949524 0.804425060749054 70.0 14 -0.03375096246600151
-1.9207868576049805 0.9829161167144775 -0.037662290036678314 11.0 7 -0.03374866023659706
-3.084972381591797 1.5793393850326538 0.928642749786377 80.0 15 -0.03374635428190231
-2.802668809890747 1.4397581815719604 -0.844267725944519 9.0 0 -0.033725619316101074
-1.8569849729537964 0.9539511799812317 0.03644062578678131 1.0 8 -0.033723317086696625
-2.8841140270233154 1.4822325706481934 -0.7486371397972107 32.0 1 -0.03372101113200188
-1.9520831108093262 1.0036647319793701 0.11503444612026215 66.0 9 -0.03371870890259743
-1.944862723350525 1.0003821849822998 -0.42512246966362 2.0 2 -0.03371640294790268
-2.02492356300354 1.0420100688934326 0.19923801720142365 13.0 10 -0.03371410071849823
-2.009389638900757 1.034016489982605 -0.35792210698127747 10.0 3 -0.03371179476380348
-2.01379656791687 1.0367281436920166 0.27810585498809814 2.0 11 -0.03370949253439903
-1.9509005546569824 1.0052106380462646 0.3475974202156067 5.0 12 -0.033704884350299835
-1.9515869617462158 1.0059947967529297 -0.19209124147891998 9.0 5 -0.03370257839560509
-2.015536308288574 1.0389591455459595 0.4407688081264496 1.0 13 -0.03370027616620064
-1.918903112411499 0.9895716309547424 -0.11315035074949265 10.0 6 -0.03369797021150589
-3.098261833190918 1.598447322845459 0.8048748970031738 67.0 14 -0.03369566798210144
-1.9120134115219116 0.9868630170822144 -0.03755757957696915 11.0 7 -0.03369336575269699
-3.093172550201416 1.5971890687942505 0.932783842086792 76.0 15 -0.03369105979800224
-2.791017770767212 1.4454898834228516 -0.8421972393989563 10.0 0 -0.033670324832201004
-1.8252354860305786 0.9457083344459534 0.035882145166397095 1.0 8 -0.033668018877506256
-2.868541955947876 1.486910343170166 -0.7459377646446228 33.0 1 -0.03366571664810181
-1.9593831300735474 1.0156474113464355 0.11566247045993805 66.0 9 -0.03366341069340706
-1.922363519668579 0.9968839287757874 -0.42092466354370117 2.0 2 -0.03366110846400261
-2.0126142501831055 1.0441317558288574 0.1983664631843567 3.0 10 -0.03365880250930786
-2.0110280513763428 1.043753743171692 -0.35886070132255554 9.0 3 -0.03365650027990341
-2.057732582092285 1.068450689315796 0.2846868336200714 1.0 11 -0.033654194325208664
-1.9650861024856567 1.0207805633544922 0.35072609782218933 5.0 12 -0.03364958614110947
-1.9305610656738281 1.0032734870910645 -0.19034813344478607 10.0 5 -0.03364728391170502
-3.100586175918579 1.6120002269744873 0.6792800426483154 68.0 13 -0.03364498168230057
-1.9136652946472168 0.9953423142433167 -0.11304567754268646 11.0 6 -0.03364267572760582
-3.1013073921203613 1.6137495040893555 0.8071244359016418 70.0 14 -0.03364037349820137
-1.901634693145752 0.9895059466362 -0.03741795942187309 10.0 7 -0.03363806754350662
-3.0878591537475586 1.6074377298355103 0.932783842086792 80.0 15 -0.03363576531410217
-2.7756805419921875 1.4498577117919922 -0.8390913605690002 10.0 0 -0.033615026623010635
-1.8752630949020386 0.979530930519104 0.03692929446697235 1.0 8 -0.033612724393606186
-2.856686592102051 1.4928044080734253 -0.7441381216049194 33.0 1 -0.03361041843891144
-1.9593658447265625 1.0243314504623413 0.11587180942296982 66.0 9 -0.03360811620950699
-1.9293098449707031 1.0090478658676147 -0.4232143759727478 1.0 2 -0.03360581025481224
-1.9824774265289307 1.0372951030731201 0.19575178623199463 6.0 10 -0.03360350802540779
-2.0075559616088867 1.0504169464111328 -0.35886070132255554 9.0 3 -0.03360120207071304
-3.1393048763275146 1.6432819366455078 0.435073584318161 42.0 11 -0.033598899841308594
-1.9772589206695557 1.0358836650848389 0.35354191064834595 3.0 12 -0.033594291657209396
-1.9341061115264893 1.0137062072753906 -0.1910453885793686 10.0 5 -0.03359198942780495
-3.093484878540039 1.621361255645752 0.6788984537124634 64.0 13 -0.0335896834731102
-1.9209672212600708 1.007247805595398 -0.11367370933294296 11.0 6 -0.03358738124370575
-3.1080191135406494 1.6303620338439941 0.8102737665176392 67.0 14 -0.033585075289011
-1.910563588142395 1.0026429891586304 -0.037662290036678314 10.0 7 -0.03358277305960655
-3.0822293758392334 1.6182066202163696 0.932783842086792 80.0 15 -0.033580467104911804
-2.777695417404175 1.4626535177230835 -0.8411619663238525 9.0 0 -0.033559732139110565
-1.847063660621643 0.9730221629142761 0.03644062578678131 1.0 8 -0.03355742618441582
-2.835942506790161 1.494590163230896 -0.7400889992713928 38.0 1 -0.03355512395501137
-1.9593122005462646 1.0330272912979126 0.11608116328716278 66.0 9 -0.03355281800031662
-1.912060260772705 1.008114218711853 -0.4201614260673523 1.0 2 -0.03355051577091217
-1.9878379106521606 1.048511266708374 0.19662334024906158 6.0 10 -0.03354821354150772
-2.000382900238037 1.0555744171142578 -0.3582349717617035 7.0 3 -0.03354590758681297
-3.1388158798217773 1.6570112705230713 0.4358048141002655 66.0 11 -0.033543605357408524
-2.0068159103393555 1.0603128671646118 0.3594864308834076 1.0 12 -0.033538997173309326
-1.932495355606079 1.0210450887680054 -0.19121968746185303 12.0 5 -0.03353669121861458
-3.098220109939575 1.6376551389694214 0.68118816614151 71.0 13 -0.03353438898921013
-1.91390860080719 1.0120793581008911 -0.1134643703699112 10.0 6 -0.03353208303451538
-3.1126441955566406 1.6466686725616455 0.812973141670227 72.0 14 -0.03352978080511093
-1.908819317817688 1.0102415084838867 -0.0376971997320652 10.0 7 -0.033527474850416183
-3.0833916664123535 1.6325711011886597 0.9348544478416443 78.0 15 -0.033525172621011734
-2.765747547149658 1.4687169790267944 -0.8390913605690002 10.0 0 -0.033504437655210495
-1.8295283317565918 0.9719583988189697 0.0361613854765892 1.0 8 -0.03350213170051575
-2.799734115600586 1.4880173206329346 -0.7319908142089844 36.0 1 -0.0334998294711113
-1.9521667957305908 1.0379853248596191 0.11587180942296982 64.0 9 -0.03349752351641655
-1.960532784461975 1.0424336194992065 -0.43160995841026306 1.0 2 -0.0334952212870121
-3.1398370265960693 1.6701836585998535 0.31114599108695984 31.0 10 -0.03349291533231735
-2.0176119804382324 1.0736865997314453 -0.36198940873146057 7.0 3 -0.0334906131029129
-3.134765148162842 1.6688897609710693 0.4360485374927521 67.0 11 -0.033488307148218155
-3.1136128902435303 1.6590238809585571 0.558784008026123 77.0 12 -0.03348369896411896
-1.9412280321121216 1.0343430042266846 -0.19243988394737244 11.0 5 -0.03348139673471451
-3.1011476516723633 1.6530768871307373 0.6830962300300598 70.0 13 -0.03347909078001976
-1.9103641510009766 1.018754005432129 -0.1134643703699112 11.0 6 -0.03347678855061531
-3.098280191421509 1.6529382467269897 0.8107236623764038 64.0 14 -0.03347448259592056
-1.9088099002838135 1.018781065940857 -0.03776700794696808 10.0 7 -0.03347218036651611
-3.0913071632385254 1.6506036520004272 0.9389955401420593 78.0 15 -0.033469874411821365
-2.770822048187256 1.4838345050811768 -0.8421972393989563 11.0 0 -0.033449139446020126
-1.8719537258148193 1.0028915405273438 0.03706891089677811 1.0 8 -0.03344683721661568
-2.787652015686035 1.494099497795105 -0.730191171169281 25.0 1 -0.03344453126192093
-1.9450113773345947 1.0429059267044067 0.11566247045993805 64.0 9 -0.03344222903251648
-1.974184274673462 1.0585483312606812 -0.43542614579200745 1.0 2 -0.03343992307782173
-3.149789333343506 1.6896098852157593 0.3127147853374481 35.0 10 -0.03343762084841728
-2.0173325538635254 1.082590937614441 -0.3626151382923126 7.0 3 -0.033435314893722534
-3.1394145488739014 1.6854559183120728 0.43751096725463867 68.0 11 -0.033433012664318085
-3.1078028678894043 1.6698824167251587 0.558784008026123 76.0 12 -0.03342840448021889
-1.9481360912322998 1.0467710494995117 -0.19348573684692383 10.0 5 -0.03342609852552414
-3.1126508712768555 1.6731873750686646 0.6869124174118042 68.0 13 -0.03342379629611969
-1.9120731353759766 1.0282540321350098 -0.11377837508916855 11.0 6 -0.03342149034142494
-3.1062207221984863 1.671128749847412 0.8143228888511658 70.0 14 -0.03341918811202049
-1.9052420854568481 1.0254379510879517 -0.03776700794696808 10.0 7 -0.033416882157325745
-3.0991344451904297 1.6687114238739014 0.9431366920471191 76.0 15 -0.033414579927921295
-2.762226104736328 1.491661548614502 -0.8411619663238525 11.0 0 -0.033393844962120056
-1.843810796737671 0.9961126446723938 0.036580245941877365 1.0 8 -0.03339153900742531
-2.768704891204834 1.4964088201522827 -0.7265920042991638 10.0 1 -0.03338923677802086
-1.9519003629684448 1.0553885698318481 0.11629050970077515 68.0 9 -0.03338693082332611
-1.9497536420822144 1.0542278289794922 -0.4308467507362366 1.0 2 -0.03338462859392166
-3.149129867553711 1.7034375667572021 0.313237726688385 32.0 10 -0.03338232263922691
-2.027440071105957 1.0971474647521973 -0.3651180863380432 7.0 3 -0.033380020409822464
-3.147477388381958 1.7039650678634644 0.4394609034061432 68.0 11 -0.033377714455127716
-3.101954936981201 1.680720567703247 0.558784008026123 62.0 12 -0.03337310627102852
-1.9444702863693237 1.0535650253295898 -0.19348573684692383 9.0 5 -0.03337080404162407
-3.117147445678711 1.689656138420105 0.6892021298408508 67.0 13 -0.03336849808692932
-1.911983847618103 1.036826491355896 -0.11398772895336151 11.0 6 -0.03336619585752487
-3.1055073738098145 1.6847491264343262 0.8156725764274597 67.0 14 -0.03336389362812042
-1.8963782787322998 1.029220700263977 -0.037662290036678314 8.0 7 -0.033361587673425674
-3.0898947715759277 1.6776756048202515 0.9421013593673706 78.0 15 -0.033359285444021225
-2.7468230724334717 1.4957505464553833 -0.8380560874938965 11.0 0 -0.03333854675292969
-1.8649065494537354 1.0159357786178589 0.03706891089677811 1.0 8 -0.03333624452352524
-2.756619930267334 1.5023339986801147 -0.7247923612594604 9.0 1 -0.03333393856883049
-1.9552189111709595 1.0660194158554077 0.11670918762683868 64.0 9 -0.03333163633942604
-1.96674644947052 1.072304368019104 -0.43542614579200745 1.0 2 -0.03332933038473129
-3.146662712097168 1.716328740119934 0.31358635425567627 31.0 10 -0.03332702815532684
-2.014927864074707 1.0994869470596313 -0.3635537326335907 6.0 3 -0.033324722200632095
-3.148480176925659 1.718745231628418 0.44043582677841187 66.0 11 -0.033322419971227646
-3.104736804962158 1.6962738037109375 0.5603483319282532 65.0 12 -0.03331781178712845
-1.9337868690490723 1.0565249919891357 -0.1927884966135025 8.0 5 -0.033315509557724
-3.1129534244537354 1.701467514038086 0.6895837187767029 64.0 13 -0.03331320360302925
-1.9188672304153442 1.049243450164795 -0.11461575329303741 12.0 6 -0.0333109013736248
-3.116704225540161 1.704931616783142 0.820171594619751 72.0 14 -0.033308595418930054
-1.8945282697677612 1.0367939472198486 -0.0376971997320652 8.0 7 -0.033306293189525604
-3.0907979011535645 1.6921621561050415 0.9441719055175781 74.0 15 -0.033303987234830856
-2.748358726501465 1.5090489387512207 -0.840126633644104 12.0 0 -0.03328325226902962
-1.8893918991088867 1.0378434658050537 0.037627387791872025 1.0 8 -0.03328094631433487
-2.7223258018493652 1.4959920644760132 -0.7171440124511719 24.0 1 -0.03327864408493042
-1.958486795425415 1.0766867399215698 0.11712788045406342 63.0 9 -0.03327633813023567
-1.9629913568496704 1.0791630744934082 -0.43542614579200745 1.0 2 -0.03327403590083122
-3.149381160736084 1.7321031093597412 0.3144579231739044 30.0 10 -0.03327173367142677
-2.0093472003936768 1.1055608987808228 -0.3632408678531647 5.0 3 -0.033269427716732025
-3.142460823059082 1.729725956916809 0.44043582677841187 66.0 11 -0.033267125487327576
-3.109178066253662 1.7128193378448486 0.5622255206108093 63.0 12 -0.03326251730322838
-1.935322880744934 1.066152572631836 -0.1933114379644394 9.0 5 -0.03326021134853363
-3.101836681365967 1.7094814777374268 0.688438892364502 66.0 13 -0.03325790911912918
-1.9064477682113647 1.0511136054992676 -0.1140923947095871 12.0 6 -0.03325560316443443
-3.0987894535064697 1.7092115879058838 0.8170222640037537 64.0 14 -0.033253300935029984
-1.8926485776901245 1.0443670749664307 -0.03773210570216179 8.0 7 -0.033250994980335236
-3.088254690170288 1.704807996749878 0.9452071785926819 76.0 15 -0.033248692750930786
-2.7396936416625977 1.516762614250183 -0.8390913605690002 12.0 0 -0.03322795405983925
-1.8857579231262207 1.0444319248199463 0.037627387791872025 1.0 8 -0.0332256518304348
-2.696632146835327 1.4941519498825073 -0.7117451429367065 32.0 1 -0.03322334960103035
-1.9477287530899048 1.079643964767456 0.11670918762683868 59.0 9 -0.0332210436463356
-1.959212064743042 1.0860092639923096 -0.43542614579200745 1.0 2 -0.03321874141693115
-3.1502857208251953 1.7469500303268433 0.31515514850616455 30.0 10 -0.033216435462236404
-2.0262041091918945 1.1240675449371338 -0.36699530482292175 5.0 3 -0.033214133232831955
-3.145082473754883 1.745501160621643 0.4416545331478119 63.0 11 -0.03321182727813721
-3.1169955730438232 1.7313354015350342 0.5647284984588623 63.0 12 -0.03320721909403801
-1.9490067958831787 1.082576036453247 -0.1950545459985733 9.0 5 -0.03320491686463356
-3.104430913925171 1.7250664234161377 0.6903470158576965 66.0 13 -0.03320261090993881
-1.9114954471588135 1.062613606452942 -0.11461575329303741 15.0 6 -0.03320030868053436
-3.113240957260132 1.731384515762329 0.8224210739135742 70.0 14 -0.033198002725839615
-1.9012235403060913 1.0577728748321533 -0.03797643631696701 8.0 7 -0.033195700496435165
-3.097477436065674 1.7240327596664429 0.9498659372329712 69.0 15 -0.03319339454174042
-2.7411303520202637 1.5300825834274292 -0.8411619663238525 10.0 0 -0.03317265957593918
-1.8821005821228027 1.0510082244873047 0.037627387791872025 1.0 8 -0.03317035734653473
-2.686296224594116 1.500705361366272 -0.7103955149650574 30.0 1 -0.03316805139183998
-1.94394850730896 1.0864357948303223 0.11670918762683868 59.0 9 -0.03316574916243553
-1.9554094076156616 1.0928411483764648 -0.43542614579200745 1.0 2 -0.033163443207740784
-3.1511247158050537 1.7618253231048584 0.31585240364074707 28.0 10 -0.033161140978336334
-2.041231870651245 1.141741394996643 -0.3704368472099304 6.0 3 -0.033158835023641586
-3.152829170227051 1.7642230987548828 0.443604439496994 64.0 11 -0.03315653279423714
-3.1109325885772705 1.74220609664917 0.5647284984588623 65.0 12 -0.03315192461013794
-1.9521691799163818 1.0932674407958984 -0.19575178623199463 8.0 5 -0.03314961865544319
-3.1120927333831787 1.7435684204101562 0.6933999061584473 61.0 13 -0.03314731642603874
-1.918228268623352 1.0751386880874634 -0.11524379253387451 11.0 6 -0.033145010471343994
-3.1122775077819824 1.7451006174087524 0.8237708210945129 67.0 14 -0.033142708241939545
-1.8887995481491089 1.0595109462738037 -0.03780191391706467 8.0 7 -0.0331404022872448
-3.1049180030822754 1.7423977851867676 0.9540070295333862 69.0 15 -0.03313810005784035
-2.712202787399292 1.5263770818710327 -0.8339149951934814 10.0 0 -0.03311736509203911
-1.8784204721450806 1.0575716495513916 0.037627387791872025 1.0 8 -0.03311505913734436
-2.669156074523926 1.50337815284729 -0.7072461247444153 2.0 1 -0.03311275690793991
-1.9505845308303833 1.099097728729248 0.11733722686767578 59.0 9 -0.03311045095324516
-1.9515827894210815 1.0996601581573486 -0.43542614579200745 1.0 2 -0.033108148723840714
-3.151898145675659 1.776727557182312 0.3165496587753296 27.0 10 -0.033105842769145966
-2.061323404312134 1.1624438762664795 -0.37481701374053955 6.0 3 -0.033103540539741516
-3.158754348754883 1.7820457220077515 0.4453106224536896 60.0 11 -0.03310123458504677
-3.106552839279175 1.7540253400802612 0.5650413632392883 62.0 12 -0.03309662640094757
-1.953546166419983 1.1030133962631226 -0.19627472758293152 8.0 5 -0.03309432417154312
-3.1196627616882324 1.7621456384658813 0.6964528560638428 63.0 13 -0.03309201821684837
-1.9196799993515015 1.0847764015197754 -0.11555780470371246 10.0 6 -0.033089715987443924
-3.114649534225464 1.7607481479644775 0.8260203003883362 72.0 14 -0.033087410032749176
-1.886830449104309 1.067082166671753 -0.037836819887161255 7.0 7 -0.03308510780334473
-3.0988166332244873 1.7532262802124023 0.9540070295333862 70.0 15 -0.03308280557394028
-2.6698930263519287 1.5148615837097168 -0.8225269913673401 21.0 0 -0.03306206688284874
-1.8747172355651855 1.0641220808029175 0.037627387791872025 1.0 8 -0.03305976465344429
-2.1927967071533203 1.2451754808425903 -0.5821733474731445 1.0 1 -0.03305745869874954
-1.9536824226379395 1.1098458766937256 0.11775590479373932 55.0 9 -0.03305515646934509
-3.149141311645508 1.789687991142273 0.31689828634262085 26.0 10 -0.033050548285245895
-2.038363218307495 1.1588926315307617 -0.3713754713535309 3.0 3 -0.03304824233055115
-3.159416437149048 1.796986699104309 0.44628557562828064 60.0 11 -0.0330459401011467
-3.114145040512085 1.7726764678955078 0.5675443410873413 62.0 12 -0.0330413319170475
-1.947952389717102 1.1088402271270752 -0.1961004137992859 6.0 5 -0.03303902596235275
-3.1169049739837646 1.7749677896499634 0.6972161531448364 61.0 13 -0.0330367237329483
-1.9176170825958252 1.0924588441848755 -0.11566247045993805 10.0 6 -0.033034421503543854
-3.1152565479278564 1.775469422340393 0.8278198838233948 72.0 14 -0.033032115548849106
-1.8987284898757935 1.0825765132904053 -0.03815096244215965 8.0 7 -0.033029813319444656
-3.094355821609497 1.7649897336959839 0.9545246958732605 74.0 15 -0.03302750736474991
-2.6494970321655273 1.5155385732650757 -0.817868173122406 32.0 0 -0.03300677239894867
-2.1698334217071533 1.242172360420227 -0.5772244930267334 4.0 1 -0.03300216421484947
-1.9517247676849365 1.117310881614685 0.1178605854511261 52.0 9 -0.032999858260154724
-1.9438585042953491 1.1132575273513794 -0.43542614579200745 1.0 2 -0.032997556030750275
-3.153247356414795 1.806612491607666 0.31794413924217224 26.0 10 -0.03299525007605553
-1.9760355949401855 1.1326022148132324 -0.3607378900051117 2.0 3 -0.03299294784665108
-3.1617350578308105 1.812941551208496 0.4475042521953583 67.0 11 -0.03299064561724663
-3.1236705780029297 1.7918397188186646 0.5703601241111755 65.0 12 -0.03298603743314743
-1.956166386604309 1.122574806213379 -0.1973206102848053 7.0 5 -0.03298373147845268
-3.114095449447632 1.7877919673919678 0.6979793310165405 64.0 13 -0.03298142924904823
-1.9137920141220093 1.0991460084915161 -0.11566247045993805 10.0 6 -0.032979123294353485
-3.1296300888061523 1.7974368333816528 0.8332187533378601 72.0 14 -0.032976821064949036
-1.9055315256118774 1.094843864440918 -0.038360390812158585 6.0 7 -0.03297451511025429
-3.0985352993011475 1.781017780303955 0.9576305150985718 74.0 15 -0.03297221288084984
-2.6344146728515625 1.5185281038284302 -0.8147624135017395 34.0 0 -0.0329514741897583
-2.152198314666748 1.2415708303451538 -0.5736252665519714 3.0 1 -0.0329468697309494
-1.9480088949203491 1.1237770318984985 0.1178605854511261 48.0 9 -0.032944563776254654
-1.9401559829711914 1.1196975708007812 -0.43542614579200745 1.0 2 -0.032942261546850204
-3.1610426902770996 1.8250287771224976 0.3193386495113373 26.0 10 -0.03293995559215546
-1.9825321435928345 1.1450767517089844 -0.3626151382923126 2.0 3 -0.03293765336275101
-3.1505496501922607 1.8204361200332642 0.44677305221557617 57.0 11 -0.03293534740805626
-1.9886449575424194 1.1490696668624878 -0.2820056974887848 1.0 4 -0.03293304517865181
-3.1296825408935547 1.8091086149215698 0.5725501775741577 67.0 12 -0.03293073922395706
-1.9679558277130127 1.13803231716156 -0.19888940453529358 7.0 5 -0.03292843699455261
-3.111548900604248 1.800074577331543 0.6987425684928894 64.0 13 -0.032926131039857864
-1.9118653535842896 1.1064867973327637 -0.11576715111732483 9.0 6 -0.032923828810453415
-3.1219656467437744 1.8068289756774902 0.8327688574790955 73.0 14 -0.03292152285575867
-1.9088125228881836 1.105164885520935 -0.03850000724196434 6.0 7 -0.03291922062635422
-3.105985403060913 1.7990292310714722 0.9617716073989868 78.0 15 -0.03291691467165947
-2.6226823329925537 1.5233745574951172 -0.8126918077468872 38.0 0 -0.03289617970585823
-2.4833364486694336 1.4435961246490479 -0.663155734539032 3.0 1 -0.03289157152175903
-1.9459980726242065 1.1312344074249268 0.11796525865793228 44.0 9 -0.032889269292354584
-3.1653060913085938 1.841512680053711 0.32038450241088867 24.0 10 -0.032884661108255386
-1.9736021757125854 1.148663878440857 -0.36167651414871216 2.0 3 -0.03288235515356064
-3.151357650756836 1.834869146347046 0.44774800539016724 66.0 11 -0.03288005292415619
-1.9710994958877563 1.1476671695709229 -0.2800557613372803 3.0 4 -0.03287774696946144
-3.1168384552001953 1.8155001401901245 0.5712987184524536 62.0 12 -0.03287544474005699
-1.9658925533294678 1.1455551385879517 -0.1990637183189392 3.0 5 -0.032873138785362244
-3.119131088256836 1.8182928562164307 0.7017955183982849 63.0 13 -0.032870836555957794
-1.9150866270065308 1.1168453693389893 -0.11618582904338837 9.0 6 -0.032868530601263046
-3.121006965637207 1.8201172351837158 0.8341185450553894 72.0 14 -0.0328662283718586
-1.896500825881958 1.106450080871582 -0.038325484842061996 5.0 7 -0.03286392241716385
-3.1100142002105713 1.8151606321334839 0.9648774266242981 82.0 15 -0.0328616201877594
-2.6009433269500732 1.5223050117492676 -0.8075154423713684 38.0 0 -0.03284088522195816
-2.58951473236084 1.516830325126648 -0.6928492784500122 36.0 1 -0.03283627703785896
-1.9646400213241577 1.1508046388626099 0.11932599544525146 34.0 9 -0.032833971083164215
-3.15918231010437 1.8519983291625977 0.32038450241088867 22.0 10 -0.03282936289906502
-1.9817099571228027 1.1621977090835571 -0.3638666272163391 1.0 3 -0.03282706066966057
-3.1640892028808594 1.8563592433929443 0.45042911171913147 66.0 11 -0.03282475471496582
-1.9844045639038086 1.1642427444458008 -0.28249314427375793 1.0 4 -0.03282245248556137
-3.119319438934326 1.830824851989746 0.5728631019592285 65.0 12 -0.03282014653086662
-1.9981634616851807 1.1732532978057861 -0.20272426307201385 1.0 5 -0.03281784430146217
-3.130012273788452 1.83856999874115 0.7056117057800293 63.0 13 -0.032815538346767426
-1.930314064025879 1.1343207359313965 -0.11733722686767578 10.0 6 -0.032813236117362976
-3.125035047531128 1.836380958557129 0.8368179798126221 72.0 14 -0.03281093016266823
-1.9100602865219116 1.1228673458099365 -0.03867453336715698 4.0 7 -0.03280862793326378
-3.103977918624878 1.8254640102386475 0.9648774266242981 80.0 15 -0.03280632197856903
-2.5853641033172607 1.5259360074996948 -0.8044096231460571 36.0 0 -0.03280925750732422
-2.585616111755371 1.5273017883300781 -0.6932992339134216 41.0 1 -0.03280464932322502
-1.975682020187378 1.1674847602844238 0.12026803940534592 22.0 9 -0.03280234709382057
-3.1609487533569336 1.8686347007751465 0.32125604152679443 24.0 10 -0.032797738909721375
-1.9842383861541748 1.1734747886657715 -0.3651180863380432 1.0 3 -0.03279543295502663
-3.1623892784118652 1.8709770441055298 0.45116034150123596 64.0 11 -0.03279313072562218
-1.9799195528030396 1.1718536615371704 -0.28249314427375793 1.0 4 -0.03279082477092743
-3.1292641162872314 1.8528530597686768 0.5759917497634888 63.0 12 -0.03278852254152298
-3.1266303062438965 1.8520317077636719 0.7063749432563782 66.0 13 -0.03278391435742378
-1.9347351789474487 1.146478533744812 -0.1178605854511261 8.0 6 -0.032781608402729034
-3.129695415496826 1.855322003364563 0.8399673104286194 69.0 14 -0.032779306173324585
-1.9040144681930542 1.1291730403900146 -0.038639627397060394 3.0 7 -0.03277700021862984
-3.096945285797119 1.8373695611953735 0.9648774266242981 80.0 15 -0.03277469798922539
-2.5634195804595947 1.5250740051269531 -0.7992331981658936 16.0 0 -0.03275396302342415
-2.558501720428467 1.5233575105667114 -0.6874504685401917 14.0 1 -0.03274935483932495
-2.000765562057495 1.191748857498169 0.12204745411872864 20.0 9 -0.0327470488846302
-3.157829761505127 1.8816967010498047 0.3216046690940857 17.0 10 -0.032742440700531006
-1.9597688913345337 1.168256402015686 -0.3613636791706085 1.0 3 -0.032740138471126556
-3.150724172592163 1.878953456878662 0.45042911171913147 58.0 11 -0.03273783251643181
-2.030369281768799 1.2113033533096313 -0.29029279947280884 1.0 4 -0.03273553028702736
-3.1329543590545654 1.8698400259017944 0.5778689980506897 65.0 12 -0.03273322433233261
-3.1235177516937256 1.8649471998214722 0.707138180732727 61.0 13 -0.032728616148233414
-1.925577163696289 1.150152564048767 -0.11754656583070755 5.0 6 -0.032726313918828964
-3.1332364082336426 1.8722339868545532 0.842666745185852 69.0 14 -0.032724007964134216
-1.8983449935913086 1.1347864866256714 -0.038604725152254105 2.0 7 -0.03272170573472977
-3.1037771701812744 1.8561002016067505 0.9690185785293579 80.0 15 -0.03271939978003502
-2.5514533519744873 1.5300387144088745 -0.7971627116203308 12.0 0 -0.03269866481423378
-2.559852123260498 1.5362904071807861 -0.6892500519752502 13.0 1 -0.03269405663013458
-2.0154292583465576 1.2100344896316528 0.12319885194301605 16.0 9 -0.03269175440073013
-3.175154209136963 1.907070279121399 0.3240450322628021 17.0 10 -0.032687146216630936
-1.9421331882476807 1.166951060295105 -0.35886070132255554 1.0 3 -0.03268484026193619
-3.150952100753784 1.8940309286117554 0.4514040946960449 60.0 11 -0.03268253803253174
-3.1365644931793213 1.8868744373321533 0.5797461867332458 65.0 12 -0.03267792984843254
-3.123718023300171 1.8798877000808716 0.7086646556854248 61.0 13 -0.032673321664333344
-1.942083716392517 1.1692291498184204 -0.11880263686180115 1.0 6 -0.032671015709638596
-3.1250126361846924 1.882154107093811 0.8422167897224426 67.0 14 -0.032668713480234146
-1.952608346939087 1.1764941215515137 -0.03979148715734482 2.0 7 -0.0326664112508297
-3.1105151176452637 1.8749022483825684 0.973159670829773 82.0 15 -0.03266410529613495
-2.6452953815460205 1.5988942384719849 -0.8282209634780884 10.0 0 -0.03264337033033371
-2.714545249938965 1.6420447826385498 -0.7324406504631042 51.0 1 -0.03263876214623451
-2.4554667472839355 1.4859120845794678 0.15041354298591614 9.0 9 -0.032636456191539764
-3.182112455368042 1.9263975620269775 0.32543954253196716 19.0 10 -0.03263184800744057
-3.1528103351593018 1.9101614952087402 0.45262277126312256 63.0 11 -0.03262723982334137
-3.1384048461914062 1.9029316902160645 0.581310510635376 67.0 12 -0.03262263536453247
-2.708848476409912 1.6424757242202759 -0.2771552503108978 4.0 5 -0.03262032940983772
-3.133922576904297 1.9009621143341064 0.7124808430671692 57.0 13 -0.03261802718043327
-3.126753091812134 1.898106575012207 0.8444663286209106 66.0 14 -0.032613418996334076
-1.9450711011886597 1.1812268495559692 -0.03972167521715164 2.0 7 -0.03261111304163933
-3.1138572692871094 1.891766905784607 0.9762654304504395 82.0 15 -0.03260881081223488
-2.6891930103302 1.6382701396942139 -0.8437501192092896 7.0 0 -0.03258807212114334
-2.7370829582214355 1.6687558889389038 -0.7400889992713928 54.0 1 -0.032583463937044144
-3.1715335845947266 1.934391975402832 0.1946897804737091 1.0 9 -0.032581161707639694
-3.173668146133423 1.9364548921585083 0.32526522874832153 11.0 10 -0.0325765535235405
-2.7027933597564697 1.6497918367385864 -0.5015289187431335 1.0 3 -0.03257425129413605
-3.1317431926727295 1.9138753414154053 0.581310510635376 62.0 12 -0.0325673371553421
-2.6928982734680176 1.6456878185272217 -0.27610939741134644 51.0 5 -0.03256503492593765
-3.137317657470703 1.9180350303649902 0.7147705554962158 63.0 13 -0.032562728971242905
-3.131744623184204 1.9161288738250732 0.8476155996322632 63.0 14 -0.03255812078714371
-1.9238799810409546 1.1775702238082886 -0.039372626692056656 1.0 7 -0.03255581855773926
-3.1072354316711426 1.9026240110397339 0.9762654304504395 80.0 15 -0.03255351260304451
-2.678518772125244 1.644614577293396 -0.8421972393989563 7.0 0 -0.03253277763724327
-2.7329018115997314 1.6793196201324463 -0.7405388951301575 55.0 1 -0.032528169453144073
-2.970792055130005 1.8262141942977905 0.182757169008255 1.0 9 -0.032525867223739624
-2.709475517272949 1.6655769348144531 -0.6182212233543396 1.0 2 -0.032523561269044876
-2.6936535835266113 1.6571457386016846 -0.5009031891822815 32.0 3 -0.03251895308494568
-3.005842685699463 1.8499298095703125 0.43336743116378784 1.0 11 -0.03251665085554123
-2.7536511421203613 1.6953824758529663 -0.3970503509044647 7.0 4 -0.03251434490084648
-3.1384990215301514 1.9330832958221436 0.583813488483429 65.0 12 -0.03251204267144203
-2.6820478439331055 1.6519432067871094 -0.27558645606040955 46.0 5 -0.032509736716747284
-3.133946657180786 1.9310338497161865 0.7155337929725647 64.0 13 -0.032507434487342834
-2.684624433517456 1.6548229455947876 -0.16527697443962097 3.0 6 -0.03250512853264809
-3.136647939682007 1.9342091083526611 0.8507649302482605 66.0 14 -0.03250282630324364
-3.1071510314941406 1.9175173044204712 0.9783360362052917 78.0 15 -0.03249821811914444
-2.6744041442871094 1.6549715995788574 -0.8427148461341858 7.0 0 -0.0324774831533432
-2.730336904525757 1.690901279449463 -0.7414387464523315 55.0 1 -0.032472874969244
-2.9762842655181885 1.843936562538147 0.18348988890647888 6.0 9 -0.032470569014549255
-2.7270097732543945 1.6895002126693726 -0.623563826084137 48.0 2 -0.032468266785144806
-2.9568521976470947 1.8326107263565063 0.30434784293174744 6.0 10 -0.03246596083045006
-2.694567918777466 1.6707020998001099 -0.5021546483039856 64.0 3 -0.03246365860104561
-2.9605672359466553 1.8363447189331055 0.427761435508728 4.0 11 -0.03246135264635086
-2.7241017818450928 1.6903313398361206 -0.393638014793396 10.0 4 -0.03245905041694641
-3.1434805393218994 1.951319694519043 0.5860036015510559 62.0 12 -0.03245674446225166
-2.693192958831787 1.6718031167984009 -0.27732956409454346 46.0 5 -0.032454442232847214
-3.1338582038879395 1.9461044073104858 0.7170602083206177 63.0 13 -0.032452136278152466
-2.6890108585357666 1.6705076694488525 -0.16590499877929688 12.0 6 -0.032449834048748016
-3.136497735977173 1.9492607116699219 0.8525645732879639 66.0 14 -0.03244752809405327
-3.1168429851531982 1.938554286956787 0.9835124015808105 80.0 15 -0.03244291990995407
-2.6800856590270996 1.671452522277832 -0.8463383316993713 6.0 0 -0.03242218494415283
-2.7277238368988037 1.7024859189987183 -0.7423385381698608 55.0 1 -0.032417576760053635
-2.979994058609009 1.860661268234253 0.18411791324615479 6.0 9 -0.032415274530649185
-2.732752561569214 1.7062875032424927 -0.6262351274490356 58.0 2 -0.03241296857595444
-2.962265968322754 1.8503097295761108 0.30556803941726685 7.0 10 -0.03241066634654999
-2.695420026779175 1.6842854022979736 -0.5034061670303345 63.0 3 -0.03240836039185524
-2.957505702972412 1.848772406578064 0.42824891209602356 4.0 11 -0.03240605816245079
-2.7131359577178955 1.696671724319458 -0.3929068148136139 20.0 4 -0.03240375220775604
-3.1450233459472656 1.9675190448760986 0.587567925453186 63.0 12 -0.03240144997835159
-2.705920934677124 1.6928176879882812 -0.2792470157146454 50.0 5 -0.032399144023656845
-3.1436879634857178 1.96744704246521 0.7208763957023621 60.0 13 -0.032396841794252396
-2.7441062927246094 1.7180384397506714 -0.16967318952083588 26.0 6 -0.03239453583955765
-3.132977247238159 1.962266206741333 0.8534643650054932 66.0 14 -0.0323922336101532
-2.7027945518493652 1.6934881210327148 -0.05567317456007004 3.0 7 -0.03238993138074875
-3.123152256011963 1.9576306343078613 0.9876535534858704 76.0 15 -0.032387625426054
-2.6775059700012207 1.6828535795211792 -0.8473736047744751 6.0 0 -0.03236689046025276
-2.7349607944488525 1.7202978134155273 -0.7459377646446228 52.0 1 -0.032362282276153564
-2.978879451751709 1.8737232685089111 0.18443192541599274 7.0 9 -0.032359976321458817
-2.7284419536590576 1.7168612480163574 -0.6266167759895325 55.0 2 -0.03235767409205437
-2.9793946743011475 1.8754990100860596 0.3080084025859833 7.0 10 -0.03235536813735962
-2.6861813068389893 1.6915788650512695 -0.5027804374694824 57.0 3 -0.03235306590795517
-2.9711897373199463 1.8717814683914185 0.43117377161979675 4.0 11 -0.03235075995326042
-2.6954405307769775 1.6987237930297852 -0.39120060205459595 24.0 4 -0.03234845772385597
-3.1434948444366455 1.9810972213745117 0.5885065197944641 61.0 12 -0.032346151769161224
-2.7067368030548096 1.70650315284729 -0.2799442410469055 46.0 5 -0.032343849539756775
-3.1500861644744873 1.9867866039276123 0.7239293456077576 59.0 13 -0.032341547310352325
-3.1620655059814453 1.9951149225234985 -0.1959458440542221 67.0 6 -0.03233924135565758
-3.1310524940490723 1.9763109683990479 0.8548140525817871 63.0 14 -0.03233693912625313
-2.6954731941223145 1.7013745307922363 -0.05563827231526375 5.0 7 -0.03233463317155838
-3.1329782009124756 1.978290319442749 0.9928299188613892 76.0 15 -0.03233233094215393
-2.666719436645508 1.6890885829925537 -0.8458206653594971 6.0 0 -0.03231159225106239
-3.192840099334717 2.0223309993743896 0.06597010046243668 10.0 8 -0.032309290021657944
-2.7424097061157227 1.7377021312713623 -0.7495369911193848 52.0 1 -0.032306984066963196
-2.980755567550659 1.889456033706665 0.18495528399944305 7.0 9 -0.032304681837558746
