# .PCD v0.7 - Point Cloud Data file format
VERSION 0.7
FIELDS x y z intensity ring time
SIZE 4 4 4 4 4 4
TYPE F F F F F F
COUNT 1 1 1 1 1 1
WIDTH 548
HEIGHT 1
VIEWPOINT 0 0 0 1 0 0 0
POINTS 548
DATA ascii
-1.98554527759552 0.9216591715812683 -0.42550405859947205 3.0 2 -0.09832995384931564
-2.0365326404571533 0.9457587003707886 0.19644904136657715 46.0 10 -0.0983276441693306
-2.0153961181640625 0.9363711476325989 -0.3519775867462158 11.0 3 -0.09832534193992615
-2.005342960357666 0.932125449180603 0.27152493596076965 6.0 11 -0.0983230397105217
-2.01058030128479 0.9349870681762695 -0.27225613594055176 1.0 4 -0.09832073748111725
-1.9701299667358398 0.9165945649147034 0.34415584802627563 2.0 12 -0.0983184278011322
-1.9654200077056885 0.9144033193588257 -0.18965089321136475 9.0 5 -0.09831612557172775
-2.062894582748413 0.9601902961730957 0.44229528307914734 1.0 13 -0.0983138233423233
-1.9536082744598389 0.9097375869750977 -0.11294099688529968 11.0 6 -0.09831152111291885
-3.084214210510254 1.4368823766708374 0.7855291366577148 75.0 14 -0.0983092188835144
-1.9248613119125366 0.8971680998802185 -0.03706891089677811 18.0 7 -0.09830690920352936
-3.055237293243408 1.4246805906295776 0.9032785296440125 76.0 15 -0.09830460697412491
-2.840012311935425 1.3285458087921143 -0.840126633644104 5.0 0 -0.09828387200832367
-1.8401364088058472 0.8611995577812195 0.03546328842639923 1.0 8 -0.09828156977891922
-3.1167473793029785 1.4593274593353271 -0.7945271730422974 24.0 1 -0.09827926009893417
-1.9660085439682007 0.920945405960083 0.11377837508916855 58.0 9 -0.09827695786952972
-1.9805384874343872 0.9277517199516296 -0.42512246966362 3.0 2 -0.09827465564012527
-2.03141450881958 0.9520168304443359 0.19627472758293152 48.0 10 -0.09827235341072083
-2.012115478515625 0.9434000849723816 -0.3519775867462158 11.0 3 -0.09827004373073578
-1.9876996278762817 0.9323756694793701 0.26957499980926514 5.0 11 -0.09826774150133133
-2.0001158714294434 0.938626229763031 -0.2712811827659607 1.0 4 -0.09826543927192688
-1.9526137113571167 0.9167494177818298 0.34165289998054504 1.0 12 -0.09826313704252243
-1.964020013809204 0.9221046566963196 -0.18982520699501038 9.0 5 -0.09826083481311798
-2.0239903926849365 0.9506918787956238 0.43466290831565857 1.0 13 -0.09825852513313293
-1.9449982643127441 0.9140031933784485 -0.11262699216604233 13.0 6 -0.09825622290372849
-3.0879979133605957 1.4517844915390015 0.7877786159515381 71.0 14 -0.09825392067432404
-1.927146315574646 0.906435489654541 -0.03717362508177757 11.0 7 -0.09825161844491959
-3.067725658416748 1.4435621500015259 0.9084548950195312 78.0 15 -0.09824930876493454
-2.8388516902923584 1.3401000499725342 -0.8411619663238525 6.0 0 -0.0982285737991333
-1.844351887702942 0.8710335493087769 0.035602912306785583 1.0 8 -0.09822627156972885
-3.085204839706421 1.45771062374115 -0.7877786159515381 30.0 1 -0.0982239693403244
-1.9591706991195679 0.9260950088500977 0.11356903612613678 58.0 9 -0.09822166711091995
-1.987937569618225 0.939693033695221 -0.42741215229034424 4.0 2 -0.0982193574309349
-2.0316812992095947 0.9608049988746643 0.19662334024906158 49.0 10 -0.09821705520153046
-2.014166831970215 0.9529524445533752 -0.3529161810874939 10.0 3 -0.09821475297212601
-1.9844326972961426 0.9393088817596436 0.26957499980926514 5.0 11 -0.09821245074272156
-1.9860628843307495 0.9405041933059692 -0.2698187232017517 1.0 4 -0.09821014106273651
-1.9743940830230713 0.9354003071784973 0.34603309631347656 1.0 12 -0.09820783883333206
-1.9607892036437988 0.9289548397064209 -0.18982520699501038 9.0 5 -0.09820553660392761
-1.9851781129837036 0.9409342408180237 0.4270305633544922 1.0 13 -0.09820323437452316
-1.9363819360733032 0.9182192087173462 -0.11231297254562378 13.0 6 -0.09820092469453812
-3.084672212600708 1.4633901119232178 0.7882285714149475 75.0 14 -0.09819862246513367
-1.931196689605713 0.916586697101593 -0.03731324523687363 9.0 7 -0.09819632023572922
-3.0661582946777344 1.455918312072754 0.909490168094635 78.0 15 -0.09819401800632477
-2.8341562747955322 1.3500020503997803 -0.8411619663238525 6.0 0 -0.09817328304052353
-1.837689757347107 0.8757457137107849 0.03553309664130211 1.0 8 -0.09817097336053848
-3.0695438385009766 1.4634387493133545 -0.7850792407989502 31.0 1 -0.09816867113113403
-1.9487152099609375 0.9294893741607666 0.11315035074949265 62.0 9 -0.09816636890172958
-1.9775570631027222 0.9432462453842163 -0.42588570713996887 3.0 2 -0.09816406667232513
-2.0283150672912598 0.9678910970687866 0.19662334024906158 51.0 10 -0.09816175699234009
-2.0179591178894043 0.9633811712265015 -0.3541676700115204 10.0 3 -0.09815945476293564
-1.973976731300354 0.9428074359893799 0.2686000466346741 6.0 11 -0.09815715253353119
-1.9791855812072754 0.9457194805145264 -0.26933127641677856 1.0 4 -0.09815485030412674
-1.9532948732376099 0.9337669014930725 0.34290438890457153 2.0 12 -0.0981525406241417
-1.966522216796875 0.9400901794433594 -0.19069677591323853 9.0 5 -0.09815023839473724
-2.0066771507263184 0.9597164392471313 0.43237319588661194 1.0 13 -0.0981479361653328
-1.9277602434158325 0.922386884689331 -0.11199896037578583 10.0 6 -0.09814563393592834
-3.086575746536255 1.4775151014328003 0.7900281548500061 74.0 14 -0.0981433242559433
-1.9207714796066284 0.9198669791221619 -0.03717362508177757 9.0 7 -0.09814102202653885
-3.0749950408935547 1.473290205001831 0.91363126039505 78.0 15 -0.0981387197971344
-2.831167697906494 1.3607237339019775 -0.841679573059082 6.0 0 -0.09811798483133316
-1.8436325788497925 0.8864874243736267 0.03570762276649475 2.0 8 -0.09811568260192871
-3.0521233081817627 1.4682317972183228 -0.7819299101829529 32.0 1 -0.09811337292194366
-1.9598562717437744 0.9432150721549988 0.11398772895336151 66.0 9 -0.09811107069253922
-1.984866976737976 0.955251932144165 -0.4281754195690155 3.0 2 -0.09810876846313477
-2.0177438259124756 0.9715082049369812 0.19592611491680145 49.0 10 -0.09810646623373032
-2.0128040313720703 0.9695624709129333 -0.35385480523109436 9.0 3 -0.09810415655374527
-1.9778269529342651 0.9531394839286804 0.26957499980926514 4.0 11 -0.09810185432434082
-1.9687198400497437 0.9491740465164185 -0.2683563232421875 1.0 4 -0.09809955209493637
-1.946465015411377 0.9388630986213684 0.3422786593437195 2.0 12 -0.09809724986553192
-1.9596394300460815 0.9452177286148071 -0.19034813344478607 9.0 5 -0.09809494018554688
-1.9997786283493042 0.9650087952613831 0.43160995841026306 1.0 13 -0.09809263795614243
-1.9281258583068848 0.9308470487594604 -0.1122082993388176 9.0 6 -0.09809033572673798
-3.0866639614105225 1.4908223152160645 0.7913778424263 72.0 14 -0.09808803349733353
-1.9103471040725708 0.9230862855911255 -0.03703400865197182 9.0 7 -0.09808573126792908
-3.0628764629364014 1.48065185546875 0.9115607142448425 76.0 15 -0.09808342158794403
-2.8196864128112793 1.3667343854904175 -0.8396090269088745 7.0 0 -0.09734129905700684
-1.8424822092056274 0.8934689164161682 0.03574252873659134 1.0 8 -0.09733899682760239
-3.0332119464874268 1.4715394973754883 -0.7783307433128357 32.0 1 -0.09733669459819794
-1.9639047384262085 0.9531974196434021 0.11440641433000565 68.0 9 -0.09733438491821289
-1.9693244695663452 0.9558278918266296 -0.42550405859947205 3.0 2 -0.09733208268880844
-2.0073416233062744 0.9747127294540405 0.19522884488105774 51.0 10 -0.09732978045940399
-2.013131618499756 0.9779577851295471 -0.3544805347919464 9.0 3 -0.09732747822999954
-1.974655270576477 0.9596930146217346 0.26957499980926514 7.0 11 -0.0973251685500145
-1.9762728214263916 0.9609055519104004 -0.2698187232017517 1.0 4 -0.09732286632061005
-1.9486700296401978 0.9479050040245056 0.34321725368499756 2.0 12 -0.0973205640912056
-1.9529110193252563 0.9499679803848267 -0.1899995058774948 10.0 5 -0.09731826186180115
-2.017751455307007 0.98194420337677 0.4361893832683563 1.0 13 -0.0973159521818161
-1.9322115182876587 0.9407331347465515 -0.11262699216604233 10.0 6 -0.09731364995241165
-3.0817031860351562 1.5010499954223633 0.7913778424263 72.0 14 -0.0973113477230072
-1.9126681089401245 0.9320440292358398 -0.037138719111680984 9.0 7 -0.09730904549360275
-3.06142258644104 1.4924938678741455 0.9125959873199463 74.0 15 -0.0973067358136177
-2.8183693885803223 1.378265380859375 -0.8406442999839783 7.0 0 -0.09728600084781647
-1.8357595205307007 0.8981373310089111 0.03567272052168846 1.0 8 -0.09728369861841202
-2.994800329208374 1.4658416509628296 -0.769782543182373 30.0 1 -0.09728139638900757
-1.9713280200958252 0.9653171300888062 0.11503444612026215 64.0 9 -0.09727909415960312
-1.9747921228408813 0.967013418674469 -0.42741215229034424 4.0 2 -0.09727678447961807
-2.0110843181610107 0.9852195978164673 0.19592611491680145 51.0 10 -0.09727448225021362
-2.006157636642456 0.9832408428192139 -0.35385480523109436 9.0 3 -0.09727218002080917
-1.9605989456176758 0.9613363742828369 0.26811257004737854 6.0 11 -0.09726987779140472
-1.9871646165847778 0.9747917652130127 -0.2717686593532562 1.0 4 -0.09726756811141968
-1.9524425268173218 0.9581825137138367 0.34446874260902405 3.0 12 -0.09726526588201523
-1.9531601667404175 0.9585347175598145 -0.19034813344478607 15.0 5 -0.09726296365261078
-2.0213606357574463 0.9924425482749939 0.4377158582210541 1.0 13 -0.09726066142320633
-1.919952630996704 0.9430688619613647 -0.11210363358259201 10.0 6 -0.09725835174322128
-3.0939345359802246 1.520392656326294 0.7958768606185913 71.0 14 -0.09725604951381683
-1.9040195941925049 0.9360681772232056 -0.03703400865197182 9.0 7 -0.09725374728441238
-3.0735292434692383 1.5116974115371704 0.9177724123001099 80.0 15 -0.09725144505500793
-2.8135411739349365 1.3880950212478638 -0.8406442999839783 7.0 0 -0.0972307100892067
-1.8218543529510498 0.8992294669151306 0.03546328842639923 1.0 8 -0.09722840040922165
-2.9721920490264893 1.4676584005355835 -0.7652835249900818 30.0 1 -0.0972260981798172
-1.9572025537490845 0.9668843746185303 0.11440641433000565 66.0 9 -0.09722379595041275
-1.9854862689971924 0.9808568954467773 -0.43046510219573975 5.0 2 -0.0972214937210083
-2.0183496475219727 0.9975301027297974 0.19697196781635284 48.0 10 -0.09721918404102325
-2.002713203430176 0.9902377128601074 -0.35385480523109436 9.0 3 -0.0972168818116188
-1.971466064453125 0.9752151966094971 0.27006247639656067 5.0 11 -0.09721457958221436
-2.0050995349884033 0.9922885894775391 -0.2746935188770294 1.0 4 -0.0972122773528099
-1.9614781141281128 0.9711273908615112 0.3466588258743286 3.0 12 -0.09720996767282486
-1.9569448232650757 0.9688829183578491 -0.1910453885793686 15.0 5 -0.09720766544342041
-1.9686248302459717 0.975092887878418 0.4270305633544922 1.0 13 -0.09720536321401596
-1.9166488647460938 0.9497655034065247 -0.11210363358259201 10.0 6 -0.09720306098461151
-3.088608503341675 1.5311833620071411 0.7958768606185913 71.0 14 -0.09720075875520706
-1.9132808446884155 0.9489279389381409 -0.03727834299206734 9.0 7 -0.09719844907522202
-3.075155735015869 1.5258514881134033 0.9198428988456726 80.0 15 -0.09719614684581757
-2.822514295578003 1.4047939777374268 -0.8447853922843933 9.0 0 -0.09717541188001633
-1.8401848077774048 0.9162798523902893 0.035882145166397095 1.0 8 -0.09717310965061188
-2.956585168838501 1.47281014919281 -0.7625840902328491 31.0 1 -0.09717079997062683
-1.957390546798706 0.9754921197891235 0.11461575329303741 68.0 9 -0.09716849774122238
-1.9802932739257812 0.9869059920310974 -0.4300835132598877 6.0 2 -0.09716619551181793
-2.0166382789611816 1.005458950996399 0.19714628159999847 45.0 10 -0.09716389328241348
-2.0133862495422363 1.0042756795883179 -0.35635775327682495 9.0 3 -0.09716158360242844
-1.9804832935333252 0.9882954359054565 0.2717686593532562 3.0 11 -0.09715928137302399
-2.0016236305236816 0.9992817640304565 -0.2746935188770294 1.0 4 -0.09715697914361954
-1.956309199333191 0.9770851731300354 0.3463459312915802 4.0 12 -0.09715467691421509
-1.9482035636901855 0.9730367660522461 -0.1905224472284317 13.0 5 -0.09715237468481064
-1.9792587757110596 0.9889791011810303 0.4300835132598877 1.0 13 -0.09715006500482559
-1.9240405559539795 0.9618083238601685 -0.11273165792226791 10.0 6 -0.09714776277542114
-3.0884740352630615 1.5445696115493774 0.79722660779953 68.0 14 -0.0971454605460167
-1.890284538269043 0.9457588791847229 -0.03689438849687576 8.0 7 -0.09714315831661224
-3.0836310386657715 1.5434943437576294 0.9239840507507324 80.0 15 -0.0971408486366272
-2.8072350025177 1.4094363451004028 -0.841679573059082 7.0 0 -0.09712011367082596
-1.8512709140777588 0.9298778772354126 0.0361613854765892 1.0 8 -0.09711781144142151
-2.934013605117798 1.4743717908859253 -0.7580850720405579 30.0 1 -0.09711550921201706
-1.9593267440795898 0.98501056432724 0.11492977291345596 70.0 9 -0.09711319953203201
-1.9785900115966797 0.994694709777832 -0.43046510219573975 6.0 2 -0.09711089730262756
-2.0131165981292725 1.0124918222427368 0.19714628159999847 42.0 10 -0.09710859507322311
-2.0063390731811523 1.0095219612121582 -0.3557320237159729 9.0 3 -0.09710629284381866
-1.9858866930007935 0.9996659159660339 0.27298733592033386 5.0 11 -0.09710399061441422
-1.9405378103256226 0.9776864647865295 0.34415584802627563 3.0 12 -0.09709937870502472
-1.9358986616134644 0.9753491282463074 -0.18965089321136475 10.0 5 -0.09709707647562027
-1.9810535907745361 0.9985333681106567 0.4312283396720886 2.0 13 -0.09709477424621582
-1.9278053045272827 0.9721153378486633 -0.11315035074949265 10.0 6 -0.09709246456623077
-3.093502998352051 1.5606075525283813 0.7999260425567627 68.0 14 -0.09709016233682632
-1.906609058380127 0.9622624516487122 -0.03727834299206734 10.0 7 -0.09708786010742188
-3.0747756958007812 1.552506685256958 0.9229487776756287 76.0 15 -0.09708555787801743
-2.7988510131835938 1.4174820184707642 -0.8406442999839783 9.0 0 -0.09706481546163559
-1.8337433338165283 0.9291040301322937 0.035882145166397095 1.0 8 -0.09706251323223114
-2.9184200763702393 1.4793181419372559 -0.75538569688797 30.0 1 -0.09706021100282669
-1.961220622062683 0.9945534467697144 0.11524379253387451 68.0 9 -0.09705790877342224
-1.9698529243469238 0.9989309906959534 -0.42932024598121643 4.0 2 -0.09705560654401779
-2.006016254425049 1.0177099704742432 0.1967976689338684 32.0 10 -0.09705329686403275
-2.006326198577881 1.0183073282241821 -0.35635775327682495 12.0 3 -0.0970509946346283
-2.0000851154327393 1.0155788660049438 0.2754247188568115 5.0 11 -0.09704869240522385
-1.9529619216918945 0.9925093650817871 0.34697169065475464 2.0 12 -0.09704408049583435
-1.9324818849563599 0.9821012616157532 -0.18965089321136475 10.0 5 -0.0970417782664299
-1.9775562286376953 1.0054420232772827 0.4312283396720886 4.0 13 -0.09703947603702545
-1.9297409057617188 0.9815553426742554 -0.1134643703699112 11.0 6 -0.097037173807621
-3.0932464599609375 1.5740485191345215 0.8012757301330566 67.0 14 -0.09703486412763596
-1.9032387733459473 0.9689115285873413 -0.03727834299206734 11.0 7 -0.0970325618982315
-3.0727806091308594 1.5649837255477905 0.9239840507507324 76.0 15 -0.09703025966882706
-2.7973265647888184 1.4290008544921875 -0.841679573059082 9.0 0 -0.09700952470302582
-1.8554178476333618 0.9482396245002747 0.036370813846588135 1.0 8 -0.09700722247362137
-2.897622585296631 1.481512188911438 -0.7513365745544434 32.0 1 -0.09700491279363632
-1.964849591255188 1.0050314664840698 0.11566247045993805 66.0 9 -0.09700261056423187
-1.9523712396621704 0.9986487030982971 -0.4262673258781433 3.0 2 -0.09700030833482742
-2.0166409015655518 1.0319671630859375 0.19819216430187225 24.0 10 -0.09699800610542297
-2.0062758922576904 1.0271049737930298 -0.356983482837677 11.0 3 -0.09699569642543793
-1.9841601848602295 1.016219973564148 0.27371856570243835 3.0 11 -0.09699339419603348
-1.9512436389923096 1.0002210140228271 0.34728455543518066 4.0 12 -0.09698878973722458
-1.9467723369598389 0.9979290962219238 -0.19139400124549866 9.0 5 -0.09698648005723953
-1.9792752265930176 1.0150264501571655 0.43237319588661194 2.0 13 -0.09698417782783508
-1.9227486848831177 0.9864619970321655 -0.11325501650571823 11.0 6 -0.09698187559843063
-3.1016030311584473 1.5919545888900757 0.8048748970031738 66.0 14 -0.09697957336902618
-1.9176338911056519 0.9846835136413574 -0.037627387791872025 10.0 7 -0.09697726368904114
-3.081045627593994 1.5827630758285522 0.9281251430511475 80.0 15 -0.09697496145963669
-2.8026251792907715 1.444065809249878 -0.8447853922843933 9.0 0 -0.09695422649383545
-1.8414320945739746 0.9492127299308777 0.0361613854765892 1.0 8 -0.096951924264431
-2.8751134872436523 1.482685923576355 -0.7468375563621521 33.0 1 -0.09694962203502655
-1.9577794075012207 1.0100525617599487 0.11545313149690628 66.0 9 -0.0969473123550415
-1.93840491771698 1.0000568628311157 -0.4239776134490967 2.0 2 -0.09694501012563705
-2.023649215698242 1.0444825887680054 0.19923801720142365 8.0 10 -0.0969427078962326
-2.0061886310577393 1.0359145402908325 -0.35760921239852905 9.0 3 -0.09694040566682816
-2.0052921772003174 1.0358949899673462 0.27713093161582947 2.0 11 -0.09693809598684311
-1.9617780447006226 1.0142840147018433 0.34978750348091125 6.0 12 -0.09693349152803421
-1.9432770013809204 1.004718542098999 -0.19139400124549866 10.0 5 -0.09693118929862976
-3.096980571746826 1.6018946170806885 0.6777536273002625 49.0 13 -0.09692887961864471
-1.9121981859207153 0.989496111869812 -0.1128363311290741 10.0 6 -0.09692657738924026
-3.0994884967803955 1.6045634746551514 0.8057747483253479 67.0 14 -0.09692427515983582
-1.9106335639953613 0.9895320534706116 -0.03755757957696915 9.0 7 -0.09692197293043137
-3.089224100112915 1.6006181240081787 0.9322662353515625 80.0 15 -0.09691967070102692
-2.797567844390869 1.4538394212722778 -0.8447853922843933 9.0 0 -0.09689892828464508
-1.8700435161590576 0.9722389578819275 0.036789670586586 1.0 8 -0.09689662605524063
-2.8630051612854004 1.4891161918640137 -0.7450379729270935 32.0 1 -0.09689432382583618
-1.9506984949111938 1.0150361061096191 0.11524379253387451 66.0 9 -0.09689202159643173
-1.9383856058120728 1.0086290836334229 -0.42474085092544556 2.0 2 -0.09688971191644669
-2.0040855407714844 1.0432608127593994 0.19766922295093536 8.0 10 -0.09688740968704224
-2.0060646533966064 1.0447361469268799 -0.3582349717617035 10.0 3 -0.09688510745763779
-3.128370523452759 1.6299138069152832 0.4331236779689789 34.0 11 -0.09688280522823334
-1.961728572845459 1.0229524374008179 0.3504132330417633 5.0 12 -0.09687819331884384
-1.9432913064956665 1.0133382081985474 -0.19174262881278992 10.0 5 -0.09687589108943939
-3.1018142700195312 1.618143081665039 0.6800432801246643 66.0 13 -0.09687358886003494
-1.9105029106140137 0.9970889687538147 -0.11294099688529968 11.0 6 -0.0968712866306305
-3.0938684940338135 1.6153730154037476 0.8057747483253479 67.0 14 -0.09686897695064545
-1.9053950309753418 0.9952700734138489 -0.03752267360687256 10.0 7 -0.096866674721241
-3.0904672145843506 1.614970088005066 0.93433678150177 76.0 15 -0.09686437249183655
-2.775365114212036 1.4546278715133667 -0.8396090269088745 10.0 0 -0.09684363752603531
-1.834760308265686 0.9620456695556641 0.0361613854765892 1.0 8 -0.09684132784605026
-2.8439841270446777 1.4918582439422607 -0.7414387464523315 36.0 1 -0.09683902561664581
-1.9542171955108643 1.0255519151687622 0.11566247045993805 66.0 9 -0.09683672338724136
-1.9139918088912964 1.0044420957565308 -0.4201614260673523 1.0 2 -0.09683442115783691
-1.9916112422943115 1.0456193685531616 0.1967976689338684 12.0 10 -0.09683211147785187
-2.0076520442962646 1.0544873476028442 -0.35917356610298157 9.0 3 -0.09682980924844742
-3.1455061435699463 1.6528284549713135 0.43629229068756104 63.0 11 -0.09682750701904297
-1.9633910655975342 1.032551884651184 0.3513518273830414 1.0 12 -0.09682290256023407
-1.9397424459457397 1.0201150178909302 -0.19174262881278992 12.0 5 -0.09682059288024902
-3.110046148300171 1.6362743377685547 0.6830962300300598 70.0 13 -0.09681829065084457
-1.9140803813934326 1.0074728727340698 -0.11335969716310501 11.0 6 -0.09681598842144012
-3.112351417541504 1.63887357711792 0.8120733499526978 72.0 14 -0.09681368619203568
-1.9019094705581665 1.0019147396087646 -0.03752267360687256 10.0 7 -0.09681137651205063
-3.084810972213745 1.6257480382919312 0.93433678150177 80.0 15 -0.09680907428264618
-2.7702701091766357 1.4643075466156006 -0.8396090269088745 10.0 0 -0.09678833931684494
-1.8561397790908813 0.981531023979187 0.03665005415678024 1.0 8 -0.09678603708744049
-2.823256254196167 1.4935749769210815 -0.7373896241188049 36.0 1 -0.09678372740745544
-1.9541559219360352 1.0342358350753784 0.11587180942296982 66.0 9 -0.096781425178051
-1.9347667694091797 1.0239741802215576 -0.42550405859947205 1.0 2 -0.09677912294864655
-1.9879493713378906 1.0525645017623901 0.1967976689338684 1.0 10 -0.0967768207192421
-2.005704641342163 1.0624136924743652 -0.3594864308834076 7.0 3 -0.09677451848983765
-3.144979238510132 1.6665867567062378 0.4370235204696655 67.0 11 -0.0967722088098526
-3.101085901260376 1.6447135210037231 0.555968165397644 70.0 12 -0.0967676043510437
-1.9344093799591064 1.025946855545044 -0.19156832993030548 13.0 5 -0.09676530212163925
-3.1043155193328857 1.647120475769043 0.6830962300300598 67.0 13 -0.0967629924416542
-1.9158447980880737 1.01695716381073 -0.11367370933294296 11.0 6 -0.09676069021224976
-3.1066112518310547 1.649728536605835 0.8120733499526978 72.0 14 -0.0967583879828453
-1.900166392326355 1.0094857215881348 -0.03755757957696915 10.0 7 -0.09675608575344086
-3.0791175365448 1.6365054845809937 0.93433678150177 80.0 15 -0.09675377607345581
-2.771961212158203 1.4776029586791992 -0.841679573059082 10.0 0 -0.09673304110765457
-1.8597601652145386 0.9917680621147156 0.036789670586586 1.0 8 -0.09673073887825012
-2.7939541339874268 1.4905798435211182 -0.7310910224914551 34.0 1 -0.09672843664884567
-1.9611060619354248 1.046692967414856 0.11649984866380692 66.0 9 -0.09672613441944122
-1.9658211469650269 1.049209475517273 -0.4331364631652832 1.0 2 -0.09672382473945618
-3.1301796436309814 1.671359658241272 0.3104487657546997 31.0 10 -0.09672152251005173
-1.9984990358352661 1.0675475597381592 -0.35886070132255554 7.0 3 -0.09671922028064728
-3.139143228530884 1.6775540113449097 0.4370235204696655 68.0 11 -0.09671691805124283
-3.1057772636413574 1.6611181497573853 0.5578453540802002 76.0 12 -0.09671230614185333
-1.9360867738723755 1.03551185131073 -0.19209124147891998 11.0 5 -0.09671000391244888
-3.0985474586486816 1.6579458713531494 0.6830962300300598 68.0 13 -0.09670770168304443
-1.9070005416870117 1.0208107233047485 -0.11335969716310501 11.0 6 -0.09670539200305939
-3.1008336544036865 1.6605626344680786 0.8120733499526978 66.0 14 -0.09670308977365494
-1.9054445028305054 1.02083420753479 -0.03773210570216179 9.0 7 -0.09670078754425049
-3.0904128551483154 1.6563702821731567 0.9395131468772888 78.0 15 -0.09669848531484604
-2.763383388519287 1.485440731048584 -0.8406442999839783 10.0 0 -0.0966777503490448
-1.8562867641448975 0.9982538223266602 0.036789670586586 1.0 8 -0.09667544066905975
-2.7767210006713867 1.4938597679138184 -0.727941632270813 15.0 1 -0.0966731384396553
-1.9468882083892822 1.0478527545928955 0.11587180942296982 68.0 9 -0.09667083621025085
-1.9517742395401 1.0504823923110962 -0.4308467507362366 1.0 2 -0.0966685339808464
-3.1383602619171143 1.689832329750061 0.31184324622154236 31.0 10 -0.09666622430086136
-2.0086734294891357 1.082011103630066 -0.3613636791706085 7.0 3 -0.09666392207145691
-3.136763334274292 1.6903849840164185 0.43751096725463867 70.0 11 -0.09666161984205246
-3.1086535453796387 1.6766372919082642 0.5594097375869751 63.0 12 -0.09665700793266296
-1.939475178718567 1.046046495437622 -0.1927884966135025 9.0 5 -0.09665470570325851
-3.1065635681152344 1.6762099266052246 0.6861491799354553 68.0 13 -0.09665240347385406
-1.9069404602050781 1.0293591022491455 -0.11356903612613678 11.0 6 -0.09665010124444962
-3.1035916805267334 1.6760063171386719 0.8143228888511658 70.0 14 -0.09664779156446457
-1.910666584968567 1.032231330871582 -0.03790662810206413 9.0 7 -0.09664548933506012
-3.0914106369018555 1.670822262763977 0.9415837526321411 78.0 15 -0.09664318710565567
-2.76497483253479 1.4987602233886719 -0.8427148461341858 11.0 0 -0.09662245213985443
-1.8211493492126465 0.9875689148902893 0.0361613854765892 1.0 8 -0.09662014991044998
-2.7612123489379883 1.4979678392410278 -0.7252422571182251 9.0 1 -0.09661784023046494
-1.9467295408248901 1.05654776096344 0.11608116328716278 64.0 9 -0.09661553800106049
-1.9688012599945068 1.0685267448425293 -0.43542614579200745 1.0 2 -0.09661323577165604
-3.153453826904297 1.7121853828430176 0.31393498182296753 32.0 10 -0.09661093354225159
-2.022242784500122 1.098444938659668 -0.36449235677719116 6.0 3 -0.09660862386226654
-3.1378204822540283 1.7051154375076294 0.4384859502315521 66.0 11 -0.09660632163286209
-3.1045172214508057 1.6884220838546753 0.5597225427627563 62.0 12 -0.09660171717405319
-1.9550650119781494 1.0632812976837158 -0.19470593333244324 9.0 5 -0.09659940749406815
-3.107591390609741 1.6907968521118164 0.6876756548881531 68.0 13 -0.0965971052646637
-1.90859854221344 1.0388739109039307 -0.11388305574655533 12.0 6 -0.09659480303525925
-3.1045689582824707 1.6905568838119507 0.8161224722862244 70.0 14 -0.0965925008058548
-1.894759178161621 1.0321985483169556 -0.037662290036678314 8.0 7 -0.09659019857645035
-3.0991296768188477 1.688998818397522 0.9457248449325562 76.0 15 -0.0965878888964653
-2.752946138381958 1.5046958923339844 -0.8406442999839783 12.0 0 -0.09656715393066406
-1.8913811445236206 1.0342140197753906 0.037627387791872025 1.0 8 -0.09656485170125961
-2.7422893047332764 1.5001153945922852 -0.7216430306434631 14.0 1 -0.09656254947185516
-1.9465336799621582 1.0652543306350708 0.11629050970077515 66.0 9 -0.09656023979187012
-1.9650593996047974 1.075392723083496 -0.43542614579200745 1.0 2 -0.09655793756246567
-3.1509530544281006 1.7250961065292358 0.3142836093902588 32.0 10 -0.09655563533306122
-2.0339884757995605 1.1140375137329102 -0.3673081696033478 6.0 3 -0.09655333310365677
-3.1527395248413086 1.7275056838989258 0.4414108097553253 67.0 11 -0.09655102342367172
-3.098604440689087 1.6992486715316772 0.5597225427627563 62.0 12 -0.09654641896486282
-1.939112901687622 1.063393235206604 -0.19348573684692383 9.0 5 -0.09654411673545837
-3.118882417678833 1.7110779285430908 0.6914918422698975 66.0 13 -0.09654181450605392
-1.9137150049209595 1.0503342151641846 -0.11440641433000565 11.0 6 -0.09653950482606888
-3.107189655303955 1.70607328414917 0.8183720111846924 67.0 14 -0.09653720259666443
-1.8911445140838623 1.0388062000274658 -0.037662290036678314 8.0 7 -0.09653490036725998
-3.0966014862060547 1.7016667127609253 0.9467601180076599 74.0 15 -0.09653259813785553
-2.744292974472046 1.5124322175979614 -0.8396090269088745 11.0 0 -0.0965118557214737
-1.8877594470977783 1.0408098697662354 0.037627387791872025 1.0 8 -0.09650955349206924
-2.719972610473633 1.5002660751342773 -0.7171440124511719 30.0 1 -0.0965072512626648
-1.9532957077026367 1.0778322219848633 0.11691854149103165 59.0 9 -0.09650494903326035
-1.9612935781478882 1.0822454690933228 -0.43542614579200745 1.0 2 -0.0965026468038559
-3.1414239406585693 1.7341588735580444 0.31393498182296753 31.0 10 -0.09650033712387085
-2.0197126865386963 1.1154005527496338 -0.3654309809207916 6.0 3 -0.0964980348944664
-3.1553781032562256 1.7432993650436401 0.44262948632240295 64.0 11 -0.09649573266506195
-3.1030259132385254 1.7157905101776123 0.5615997910499573 62.0 12 -0.09649112075567245
-1.9458503723144531 1.0759406089782715 -0.1945316195487976 9.0 5 -0.096488818526268
-3.1077373027801514 1.7191029787063599 0.6903470158576965 66.0 13 -0.09648651629686356
-1.9275121688842773 1.0666786432266235 -0.11545313149690628 15.0 6 -0.0964842140674591
-3.1199686527252197 1.7272924184799194 0.8233208656311035 70.0 14 -0.09648190438747406
-1.8927550315856934 1.0483074188232422 -0.03776700794696808 7.0 7 -0.09647960215806961
-3.0872631072998047 1.7105929851531982 0.9457248449325562 74.0 15 -0.09647729992866516
-2.745751142501831 1.5257556438446045 -0.841679573059082 12.0 0 -0.09645656496286392
-1.8841149806976318 1.0473926067352295 0.037627387791872025 1.0 8 -0.09645426273345947
-2.697688102722168 1.500280737876892 -0.7126449942588806 32.0 1 -0.09645195305347443
-1.9566925764083862 1.0881866216659546 0.11733722686767578 59.0 9 -0.09644965082406998
-1.9575037956237793 1.0890852212905884 -0.43542614579200745 1.0 2 -0.09644734859466553
-3.142315149307251 1.748989224433899 0.31463223695755005 31.0 10 -0.09644504636526108
-2.0365169048309326 1.1339762210845947 -0.3691853880882263 6.0 3 -0.09644273668527603
-3.144071340560913 1.751405119895935 0.44189828634262085 66.0 11 -0.09644043445587158
-3.116300582885742 1.736647367477417 0.5650413632392883 65.0 12 -0.09643582999706268
-1.9455634355545044 1.0846662521362305 -0.19488023221492767 8.0 5 -0.09643352031707764
-3.105146646499634 1.7318531274795532 0.6911102533340454 61.0 13 -0.09643121808767319
-1.9133121967315674 1.0675615072250366 -0.11482509225606918 12.0 6 -0.09642891585826874
-3.119025468826294 1.7410213947296143 0.8246706128120422 67.0 14 -0.09642661362886429
-1.8979986906051636 1.0594514608383179 -0.03794153034687042 8.0 7 -0.09642430394887924
-3.0933804512023926 1.727414608001709 0.9493483304977417 72.0 15 -0.09642200171947479
-2.7336676120758057 1.5315535068511963 -0.8396090269088745 11.0 0 -0.09640126675367355
-1.880631446838379 1.0536348819732666 0.037627387791872025 1.0 8 -0.0963989645242691
-2.6841986179351807 1.5044538974761963 -0.7103955149650574 19.0 1 -0.09639666229486465
-1.9493979215621948 1.093056559562683 0.11712788045406342 59.0 9 -0.09639435261487961
-1.953690528869629 1.0959111452102661 -0.43542614579200745 1.0 2 -0.09639205038547516
-3.148353338241577 1.7667725086212158 0.31585240364074707 28.0 10 -0.09638974815607071
-2.041358709335327 1.1455564498901367 -0.37074974179267883 6.0 3 -0.09638744592666626
-3.1469006538391113 1.7666805982589722 0.4431169629096985 64.0 11 -0.09638513624668121
-3.1188299655914307 1.752353549003601 0.5666056871414185 67.0 12 -0.09638053178787231
-1.941765308380127 1.0914510488510132 -0.19488023221492767 7.0 5 -0.09637822955846786
-3.106232166290283 1.7459887266159058 0.6926366686820984 63.0 13 -0.09637591987848282
-1.9097613096237183 1.0739004611968994 -0.11482509225606918 11.0 6 -0.09637361764907837
-3.1115365028381348 1.7503995895385742 0.8242207169532776 66.0 14 -0.09637131541967392
-1.9082303047180176 1.0739164352416992 -0.03822077065706253 8.0 7 -0.09636901319026947
-3.1007988452911377 1.7457842826843262 0.9534894227981567 69.0 15 -0.09636670351028442
-2.715115785598755 1.5330116748809814 -0.8354679346084595 13.0 0 -0.09634596854448318
-1.8769420385360718 1.0601931810379028 0.037627387791872025 1.0 8 -0.09634366631507874
-2.2191519737243652 1.254002571105957 -0.5884720087051392 1.0 1 -0.09634136408567429
-1.9457625150680542 1.0995150804519653 0.11712788045406342 59.0 9 -0.09633906185626984
-3.158085584640503 1.7860305309295654 0.31742119789123535 27.0 10 -0.09633444994688034
-2.071732997894287 1.1721302270889282 -0.3770070970058441 5.0 3 -0.09633214771747589
-3.1510801315307617 1.7835215330123901 0.44457942247390747 61.0 11 -0.09632984548807144
-3.1078453063964844 1.7597657442092896 0.5656670928001404 58.0 12 -0.09632523357868195
-1.9520039558410645 1.1057403087615967 -0.19627472758293152 6.0 5 -0.0963229313492775
-3.113783121109009 1.7645645141601562 0.6956896185874939 64.0 13 -0.09632062911987305
-1.9199011325836182 1.08843994140625 -0.11566247045993805 11.0 6 -0.096318319439888
-3.1155776977539062 1.7670185565948486 0.8269200921058655 72.0 14 -0.09631601721048355
-1.8942222595214844 1.0743194818496704 -0.0380113422870636 8.0 7 -0.0963137149810791
-3.1050736904144287 1.7617772817611694 0.9565951824188232 72.0 15 -0.09631141275167465
-2.661059856414795 1.5147650241851807 -0.8204563856124878 25.0 0 -0.09629067778587341
-2.170952796936035 1.236281394958496 -0.576774537563324 2.0 1 -0.09628606587648392
-1.9488543272018433 1.1102545261383057 0.11754656583070755 54.0 9 -0.09628376364707947
-1.9461857080459595 1.1091841459274292 -0.43542614579200745 1.0 2 -0.09628146141767502
-3.1552932262420654 1.7990179061889648 0.3177698254585266 27.0 10 -0.09627915173768997
-2.012921094894409 1.1476845741271973 -0.36699530482292175 2.0 3 -0.09627684950828552
-3.152045488357544 1.7978953123092651 0.44555434584617615 61.0 11 -0.09627454727888107
-3.1085453033447266 1.7745214700698853 0.5669185519218445 65.0 12 -0.09626993536949158
-1.9533226490020752 1.1155115365982056 -0.1967976689338684 7.0 5 -0.09626763314008713
-3.1181435585021973 1.7807222604751587 0.6979793310165405 61.0 13 -0.09626533091068268
-1.9197494983673096 1.0967822074890137 -0.11587180942296982 11.0 6 -0.09626302868127823
-3.121544122695923 1.7841094732284546 0.8300694227218628 73.0 14 -0.09626072645187378
-1.9043482542037964 1.0888656377792358 -0.03829057887196541 7.0 7 -0.09625841677188873
-3.1005823612213135 1.7735638618469238 0.9571128487586975 76.0 15 -0.09625611454248428
-2.6409404277801514 1.5149298906326294 -0.8157976865768433 36.0 0 -0.09623537957668304
-2.171694278717041 1.2467626333236694 -0.5781242847442627 3.0 1 -0.09623076766729355
-1.9484307765960693 1.1190400123596191 0.11775590479373932 49.0 9 -0.0962284654378891
-1.9424967765808105 1.1156319379806519 -0.43542614579200745 1.0 2 -0.09622616320848465
-3.1562206745147705 1.8134410381317139 0.31846708059310913 27.0 10 -0.0962238609790802
-1.9677997827529907 1.1310783624649048 -0.3594864308834076 2.0 3 -0.09622155129909515
-3.161238670349121 1.817792296409607 0.44774800539016724 64.0 11 -0.0962192490696907
-2.0493507385253906 1.17890465259552 -0.29029279947280884 1.0 4 -0.09621694684028625
-3.119453191757202 1.7952147722244263 0.5700472593307495 65.0 12 -0.0962146446108818
-1.9461590051651 1.1199954748153687 -0.19644904136657715 4.0 5 -0.09621234238147736
-3.115311861038208 1.7935541868209839 0.6987425684928894 64.0 13 -0.09621003270149231
-1.9211012125015259 1.1064677238464355 -0.11618582904338837 9.0 6 -0.09620773047208786
-3.1203629970550537 1.797913670539856 0.8314191102981567 72.0 14 -0.09620542824268341
-1.902268409729004 1.0965046882629395 -0.038325484842061996 6.0 7 -0.09620312601327896
-3.0977189540863037 1.7863070964813232 0.9581481218338013 74.0 15 -0.09620081633329391
-2.6256020069122314 1.5183368921279907 -0.8126918077468872 38.0 0 -0.09618008136749268
-2.1892552375793457 1.2670254707336426 -0.5839729905128479 1.0 1 -0.09617547690868378
-1.965254306793213 1.1378434896469116 0.11901197582483292 46.0 9 -0.09617317467927933
-3.1567671298980713 1.8284425735473633 0.31916433572769165 25.0 10 -0.09616856276988983
-1.9775131940841675 1.1458629369735718 -0.36198940873146057 2.0 3 -0.09616626054048538
-3.1531567573547363 1.8278205394744873 0.4475042521953583 66.0 11 -0.09616395831108093
-1.9627957344055176 1.1382508277893066 -0.2785933315753937 3.0 4 -0.09616164863109589
-3.123420238494873 1.8120396137237549 0.5719244480133057 65.0 12 -0.09615934640169144
-1.9629184007644653 1.1387791633605957 -0.19854077696800232 7.0 5 -0.09615704417228699
-3.1124279499053955 1.8063884973526 0.6995058059692383 61.0 13 -0.09615474194288254
-1.9155000448226929 1.11216402053833 -0.11608116328716278 9.0 6 -0.09615243226289749
-3.1241793632507324 1.814666986465454 0.8341185450553894 72.0 14 -0.09615013003349304
-1.903616189956665 1.1061522960662842 -0.03843019902706146 6.0 7 -0.09614782780408859
-3.0948050022125244 1.79905104637146 0.959183394908905 78.0 15 -0.09614552557468414
-2.6136105060577393 1.5236003398895264 -0.8106213212013245 34.0 0 -0.0961247906088829
-2.582058906555176 1.5064159631729126 -0.6901498436927795 10.0 1 -0.09612017869949341
-1.9578208923339844 1.142682671546936 0.11880263686180115 39.0 9 -0.09611787647008896
-3.164130210876465 1.8474867343902588 0.3205588161945343 24.0 10 -0.09611326456069946
-1.9735013246536255 1.1527588367462158 -0.36198940873146057 1.0 3 -0.09611096233129501
-3.145043134689331 1.8378145694732666 0.4472605288028717 64.0 11 -0.09610866010189056
-1.9690932035446167 1.1511058807373047 -0.2800557613372803 3.0 4 -0.09610635787248611
-3.129012107849121 1.8299119472503662 0.5741145610809326 67.0 12 -0.09610404819250107
-1.974410057067871 1.1546764373779297 -0.2001095712184906 2.0 5 -0.09610174596309662
-3.1162705421447754 1.8231914043426514 0.7017955183982849 61.0 13 -0.09609944373369217
-1.9185012578964233 1.1228787899017334 -0.11649984866380692 10.0 6 -0.09609714150428772
-3.126234292984009 1.8304846286773682 0.8363680839538574 73.0 14 -0.09609483182430267
-1.9083706140518188 1.1178443431854248 -0.038604725152254105 5.0 7 -0.09609252959489822
-3.1051743030548096 1.81960928440094 0.9643597602844238 78.0 15 -0.09609022736549377
-2.6016135215759277 1.5288000106811523 -0.8085507154464722 36.0 0 -0.09606949239969254
-2.5868639945983887 1.5213468074798584 -0.6928492784500122 38.0 1 -0.09606488049030304
-1.9693127870559692 1.1586252450942993 0.1197446808218956 25.0 9 -0.09606257826089859
-3.1645302772521973 1.862563133239746 0.32125604152679443 23.0 10 -0.09605797380208969
-1.9864875078201294 1.1696635484695435 -0.3651180863380432 2.0 3 -0.09605566412210464
-3.1591339111328125 1.8608719110488892 0.4501853883266449 63.0 11 -0.0960533618927002
-2.036893129348755 1.2003004550933838 -0.29029279947280884 1.0 4 -0.09605105966329575
-3.1260087490081787 1.8428295850753784 0.5747402906417847 67.0 12 -0.0960487574338913
-1.9978289604187012 1.1777504682540894 -0.2028985619544983 1.0 5 -0.09604644775390625
-3.1234164237976074 1.8420358896255493 0.7048484683036804 64.0 13 -0.0960441455245018
-1.9266111850738525 1.1366729736328125 -0.117232546210289 9.0 6 -0.09604184329509735
-3.118147134780884 1.8403956890106201 0.835918128490448 72.0 14 -0.0960395410656929
-1.9010134935379028 1.1224652528762817 -0.03853491693735123 3.0 7 -0.09603723883628845
-3.1121106147766113 1.838297724723816 0.9685009121894836 78.0 15 -0.0960349291563034
-2.576315402984619 1.5260576009750366 -0.8023390769958496 28.0 0 -0.09592509269714355
-2.568127155303955 1.522417426109314 -0.6892500519752502 24.0 1 -0.09592048823833466
-1.9824351072311401 1.1756802797317505 0.12079139798879623 18.0 9 -0.09591817855834961
-3.170003890991211 1.8807141780853271 0.32247623801231384 22.0 10 -0.09591357409954071
-1.9755977392196655 1.1725575923919678 -0.3638666272163391 1.0 3 -0.09591127187013626
-3.16286039352417 1.8779687881469727 0.4516478180885315 64.0 11 -0.09590896219015121
-1.9780762195587158 1.1749625205993652 -0.28249314427375793 1.0 4 -0.09590665996074677
-3.126349687576294 1.8577666282653809 0.5759917497634888 67.0 12 -0.09590435773134232
-3.1270925998687744 1.8589468002319336 0.707138180732727 64.0 13 -0.09589974582195282
-1.932931661605835 1.1495165824890137 -0.1178605854511261 8.0 6 -0.09589744359254837
-3.1251020431518555 1.8592398166656494 0.83951735496521 72.0 14 -0.09589514136314392
-1.9005202054977417 1.1311396360397339 -0.038604725152254105 2.0 7 -0.09589283913373947
-3.1056747436523438 1.8491498231887817 0.9685009121894836 82.0 15 -0.09589052945375443
-2.5508029460906982 1.523601770401001 -0.796127438545227 15.0 0 -0.09586979448795319
-2.5544323921203613 1.526375412940979 -0.687000572681427 14.0 1 -0.09586519002914429
-2.014319896697998 1.2041136026382446 0.12298951297998428 17.0 9 -0.09586288779973984
-3.164799213409424 1.8933430910110474 0.3226505517959595 17.0 10 -0.09585827589035034
-1.933996558189392 1.157473087310791 -0.356983482837677 1.0 3 -0.09585597366094589
-3.1682088375091553 1.8961338996887207 0.45335400104522705 57.0 11 -0.09585367143154144
-3.1198456287384033 1.868668556213379 0.5759917497634888 65.0 12 -0.09584905952215195
-3.123626232147217 1.8724145889282227 0.7079014182090759 64.0 13 -0.09584445506334305
-1.9338440895080566 1.159674882888794 -0.11817460507154465 1.0 6 -0.095842145383358
-3.1299643516540527 1.8776991367340088 0.842666745185852 69.0 14 -0.09583984315395355
-1.917137861251831 1.1501115560531616 -0.03902358189225197 2.0 7 -0.0958375409245491
-3.1025140285491943 1.861967921257019 0.9695361852645874 80.0 15 -0.09583523869514465
-2.5620193481445312 1.542460560798645 -0.8013038039207458 12.0 0 -0.09581450372934341
-2.587212085723877 1.5588583946228027 -0.6973482966423035 16.0 1 -0.09580989181995392
-2.3759500980377197 1.4321339130401611 0.14538930356502533 9.0 9 -0.09580758959054947
-3.168408155441284 1.910551905632019 0.32369643449783325 19.0 10 -0.09580297768115997
-1.9265620708465576 1.1621758937835693 -0.35635775327682495 1.0 3 -0.09580067545175552
-3.152740001678467 1.9026048183441162 0.4521353244781494 63.0 11 -0.09579837322235107
-3.140031099319458 1.8964297771453857 0.5809977054595947 67.0 12 -0.09579376131296158
-3.120432138442993 1.885337233543396 0.7086646556854248 63.0 13 -0.09578915685415268
-1.9366211891174316 1.17055082321167 -0.11859328299760818 1.0 6 -0.09578685462474823
-3.1367316246032715 1.8966792821884155 0.8462659120559692 66.0 14 -0.09578455239534378
-1.9762167930603027 1.1954255104064941 -0.040315061807632446 2.0 7 -0.09578224271535873
-3.1088905334472656 1.8813278675079346 0.9736772775650024 82.0 15 -0.09577994048595428
-2.682137966156006 1.6275616884231567 -0.8406442999839783 9.0 0 -0.09575920552015305
-2.7333290576934814 1.6599297523498535 -0.7382894158363342 60.0 1 -0.09575459361076355
-2.4870080947875977 1.5109361410140991 0.1525069922208786 2.0 9 -0.0957522913813591
-3.178745985031128 1.9319473505020142 0.32543954253196716 23.0 10 -0.0957476869225502
-3.151167392730713 1.9166933298110962 0.45286649465560913 60.0 11 -0.0957430750131607
-3.136766195297241 1.9094339609146118 0.5816234350204468 67.0 12 -0.0957384705543518
-2.6872570514678955 1.635805606842041 -0.2752378284931183 29.0 5 -0.09573616832494736
-3.1238925457000732 1.9023447036743164 0.7109543085098267 63.0 13 -0.09573385864496231
-3.130091428756714 1.9076176881790161 0.8462659120559692 66.0 14 -0.09572925418615341
-1.9703246355056763 1.2012755870819092 -0.04028015583753586 1.0 7 -0.09572695195674896
-3.112200975418091 1.8982036113739014 0.9767830967903137 84.0 15 -0.09572464227676392
-2.6995136737823486 1.6510250568389893 -0.8478912711143494 9.0 0 -0.09570390731096268
-2.737490177154541 1.675565481185913 -0.7409887909889221 56.0 1 -0.09569930285215378
-3.1753809452056885 1.945112943649292 0.3257881700992584 1.0 10 -0.09569238871335983
-2.6695926189422607 1.6359286308288574 -0.4958972930908203 2.0 3 -0.09569008648395538
-2.756901264190674 1.6900923252105713 -0.3970503509044647 3.0 4 -0.09568547457456589
-3.13210129737854 1.920857548713684 0.5819362998008728 65.0 12 -0.09568317234516144
-2.705305814743042 1.6597628593444824 -0.2776781916618347 51.0 5 -0.09568087011575699
-3.137312412261963 1.9255605936050415 0.7155337929725647 63.0 13 -0.09567856788635254
-2.6738927364349365 1.64177405834198 -0.1644395887851715 1.0 6 -0.09567625820636749
-3.1303915977478027 1.9220651388168335 0.8480655550956726 69.0 14 -0.09567395597696304
-1.9492909908294678 1.1973367929458618 -0.03993110731244087 1.0 7 -0.0956716537475586
-3.1190567016601562 1.916604995727539 0.9809242486953735 82.0 15 -0.09566935151815414
-2.6841554641723633 1.6538875102996826 -0.8447853922843933 7.0 0 -0.09564860910177231
-2.731919288635254 1.684633731842041 -0.7409887909889221 55.0 1 -0.09564400464296341
-2.9767396450042725 1.8356019258499146 0.18328052759170532 3.0 9 -0.09564170241355896
-2.716881275177002 1.6760152578353882 -0.6205108761787415 19.0 2 -0.09563940018415451
-2.972233533859253 1.834255576133728 0.30556803941726685 1.0 10 -0.09563709050416946
-2.6944081783294678 1.6634511947631836 -0.5015289187431335 54.0 3 -0.09563478827476501
-2.960709810256958 1.8285709619522095 0.4272739589214325 2.0 11 -0.09563248604536057
-2.744525671005249 1.695052981376648 -0.39607539772987366 7.0 4 -0.09563018381595612
-3.1324362754821777 1.9353866577148438 0.5831877589225769 65.0 12 -0.09562787413597107
-2.6879234313964844 1.661392092704773 -0.2764580249786377 48.0 5 -0.09562557190656662
-3.144268035888672 1.9442139863967896 0.7185867428779602 63.0 13 -0.09562326967716217
-2.6939120292663574 1.6663925647735596 -0.16600966453552246 10.0 6 -0.09562096744775772
-3.130629539489746 1.9365360736846924 0.8498651385307312 66.0 14 -0.09561865776777267
-3.1126837730407715 1.9269378185272217 0.9809242486953735 80.0 15 -0.09561405330896378
-2.681938886642456 1.6648170948028564 -0.8458206653594971 7.0 0 -0.09559331834316254
-2.742870807647705 1.7039673328399658 -0.7454878091812134 51.0 1 -0.09558870643377304
-2.980492115020752 1.8523069620132446 0.18390856683254242 7.0 9 -0.09558640420436859
-2.72631573677063 1.6943422555923462 -0.6239454746246338 48.0 2 -0.09558410197496414
-2.9627504348754883 1.841997742652893 0.3052194118499756 7.0 10 -0.09558179974555969
-2.692232370376587 1.6744630336761475 -0.5021546483039856 66.0 3 -0.09557949006557465
-2.961371421813965 1.8425740003585815 0.42824891209602356 4.0 11 -0.0955771878361702
-2.7166831493377686 1.690985918045044 -0.3929068148136139 11.0 4 -0.09557488560676575
-3.1390762329101562 1.954662561416626 0.5856907367706299 65.0 12 -0.0955725833773613
-2.692547559738159 1.6766148805618286 -0.2775038778781891 48.0 5 -0.09557027369737625
-3.137803554534912 1.9546302556991577 0.7185867428779602 61.0 13 -0.0955679714679718
-2.708711862564087 1.6879925727844238 -0.16726572811603546 16.0 6 -0.09556566923856735
-3.1387338638305664 1.9567316770553589 0.8539142608642578 67.0 14 -0.0955633670091629
-2.7351808547973633 1.705812931060791 -0.05626656115055084 1.0 7 -0.09556105732917786
-3.1157727241516113 1.9439268112182617 0.9840300679206848 76.0 15 -0.09555875509977341
-2.679386615753174 1.6762179136276245 -0.8468559384346008 7.0 0 -0.09553802013397217
-2.7402100563049316 1.7155989408493042 -0.7463876008987427 52.0 1 -0.09553341567516327
-2.9892418384552 1.8722410202026367 0.18485060334205627 7.0 9 -0.09553110599517822
-2.730367660522461 1.7101012468338013 -0.6262351274490356 55.0 2 -0.09552880376577377
-2.976562976837158 1.8650230169296265 0.30731114745140076 7.0 10 -0.09552650153636932
-2.683023452758789 1.681752324104309 -0.5015289187431335 58.0 3 -0.09552419930696487
-2.965012550354004 1.8592274188995361 0.42971134185791016 4.0 11 -0.09552188962697983
-2.7174904346466064 1.7046782970428467 -0.39388173818588257 21.0 4 -0.09551958739757538
-3.1405999660491943 1.970858097076416 0.58725506067276 62.0 12 -0.09551728516817093
-2.6984918117523193 1.693416714668274 -0.2787240743637085 50.0 5 -0.09551498293876648
-3.1409378051757812 1.971834421157837 0.7208763957023621 60.0 13 -0.09551267325878143
-3.0360021591186523 1.9066959619522095 -0.1878861039876938 53.0 6 -0.09551037102937698
-3.1401352882385254 1.9728587865829468 0.8561637997627258 69.0 14 -0.09550806879997253
-2.698734760284424 1.69619619846344 -0.05563827231526375 6.0 7 -0.09550576657056808
-3.1187806129455566 1.960960865020752 0.9871358871459961 76.0 15 -0.09550346434116364
-2.6735191345214844 1.6855605840682983 -0.8468559384346008 7.0 0 -0.0954827219247818
-3.2068653106689453 2.0225977897644043 0.06617952883243561 2.0 8 -0.09548041969537735
-2.730907917022705 1.7230746746063232 -0.7454878091812134 50.0 1 -0.0954781174659729
-2.991133213043213 1.887994408607483 0.18537397682666779 6.0 9 -0.09547581523656845
-2.7376632690429688 1.7280049324035645 -0.6292880773544312 51.0 2 -0.0954735055565834
-2.976773738861084 1.8796563148498535 0.3080084025859833 7.0 10 -0.09547120332717896
-2.683816909790039 1.6953277587890625 -0.5027804374694824 56.0 3 -0.0954689010977745
-2.965216875076294 1.8738077878952026 0.4306862950325012 4.0 11 -0.09546659886837006
-2.6913888454437256 1.7014243602752686 -0.3909568786621094 27.0 4 -0.09546428918838501
