# .PCD v0.7 - Point Cloud Data file format
VERSION 0.7
FIELDS x y z intensity ring time
SIZE 4 4 4 4 4 4
TYPE F F F F F F
COUNT 1 1 1 1 1 1
WIDTH 538
HEIGHT 1
VIEWPOINT 0 0 0 1 0 0 0
POINTS 538
DATA ascii
-1.4441285133361816 6.612284183502197 0.5921360850334167 85.0 10 -0.030726153403520584
-0.39377710223197937 1.80451238155365 -0.2925325036048889 100.0 3 -0.030723849311470985
-1.4361200332641602 6.586628437042236 0.8277366757392883 99.0 11 -0.030721545219421387
-0.39127790927886963 1.7960691452026367 -0.22570204734802246 88.0 4 -0.030719241127371788
-1.4363538026809692 6.5932440757751465 1.0687603950500488 85.0 12 -0.03071693703532219
-0.3915541172027588 1.7988462448120117 -0.1610638052225113 98.0 5 -0.03071463294327259
-1.4306790828704834 6.578219413757324 1.3085681200027466 100.0 13 -0.03071233071386814
-0.4063015878200531 1.869737982749939 -0.10027570277452469 30.0 6 -0.030710026621818542
-1.4277433156967163 6.575787544250488 1.5535120964050293 100.0 14 -0.030707722529768944
-0.3967117965221405 1.827143907546997 -0.03263600170612335 20.0 7 -0.030705418437719345
-1.4244745969772339 6.566244602203369 1.8003453016281128 63.0 15 -0.030703114345669746
-0.38983890414237976 1.8091899156570435 -0.4958973228931427 85.0 0 -0.030682377517223358
-0.3875230550765991 1.7984423637390137 0.032112427055835724 10.0 8 -0.03068007342517376
-0.3880065679550171 1.8022135496139526 -0.4256074130535126 87.0 1 -0.03067776933312416
-0.38600391149520874 1.7944334745407104 0.09619349241256714 45.0 9 -0.030675465241074562
-0.3840745687484741 1.786981463432312 -0.3552863597869873 94.0 2 -0.030673161149024963
-1.4202033281326294 6.613389492034912 0.5917875170707703 87.0 10 -0.030670857056975365
-0.3886207938194275 1.8096709251403809 -0.29315823316574097 100.0 3 -0.030668552964925766
-1.4151012897491455 6.5952372550964355 0.8282241225242615 95.0 11 -0.030666250735521317
-0.38615235686302185 1.8012386560440063 -0.226189523935318 86.0 4 -0.030663946643471718
-1.4108493328094482 6.586628437042236 1.0668832063674927 88.0 12 -0.03066164255142212
-0.38277119398117065 1.7885124683380127 -0.1600179374217987 93.0 5 -0.03065933845937252
-1.4088553190231323 6.58292818069458 1.3085681200027466 100.0 13 -0.030657034367322922
-0.4038582146167755 1.8886529207229614 -0.10121775418519974 29.0 6 -0.030654730275273323
-1.4059306383132935 6.580485820770264 1.5535120964050293 100.0 14 -0.030652426183223724
-0.3878270089626312 1.8167836666107178 -0.03242656961083412 17.0 7 -0.030650122091174126
-1.3991258144378662 6.559841156005859 1.7972395420074463 63.0 15 -0.030647817999124527
-0.382234126329422 1.8029133081436157 -0.4938267767429352 85.0 0 -0.03062708117067814
-0.3799993395805359 1.7939153909683228 0.03200771287083626 9.0 8 -0.03062477707862854
-0.3825207054615021 1.8073699474334717 -0.42650723457336426 90.0 1 -0.03062247298657894
-0.38056373596191406 1.7996782064437866 0.0964028462767601 47.0 9 -0.030620168894529343
-0.37977081537246704 1.7959284782409668 -0.35681283473968506 94.0 2 -0.030617866665124893
-1.39579176902771 6.606367111206055 0.5907416343688965 85.0 10 -0.030615562573075294
-0.38189390301704407 1.8090835809707642 -0.29284536838531494 100.0 3 -0.030613258481025696
-1.3928884267807007 6.6040215492248535 0.8287115693092346 97.0 11 -0.030610954388976097
-0.38149937987327576 1.8103455305099487 -0.22716447710990906 88.0 4 -0.0306086502969265
-1.3886644840240479 6.595378875732422 1.0675089359283447 88.0 12 -0.0306063462048769
-0.37652528285980225 1.7898378372192383 -0.1600179374217987 98.0 5 -0.0306040421128273
-1.3858661651611328 6.587806224822998 1.3085681200027466 100.0 13 -0.030601738020777702
-0.3997275233268738 1.9017785787582397 -0.10184577852487564 32.0 6 -0.030599433928728104
-1.3837542533874512 6.589167594909668 1.5544118881225586 100.0 14 -0.030597129836678505
-0.38230371475219727 1.8220406770706177 -0.0324963815510273 15.0 7 -0.030594825744628906
-1.3762173652648926 6.564685344696045 1.7972395420074463 63.0 15 -0.030592521652579308
-0.3764113783836365 1.8080846071243286 -0.49486202001571655 81.0 0 -0.03057178668677807
-0.37169763445854187 1.7854423522949219 0.031833190470933914 7.0 8 -0.03056948259472847
-0.37382790446281433 1.7972466945648193 -0.4238077998161316 87.0 1 -0.03056717850267887
-0.3734678328037262 1.7970844507217407 0.09619349241256714 43.0 9 -0.030564874410629272
-0.37318626046180725 1.797308325767517 -0.35681283473968506 94.0 2 -0.030562570318579674
-1.3711656332015991 6.609487056732178 0.5905672907829285 90.0 10 -0.030560266226530075
-0.3736565411090851 1.802734136581421 -0.29159387946128845 100.0 3 -0.030557962134480476
-1.3670088052749634 6.595236778259277 0.8270054459571838 100.0 11 -0.030555658042430878
-0.37517815828323364 1.8116660118103027 -0.22716447710990906 84.0 4 -0.03055335395038128
-1.366432547569275 6.604054927825928 1.0681346654891968 88.0 12 -0.03055104985833168
-0.3710823655128479 1.7950433492660522 -0.16036656498908997 98.0 5 -0.03054874576628208
-1.358535885810852 6.577459335327148 1.3055152893066406 100.0 13 -0.030546441674232483
-0.3947731554508209 1.9130109548568726 -0.10236913710832596 42.0 6 -0.030544137582182884
-1.3611668348312378 6.601829528808594 1.5562114715576172 100.0 14 -0.030541833490133286
-0.3767492473125458 1.8272809982299805 -0.032566189765930176 15.0 7 -0.030539529398083687
-1.3532953262329102 6.569448947906494 1.7972395420074463 63.0 15 -0.030537225306034088
-0.3716457784175873 1.8169584274291992 -0.49693259596824646 85.0 0 -0.03051649034023285
-0.36595234274864197 1.7907108068466187 0.03190299868583679 7.0 8 -0.03051418624818325
-0.36723852157592773 1.7986047267913818 -0.4238077998161316 87.0 1 -0.03051188215613365
-0.3667925298213959 1.7964203357696533 0.09608882665634155 45.0 9 -0.030509578064084053
-0.36769455671310425 1.8024473190307617 -0.35757607221603394 97.0 2 -0.030507273972034454
-1.3484851121902466 6.616185188293457 0.5907416343688965 87.0 10 -0.030504969879984856
-0.36775609850883484 1.8059629201889038 -0.2919067442417145 100.0 3 -0.030502665787935257
-1.3416378498077393 6.594367504119873 0.8262742161750793 97.0 11 -0.030500361695885658
-0.3648938536643982 1.7935123443603516 -0.2247270941734314 89.0 4 -0.03049805760383606
-1.3425862789154053 6.604912757873535 1.0675089359283447 88.0 12 -0.03049575351178646
-0.3664007782936096 1.8041378259658813 -0.1610638052225113 100.0 5 -0.030493449419736862
-1.336346983909607 6.586009979248047 1.3062784671783447 100.0 13 -0.030491145327687263
-0.388092577457428 1.9143774509429932 -0.10236913710832596 32.0 6 -0.030488841235637665
-1.3357805013656616 6.589118480682373 1.5521622896194458 100.0 14 -0.030486537143588066
-0.36917805671691895 1.8227052688598633 -0.03246147558093071 13.0 7 -0.030484233051538467
-1.3303537368774414 6.574133396148682 1.7972395420074463 63.0 15 -0.03048192895948887
-0.36485713720321655 1.8143929243087769 -0.4958973228931427 85.0 0 -0.03046119399368763
-0.3600124716758728 1.7919145822525024 0.03190299868583679 7.0 8 -0.03045888990163803
-0.3612716495990753 1.7998127937316895 -0.4238077998161316 89.0 1 -0.030456585809588432
-0.36043983697891235 1.7956687211990356 0.09598415344953537 46.0 9 -0.030454281717538834
-0.36132973432540894 1.801731824874878 -0.3571944534778595 99.0 2 -0.030451977625489235
-1.3273218870162964 6.624527454376221 0.5910902619361877 87.0 10 -0.030449673533439636
-0.3621525168418884 1.8091095685958862 -0.2922196090221405 100.0 3 -0.030447369441390038
-1.3205426931381226 6.602673053741455 0.8267617225646973 95.0 11 -0.03044506534934044
-0.359723299741745 1.7986054420471191 -0.22521455585956573 86.0 4 -0.03044276125729084
-1.3199033737182617 6.605453968048096 1.0668832063674927 88.0 12 -0.03044045716524124
-0.36002546548843384 1.8033891916275024 -0.16088949143886566 100.0 5 -0.030438153073191643
-1.3160369396209717 6.598106384277344 1.307804822921753 100.0 13 -0.030435848981142044
-0.38330477476119995 1.9234886169433594 -0.10278782993555069 39.0 6 -0.030433546751737595
-1.3131656646728516 6.589688777923584 1.551262617111206 100.0 14 -0.030431242659687996
-0.36078840494155884 1.8121522665023804 -0.03225204721093178 13.0 7 -0.030428938567638397
-1.3093008995056152 6.582298278808594 1.7982748746871948 63.0 15 -0.0304266344755888
-0.3565904498100281 1.8042216300964355 -0.49279147386550903 87.0 0 -0.03040589764714241
-0.3571668565273285 1.808793067932129 0.0321822389960289 7.0 8 -0.03040359355509281
-0.3568103313446045 1.8086483478546143 -0.4256074130535126 85.0 1 -0.030401289463043213
-0.353710412979126 1.7929350137710571 0.095774807035923 47.0 9 -0.030398985370993614
-0.35345426201820374 1.7932891845703125 -0.3552863597869873 94.0 2 -0.030396681278944016
-1.3041901588439941 6.62302827835083 0.5905672907829285 90.0 10 -0.030394377186894417
-0.3565329909324646 1.8122388124465942 -0.2925325036048889 100.0 3 -0.030392073094844818
-1.2994040250778198 6.6109113693237305 0.8272491693496704 99.0 11 -0.03038976900279522
-0.35605359077453613 1.8114755153656006 -0.22667700052261353 92.0 4 -0.03038746491074562
-1.2957059144973755 6.5981645584106445 1.065005898475647 82.0 12 -0.03038516268134117
-0.3525092601776123 1.7967525720596313 -0.16019225120544434 100.0 5 -0.030382858589291573
-1.2949031591415405 6.606287956237793 1.3085681200027466 100.0 13 -0.030380554497241974
-0.37961041927337646 1.938469409942627 -0.10352052748203278 41.0 6 -0.030378250405192375
-1.2913044691085815 6.594007968902588 1.551262617111206 100.0 14 -0.030375946313142776
-0.35439354181289673 1.8113762140274048 -0.03221714124083519 11.0 7 -0.030373642221093178
-1.2859817743301392 6.579020023345947 1.7962043285369873 63.0 15 -0.03037133812904358
-0.34987014532089233 1.8016011714935303 -0.4917562007904053 87.0 0 -0.03035060130059719
-0.3504053056240082 1.8060412406921387 0.032112427055835724 7.0 8 -0.030348297208547592
-0.3515518605709076 1.8136481046676636 -0.42650723457336426 87.0 1 -0.030345993116497993
-0.3489025831222534 1.7999805212020874 0.09608882665634155 51.0 9 -0.030343689024448395
-0.34862565994262695 1.8002334833145142 -0.3564312160015106 99.0 2 -0.030341386795043945
-1.2795722484588623 6.613623142242432 0.5893471240997314 87.0 10 -0.030339080840349197
-0.34902137517929077 1.8056533336639404 -0.2912810146808624 100.0 3 -0.030336778610944748
-1.2774757146835327 6.6151838302612305 0.8272491693496704 95.0 11 -0.03033447451889515
-0.3500449061393738 1.8126462697982788 -0.22667700052261353 92.0 4 -0.03033217042684555
-1.2745682001113892 6.606304168701172 1.0656317472457886 88.0 12 -0.030329866334795952
-0.345417320728302 1.792042851448059 -0.15966932475566864 98.0 5 -0.030327562242746353
-1.2707626819610596 6.598978519439697 1.3062784671783447 100.0 13 -0.030325258150696754
-0.37431252002716064 1.9456013441085815 -0.10383454710245132 36.0 6 -0.030322954058647156
-1.270904779434204 6.605907917022705 1.5530622005462646 100.0 14 -0.030320649966597557
-0.3480069041252136 1.8105777502059937 -0.0321822389960289 9.0 7 -0.03031834587454796
-1.26197350025177 6.571865081787109 1.7930984497070312 63.0 15 -0.03031604178249836
-0.34470945596694946 1.8104625940322876 -0.4938267767429352 85.0 0 -0.03023052215576172
-0.7970556020736694 4.190217018127441 0.07445196807384491 19.0 8 -0.03022821806371212
-0.3434472680091858 1.8072664737701416 -0.4247076213359833 90.0 1 -0.03022591397166252
-0.3434791564941406 1.8091557025909424 0.09650751203298569 61.0 9 -0.030223609879612923
-0.3423917293548584 1.803428053855896 -0.35681283473968506 97.0 2 -0.030221305787563324
-1.2564356327056885 6.624141693115234 0.589870035648346 90.0 10 -0.030219001695513725
-0.34203359484672546 1.8049795627593994 -0.2909681499004364 100.0 3 -0.030216697603464127
-1.251007318496704 6.608119010925293 0.8257867693901062 95.0 11 -0.030214393511414528
-0.3423440456390381 1.8100759983062744 -0.226189523935318 94.0 4 -0.03021208941936493
-1.2506579160690308 6.6189141273498535 1.0668832063674927 88.0 12 -0.03020978532731533
-0.3392171561717987 1.7952544689178467 -0.15984363853931427 100.0 5 -0.030207481235265732
-1.245112419128418 6.595874786376953 1.304751992225647 100.0 13 -0.030205179005861282
-0.36421647667884827 1.9312591552734375 -0.10299716889858246 36.0 6 -0.030202874913811684
-1.245889663696289 6.612654209136963 1.5535120964050293 100.0 14 -0.030200570821762085
-0.3406827449798584 1.809935450553894 -0.03214733302593231 7.0 7 -0.030198266729712486
-1.2374423742294312 6.5804595947265625 1.7941336631774902 63.0 15 -0.030195962637662888
-0.33838802576065063 1.811654806137085 -0.4938267767429352 87.0 0 -0.0301752258092165
-0.7820561528205872 4.1910080909729 0.07441706210374832 13.0 8 -0.0301729217171669
-0.3357076048851013 1.8007913827896118 -0.4229080080986023 87.0 1 -0.030170617625117302
-0.33606526255607605 1.8044531345367432 0.09619349241256714 54.0 9 -0.030168313533067703
-0.3360948860645294 1.8046122789382935 -0.35681283473968506 94.0 2 -0.030166009441018105
-1.2336714267730713 6.63044548034668 0.590044379234314 87.0 10 -0.030163705348968506
-0.3360914885997772 1.8081046342849731 -0.2912810146808624 100.0 3 -0.030161401256918907
-1.2264845371246338 6.60463809967041 0.8248117566108704 95.0 11 -0.030159099027514458
-0.33530065417289734 1.8073562383651733 -0.22570204734802246 90.0 4 -0.03015679493546486
-1.2275441884994507 6.623239517211914 1.0668832063674927 85.0 12 -0.03015449084341526
-0.33476343750953674 1.8062227964401245 -0.16071519255638123 100.0 5 -0.03015218675136566
-1.2220823764801025 6.600180625915527 1.304751992225647 100.0 13 -0.030149882659316063
-0.3585641086101532 1.9384104013442993 -0.10331118851900101 27.0 6 -0.030147578567266464
-1.2203190326690674 6.603549480438232 1.5503627061843872 100.0 14 -0.030145274475216866
-0.33436232805252075 1.8111138343811035 -0.03214733302593231 7.0 7 -0.030142970383167267
-1.214469313621521 6.584737777709961 1.7941336631774902 63.0 15 -0.030140666291117668
-0.3334539234638214 1.8204259872436523 -0.4958973228931427 89.0 0 -0.03011992946267128
-0.33295702934265137 1.8195048570632935 0.032286953181028366 2.0 8 -0.03011762537062168
-0.33012089133262634 1.8057860136032104 -0.4238077998161316 89.0 1 -0.030115321278572083
-0.3268933892250061 1.7898973226547241 0.09535612165927887 58.0 9 -0.030113019049167633
-0.32908764481544495 1.8019118309020996 -0.3560495972633362 94.0 2 -0.030110714957118034
-1.2112326622009277 6.638631820678711 0.5903929471969604 87.0 10 -0.030108410865068436
-0.3301325738430023 1.8112101554870605 -0.29159387946128845 100.0 3 -0.030106106773018837
-1.2055546045303345 6.6205973625183105 0.8262742161750793 93.0 11 -0.03010380268096924
-0.3275681436061859 1.800703525543213 -0.2247270941734314 96.0 4 -0.03010149858891964
-1.2030059099197388 6.619709491729736 1.0656317472457886 85.0 12 -0.03009919449687004
-0.32774436473846436 1.8034595251083374 -0.16036656498908997 98.0 5 -0.030096890404820442
-1.1997356414794922 6.608270168304443 1.3055152893066406 100.0 13 -0.030094586312770844
-0.3532208204269409 1.9475111961364746 -0.10372987389564514 36.0 6 -0.030092282220721245
-1.1965675354003906 6.603933811187744 1.5494630336761475 100.0 14 -0.030089978128671646
-0.3276824951171875 1.8103020191192627 -0.032112427055835724 8.0 7 -0.030087674036622047
-1.1921626329421997 6.592739582061768 1.7951689958572388 63.0 15 -0.03008536994457245
-0.32573118805885315 1.8139731884002686 -0.4938267767429352 89.0 0 -0.03006463497877121
-0.3244855999946594 1.8088462352752686 0.032077521085739136 1.0 8 -0.03006233088672161
-0.32450342178344727 1.8107638359069824 -0.4247076213359833 90.0 1 -0.030060026794672012
-0.322754830121994 1.8028234243392944 0.09598415344953537 54.0 9 -0.030057722702622414
-0.3221033811569214 1.7991845607757568 -0.3552863597869873 94.0 2 -0.030055418610572815
-1.1870012283325195 6.636935710906982 0.589870035648346 90.0 10 -0.030053114518523216
-0.3255458176136017 1.822074294090271 -0.29315823316574097 100.0 3 -0.030050810426473618
-1.1824352741241455 6.624765872955322 0.8262742161750793 97.0 11 -0.03004850633442402
-0.32267478108406067 1.8096530437469482 -0.22570204734802246 94.0 4 -0.03004620224237442
-1.1792000532150269 6.619978904724121 1.065005898475647 85.0 12 -0.03004389815032482
-0.3207487165927887 1.8006696701049805 -0.1600179374217987 100.0 5 -0.030041594058275223
-1.1787230968475342 6.624014854431152 1.307804822921753 100.0 13 -0.030039289966225624
-0.3289426565170288 1.8504105806350708 -0.09849628061056137 7.0 6 -0.030036985874176025
-1.1735095977783203 6.608070373535156 1.5494630336761475 100.0 14 -0.030034681782126427
-0.3199637234210968 1.8035591840744019 -0.03197281062602997 8.0 7 -0.030032377690076828
-1.1684695482254028 6.5930562019348145 1.7941336631774902 63.0 15 -0.03003007359802723
-0.31805843114852905 1.8074884414672852 -0.4917562007904053 87.0 0 -0.03000933863222599
-0.3178228735923767 1.807998538017273 0.032042618840932846 1.0 8 -0.03000703454017639
-0.3195284307003021 1.8195630311965942 -0.42650723457336426 89.0 1 -0.030004730448126793
-0.3157699704170227 1.800004482269287 0.095774807035923 78.0 9 -0.030002426356077194
-0.31649988889694214 1.804165244102478 -0.3560495972633362 97.0 2 -0.030000122264027596
-1.1631371974945068 6.63711404800415 0.5895214676856995 90.0 10 -0.029997818171977997
-0.3174799084663391 1.813470721244812 -0.29159387946128845 100.0 3 -0.029995514079928398
-1.1593047380447388 6.628852367401123 0.8262742161750793 97.0 11 -0.0299932099878788
-0.31703871488571167 1.8146792650222778 -0.226189523935318 94.0 4 -0.0299909058958292
-1.1567623615264893 6.627946853637695 1.0656317472457886 85.0 12 -0.029988601803779602
-0.31309056282043457 1.7939274311065674 -0.15932069718837738 100.0 5 -0.029986297711730003
-1.1535719633102417 6.616484642028809 1.3055152893066406 100.0 13 -0.029983993619680405
-0.3176831901073456 1.8240007162094116 -0.097030870616436 6.0 6 -0.029981689527630806
-1.1511021852493286 6.615966320037842 1.5503627061843872 100.0 14 -0.029979385435581207
-0.31298166513442993 1.8007246255874634 -0.03190299868583679 6.0 7 -0.02997708134353161
-1.1434637308120728 6.585675239562988 1.7910279035568237 63.0 15 -0.02997477725148201
-0.3124038875102997 1.8123952150344849 -0.49279147386550903 89.0 0 -0.02995404228568077
-0.31151023507118225 1.8090968132019043 0.032042618840932846 1.0 8 -0.029951738193631172
-0.3105325698852539 1.8053029775619507 -0.4229080080986023 89.0 1 -0.029949434101581573
-0.3101617395877838 1.8050326108932495 0.09598415344953537 78.0 9 -0.029947130009531975
-0.3108656108379364 1.8091288805007935 -0.35681283473968506 94.0 2 -0.029944825917482376
-1.1399637460708618 6.6411333084106445 0.5895214676856995 90.0 10 -0.029942521825432777
-0.3104804754257202 1.8106739521026611 -0.2909681499004364 100.0 3 -0.02994021773338318
-1.1334788799285889 6.61720609664917 0.8243243098258972 95.0 11 -0.02993791364133358
-0.3113715350627899 1.8196884393692017 -0.22667700052261353 96.0 4 -0.02993560954928398
-1.1329551935195923 6.628049850463867 1.065005898475647 88.0 12 -0.029933305457234383
-0.3081698715686798 1.802864909172058 -0.1600179374217987 100.0 5 -0.029931001365184784
-1.1284878253936768 6.608859539031982 1.3032255172729492 100.0 13 -0.029928697273135185
-0.3086271584033966 1.8093478679656982 -0.09619349241256714 6.0 6 -0.029926395043730736
-1.1296392679214478 6.629549026489258 1.5526123046875 100.0 14 -0.029924090951681137
-0.30669358372688293 1.8018062114715576 -0.03190299868583679 6.0 7 -0.02992178685963154
-1.120466709136963 6.589626312255859 1.7910279035568237 63.0 15 -0.02991948276758194
-0.30671894550323486 1.8172844648361206 -0.4938267767429352 89.0 0 -0.02989874593913555
-0.30452802777290344 1.8062294721603394 0.03197281062602997 1.0 8 -0.029896441847085953
-0.30487579107284546 1.8102192878723145 -0.4238077998161316 89.0 1 -0.029894137755036354
-0.30384212732315063 1.8040817975997925 0.09587948024272919 98.0 9 -0.029891833662986755
-0.3038976192474365 1.8063308000564575 -0.3560495972633362 94.0 2 -0.029889529570937157
-1.1177637577056885 6.650966644287109 0.590044379234314 87.0 10 -0.029887225478887558
-0.3048117458820343 1.815643072128296 -0.29159387946128845 100.0 3 -0.02988492138683796
-1.1097184419631958 6.617206573486328 0.8238368034362793 97.0 11 -0.02988261729478836
-0.3023942708969116 1.8051015138626099 -0.2247270941734314 94.0 4 -0.02988031506538391
-1.111294150352478 6.633718967437744 1.0653188228607178 83.0 12 -0.029878010973334312
-0.30253198742866516 1.8078598976135254 -0.16036656498908997 100.0 5 -0.029875706881284714
-1.10606050491333 6.616630554199219 1.3039886951446533 100.0 13 -0.029873402789235115
-0.3016519546508789 1.806474208831787 -0.09598415344953537 6.0 6 -0.029871098697185516
-1.103603482246399 6.616152286529541 1.5485631227493286 100.0 14 -0.029868794605135918
-0.30203330516815186 1.810703158378601 -0.032042618840932846 4.0 7 -0.02986649051308632
-1.1005150079727173 6.604739189147949 1.7941336631774902 63.0 15 -0.02986418642103672
-0.30100277066230774 1.8221560716629028 -0.49486202001571655 87.0 0 -0.029843449592590332
-0.29918885231018066 1.8111752271652222 0.032042618840932846 1.0 8 -0.029841145500540733
-0.29887157678604126 1.8112202882766724 -0.4238077998161316 92.0 1 -0.029838841408491135
-0.29689356684684753 1.8011900186538696 0.09567013382911682 98.0 9 -0.029836537316441536
-0.29663312435150146 1.8015692234039307 -0.35490477085113525 99.0 2 -0.029834233224391937
-1.094542145729065 6.654828071594238 0.590044379234314 87.0 10 -0.029831930994987488
-0.299751341342926 1.8224912881851196 -0.2925325036048889 100.0 3 -0.02982962690293789
-1.0896979570388794 6.632603168487549 0.8252992630004883 93.0 11 -0.02982732281088829
-0.296407014131546 1.8060944080352783 -0.2247270941734314 94.0 4 -0.02982501871883869
-1.0871708393096924 6.631710052490234 1.0643802881240845 88.0 12 -0.029822714626789093
-0.2968638837337494 1.8128373622894287 -0.16071519255638123 100.0 5 -0.029820410534739494
-1.0847455263137817 6.6241374015808105 1.304751992225647 100.0 13 -0.029818106442689896
-0.2963050305843353 1.8114066123962402 -0.09619349241256714 6.0 6 -0.029815802350640297
-1.0825984477996826 6.625545501708984 1.549912929534912 100.0 14 -0.029813498258590698
-0.29313427209854126 1.7959575653076172 -0.03176337853074074 2.0 7 -0.0298111941665411
-1.0774548053741455 6.608540058135986 1.7941336631774902 63.0 15 -0.0298088900744915
-0.29310694336891174 1.811702013015747 -0.4917562007904053 89.0 0 -0.029788153246045113
-0.292545348405838 1.810234546661377 0.03200771287083626 3.0 8 -0.029785851016640663
-0.29316893219947815 1.8161002397537231 -0.4247076213359833 90.0 1 -0.029783546924591064
-0.29060104489326477 1.8001928329467773 0.09556546807289124 100.0 9 -0.029781242832541466
-0.2903442084789276 1.8006047010421753 -0.3545231223106384 97.0 2 -0.029778938740491867
-1.070881962776184 6.648585796356201 0.5891727805137634 90.0 10 -0.02977663464844227
-0.2930743992328644 1.8215761184692383 -0.2922196090221405 100.0 3 -0.02977433055639267
-1.0665373802185059 6.636366844177246 0.8252992630004883 97.0 11 -0.02977202646434307
-0.28947100043296814 1.803197979927063 -0.22423960268497467 90.0 4 -0.029769722372293472
-1.0639222860336304 6.627477169036865 1.0631288290023804 88.0 12 -0.029767418280243874
-0.28927376866340637 1.8039753437042236 -0.15984363853931427 100.0 5 -0.029765114188194275
-1.062856674194336 6.6356377601623535 1.3062784671783447 100.0 13 -0.029762810096144676
-0.2899797260761261 1.8124300241470337 -0.09619349241256714 6.0 6 -0.029760506004095078
-1.0594688653945923 6.629283428192139 1.549912929534912 100.0 14 -0.02975820191204548
-0.2884397506713867 1.8048183917999268 -0.03190299868583679 1.0 7 -0.02975589781999588
-1.0543142557144165 6.6044464111328125 1.7920631170272827 63.0 15 -0.02975359372794628
-0.2867823541164398 1.812713861465454 -0.4917562007904053 87.0 0 -0.029732858762145042
-0.287166953086853 1.8151447772979736 0.032077521085739136 2.0 8 -0.029730554670095444
-0.28714439272880554 1.817062497138977 -0.4247076213359833 87.0 1 -0.029728250578045845
-0.28556057810783386 1.8090876340866089 0.09598415344953537 100.0 9 -0.029725946485996246
-0.2846682369709015 1.8054860830307007 -0.3552863597869873 91.0 2 -0.029723642393946648
-1.0476689338684082 6.652283191680908 0.5891727805137634 90.0 10 -0.02972133830189705
-0.28549516201019287 1.8127813339233398 -0.290655255317688 100.0 3 -0.02971903420984745
-1.0451428890228271 6.643789291381836 0.8257867693901062 93.0 11 -0.02971673011779785
-0.28595444560050964 1.8198364973068237 -0.226189523935318 94.0 4 -0.029714426025748253
-1.0410891771316528 6.633101940155029 1.0634416341781616 83.0 12 -0.029712121933698654
-0.28204870223999023 1.7990690469741821 -0.15932069718837738 100.0 5 -0.029709817841649055
-1.0390231609344482 6.627488136291504 1.3039886951446533 100.0 13 -0.029707513749599457
-0.28551238775253296 1.8232477903366089 -0.09671685099601746 5.0 6 -0.029705209657549858
-1.037477731704712 6.632760524749756 1.549912929534912 100.0 14 -0.02970290556550026
-0.2824462056159973 1.807789921760559 -0.03193790465593338 1.0 7 -0.02970060147345066
-1.0300607681274414 6.600451469421387 1.7899925708770752 63.0 15 -0.029698297381401062
-0.28076910972595215 1.8136550188064575 -0.4917562007904053 85.0 0 -0.029677562415599823
-0.281439870595932 1.8200886249542236 0.03214733302593231 3.0 8 -0.029675258323550224
-0.28020453453063965 1.814201831817627 -0.4238077998161316 89.0 1 -0.029672954231500626
-0.2795488238334656 1.8120472431182861 0.09608882665634155 100.0 9 -0.029670650139451027
-0.278680682182312 1.8064199686050415 -0.3552863597869873 97.0 2 -0.029668346047401428
-1.0256046056747437 6.6557207107543945 0.5891727805137634 90.0 10 -0.02966604195535183
-0.279165118932724 1.8137669563293457 -0.290655255317688 100.0 3 -0.02966373786330223
-1.0201369524002075 6.635624408721924 0.8243243098258972 95.0 11 -0.029661433771252632
-0.2789989709854126 1.8168991804122925 -0.22570204734802246 94.0 4 -0.029659129679203033
-1.018825650215149 6.642553329467773 1.0643802881240845 85.0 12 -0.029656825587153435
-0.27728894352912903 1.8078720569610596 -0.1600179374217987 100.0 5 -0.029654521495103836
-1.014096975326538 6.619431972503662 1.3016990423202515 100.0 13 -0.029652217403054237
-0.27824124693870544 1.8183103799819946 -0.0964028462767601 2.0 6 -0.02964991331100464
-1.0146113634109497 6.638267993927002 1.5503627061843872 100.0 14 -0.02964761108160019
-0.2752282917499542 1.8028346300125122 -0.031833190470933914 1.0 7 -0.02964530698955059
-1.0076014995574951 6.607825756072998 1.7910279035568237 63.0 15 -0.029643002897500992
-0.275591641664505 1.8222646713256836 -0.4938267767429352 89.0 0 -0.029622266069054604
-0.2729935944080353 1.80721914768219 0.03190299868583679 5.0 8 -0.029619961977005005
-0.27270838618278503 1.8074610233306885 -0.4220081865787506 87.0 1 -0.029617657884955406
-0.27173328399658203 1.8031374216079712 0.09556546807289124 100.0 9 -0.029615353792905807
-0.2735431492328644 1.8151471614837646 -0.35681283473968506 97.0 2 -0.02961304970085621
-1.0029569864273071 6.663201332092285 0.5895214676856995 90.0 10 -0.02961074560880661
-0.2743018865585327 1.8244973421096802 -0.2922196090221405 100.0 3 -0.02960844151675701
-0.9960819482803345 6.633255958557129 0.8235930800437927 93.0 11 -0.029606137424707413
-0.27177125215530396 1.8119726181030273 -0.22497083246707916 99.0 4 -0.029603833332657814
-0.9962224960327148 6.649975299835205 1.065005898475647 88.0 12 -0.029601529240608215
-0.2715682089328766 1.8127695322036743 -0.16036656498908997 100.0 5 -0.029599227011203766
-0.992148220539093 6.630697250366211 1.3032255172729492 100.0 13 -0.029596922919154167
-0.27012068033218384 1.8074185848236084 -0.095774807035923 1.0 6 -0.02959461882710457
-0.9899994730949402 6.632132053375244 1.548113226890564 100.0 14 -0.02959231473505497
-0.2692287862300873 1.8057620525360107 -0.031868092715740204 1.0 7 -0.02959001064300537
-0.9862353205680847 6.622767925262451 1.7941336631774902 63.0 15 -0.029587706550955772
-0.26922857761383057 1.8232157230377197 -0.4938267767429352 87.0 0 -0.029566969722509384
-0.26989349722862244 1.8299224376678467 0.032286953181028366 4.0 8 -0.029564665630459785
-0.2669650614261627 1.812258005142212 -0.4229080080986023 90.0 1 -0.029562361538410187
-0.26604384183883667 1.8060044050216675 0.09567013382911682 100.0 9 -0.029560057446360588
-0.2660618722438812 1.8083215951919556 -0.3552863597869873 97.0 2 -0.02955775335431099
-0.9796933531761169 6.666661262512207 0.5895214676856995 90.0 10 -0.02955544926226139
-0.26678359508514404 1.8176261186599731 -0.2909681499004364 100.0 3 -0.02955314703285694
-0.973783552646637 6.642585277557373 0.8243243098258972 95.0 11 -0.029550842940807343
-0.26515743136405945 1.810945987701416 -0.2247270941734314 90.0 4 -0.029548538848757744
-0.972446084022522 6.641516208648682 1.0631288290023804 81.0 12 -0.029546234756708145
-0.2658149302005768 1.817649483680725 -0.16071519255638123 100.0 5 -0.029543930664658546
-0.9689949154853821 6.634120464324951 1.3032255172729492 100.0 13 -0.029541626572608948
-0.2632337212562561 1.804397702217102 -0.09556546807289124 1.0 6 -0.02953932248055935
-0.966279149055481 6.631690979003906 1.5472134351730347 100.0 14 -0.02953701838850975
-0.2623745799064636 1.800708532333374 -0.03176337853074074 1.0 7 -0.02953471429646015
-0.9631533026695251 6.6183552742004395 1.7920631170272827 63.0 15 -0.029532410204410553
-0.26176178455352783 1.8164957761764526 -0.4917562007904053 89.0 0 -0.029511673375964165
-0.2606867551803589 1.8090354204177856 0.03190299868583679 5.0 8 -0.029509369283914566
-0.2620638310909271 1.820848822593689 -0.4247076213359833 90.0 1 -0.029507067054510117
-0.260590136051178 1.8128529787063599 0.09598415344953537 100.0 9 -0.029504762962460518
-0.25947025418281555 1.807295799255371 -0.35490477085113525 99.0 2 -0.02950245887041092
-0.9558489918708801 6.666095733642578 0.5891727805137634 90.0 10 -0.02950015477836132
-0.2624364495277405 1.830233097076416 -0.29284536838531494 100.0 3 -0.029497850686311722
-0.9517518877983093 6.645777702331543 0.8243243098258972 95.0 11 -0.029495546594262123
-0.25915104150772095 1.8118152618408203 -0.2247270941734314 96.0 4 -0.029493242502212524
-0.9492551684379578 6.644870281219482 1.0631288290023804 88.0 12 -0.029490938410162926
-0.2580609619617462 1.8087043762207031 -0.15984363853931427 100.0 5 -0.029488634318113327
-0.9475458860397339 6.641184329986572 1.3039886951446533 100.0 13 -0.02948633022606373
-0.2592213749885559 1.8191016912460327 -0.09629816561937332 2.0 6 -0.02948402613401413
-0.9459280371665955 6.646434783935547 1.549912929534912 100.0 14 -0.02948172204196453
-0.25524261593818665 1.795674204826355 -0.03165866807103157 1.0 7 -0.029479417949914932
-0.9389603734016418 6.614026069641113 1.7899925708770752 63.0 15 -0.029477113857865334
-0.2557361423969269 1.8173538446426392 -0.4917562007904053 89.0 0 -0.029456378892064095
-0.25436997413635254 1.809934377670288 0.03190299868583679 7.0 8 -0.029454074800014496
-0.25570669770240784 1.8217524290084839 -0.4247076213359833 90.0 1 -0.029451770707964897
-0.25509268045425415 1.8196852207183838 0.09629816561937332 100.0 9 -0.0294494666159153
-0.2534317672252655 1.8101348876953125 -0.3552863597869873 97.0 2 -0.0294471625238657
-0.9326344132423401 6.6613359451293945 0.5884755849838257 93.0 10 -0.0294448584318161
-0.2552250027656555 1.8252689838409424 -0.2919067442417145 100.0 3 -0.029442554339766502
-0.9296476244926453 6.656922817230225 0.8252992630004883 95.0 11 -0.029440250247716904
-0.2530987858772278 1.814674973487854 -0.22497083246707916 99.0 4 -0.029437946155667305
-0.9260526895523071 6.648143291473389 1.0631288290023804 85.0 12 -0.029435642063617706
-0.25147169828414917 1.807620644569397 -0.15966932475566864 100.0 5 -0.029433337971568108
-0.9226595759391785 6.64072322845459 1.3032255172729492 100.0 13 -0.02943103387951851
-0.2531000077724457 1.8239964246749878 -0.09650751203298569 2.0 6 -0.02942872978746891
-0.9227201342582703 6.649696350097656 1.549912929534912 100.0 14 -0.02942642569541931
-0.2495223730802536 1.8005156517028809 -0.03172847628593445 2.0 7 -0.029424121603369713
-0.9158687591552734 6.617262840270996 1.7899925708770752 63.0 15 -0.029421817511320114
-0.24907389283180237 1.8182789087295532 -0.4917562007904053 89.0 0 -0.029401082545518875
-0.24529550969600677 1.7930233478546143 0.031588856130838394 19.0 8 -0.029398778453469276
-0.24797223508358002 1.8149542808532715 -0.4229080080986023 90.0 1 -0.029396474361419678
-0.24896195530891418 1.8245657682418823 0.09650751203298569 100.0 9 -0.02939417026937008
-0.24679598212242126 1.8110514879226685 -0.3552863597869873 94.0 2 -0.02939186617732048
-0.9076765775680542 6.660760879516602 0.5881268978118896 93.0 10 -0.02938956208527088
-0.24453803896903992 1.7968322038650513 -0.2872137129306793 98.0 3 -0.029387257993221283
-0.903372585773468 6.646516799926758 0.8235930800437927 93.0 11 -0.029384953901171684
-0.24671247601509094 1.8175575733184814 -0.22521455585956573 96.0 4 -0.029382649809122086
-0.9038040041923523 6.667151927947998 1.0656317472457886 88.0 12 -0.029380345717072487
-0.24537885189056396 1.812479019165039 -0.1600179374217987 100.0 5 -0.029378041625022888
-0.8977860808372498 6.640169143676758 1.3024622201919556 100.0 13 -0.02937573753297329
-0.24427536129951477 1.809077262878418 -0.09567013382911682 3.0 6 -0.02937343344092369
-0.8988646268844604 6.656895637512207 1.5508127212524414 100.0 14 -0.029371129348874092
-0.24479171633720398 1.8152904510498047 -0.03197281062602997 4.0 7 -0.029368825256824493
-0.8926388621330261 6.628233909606934 1.7920631170272827 63.0 15 -0.029366523027420044
-0.2429177612066269 1.8230094909667969 -0.49279147386550903 85.0 0 -0.029345786198973656
-0.24109569191932678 1.8117504119873047 0.03190299868583679 18.0 8 -0.029343482106924057
-0.24080538749694824 1.811987280845642 -0.4220081865787506 92.0 1 -0.02934117801487446
-0.24127545952796936 1.8155244588851929 0.09598415344953537 100.0 9 -0.02933887392282486
-0.24124713242053986 1.817740559577942 -0.3564312160015106 99.0 2 -0.02933656983077526
-0.8850883841514587 6.6778693199157715 0.5893471240997314 87.0 10 -0.029334265738725662
-0.24106153845787048 1.8212159872055054 -0.2909681499004364 100.0 3 -0.029331961646676064
-0.8787439465522766 6.647815227508545 0.8233493566513062 97.0 11 -0.029329657554626465
-0.2390662133693695 1.8085676431655884 -0.2239958643913269 99.0 4 -0.029327353462576866
-0.8805272579193115 6.670266151428223 1.0656317472457886 88.0 12 -0.029325049370527267
-0.2390509992837906 1.8133244514465332 -0.1600179374217987 100.0 5 -0.02932274527847767
-0.8751160502433777 6.64715576171875 1.3032255172729492 100.0 13 -0.02932044304907322
-0.24030251801013947 1.8277409076690674 -0.09661218523979187 5.0 6 -0.02931813895702362
-0.8740994334220886 6.648399829864502 1.548113226890564 100.0 14 -0.029315834864974022
-0.23845407366752625 1.8161338567733765 -0.03197281062602997 6.0 7 -0.029313530772924423
-0.8689956068992615 6.627478122711182 1.7910279035568237 63.0 15 -0.029311226680874825
-0.23736825585365295 1.82763671875 -0.4938267767429352 87.0 0 -0.029290489852428436
-0.23431511223316193 1.8065905570983887 0.031798284500837326 30.0 8 -0.029288185760378838
-0.23529541492462158 1.8166412115097046 -0.4229080080986023 92.0 1 -0.02928588166832924
-0.2334572970867157 1.8024497032165527 0.09525144845247269 100.0 9 -0.02928357757627964
-0.23421010375022888 1.8107426166534424 -0.35490477085113525 99.0 2 -0.02928127348423004
-0.8629403114318848 6.68076753616333 0.5893471240997314 87.0 10 -0.029278969392180443
-0.23577843606472015 1.8278827667236328 -0.2919067442417145 100.0 3 -0.029276665300130844
-0.8566923141479492 6.650692939758301 0.8233493566513062 93.0 11 -0.029274363070726395
-0.23332056403160095 1.811319351196289 -0.22423960268497467 92.0 4 -0.029272058978676796
-0.8573962450027466 6.66531229019165 1.0643802881240845 88.0 12 -0.029269754886627197
-0.23455910384655 1.825964093208313 -0.1610638052225113 100.0 5 -0.0292674507945776
-0.8535661697387695 6.653915882110596 1.3039886951446533 100.0 13 -0.029265146702528
-0.23373299837112427 1.8245655298233032 -0.0964028462767601 6.0 6 -0.0292628426104784
-0.8520491123199463 6.651261806488037 1.548113226890564 100.0 14 -0.029260538518428802
-0.23293721675872803 1.820881724357605 -0.032042618840932846 6.0 7 -0.029258234426379204
-0.8479907512664795 6.637989521026611 1.7930984497070312 63.0 15 -0.029255930334329605
-0.23082171380519867 1.824580430984497 -0.49279147386550903 89.0 0 -0.029235193505883217
-0.22807183861732483 1.8053739070892334 0.03176337853074074 41.0 8 -0.029232889413833618
-0.2297581136226654 1.8212782144546509 -0.4238077998161316 92.0 1 -0.02923058532178402
-0.2284126877784729 1.8131614923477173 0.095774807035923 100.0 9 -0.02922828122973442
-0.22820453345775604 1.811509132385254 -0.35490477085113525 99.0 2 -0.02922597900032997
-0.8392874002456665 6.671731472015381 0.5883012413978577 96.0 10 -0.029223674908280373
-0.23020847141742706 1.832574486732483 -0.2925325036048889 100.0 3 -0.029221370816230774
-0.8366110920906067 6.669254302978516 0.8252992630004883 95.0 11 -0.029219066724181175
-0.22749033570289612 1.8160622119903564 -0.2247270941734314 96.0 4 -0.029216762632131577
-0.8331422805786133 6.660424709320068 1.0631288290023804 85.0 12 -0.029214458540081978
-0.22603008151054382 1.806962013244629 -0.15932069718837738 100.0 5 -0.02921215444803238
-0.8329576253890991 6.668397903442383 1.3062784671783447 100.0 13 -0.02920985035598278
-0.22743351757526398 1.8233487606048584 -0.09629816561937332 7.0 6 -0.029207546263933182
-0.8293066024780273 6.658062934875488 1.5490130186080933 100.0 14 -0.029205242171883583
-0.22583964467048645 1.815730333328247 -0.03193790465593338 7.0 7 -0.029202938079833984
-0.8243398070335388 6.6370744705200195 1.7920631170272827 63.0 15 -0.029200633987784386
-0.22398017346858978 1.8215402364730835 -0.4917562007904053 87.0 0 -0.029179899021983147
-0.22274282574653625 1.8140982389450073 0.03190299868583679 96.0 8 -0.029177594929933548
-0.22387395799160004 1.8259376287460327 -0.4247076213359833 90.0 1 -0.02917529083788395
-0.22183986008167267 1.8119652271270752 0.09567013382911682 100.0 9 -0.02917298674583435
-0.22164160013198853 1.8103458881378174 -0.3545231223106384 97.0 2 -0.029170682653784752
-0.8159918189048767 6.674621105194092 0.5883012413978577 96.0 10 -0.029168378561735153
-0.22213412821292877 1.8196412324905396 -0.29034239053726196 100.0 3 -0.029166074469685555
-0.8133273124694824 6.672133445739746 0.8252992630004883 95.0 11 -0.029163770377635956
-0.22114922106266022 1.816845417022705 -0.2247270941734314 96.0 4 -0.029161466285586357
-0.8103627562522888 6.6672139167785645 1.0637544393539429 88.0 12 -0.02915916219353676
-0.2202015519142151 1.8116958141326904 -0.15966932475566864 100.0 5 -0.02915685810148716
-0.8084943294525146 6.661520481109619 1.304370403289795 100.0 13 -0.02915455400943756
-0.22250871360301971 1.8360282182693481 -0.09692620486021042 9.0 6 -0.029152249917387962
-0.8067611455917358 6.666721820831299 1.5503627061843872 100.0 14 -0.029149945825338364
-0.2199803590774536 1.820478081703186 -0.03200771287083626 7.0 7 -0.029147641733288765
-0.800239622592926 6.63223934173584 1.7899925708770752 63.0 15 -0.029145337641239166
-0.21761995553970337 1.8223110437393188 -0.4917562007904053 90.0 0 -0.029124602675437927
-0.2142793834209442 1.7969938516616821 0.031588856130838394 100.0 8 -0.02912229858338833
-0.21703758835792542 1.8228378295898438 -0.4238077998161316 92.0 1 -0.02911999449133873
-0.21716362237930298 1.8266117572784424 0.0964028462767601 100.0 9 -0.02911769039928913
-0.21532046794891357 1.8111085891723633 -0.3545231223106384 97.0 2 -0.029115386307239532
-0.7933972477912903 6.683363914489746 0.5888242125511169 90.0 10 -0.029113082215189934
-0.21601392328739166 1.8223670721054077 -0.290655255317688 100.0 3 -0.029110778123140335
-0.788163959980011 6.659161567687988 0.8233493566513062 95.0 11 -0.029108474031090736
-0.21504013240337372 1.8195774555206299 -0.22497083246707916 99.0 4 -0.029106169939041138
-0.7875493764877319 6.673925399780273 1.0643802881240845 85.0 12 -0.02910386584699154
-0.2135602831840515 1.812490701675415 -0.15966932475566864 100.0 5 -0.02910156175494194
-0.7840858101844788 6.654553413391113 1.3024622201919556 100.0 13 -0.02909925766289234
-0.21493197977542877 1.8268756866455078 -0.0964028462767601 6.0 6 -0.029096953570842743
-0.7837138175964355 6.6714324951171875 1.5508127212524414 100.0 14 -0.029094649478793144
-0.2129250019788742 1.8152767419815063 -0.03190299868583679 8.0 7 -0.029092345386743546
-0.7775347232818604 6.638830184936523 1.7910279035568237 63.0 15 -0.029090041294693947
-0.212272047996521 1.8346105813980103 -0.49486202001571655 89.0 0 -0.029069306328892708
-0.2086944431066513 1.8036903142929077 0.03169357031583786 100.0 8 -0.02906700223684311
-0.20933103561401367 1.81196928024292 -0.4211083948612213 87.0 1 -0.02906469814479351
-0.20941342413425446 1.8154538869857788 0.095774807035923 100.0 9 -0.029062394052743912
-0.21002918481826782 1.8235877752304077 -0.35681283473968506 97.0 2 -0.029060089960694313
-0.7688912749290466 6.686227321624756 0.5888242125511169 93.0 10 -0.029057785868644714
-0.20978423953056335 1.8270714282989502 -0.2912810146808624 100.0 3 -0.029055481776595116
-0.765368640422821 6.665816307067871 0.8238368034362793 95.0 11 -0.029053177684545517
-0.20868681371212006 1.820317029953003 -0.22497083246707916 99.0 4 -0.02905087359249592
-0.7651450037956238 6.684484004974365 1.0656317472457886 88.0 12 -0.02904856950044632
-0.20813751220703125 1.8211429119110107 -0.16036656498908997 100.0 5 -0.02904626540839672
-0.7601370811462402 6.661283493041992 1.3032255172729492 100.0 13 -0.029043961316347122
-0.20710374414920807 1.817729115486145 -0.09587948024272919 7.0 6 -0.029041659086942673
-0.7588174343109131 6.670387268066406 1.549912929534912 100.0 14 -0.029039354994893074
-0.20794372260570526 1.827929973602295 -0.032112427055835724 9.0 7 -0.029037050902843475
-0.7543575763702393 6.64150333404541 1.7910279035568237 62.0 15 -0.029034746810793877
-0.205866277217865 1.8353403806686401 -0.49486202001571655 89.0 0 -0.02901400998234749
-0.2020825892686844 1.8044430017471313 0.03169357031583786 100.0 8 -0.02901170589029789
-0.20355500280857086 1.8204710483551025 -0.4229080080986023 92.0 1 -0.02900940179824829
-0.20231439173221588 1.8122395277023315 0.09556546807289124 100.0 9 -0.029007097706198692
-0.2025728076696396 1.814554214477539 -0.35490477085113525 99.0 2 -0.029004793614149094
-0.74643474817276 6.69679069519043 0.5895214676856995 93.0 10 -0.029002489522099495
-0.20362327992916107 1.8297560214996338 -0.29159387946128845 100.0 3 -0.029000185430049896
-0.7413687705993652 6.672523021697998 0.8243243098258972 93.0 11 -0.028997881338000298
-0.2013574242591858 1.8151506185531616 -0.22423960268497467 94.0 4 -0.0289955772459507
-0.7393367886543274 6.6754631996154785 1.0637544393539429 88.0 12 -0.02899327501654625
-0.20189881324768066 1.8258544206619263 -0.16071519255638123 100.0 5 -0.02899097092449665
-0.737309992313385 6.66779899597168 1.3039886951446533 100.0 13 -0.028988666832447052
-0.20163534581661224 1.8263815641403198 -0.09629816561937332 7.0 6 -0.028986362740397453
-0.7346730828285217 6.665247917175293 1.548113226890564 100.0 14 -0.028984058648347855
-0.20014844834804535 1.8187415599822998 -0.03193790465593338 9.0 7 -0.028981754556298256
-0.7308555841445923 6.651904582977295 1.7930984497070312 63.0 15 -0.028979450464248657
-0.19788862764835358 1.8245590925216675 -0.4917562007904053 89.0 0 -0.02895871363580227
-0.1972915083169937 1.8190536499023438 0.03193790465593338 100.0 8 -0.02895640954375267
-0.19761821627616882 1.8250452280044556 -0.4238077998161316 90.0 1 -0.02895410545170307
-0.19577299058437347 1.8109490871429443 0.09546079486608505 100.0 9 -0.028951801359653473
-0.19571048021316528 1.813332438468933 -0.3545231223106384 97.0 2 -0.028949499130249023
-0.7210260629653931 6.691558361053467 0.5888242125511169 93.0 10 -0.028947193175554276
-0.19691593945026398 1.830489993095398 -0.29159387946128845 100.0 3 -0.028944890946149826
-0.7184988260269165 6.679016590118408 0.8248117566108704 97.0 11 -0.028942586854100227
-0.19480767846107483 1.8138686418533325 -0.2239958643913269 99.0 4 -0.02894028276205063
-0.7164499759674072 6.68193244934082 1.0643802881240845 85.0 12 -0.02893797867000103
-0.194252148270607 1.8146616220474243 -0.15966932475566864 100.0 5 -0.02893567457795143
-0.7132850885391235 6.674361228942871 1.304751992225647 100.0 13 -0.028933370485901833
-0.19599808752536774 1.837038516998291 -0.09682153165340424 8.0 6 -0.028931066393852234
-0.7104466557502747 6.669833183288574 1.5485631227493286 100.0 14 -0.028928762301802635
-0.19337542355060577 1.815452218055725 -0.031868092715740204 8.0 7 -0.028926458209753036
-0.7068127393722534 6.646731376647949 1.7910279035568237 63.0 15 -0.028924154117703438
-0.19175146520137787 1.8213294744491577 -0.4907209575176239 87.0 0 -0.02941274642944336
-0.19125773012638092 1.8196979761123657 0.03193790465593338 93.0 8 -0.02941044233739376
-0.19115959107875824 1.8218142986297607 -0.4229080080986023 89.0 1 -0.029408138245344162
-0.19091680645942688 1.8195005655288696 0.09587948024272919 100.0 9 -0.029405834153294563
-0.18960405886173248 1.8100333213806152 -0.35375988483428955 94.0 2 -0.029403530061244965
-0.6993799805641174 6.687845230102539 0.5883012413978577 96.0 10 -0.029401225969195366
-0.19034335017204285 1.823240876197815 -0.29034239053726196 100.0 3 -0.029398921877145767
-0.6973767280578613 6.691235065460205 0.8260304927825928 100.0 11 -0.02939661778509617
-0.18981824815273285 1.8243769407272339 -0.22521455585956573 92.0 4 -0.02939431369304657
-0.6950469613075256 6.680220127105713 1.0637544393539429 88.0 12 -0.02939200960099697
-0.1887555867433548 1.8172446489334106 -0.15984363853931427 100.0 5 -0.029389705508947372
-0.6925172209739685 6.678521633148193 1.305133581161499 100.0 13 -0.029387403279542923
-0.19207710027694702 1.855525016784668 -0.09776357561349869 7.0 6 -0.029385099187493324
-0.6896876692771912 6.673970699310303 1.5490130186080933 100.0 14 -0.029382795095443726
-0.18952053785324097 1.8339526653289795 -0.0321822389960289 16.0 7 -0.029380491003394127
-0.6851361989974976 6.641232013702393 1.7889572381973267 63.0 15 -0.029378186911344528
-0.1857832819223404 1.825831413269043 -0.4917562007904053 90.0 0 -0.02935745008289814
-0.18502026796340942 1.8183327913284302 0.03190299868583679 68.0 8 -0.02935514599084854
-0.18472281098365784 1.8185606002807617 -0.4220081865787506 90.0 1 -0.029352841898798943
-0.18456390500068665 1.8201558589935303 0.09587948024272919 100.0 9 -0.029350537806749344
-0.18367965519428253 1.814590573310852 -0.3545231223106384 94.0 2 -0.029348233714699745
-0.6762324571609497 6.692227840423584 0.5884755849838257 93.0 10 -0.029345929622650146
-0.1840979903936386 1.8218966722488403 -0.29002952575683594 100.0 3 -0.029343625530600548
-0.6741858720779419 6.683635234832764 0.8248117566108704 99.0 11 -0.0293413233011961
-0.18416549265384674 1.8289467096328735 -0.22570204734802246 94.0 4 -0.0293390192091465
-0.672120988368988 6.68653678894043 1.0643802881240845 88.0 12 -0.0293367151170969
-0.18261036276817322 1.8198747634887695 -0.1600179374217987 100.0 5 -0.029334411025047302
-0.6693847179412842 6.671014308929443 1.3032255172729492 100.0 13 -0.029332106932997704
-0.1875157654285431 1.872050166130066 -0.09860094636678696 8.0 6 -0.029329802840948105
-0.6681320071220398 6.6820387840271 1.5503627061843872 100.0 14 -0.029327498748898506
-0.18430973589420319 1.8465418815612793 -0.03239166736602783 21.0 7 -0.029325194656848907
