# .PCD v0.7 - Point Cloud Data file format
VERSION 0.7
FIELDS x y z intensity ring time
SIZE 4 4 4 4 4 4
TYPE F F F F F F
COUNT 1 1 1 1 1 1
WIDTH 539
HEIGHT 1
VIEWPOINT 0 0 0 1 0 0 0
POINTS 539
DATA ascii
-0.29285869002342224 1.804175615310669 -0.3552863597869873 97.0 2 -0.04828081652522087
-1.0775244235992432 6.645493984222412 0.5889984965324402 96.0 10 -0.04827851429581642
-0.2937183976173401 1.813468337059021 -0.2909681499004364 100.0 3 -0.048276208341121674
-1.0752818584442139 6.638977527618408 0.8257867693901062 99.0 11 -0.048273906111717224
-0.2929418385028839 1.8106815814971924 -0.22521455585956573 92.0 4 -0.048271600157022476
-1.0711766481399536 6.62830924987793 1.0634416341781616 84.0 12 -0.04826929792761803
-0.2902100384235382 1.7977707386016846 -0.15932069718837738 100.0 5 -0.04826699197292328
-1.0691792964935303 6.630644798278809 1.3055152893066406 100.0 13 -0.04826468974351883
-0.29410067200660706 1.8259283304214478 -0.09692620486021042 7.0 6 -0.04826238378882408
-1.0657908916473389 6.624321937561035 1.5490130186080933 100.0 14 -0.04826008155941963
-0.29001182317733765 1.802540898323059 -0.031868092715740204 2.0 7 -0.048257775604724884
-1.060616374015808 6.599523544311523 1.7910279035568237 63.0 15 -0.048255473375320435
-0.28928810358047485 1.8162282705307007 -0.49279147386550903 87.0 0 -0.0482347346842289
-0.2881214916706085 1.8109439611434937 0.03200771287083626 3.0 8 -0.04823243245482445
-0.2881181836128235 1.8129619359970093 -0.4238077998161316 90.0 1 -0.04823013022542
-0.2887086868286133 1.8166776895523071 0.0964028462767601 100.0 9 -0.04822782427072525
-0.2871759831905365 1.809064507484436 -0.3560495972633362 97.0 2 -0.0482255220413208
-1.0546340942382812 6.651182651519775 0.5891727805137634 93.0 10 -0.04822321608662605
-0.2873859405517578 1.8144826889038086 -0.2909681499004364 100.0 3 -0.0482209138572216
-1.0490819215774536 6.631109714508057 0.8243243098258972 93.0 11 -0.048218607902526855
-0.28692349791526794 1.8156646490097046 -0.22570204734802246 96.0 4 -0.048216305673122406
-1.0495760440826416 6.641763687133789 1.065005898475647 85.0 12 -0.04821399971842766
-0.2845537066459656 1.8027089834213257 -0.15966932475566864 100.0 5 -0.04821169748902321
-1.0448027849197388 6.626579761505127 1.3039886951446533 100.0 13 -0.04820939153432846
-0.2858612537384033 1.81510591506958 -0.09629816561937332 7.0 6 -0.04820708930492401
-1.0435680150985718 6.633778095245361 1.5503627061843872 100.0 14 -0.04820478335022926
-0.282474547624588 1.7956408262252808 -0.03172847628593445 1.0 7 -0.048202481120824814
-1.0375715494155884 6.603186130523682 1.7910279035568237 63.0 15 -0.048200175166130066
-0.2835404872894287 1.8210448026657104 -0.4938267767429352 89.0 0 -0.04817944020032883
-0.28211498260498047 1.8118892908096313 0.03200771287083626 2.0 8 -0.04817713797092438
-0.28090620040893555 1.806205153465271 -0.4220081865787506 89.0 1 -0.04817483201622963
-0.28021979331970215 1.8038591146469116 0.09567013382911682 100.0 9 -0.04817252978682518
-0.2814610004425049 1.8139362335205078 -0.35681283473968506 97.0 2 -0.04817022383213043
-1.0320192575454712 6.658761501312256 0.5895214676856995 90.0 10 -0.04816792160272598
-0.2813667953014374 1.8154257535934448 -0.2909681499004364 100.0 3 -0.048165615648031235
-1.0258699655532837 6.626705646514893 0.8233493566513062 95.0 11 -0.048163313418626785
-0.28090134263038635 1.816606044769287 -0.22570204734802246 90.0 4 -0.04816100746393204
-1.026383876800537 6.645386695861816 1.065005898475647 88.0 12 -0.04815870523452759
-0.27947479486465454 1.8115674257278442 -0.16036656498908997 100.0 5 -0.04815639927983284
-1.0222283601760864 6.626126766204834 1.3032255172729492 100.0 13 -0.04815409705042839
-0.2783200740814209 1.8061741590499878 -0.095774807035923 4.0 6 -0.04815179109573364
-1.0209691524505615 6.633350372314453 1.5494630336761475 100.0 14 -0.04814948886632919
-0.27742066979408264 1.8045216798782349 -0.031868092715740204 1.0 7 -0.048147182911634445
-1.0162795782089233 6.618224143981934 1.7941336631774902 63.0 15 -0.048144880682229996
-0.27866312861442566 1.8296144008636475 -0.4958973228931427 90.0 0 -0.04812414571642876
-0.27638959884643555 1.816817045211792 0.032077521085739136 3.0 8 -0.04812183976173401
-0.2751863896846771 1.8110278844833374 -0.4229080080986023 89.0 1 -0.04811953753232956
-0.2730218768119812 1.7989026308059692 0.09535612165927887 100.0 9 -0.04811723157763481
-0.27367615699768066 1.8032134771347046 -0.3545231223106384 97.0 2 -0.04811492934823036
-1.0099337100982666 6.662147045135498 0.5895214676856995 90.0 10 -0.048112623393535614
-0.27591651678085327 1.8222559690475464 -0.2919067442417145 100.0 3 -0.048110321164131165
-1.0045114755630493 6.642022609710693 0.8248117566108704 93.0 11 -0.04810801520943642
-0.2721860110759735 1.801872968673706 -0.22375212609767914 94.0 4 -0.04810571298003197
-1.0028905868530273 6.646975040435791 1.0646930932998657 89.0 12 -0.04810340702533722
-0.2737635374069214 1.814454436302185 -0.1605408787727356 100.0 5 -0.04810110479593277
-0.9996758699417114 6.633537769317627 1.3039886951446533 100.0 13 -0.04809879884123802
-0.2696349024772644 1.7913347482681274 -0.09493743628263474 1.0 6 -0.04809649661183357
-0.9969435930252075 6.631091594696045 1.548113226890564 100.0 14 -0.048094190657138824
-0.26933780312538147 1.7936140298843384 -0.03165866807103157 1.0 7 -0.048091888427734375
-0.9925966262817383 6.617910861968994 1.7930984497070312 63.0 15 -0.048089586198329926
-0.27000072598457336 1.8152893781661987 -0.4917562007904053 89.0 0 -0.04806884750723839
-0.27180951833724976 1.8296387195587158 0.032286953181028366 4.0 8 -0.04806654527783394
-0.2700066566467285 1.8196879625320435 -0.4247076213359833 85.0 1 -0.04806423932313919
-0.2679115831851959 1.8077473640441895 0.095774807035923 100.0 9 -0.04806193709373474
-0.26737961173057556 1.8041578531265259 -0.3545231223106384 94.0 2 -0.04805963113903999
-0.9855067133903503 6.657747745513916 0.5888242125511169 93.0 10 -0.048057328909635544
-0.27013128995895386 1.8271163702011108 -0.2925325036048889 100.0 3 -0.048055022954940796
-0.980738639831543 6.641561508178711 0.8243243098258972 95.0 11 -0.048052720725536346
-0.26676392555236816 1.8087035417556763 -0.22448335587978363 99.0 4 -0.0480504147708416
-0.9779532551765442 6.638710021972656 1.0628159046173096 84.0 12 -0.04804811254143715
-0.2671373784542084 1.8134278059005737 -0.16036656498908997 100.0 5 -0.0480458065867424
-0.9773700833320618 6.642813682556152 1.305133581161499 100.0 13 -0.04804350435733795
-0.26512303948402405 1.8041211366653442 -0.09556546807289124 1.0 6 -0.0480412021279335
-0.9749208688735962 6.642243385314941 1.549912929534912 100.0 14 -0.048038896173238754
-0.26510515809059143 1.8083932399749756 -0.03190299868583679 1.0 7 -0.048036593943834305
-0.9683716297149658 6.613688945770264 1.7910279035568237 63.0 15 -0.04803428798913956
-0.26366376876831055 1.8162206411361694 -0.4917562007904053 87.0 0 -0.04801355302333832
-0.26140353083610535 1.802870273590088 0.031798284500837326 4.0 8 -0.04801124706864357
-0.26421207189559937 1.8244764804840088 -0.4256074130535126 90.0 1 -0.04800894483923912
-0.26274460554122925 1.8165780305862427 0.09619349241256714 100.0 9 -0.04800663888454437
-0.261643648147583 1.808966040611267 -0.3552863597869873 97.0 2 -0.04800433665513992
-0.9616893529891968 6.657203674316406 0.5884755849838257 93.0 10 -0.048002030700445175
-0.2620587944984436 1.8163174390792847 -0.290655255317688 100.0 3 -0.047999728471040726
-0.9592525959014893 6.65673303604126 0.8257867693901062 93.0 11 -0.047997426241636276
-0.2615794241428375 1.8174831867218018 -0.2254583090543747 99.0 4 -0.04799512028694153
-0.9556152820587158 6.64794921875 1.0637544393539429 85.0 12 -0.04799281805753708
-0.25910431146621704 1.8025165796279907 -0.15932069718837738 100.0 5 -0.04799051210284233
-0.9533438682556152 6.640354156494141 1.3039886951446533 100.0 13 -0.04798820987343788
-0.26194173097610474 1.8267829418182373 -0.09671685099601746 1.0 6 -0.047985903918743134
-0.9508987069129944 6.639819622039795 1.5485631227493286 100.0 14 -0.047983601689338684
-0.25907546281814575 1.8112868070602417 -0.03193790465593338 1.0 7 -0.047981295734643936
-0.9447314739227295 6.613204002380371 1.7899925708770752 63.0 15 -0.04797899350523949
-0.2578636407852173 1.820955514907837 -0.49279147386550903 87.0 0 -0.04795825481414795
-0.25538918375968933 1.8057518005371094 0.031833190470933914 6.0 8 -0.0479559525847435
-0.25620603561401367 1.8138103485107422 -0.4229080080986023 92.0 1 -0.04795365035533905
-0.2569594979286194 1.8214396238327026 0.0964028462767601 100.0 9 -0.0479513444006443
-0.25560134649276733 1.8118125200271606 -0.35566797852516174 99.0 2 -0.04794904217123985
-0.937890887260437 6.65657377243042 0.5881268978118896 90.0 10 -0.047946736216545105
-0.25544223189353943 1.8152649402618408 -0.29034239053726196 100.0 3 -0.047944433987140656
-0.9343511462211609 6.6482462882995605 0.8243243098258972 95.0 11 -0.04794212803244591
-0.25661370158195496 1.8282142877578735 -0.22667700052261353 92.0 4 -0.04793982580304146
-0.9329536557197571 6.655157089233398 1.0643802881240845 88.0 12 -0.04793751984834671
-0.25391754508018494 1.8113024234771729 -0.1600179374217987 100.0 5 -0.04793521761894226
-0.9290682673454285 6.635864734649658 1.3024622201919556 100.0 13 -0.04793291166424751
-0.25418007373809814 1.817796230316162 -0.09619349241256714 2.0 6 -0.04793060943484306
-0.9287950396537781 6.650818347930908 1.5503627061843872 100.0 14 -0.047928303480148315
-0.25330328941345215 1.8161413669586182 -0.03200771287083626 2.0 7 -0.047926001250743866
-0.9221726059913635 6.620288372039795 1.7910279035568237 63.0 15 -0.04792369529604912
-0.25256285071372986 1.8294992446899414 -0.49486202001571655 89.0 0 -0.04790296033024788
-0.24908477067947388 1.806632161140442 0.031833190470933914 15.0 8 -0.04790065810084343
-0.2493409663438797 1.8108325004577637 -0.4220081865787506 87.0 1 -0.04789835214614868
-0.2489677220582962 1.8104535341262817 0.095774807035923 100.0 9 -0.04789604991674423
-0.2495432198047638 1.8146384954452515 -0.3560495972633362 97.0 2 -0.047893743962049484
-0.9173617362976074 6.679545879364014 0.589870035648346 90.0 10 -0.047891441732645035
-0.2496405839920044 1.8200597763061523 -0.2909681499004364 100.0 3 -0.04788913577795029
-0.9100624918937683 6.6436004638671875 0.8233493566513062 93.0 11 -0.04788683354854584
-0.24700205028057098 1.8054975271224976 -0.22375212609767914 94.0 4 -0.04788452759385109
-0.910784900188446 6.666202068328857 1.0656317472457886 88.0 12 -0.04788222536444664
-0.24894143640995026 1.8220481872558594 -0.16088949143886566 100.0 5 -0.04787991940975189
-0.9059005975723267 6.639067649841309 1.3024622201919556 100.0 13 -0.04787761718034744
-0.24702546000480652 1.8127354383468628 -0.09587948024272919 2.0 6 -0.047875311225652695
-0.9042580723762512 6.644365310668945 1.548113226890564 100.0 14 -0.047873008996248245
-0.24588532745838165 1.8090884685516357 -0.031868092715740204 3.0 7 -0.0478707030415535
-0.9000986814498901 6.631124496459961 1.7930984497070312 63.0 15 -0.04786840081214905
-0.2461746782064438 1.8303697109222412 -0.49486202001571655 89.0 0 -0.04784766584634781
-0.24251024425029755 1.8055087327957153 0.031798284500837326 13.0 8 -0.04784535989165306
-0.24353700876235962 1.8155547380447388 -0.4229080080986023 90.0 1 -0.04784305766224861
-0.24264605343341827 1.8113116025924683 0.095774807035923 100.0 9 -0.047840751707553864
-0.2421642541885376 1.8077150583267212 -0.3545231223106384 97.0 2 -0.047838449478149414
-0.8937742114067078 6.6807332038879395 0.5896957516670227 87.0 10 -0.047836143523454666
-0.24380943179130554 1.8248361349105835 -0.29159387946128845 100.0 3 -0.04783384129405022
-0.8873897194862366 6.65067195892334 0.8238368034362793 97.0 11 -0.04783153533935547
-0.23991110920906067 1.8004456758499146 -0.22302091121673584 99.0 4 -0.04782923310995102
-0.885426938533783 6.6536760330200195 1.0631288290023804 88.0 12 -0.04782692715525627
-0.24231737852096558 1.8209309577941895 -0.16071519255638123 100.0 5 -0.04782462492585182
-0.8837531805038452 6.649973392486572 1.3039886951446533 100.0 13 -0.047822318971157074
-0.24043306708335876 1.811606764793396 -0.095774807035923 3.0 6 -0.047820016741752625
-0.8810606598854065 6.6474809646606445 1.548113226890564 100.0 14 -0.04781771078705788
-0.24114283919334412 1.8218302726745605 -0.032077521085739136 5.0 7 -0.04781540855765343
-0.8769476413726807 6.634225845336914 1.7930984497070312 63.0 15 -0.04781310260295868
-0.23846283555030823 1.8235975503921509 -0.49279147386550903 87.0 0 -0.0485689640045166
-0.23692721128463745 1.8143168687820435 0.03193790465593338 22.0 8 -0.04856666177511215
-0.23788855969905853 1.8241647481918335 -0.4247076213359833 89.0 1 -0.048564355820417404
-0.236063152551651 1.8101671934127808 0.09567013382911682 100.0 9 -0.048562053591012955
-0.23579096794128418 1.810537338256836 -0.35490477085113525 99.0 2 -0.04855974763631821
-0.868512749671936 6.678036212921143 0.5891727805137634 90.0 10 -0.04855744540691376
-0.2376278191804886 1.8296352624893188 -0.2922196090221405 100.0 3 -0.04855513945221901
-0.8635199666023254 6.657816410064697 0.8243243098258972 97.0 11 -0.04855283722281456
-0.23541259765625 1.8150522708892822 -0.2247270941734314 94.0 4 -0.04855053126811981
-0.8624477386474609 6.658685207366943 1.0634416341781616 83.0 12 -0.04854822903871536
-0.2343633472919464 1.811927318572998 -0.15984363853931427 100.0 5 -0.048545923084020615
-0.8593753576278687 6.653168201446533 1.3039886951446533 100.0 13 -0.048543620854616165
-0.234557643532753 1.8184185028076172 -0.09608882665634155 6.0 6 -0.04854131489992142
-0.8578495383262634 6.650516510009766 1.548113226890564 100.0 14 -0.04853901267051697
-0.23171581327915192 1.7988613843917847 -0.03165866807103157 7.0 7 -0.04853670671582222
-0.8523070812225342 6.625749588012695 1.7899925708770752 63.0 15 -0.04853440448641777
-0.23143726587295532 1.8167130947113037 -0.4907209575176239 87.0 0 -0.04851366952061653
-0.2288900762796402 1.7992230653762817 0.03165866807103157 30.0 8 -0.04851136356592178
-0.2323305308818817 1.8288098573684692 -0.4256074130535126 92.0 1 -0.048509061336517334
-0.2303120642900467 1.8129212856292725 0.095774807035923 100.0 9 -0.048506755381822586
-0.22953809797763824 1.8093615770339966 -0.3545231223106384 97.0 2 -0.04850445315241814
-0.8453592658042908 6.6729736328125 0.5884755849838257 93.0 10 -0.04850214719772339
-0.23056790232658386 1.8225741386413574 -0.2909681499004364 100.0 3 -0.04849984496831894
-0.8429281115531921 6.672460556030273 0.8257867693901062 95.0 11 -0.04849753901362419
-0.22988946735858917 1.819761872291565 -0.22521455585956573 96.0 4 -0.04849523678421974
-0.8406105637550354 6.663467884063721 1.0637544393539429 88.0 12 -0.048492930829524994
-0.228104829788208 1.8107177019119263 -0.15966932475566864 100.0 5 -0.048490628600120544
-0.8368160128593445 6.652085781097412 1.3032255172729492 100.0 13 -0.048488322645425797
-0.22952239215373993 1.8271129131317139 -0.09650751203298569 7.0 6 -0.04848602041602135
-0.836763858795166 6.66105842590332 1.549912929534912 100.0 14 -0.0484837144613266
-0.22749194502830505 1.8135087490081787 -0.03190299868583679 6.0 7 -0.04848141223192215
-0.8303287625312805 6.628539562225342 1.7899925708770752 63.0 15 -0.0484791062772274
-0.22541190683841705 1.8174704313278198 -0.4907209575176239 87.0 0 -0.04845837131142616
-0.22218537330627441 1.7940185070037842 0.031553950160741806 53.0 8 -0.04845606908202171
-0.2243507355451584 1.8140981197357178 -0.4220081865787506 90.0 1 -0.048453763127326965
-0.22373710572719574 1.8117319345474243 0.09567013382911682 100.0 9 -0.048451460897922516
-0.22394123673439026 1.8159974813461304 -0.35566797852516174 99.0 2 -0.04844915494322777
-0.8237121105194092 6.679695129394531 0.5888242125511169 93.0 10 -0.04844685271382332
-0.22500595450401306 1.8272497653961182 -0.29159387946128845 100.0 3 -0.04844454675912857
-0.8188599348068237 6.659457206726074 0.8238368034362793 97.0 11 -0.04844224452972412
-0.22426119446754456 1.826464295387268 -0.22594578564167023 99.0 4 -0.04843993857502937
-0.8178278207778931 6.67028284072876 1.0643802881240845 88.0 12 -0.048437636345624924
-0.22226747870445251 1.8154579401016235 -0.1600179374217987 100.0 5 -0.048435330390930176
-0.8126360774040222 6.647171497344971 1.3016990423202515 100.0 13 -0.048433028161525726
-0.2226586490869522 1.8239378929138184 -0.09629816561937332 8.0 6 -0.04843072220683098
-0.813977837562561 6.6678080558776855 1.5508127212524414 100.0 14 -0.04842841997742653
-0.2228544056415558 1.8281867504119873 -0.03214733302593231 7.0 7 -0.04842611774802208
-0.8071840405464172 6.6313982009887695 1.7899925708770752 63.0 15 -0.04842381179332733
-0.21967242658138275 1.8259563446044922 -0.49279147386550903 89.0 0 -0.04840307682752609
-0.21727754175662994 1.8087188005447388 0.031798284500837326 100.0 8 -0.048400770872831345
-0.217931866645813 1.8168432712554932 -0.42245811223983765 94.0 1 -0.048398468643426895
-0.21709567308425903 1.81253981590271 0.09567013382911682 100.0 9 -0.04839616268873215
-0.21705102920532227 1.8148566484451294 -0.3552863597869873 100.0 2 -0.0483938604593277
-0.7994623184204102 6.684647083282471 0.5889984965324402 87.0 10 -0.04839155450463295
-0.21760405600070953 1.8221778869628906 -0.290655255317688 100.0 3 -0.0483892522752285
-0.7944477796554565 6.662413120269775 0.8238368034362793 97.0 11 -0.04838694632053375
-0.21592286229133606 1.8134756088256836 -0.22423960268497467 94.0 4 -0.0483846440911293
-0.7926731705665588 6.667351245880127 1.0634416341781616 85.0 12 -0.048382341861724854
-0.21561239659786224 1.8162604570388794 -0.1600179374217987 100.0 5 -0.048380035907030106
-0.789193332195282 6.657904148101807 1.3032255172729492 100.0 13 -0.048377733677625656
-0.21503348648548126 1.8168082237243652 -0.09587948024272919 7.0 6 -0.04837542772293091
-0.7881607413291931 6.659134864807129 1.548113226890564 100.0 14 -0.04837312549352646
-0.21544858813285828 1.8230336904525757 -0.032042618840932846 8.0 7 -0.04837081953883171
-0.783327579498291 6.638148784637451 1.7910279035568237 63.0 15 -0.04836851730942726
-0.21297712624073029 1.8267494440078735 -0.49279147386550903 89.0 0 -0.048347778618335724
-0.2101847529411316 1.8055304288864136 0.03172847628593445 100.0 8 -0.048345476388931274
-0.2114967405796051 1.8195654153823853 -0.4229080080986023 90.0 1 -0.048343170434236526
-0.21030573546886444 1.8093189001083374 0.09546079486608505 100.0 9 -0.04834086820483208
-0.2102615088224411 1.811702847480774 -0.3545231223106384 97.0 2 -0.04833856225013733
-0.7756460905075073 6.693470001220703 0.5895214676856995 93.0 10 -0.04833626002073288
-0.20956213772296906 1.8111895322799683 -0.28877806663513184 100.0 3 -0.04833395779132843
-0.7702463865280151 6.667252063751221 0.8240805268287659 100.0 11 -0.04833165183663368
-0.20890742540359497 1.8083025217056274 -0.22350840270519257 99.0 4 -0.04832934960722923
-0.7687172889709473 6.664190292358398 1.0625029802322388 88.0 12 -0.048327043652534485
-0.2101825326681137 1.82491934299469 -0.16071519255638123 100.0 5 -0.048324741423130035
-0.7659463286399841 6.660618305206299 1.3032255172729492 100.0 13 -0.04832243546843529
-0.20846286416053772 1.8155633211135864 -0.095774807035923 6.0 6 -0.04832013323903084
-0.7653571963310242 6.665716648101807 1.5490130186080933 100.0 14 -0.04831782728433609
-0.20862770080566406 1.8198013305664062 -0.03197281062602997 9.0 7 -0.04831552505493164
-0.7610284090042114 6.648520469665527 1.7930984497070312 63.0 15 -0.04831321910023689
-0.2069186121225357 1.82744562625885 -0.49279147386550903 89.0 0 -0.048292484134435654
-0.20509515702724457 1.8141655921936035 0.031868092715740204 100.0 8 -0.048290178179740906
-0.20589832961559296 1.8241297006607056 -0.4238077998161316 90.0 1 -0.048287875950336456
-0.20475219190120697 1.8139756917953491 0.09567013382911682 100.0 9 -0.04828557372093201
-0.20425289869308472 1.8123902082443237 -0.3545231223106384 94.0 2 -0.04828326776623726
-0.7525556683540344 6.688085556030273 0.5888242125511169 93.0 10 -0.04828096553683281
-0.20421597361564636 1.8177636861801147 -0.2897166609764099 100.0 3 -0.04827865958213806
-0.7483553886413574 6.671742916107178 0.8243243098258972 95.0 11 -0.04827635735273361
-0.20401644706726074 1.8188488483428955 -0.2247270941734314 92.0 4 -0.048274051398038864
-0.7466151714324951 6.666702747344971 1.0625029802322388 88.0 12 -0.048271749168634415
-0.20302222669124603 1.8157061338424683 -0.15984363853931427 100.0 5 -0.04826944321393967
-0.7447273135185242 6.670926094055176 1.304751992225647 100.0 13 -0.04826714098453522
-0.204875186085701 1.8380793333053589 -0.09692620486021042 7.0 6 -0.04826483502984047
-0.742818295955658 6.6643452644348145 1.548113226890564 100.0 14 -0.04826253280043602
-0.20192784070968628 1.8145208358764648 -0.031868092715740204 8.0 7 -0.04826022684574127
-0.7381249070167542 6.643326759338379 1.7910279035568237 63.0 15 -0.04825792461633682
-0.20001475512981415 1.820440411567688 -0.4907209575176239 89.0 0 -0.048237189650535583
-0.19864144921302795 1.810860276222229 0.031798284500837326 100.0 8 -0.048234883695840836
-0.2002728432416916 1.8286768198013306 -0.4247076213359833 90.0 1 -0.048232581466436386
-0.19798606634140015 1.8107084035873413 0.09546079486608505 100.0 9 -0.04823027551174164
-0.1980295181274414 1.8111058473587036 -0.354141503572464 99.0 2 -0.04822797328233719
-0.7299387454986572 6.686583042144775 0.5884755849838257 90.0 10 -0.04822566732764244
-0.19925741851329803 1.8282495737075806 -0.2912810146808624 100.0 3 -0.04822336509823799
-0.7270840406417847 6.682082176208496 0.8252992630004883 95.0 11 -0.04822105914354324
-0.19766663014888763 1.8195499181747437 -0.2247270941734314 96.0 4 -0.048218756914138794
-0.7241896390914917 6.677123546600342 1.0637544393539429 88.0 12 -0.048216450959444046
-0.19614103436470032 1.8084461688995361 -0.15914638340473175 100.0 5 -0.0482141487300396
-0.7217543721199036 6.665551662445068 1.3032255172729492 100.0 13 -0.04821184277534485
-0.19813427329063416 1.8327915668487549 -0.09661218523979187 7.0 6 -0.0482095405459404
-0.7199673056602478 6.670772075653076 1.5490130186080933 100.0 14 -0.04820723459124565
-0.1955922693014145 1.81521475315094 -0.031868092715740204 8.0 7 -0.0482049323618412
-0.7145189642906189 6.642021179199219 1.7899925708770752 63.0 15 -0.048202626407146454
-0.1940670907497406 1.8249695301055908 -0.4917562007904053 89.0 0 -0.048181891441345215
-0.19231866300106049 1.8115426301956177 0.031798284500837326 90.0 8 -0.048179589211940765
-0.19306716322898865 1.821613073348999 -0.4229080080986023 90.0 1 -0.04817728325724602
-0.1927146017551422 1.821319341659546 0.09598415344953537 100.0 9 -0.04817498102784157
-0.19253221154212952 1.8195955753326416 -0.35566797852516174 99.0 2 -0.04817267507314682
-0.7068012356758118 6.691071510314941 0.5886498689651489 96.0 10 -0.04817037284374237
-0.19246044754981995 1.8250048160552979 -0.290655255317688 100.0 3 -0.04816806688904762
-0.702096700668335 6.668785572052002 0.8233493566513062 97.0 11 -0.04816576465964317
-0.19172851741313934 1.8241772651672363 -0.22521455585956573 100.0 4 -0.048163458704948425
-0.7017037272453308 6.687469005584717 1.065005898475647 88.0 12 -0.048161156475543976
-0.19086715579032898 1.819027304649353 -0.1600179374217987 100.0 5 -0.04815885052084923
-0.6984874606132507 6.66802978515625 1.3032255172729492 100.0 13 -0.04815654829144478
-0.192358136177063 1.8394314050674438 -0.09692620486021042 7.0 6 -0.04815424233675003
-0.6974852085113525 6.680997848510742 1.5508127212524414 100.0 14 -0.04815194010734558
-0.18925605714321136 1.8158862590789795 -0.031868092715740204 9.0 7 -0.04814963787794113
-0.6917277574539185 6.648318290710449 1.7910279035568237 63.0 15 -0.048147331923246384
-0.1880902200937271 1.8294793367385864 -0.49279147386550903 90.0 0 -0.048126596957445145
-0.18579110503196716 1.810213565826416 0.03176337853074074 64.0 8 -0.0481242910027504
-0.18630963563919067 1.8183988332748413 -0.4220081865787506 89.0 1 -0.04812198877334595
-0.18513602018356323 1.810059666633606 0.09535612165927887 100.0 9 -0.0481196828186512
-0.18637873232364655 1.8222095966339111 -0.3560495972633362 97.0 2 -0.04811738058924675
-0.6842548847198486 6.7014265060424805 0.5893471240997314 96.0 10 -0.048115074634552
-0.18608833849430084 1.8256655931472778 -0.290655255317688 100.0 3 -0.04811277240514755
-0.6784102916717529 6.667245864868164 0.8228618502616882 97.0 11 -0.048110466450452805
-0.18495896458625793 1.8208855390548706 -0.2247270941734314 92.0 4 -0.048108164221048355
-0.678354024887085 6.689877986907959 1.065005898475647 88.0 12 -0.04810585826635361
-0.1845996379852295 1.8236790895462036 -0.16036656498908997 100.0 5 -0.04810355603694916
-0.6748102307319641 6.666521072387695 1.3024622201919556 100.0 13 -0.04810125380754471
-0.18794450163841248 1.859963059425354 -0.09797292202711105 8.0 6 -0.04809894785284996
-0.6733790040016174 6.675635814666748 1.5490130186080933 100.0 14 -0.04809664562344551
-0.18491925299167633 1.8364323377609253 -0.03221714124083519 16.0 7 -0.04809433966875076
-0.6689044237136841 6.654536724090576 1.7920631170272827 63.0 15 -0.048092037439346313
-0.1821461021900177 1.837846040725708 -0.49486202001571655 90.0 0 -0.048071298748254776
-0.18065400421619415 1.8227908611297607 0.03197281062602997 63.0 8 -0.04806899651885033
-0.1803443431854248 1.8229166269302368 -0.4229080080986023 89.0 1 -0.04806669056415558
-0.17901326715946198 1.8126825094223022 0.09546079486608505 100.0 9 -0.04806438833475113
-0.17892873287200928 1.8150651454925537 -0.3545231223106384 97.0 2 -0.04806208238005638
-0.6598785519599915 6.705873012542725 0.5895214676856995 93.0 10 -0.04805978015065193
-0.17958921194076538 1.8283014297485352 -0.2909681499004364 100.0 3 -0.048057474195957184
-0.6559107303619385 6.677475452423096 0.8238368034362793 97.0 11 -0.048055171966552734
-0.17821469902992249 1.8175687789916992 -0.22423960268497467 92.0 4 -0.048052869737148285
-0.6549960970878601 6.692205429077148 1.065005898475647 88.0 12 -0.04805056378245354
-0.17881427705287933 1.8302613496780396 -0.16088949143886566 100.0 5 -0.04804826155304909
-0.6507542729377747 6.672857284545898 1.3032255172729492 100.0 13 -0.04804595559835434
-0.18228672444820404 1.8725665807724 -0.09860094636678696 10.0 6 -0.04804365336894989
-0.6489084959030151 6.678059101104736 1.5490130186080933 100.0 14 -0.04804134741425514
-0.17966856062412262 1.849008321762085 -0.03242656961083412 23.0 7 -0.04803904518485069
-0.6464190483093262 6.664522171020508 1.7941336631774902 63.0 15 -0.048036739230155945
-0.17462632060050964 1.8269323110580444 -0.4917562007904053 89.0 0 -0.048016004264354706
-0.17435218393802643 1.827422022819519 0.032042618840932846 63.0 8 -0.04801369830965996
-0.17403168976306915 1.8274452686309814 -0.4238077998161316 92.0 1 -0.04801139608025551
-0.17268425226211548 1.8132963180541992 0.09546079486608505 100.0 9 -0.04800909012556076
-0.17221984267234802 1.811769962310791 -0.35375988483428955 97.0 2 -0.04800678789615631
-0.6349624991416931 6.692266941070557 0.5881268978118896 93.0 10 -0.04800448566675186
-0.17376437783241272 1.834816813468933 -0.2919067442417145 100.0 3 -0.048002179712057114
-0.6323645710945129 6.689716339111328 0.8250555396080017 100.0 11 -0.047999877482652664
-0.17155131697654724 1.8182096481323242 -0.22423960268497467 94.0 4 -0.047997571527957916
-0.6299633383750916 6.676750659942627 1.0621901750564575 84.0 12 -0.04799526929855347
-0.17111624777317047 1.8169891834259033 -0.15966932475566864 100.0 5 -0.04799296334385872
-0.628558337688446 6.686816215515137 1.3055152893066406 100.0 13 -0.04799066111445427
-0.17444352805614471 1.859271764755249 -0.09786824882030487 8.0 6 -0.04798835515975952
-0.625592052936554 6.680283546447754 1.5490130186080933 100.0 14 -0.04798605293035507
-0.17265339195728302 1.8436514139175415 -0.032321859151124954 27.0 7 -0.047983746975660324
-0.6220710277557373 6.6551971435546875 1.7910279035568237 63.0 15 -0.047981444746255875
-0.16789427399635315 1.8236833810806274 -0.4907209575176239 87.0 0 -0.047960709780454636
-0.16774079203605652 1.8220162391662598 0.03193790465593338 49.0 8 -0.04795840382575989
-0.16868433356285095 1.835774540901184 -0.4256074130535126 92.0 1 -0.04795610159635544
-0.16671881079673767 1.8178658485412598 0.09567013382911682 100.0 9 -0.04795379564166069
-0.16625283658504486 1.816270112991333 -0.3545231223106384 94.0 2 -0.04795149341225624
-0.6117809414863586 6.696426868438721 0.5883012413978577 99.0 10 -0.04794918745756149
-0.1671401709318161 1.8294814825057983 -0.2909681499004364 100.0 3 -0.04794688522815704
-0.6103555560112 6.693753242492676 0.8252992630004883 99.0 11 -0.047944579273462296
-0.16624100506305695 1.8266762495040894 -0.22521455585956573 96.0 4 -0.047942277044057846
-0.6079055666923523 6.6926798820495605 1.0643802881240845 85.0 12 -0.0479399710893631
-0.1644124537706375 1.813606858253479 -0.15932069718837738 100.0 5 -0.04793766885995865
-0.6056696772575378 6.6810431480407715 1.3039886951446533 100.0 13 -0.0479353629052639
-0.17061705887317657 1.8856987953186035 -0.09922898560762405 10.0 6 -0.04793306067585945
-0.6036126017570496 6.684262752532959 1.5494630336761475 100.0 14 -0.0479307547211647
-0.16747277975082397 1.8581842184066772 -0.032566189765930176 30.0 7 -0.047928452491760254
-0.5981453657150269 6.649631500244141 1.7889572381973267 63.0 15 -0.047926146537065506
-0.1625281572341919 1.8319271802902222 -0.49279147386550903 89.0 0 -0.04790541157126427
-0.1608501523733139 1.816615104675293 0.031833190470933914 50.0 8 -0.04790310934185982
-0.1619325578212738 1.8324699401855469 -0.4247076213359833 92.0 1 -0.04790080338716507
-0.16107361018657684 1.8263949155807495 0.09608882665634155 100.0 9 -0.04789850115776062
-0.16057339310646057 1.8207229375839233 -0.3552863597869873 97.0 2 -0.04789619520306587
-0.5906177163124084 6.7103271484375 0.5893471240997314 96.0 10 -0.04789389297366142
-0.16040775179862976 1.8261181116104126 -0.29034239053726196 100.0 3 -0.047891587018966675
-0.585947573184967 6.683978080749512 0.8238368034362793 95.0 11 -0.047889284789562225
-0.15969020128250122 1.825268030166626 -0.22497083246707916 99.0 4 -0.04788697883486748
-0.5847132205963135 6.6967291831970215 1.0646930932998657 83.0 12 -0.04788467660546303
-0.1589185744524002 1.8200966119766235 -0.15984363853931427 100.0 5 -0.04788237065076828
-0.5809828042984009 6.667469501495361 1.3009357452392578 100.0 13 -0.04788006842136383
-0.16195683181285858 1.8624058961868286 -0.09797292202711105 10.0 6 -0.04787776246666908
-0.5806117057800293 6.690211772918701 1.5503627061843872 100.0 14 -0.04787546023726463
-0.16322898864746094 1.884656548500061 -0.03301995247602463 35.0 7 -0.047873154282569885
-0.575261116027832 6.655528545379639 1.7899925708770752 63.0 15 -0.047870852053165436
-0.1564609706401825 1.836333155632019 -0.4938267767429352 89.0 0 -0.0478501170873642
-0.15535546839237213 1.8271279335021973 0.03200771287083626 45.0 8 -0.04784781113266945
-0.1542164832353592 1.8174898624420166 -0.4211083948612213 89.0 1 -0.047845508903265
-0.1538551300764084 1.81699538230896 0.09556546807289124 100.0 9 -0.04784320294857025
-0.15421730279922485 1.821272373199463 -0.3552863597869873 94.0 2 -0.0478409007191658
-0.5673598647117615 6.7143330574035645 0.5895214676856995 93.0 10 -0.047838594764471054
-0.15436391532421112 1.8306037187576294 -0.2909681499004364 100.0 3 -0.047836292535066605
-0.5621145963668823 6.680047512054443 0.8231055736541748 100.0 11 -0.04783398658037186
-0.15315213799476624 1.8238362073898315 -0.2247270941734314 96.0 4 -0.04783168435096741
-0.561826765537262 6.704634666442871 1.0656317472457886 88.0 12 -0.04782937839627266
-0.15273015201091766 1.8226256370544434 -0.1600179374217987 100.0 5 -0.04782707616686821
-0.5588520765304565 6.683152198791504 1.3036071062088013 100.0 13 -0.04782477021217346
-0.15678390860557556 1.8788825273513794 -0.09881030023097992 12.0 6 -0.04782246798276901
-0.5570946335792542 6.690255641937256 1.549912929534912 100.0 14 -0.04782016575336456
-0.15284112095832825 1.8393797874450684 -0.03221714124083519 22.0 7 -0.047817859798669815
-0.5529847741127014 6.669047832489014 1.7930984497070312 63.0 15 -0.047815557569265366
-0.1503649652004242 1.8407188653945923 -0.49486202001571655 89.0 0 -0.04779481887817383
-0.1489761620759964 1.827659249305725 0.03200771287083626 41.0 8 -0.04779251664876938
-0.1488187313079834 1.829671025276184 -0.4238077998161316 92.0 1 -0.04779021069407463
-0.1471889466047287 1.8135398626327515 0.09535612165927887 100.0 9 -0.04778790846467018
-0.14754165709018707 1.8178857564926147 -0.3545231223106384 97.0 2 -0.04778560250997543
-0.5439172387123108 6.716273307800293 0.5895214676856995 93.0 10 -0.047783300280570984
-0.1479724794626236 1.8311314582824707 -0.2909681499004364 100.0 3 -0.047780994325876236
-0.5395926237106323 6.691863059997559 0.8243243098258972 99.0 11 -0.047778692096471786
-0.14678433537483215 1.8243597745895386 -0.2247270941734314 90.0 4 -0.04777638614177704
-0.5374695658683777 6.6947407722473145 1.0637544393539429 88.0 12 -0.04777408391237259
-0.14700435101985931 1.8310917615890503 -0.16071519255638123 100.0 5 -0.04777178168296814
-0.5356782674789429 6.687018871307373 1.3039886951446533 100.0 13 -0.04776947572827339
-0.1513378769159317 1.8933547735214233 -0.099542997777462 15.0 6 -0.04776717349886894
-0.5334262251853943 6.688274383544922 1.5490130186080933 100.0 14 -0.047764867544174194
-0.1461026668548584 1.8359153270721436 -0.03214733302593231 23.0 7 -0.047762565314769745
-0.5297003388404846 6.6709370613098145 1.7930984497070312 63.0 15 -0.047760259360075
-0.14303486049175262 1.8296767473220825 -0.4917562007904053 87.0 0 -0.04773952439427376
-0.14290693402290344 1.8321552276611328 0.032077521085739136 40.0 8 -0.04773721843957901
-0.14243145287036896 1.8301793336868286 -0.4238077998161316 92.0 1 -0.04773491621017456
-0.1414756029844284 1.822007656097412 0.095774807035923 100.0 9 -0.04773261025547981
-0.14134667813777924 1.8203473091125488 -0.35490477085113525 99.0 2 -0.04773030802607536
-0.5192400217056274 6.7022385597229 0.5881268978118896 90.0 10 -0.047728005796670914
-0.14218907058238983 1.8395147323608398 -0.2922196090221405 100.0 3 -0.047725699841976166
-0.5168391466140747 6.701622486114502 0.8252992630004883 97.0 11 -0.047723397612571716
-0.14041562378406525 1.82486093044281 -0.2247270941734314 94.0 4 -0.04772109165787697
-0.513796329498291 6.692637920379639 1.0631288290023804 85.0 12 -0.04771878942847252
-0.1396970897912979 1.8196744918823242 -0.15966932475566864 100.0 5 -0.04771648347377777
-0.5129309296607971 6.696678161621094 1.3055152893066406 100.0 13 -0.04771418124437332
-0.14503178000450134 1.8978544473648071 -0.09975234419107437 17.0 6 -0.047711875289678574
-0.5094853639602661 6.682322978973389 1.5472134351730347 100.0 14 -0.047709573060274124
-0.13954105973243713 1.834420084953308 -0.032112427055835724 24.0 7 -0.047707267105579376
-0.5064094066619873 6.672745704650879 1.7930984497070312 63.0 15 -0.04770496487617493
-0.13635994493961334 1.8263119459152222 -0.4907209575176239 89.0 0 -0.04768422618508339
-0.13561977446079254 1.8206778764724731 0.031868092715740204 32.0 8 -0.04768192395567894
-0.13633042573928833 1.83455228805542 -0.4247076213359833 90.0 1 -0.04767962172627449
-0.13572834432125092 1.8264503479003906 0.09598415344953537 100.0 9 -0.04767731577157974
-0.13484683632850647 1.8188714981079102 -0.3545231223106384 97.0 2 -0.04767501354217529
-0.496430903673172 6.711958408355713 0.5888242125511169 93.0 10 -0.047672707587480545
-0.13562123477458954 1.8380298614501953 -0.2919067442417145 100.0 3 -0.047670405358076096
-0.4940240681171417 6.711305141448975 0.8262742161750793 95.0 11 -0.04766809940338135
-0.1343359649181366 1.8292994499206543 -0.22521455585956573 94.0 4 -0.0476657971739769
-0.49217990040779114 6.702184677124023 1.0643802881240845 85.0 12 -0.04766349121928215
-0.1329071819782257 1.8141897916793823 -0.15914638340473175 100.0 5 -0.0476611889898777
-0.4892640709877014 6.694511890411377 1.304751992225647 100.0 13 -0.04765888303518295
-0.13898837566375732 1.906316876411438 -0.1001710295677185 20.0 6 -0.0476565808057785
-0.48657894134521484 6.689891815185547 1.5485631227493286 100.0 14 -0.047654274851083755
-0.13360171020030975 1.836867332458496 -0.03214733302593231 25.0 7 -0.047651972621679306
-0.4837210774421692 6.666680812835693 1.7910279035568237 63.0 15 -0.04764966666698456
-0.13025783002376556 1.8306306600570679 -0.4917562007904053 89.0 0 -0.04762893170118332
-0.12901321053504944 1.8131390810012817 0.03172847628593445 32.0 8 -0.04762662947177887
-0.12969455122947693 1.8272188901901245 -0.4229080080986023 87.0 1 -0.04762432351708412
-0.12963540852069855 1.830897331237793 0.09619349241256714 100.0 9 -0.04762202128767967
-0.12891143560409546 1.8252063989639282 -0.35566797852516174 99.0 2 -0.047619715332984924
-0.4729969799518585 6.713650226593018 0.5888242125511169 93.0 10 -0.047617413103580475
-0.12883159518241882 1.828616976737976 -0.29034239053726196 100.0 3 -0.04761510714888573
-0.4705179035663605 6.6950836181640625 0.8240805268287659 100.0 11 -0.04761280491948128
-0.12882383167743683 1.837655782699585 -0.226189523935318 96.0 4 -0.04761049896478653
-0.4693313241004944 6.711743354797363 1.0656317472457886 88.0 12 -0.04760819673538208
-0.12699083983898163 1.8206053972244263 -0.15966932475566864 100.0 5 -0.04760589078068733
-0.46651965379714966 6.688263416290283 1.3032255172729492 100.0 13 -0.04760358855128288
-0.13169512152671814 1.8928203582763672 -0.09943832457065582 16.0 6 -0.047601282596588135
-0.4653375446796417 6.705076694488525 1.5517125129699707 100.0 14 -0.047598980367183685
-0.12774093449115753 1.8453023433685303 -0.032286953181028366 27.0 7 -0.04759667441248894
-0.4607146084308624 6.672183513641357 1.7920631170272827 63.0 15 -0.04759437218308449
-0.12444832921028137 1.8349074125289917 -0.49279147386550903 87.0 0 -0.04757363721728325
-0.12322276830673218 1.821558952331543 0.031868092715740204 30.0 8 -0.0475713312625885
-0.12305358797311783 1.8237717151641846 -0.4220081865787506 89.0 1 -0.04756902903318405
-0.12270667403936386 1.8233678340911865 0.095774807035923 100.0 9 -0.047566723078489304
-0.1227266788482666 1.8236650228500366 -0.3552863597869873 97.0 2 -0.047564420849084854
-0.45126304030418396 6.7231340408325195 0.5895214676856995 93.0 10 -0.047562114894390106
-0.12258008122444153 1.8310264348983765 -0.290655255317688 100.0 3 -0.04755981266498566
-0.4475397765636444 6.702627182006836 0.8248117566108704 95.0 11 -0.04755750671029091
-0.12161649763584137 1.8262101411819458 -0.2247270941734314 90.0 4 -0.04755520448088646
-0.4459015130996704 6.713340759277344 1.0656317472457886 85.0 12 -0.04755289852619171
-0.12148045748472214 1.8289682865142822 -0.16036656498908997 100.0 5 -0.04755059629678726
-0.4434281587600708 6.6937689781188965 1.3039886951446533 100.0 13 -0.047548290342092514
-0.12653501331806183 1.9151904582977295 -0.10058971494436264 27.0 6 -0.047545988112688065
-0.44167473912239075 6.702771186828613 1.5508127212524414 100.0 14 -0.04754368215799332
-0.122218057513237 1.859704613685608 -0.032531287521123886 26.0 7 -0.04754137992858887
-0.43767249584198 6.677606582641602 1.7930984497070312 63.0 15 -0.04753907769918442
-0.11829006671905518 1.8391865491867065 -0.4938267767429352 90.0 0 -0.04751833900809288
-0.11686484515666962 1.8219778537750244 0.031868092715740204 30.0 8 -0.04751603677868843
-0.11693500727415085 1.8280797004699707 -0.4229080080986023 90.0 1 -0.04751373082399368
-0.11570495367050171 1.8138189315795898 0.09525144845247269 100.0 9 -0.04751142859458923
-0.1163596585392952 1.8240822553634644 -0.3552863597869873 97.0 2 -0.047509122639894485
-0.428049772977829 6.728644371032715 0.589870035648346 93.0 10 -0.047506820410490036
-0.11568711698055267 1.823557734489441 -0.2894037961959839 100.0 3 -0.04750451445579529
-0.42438948154449463 6.708111763000488 0.8252992630004883 99.0 11 -0.04750221222639084
-0.1152423545718193 1.8266233205795288 -0.2247270941734314 92.0 4 -0.04749990627169609
-0.4222150146961212 6.710914134979248 1.065005898475647 88.0 12 -0.04749760404229164
-0.11509494483470917 1.8293812274932861 -0.16036656498908997 100.0 5 -0.04749529808759689
-0.42030397057533264 6.699195384979248 1.304751992225647 100.0 13 -0.047492995858192444
-0.1213468685746193 1.9395408630371094 -0.10184577852487564 32.0 6 -0.047490693628787994
-0.4177878201007843 6.6964921951293945 1.5490130186080933 100.0 14 -0.047488387674093246
-0.11485605686903 1.8461490869522095 -0.032286953181028366 25.0 7 -0.0474860854446888
-0.41484367847442627 6.686805725097656 1.7951689958572388 63.0 15 -0.04748377948999405
-0.1116352304816246 1.8357315063476562 -0.49279147386550903 87.0 0 -0.04746304452419281
-0.11074581742286682 1.8263667821884155 0.03193790465593338 30.0 8 -0.04746073856949806
-0.11090543866157532 1.8343122005462646 -0.42425769567489624 94.0 1 -0.04745843634009361
-0.10973379760980606 1.8201926946640015 0.09556546807289124 100.0 9 -0.047456130385398865
-0.10951952636241913 1.816638469696045 -0.35375988483428955 94.0 2 -0.047453828155994415
-0.404079794883728 6.722142696380615 0.5891727805137634 93.0 10 -0.04745152220129967
-0.10908415168523788 1.8200067281723022 -0.28877806663513184 100.0 3 -0.04744921997189522
-0.40120944380760193 6.713515281677246 0.8257867693901062 99.0 11 -0.04744691774249077
-0.10862890630960464 1.8230513334274292 -0.22423960268497467 96.0 4 -0.04744461178779602
-0.39878520369529724 6.712347030639648 1.065005898475647 88.0 12 -0.04744230955839157
-0.10835354775190353 1.823805332183838 -0.15984363853931427 100.0 5 -0.04744000360369682
-0.39738258719444275 6.708459854125977 1.3062784671783447 100.0 13 -0.047437701374292374
-0.1132800504565239 1.9180210828781128 -0.10069439560174942 25.0 6 -0.047435395419597626
-0.3949812054634094 6.707637310028076 1.551262617111206 100.0 14 -0.047433093190193176
-0.1081770732998848 1.8425462245941162 -0.03221714124083519 25.0 7 -0.04743078723549843
-0.39104655385017395 6.68049955368042 1.7930984497070312 63.0 15 -0.04742848500609398
-0.10522616654634476 1.8361101150512695 -0.49279147386550903 90.0 0 -0.04740774631500244
-0.1040281280875206 1.8207529783248901 0.031833190470933914 29.0 8 -0.04740544408559799
-0.10483554005622864 1.8405249118804932 -0.4256074130535126 92.0 1 -0.04740314185619354
-0.10394513607025146 1.8305350542068481 0.09608882665634155 100.0 9 -0.047400835901498795
-0.10339972376823425 1.8209298849105835 -0.3545231223106384 94.0 2 -0.047398533672094345
-0.3810645341873169 6.731468677520752 0.589870035648346 72.0 10 -0.0473962277173996
-0.10250912606716156 1.8164318799972534 -0.2881523370742798 100.0 3 -0.04739392548799515
-0.3779936730861664 6.718838691711426 0.8262742161750793 99.0 11 -0.0473916195333004
-0.10293107479810715 1.8353115320205688 -0.22570204734802246 92.0 4 -0.04738931730389595
-0.375577449798584 6.717642307281494 1.0656317472457886 85.0 12 -0.0473870113492012
-0.10165420919656754 1.8182045221328735 -0.15932069718837738 100.0 5 -0.04738470911979675
-0.373961478471756 6.7098069190979 1.3062784671783447 100.0 13 -0.047382403165102005
-0.10536497086286545 1.8964687585830688 -0.099542997777462 18.0 6 -0.047380100935697556
-0.37200042605400085 6.716757774353027 1.5530622005462646 100.0 14 -0.04737779498100281
-0.10174423456192017 1.8429125547409058 -0.03221714124083519 25.0 7 -0.04737549275159836
-0.3677230775356293 6.68182373046875 1.7930984497070312 63.0 15 -0.04737318679690361
-0.09881669282913208 1.8364660739898682 -0.49279147386550903 90.0 0 -0.04735245183110237
-0.09767139703035355 1.8211050033569336 0.031833190470933914 28.0 8 -0.04735014960169792
-0.09799366444349289 1.833095908164978 -0.4238077998161316 92.0 1 -0.047347843647003174
-0.09755513072013855 1.830886721611023 0.09608882665634155 100.0 9 -0.047345541417598724
-0.09746108204126358 1.829121708869934 -0.3560495972633362 97.0 2 -0.047343235462903976
-0.357880175113678 6.738726615905762 0.5903929471969604 54.0 10 -0.04734093323349953
-0.09627190232276917 1.8187512159347534 -0.2884652018547058 98.0 3 -0.04733862727880478
-0.3541213274002075 6.712188243865967 0.8252992630004883 95.0 11 -0.04733632504940033
-0.09652439504861832 1.8356596231460571 -0.22570204734802246 94.0 4 -0.04733401909470558
-0.35253795981407166 6.726803302764893 1.0668832063674927 88.0 12 -0.04733171686530113
-0.0957234799861908 1.8265069723129272 -0.1600179374217987 100.0 5 -0.047329410910606384
-0.3501293957233429 6.703228950500488 1.304751992225647 100.0 13 -0.047327108681201935
-0.09666816890239716 1.856933832168579 -0.09744956344366074 16.0 6 -0.04732480272650719
-0.3487524688243866 6.721908092498779 1.553961992263794 100.0 14 -0.04732250049710274
-0.09582646936178207 1.8532416820526123 -0.03239166736602783 26.0 7 -0.04732019454240799
-0.3445971608161926 6.686924934387207 1.7941336631774902 63.0 15 -0.04731789231300354
-0.0924060046672821 1.8367998600006104 -0.49279147386550903 89.0 0 -0.0472971573472023
-0.09181410074234009 1.8314208984375 0.03200771287083626 26.0 8 -0.04729485139250755
-0.09140029549598694 1.8295341730117798 -0.4229080080986023 90.0 1 -0.047292549163103104
-0.09096531569957733 1.8272264003753662 0.09587948024272919 100.0 9 -0.047290243208408356
-0.0913688987493515 1.835333228111267 -0.3571944534778595 99.0 2 -0.047287940979003906
-0.334945946931839 6.7518744468688965 0.5914388298988342 52.0 10 -0.04728563502430916
-0.09080084413290024 1.836832880973816 -0.2912810146808624 100.0 3 -0.04728333279490471
-0.3310813307762146 6.721313953399658 0.8262742161750793 97.0 11 -0.04728102684020996
-0.09011567384004593 1.8359853029251099 -0.22570204734802246 86.0 4 -0.04727872461080551
-0.3294422924518585 6.735885143280029 1.0681346654891968 88.0 12 -0.047276418656110764
-0.08954223990440369 1.8308099508285522 -0.16036656498908997 100.0 5 -0.047274116426706314
-0.32710909843444824 6.712253570556641 1.3062784671783447 100.0 13 -0.047271810472011566
-0.08979769796133041 1.8492801189422607 -0.097030870616436 16.0 6 -0.04726950824260712
-0.3250053822994232 6.717244625091553 1.5526123046875 100.0 14 -0.04726720228791237
-0.08954983949661255 1.8575595617294312 -0.03246147558093071 26.0 7 -0.04726490005850792
-0.3216223120689392 6.695805549621582 1.7962043285369873 63.0 15 -0.04726259410381317
-0.08718058466911316 1.8486593961715698 -0.4958973228931427 87.0 0 -0.047353267669677734
-0.08587271720170975 1.8277051448822021 0.03193790465593338 24.0 8 -0.047350965440273285
-0.08583391457796097 1.8337054252624512 -0.4238077998161316 90.0 1 -0.04734865948557854
-0.08485180139541626 1.8195229768753052 0.09546079486608505 100.0 9 -0.04734635725617409
-0.08505333214998245 1.8238445520401 -0.35490477085113525 99.0 2 -0.04734405130147934
-0.3137339651584625 6.752893924713135 0.5914388298988342 33.0 10 -0.04734174907207489
-0.08512063324451447 1.8390823602676392 -0.29159387946128845 100.0 3 -0.04733944311738014
-0.3099621832370758 6.722321033477783 0.8262742161750793 97.0 11 -0.04733714088797569
-0.08398330956697464 1.8283272981643677 -0.2247270941734314 94.0 4 -0.047334834933280945
-0.30728405714035034 6.715179920196533 1.0646930932998657 86.0 12 -0.047332532703876495
-0.08356078714132309 1.8330873250961304 -0.1605408787727356 100.0 5 -0.04733022674918175
-0.3060216009616852 6.713248252868652 1.3062784671783447 100.0 13 -0.0473279245197773
-0.08516576141119003 1.8754910230636597 -0.09839160740375519 22.0 6 -0.04732561856508255
-0.3036348521709442 6.712392807006836 1.551262617111206 100.0 14 -0.0473233163356781
-0.0834440141916275 1.8518388271331787 -0.032356761395931244 29.0 7 -0.04732101038098335
