# .PCD v0.7 - Point Cloud Data file format
VERSION 0.7
FIELDS x y z intensity ring time
SIZE 4 4 4 4 4 4
TYPE F F F F F F
COUNT 1 1 1 1 1 1
WIDTH 550
HEIGHT 1
VIEWPOINT 0 0 0 1 0 0 0
POINTS 550
DATA ascii
3.0686919689178467 5.0570478439331055 1.1498150825500488 58.0 13 -0.020802956074476242
1.4592820405960083 2.403878688812256 -0.147378072142601 51.0 6 -0.020800651982426643
3.0801262855529785 5.071898460388184 1.3699519634246826 78.0 14 -0.020798347890377045
1.4407234191894531 2.372371196746826 -0.048447877168655396 27.0 7 -0.020796043798327446
3.080389976501465 5.070337295532227 1.5896666049957275 67.0 15 -0.020793739706277847
1.4292470216751099 2.3442423343658447 0.047924306243658066 45.0 8 -0.02077069878578186
1.4662870168685913 2.4040510654449463 -0.6501085758209229 29.0 1 -0.02076839469373226
1.4424742460250854 2.36500883102417 0.14517995715141296 35.0 9 -0.020766090601682663
1.4643371105194092 2.399911880493164 -0.5464769601821899 31.0 2 -0.020763788372278214
3.0404598712921143 4.981074333190918 0.5105583071708679 47.0 10 -0.020761484280228615
1.4567203521728516 2.3855555057525635 -0.4427095949649811 36.0 3 -0.020759180188179016
3.0476136207580566 4.988877773284912 0.7178105115890503 65.0 11 -0.020756876096129417
1.4301536083221436 2.341130495071411 -0.33684688806533813 29.0 4 -0.02075457200407982
3.062406301498413 5.011126518249512 0.9301593899726868 65.0 12 -0.02075226791203022
1.4424662590026855 2.3594346046447754 -0.2419443279504776 33.0 5 -0.02074996381998062
3.068910837173462 5.017833232879639 1.1433274745941162 67.0 13 -0.020747659727931023
1.4801733493804932 2.4192137718200684 -0.148634135723114 57.0 6 -0.020745355635881424
3.086757183074951 5.045033931732178 1.3654530048370361 78.0 14 -0.020743051543831825
1.4563030004501343 2.3792672157287598 -0.048692215234041214 42.0 7 -0.020740747451782227
3.08192777633667 5.033194065093994 1.5813844203948975 66.0 15 -0.020738443359732628
1.4401535987854004 2.3446013927459717 0.04802902415394783 52.0 8 -0.02071540430188179
1.4722113609313965 2.3958544731140137 -0.6492087841033936 29.0 1 -0.02071310020983219
1.4492640495300293 2.3585102558135986 0.14507527649402618 40.0 9 -0.020710796117782593
1.4702305793762207 2.391697883605957 -0.5457137823104858 33.0 2 -0.020708492025732994
3.044438123703003 4.950597763061523 0.5084666013717651 46.0 10 -0.020706187933683395
1.4646238088607788 2.380711317062378 -0.4427095949649811 36.0 3 -0.020703883841633797
3.0516538619995117 4.9584574699401855 0.7148855924606323 62.0 11 -0.020701579749584198
1.430625557899475 2.3245413303375244 -0.33514073491096497 35.0 4 -0.0206992756575346
3.0665807723999023 4.980757713317871 0.9264050126075745 65.0 12 -0.020696971565485
1.450283169746399 2.354637622833252 -0.2419443279504776 33.0 5 -0.020694667473435402
3.0711143016815186 4.98422908782959 1.1379848718643188 70.0 13 -0.020692363381385803
1.4808520078659058 2.402390241622925 -0.14790143072605133 54.0 6 -0.020690059289336205
3.083019971847534 5.001591682434082 1.3564549684524536 78.0 14 -0.020687755197286606
1.448441743850708 2.3488929271698 -0.048168644309043884 46.0 7 -0.020685451105237007
3.0884575843811035 5.006505489349365 1.5762079954147339 66.0 15 -0.02068314701318741
1.4584426879882812 2.3568174839019775 0.04837806895375252 52.0 8 -0.02066010795533657
1.4924554824829102 2.4108433723449707 -0.6546075940132141 24.0 1 -0.020657803863286972
1.457075595855713 2.3536922931671143 0.14507527649402618 43.0 9 -0.020655499771237373
1.4729859828948975 2.3784632682800293 -0.5438056588172913 40.0 2 -0.020653195679187775
3.050344228744507 4.923538684844971 0.5067234635353088 46.0 10 -0.020650891587138176
1.4745901823043823 2.3792004585266113 -0.44333532452583313 45.0 3 -0.020648587495088577
3.053436756134033 4.924690246582031 0.711473286151886 65.0 11 -0.02064628340303898
1.4355924129486084 2.314472198486328 -0.3344095051288605 42.0 4 -0.02064397931098938
3.0622546672821045 4.936988353729248 0.9201476573944092 65.0 12 -0.02064167521893978
1.4570324420928955 2.3481228351593018 -0.24177002906799316 35.0 5 -0.020639371126890182
3.077272891998291 4.957336902618408 1.1341687440872192 68.0 13 -0.020637067034840584
1.4814344644546509 2.385589599609375 -0.14716872572898865 43.0 6 -0.020634762942790985
3.0860648155212402 4.967624187469482 1.350156307220459 73.0 14 -0.020632458850741386
1.4467264413833618 2.328788995742798 -0.04785449802875519 44.0 7 -0.020630154758691788
3.0948469638824463 4.979827404022217 1.5710316896438599 66.0 15 -0.02062785066664219
1.4609614610671997 2.3434829711914062 0.048203546553850174 50.0 8 -0.02060481160879135
1.5241608619689941 2.4439117908477783 -0.6649553775787354 25.0 1 -0.020602507516741753
1.4726835489273071 2.3604531288146973 0.14580798149108887 45.0 9 -0.020600203424692154
1.4781615734100342 2.3683102130889893 -0.5426608324050903 40.0 2 -0.020597899332642555
3.0464065074920654 4.879061222076416 0.503237247467041 46.0 10 -0.020595595240592957
1.4803799390792847 2.370945930480957 -0.4427095949649811 41.0 3 -0.020593291148543358
3.0613369941711426 4.901069164276123 0.7095233798027039 62.0 11 -0.02059098705649376
1.445364236831665 2.3130650520324707 -0.334896981716156 45.0 4 -0.02058868296444416
3.066903591156006 4.9061689376831055 0.9163932204246521 67.0 12 -0.020586378872394562
1.4620503187179565 2.3379549980163574 -0.24124708771705627 32.0 5 -0.020584074780344963
3.083284854888916 4.930460453033447 1.13035249710083 68.0 13 -0.020581770688295364
1.486160159111023 2.3755838871002197 -0.1468547135591507 32.0 6 -0.020579468458890915
3.090111494064331 4.93754243850708 1.3447574377059937 68.0 14 -0.020577164366841316
1.4580285549163818 2.328810453414917 -0.047959212213754654 39.0 7 -0.020574860274791718
3.093754529953003 4.939523220062256 1.5617141723632812 66.0 15 -0.02057255618274212
1.4595568180084229 2.3231308460235596 0.047889403998851776 42.0 8 -0.020549515262246132
1.5482380390167236 2.463325023651123 -0.6717038750648499 23.0 1 -0.020547211170196533
1.4826292991638184 2.358938217163086 0.14601734280586243 39.0 9 -0.020544907078146935
1.489141583442688 2.3683817386627197 -0.5438056588172913 34.0 2 -0.020542602986097336
3.0466561317443848 4.843635559082031 0.500622570514679 48.0 10 -0.020540298894047737
1.4875956773757935 2.364091634750366 -0.44239670038223267 46.0 3 -0.02053799480199814
3.061506986618042 4.863473415374756 0.7056235671043396 65.0 11 -0.02053569070994854
1.4576590061187744 2.314725875854492 -0.33587193489074707 48.0 4 -0.02053338661789894
3.068418264389038 4.872570991516113 0.912013053894043 65.0 12 -0.02053108438849449
1.4697959423065186 2.3330931663513184 -0.24124708771705627 33.0 5 -0.020528780296444893
3.0837299823760986 4.893091678619385 1.124246597290039 67.0 13 -0.020526476204395294
1.4880506992340088 2.3602454662323 -0.1462266743183136 28.0 6 -0.020524172112345695
3.097973108291626 4.911890506744385 1.3407083749771118 71.0 14 -0.020521868020296097
1.4582762718200684 2.3121225833892822 -0.04771488159894943 38.0 7 -0.020519563928246498
3.093622922897339 4.903096675872803 1.5534319877624512 70.0 15 -0.0205172598361969
1.4619061946868896 2.3098292350769043 0.04771488159894943 35.0 8 -0.020494218915700912
1.5741196870803833 2.4861676692962646 -0.6793522238731384 3.0 1 -0.020491914823651314
1.4919239282608032 2.355435371398926 0.14612199366092682 31.0 9 -0.020489610731601715
1.5089582204818726 2.3814117908477783 -0.5480034947395325 28.0 2 -0.020487308502197266
3.052879571914673 4.816142559051514 0.49887949228286743 51.0 10 -0.020485002547502518
1.4954267740249634 2.3591458797454834 -0.44239670038223267 44.0 3 -0.020482700318098068
3.0637993812561035 4.831500053405762 0.7024549841880798 70.0 11 -0.02048039622604847
1.4642643928527832 2.3082029819488525 -0.3356282114982605 46.0 4 -0.02047809213399887
3.07800030708313 4.850154876708984 0.9098230004310608 61.0 12 -0.020475788041949272
1.4789994955062866 2.3296303749084473 -0.2414214164018631 35.0 5 -0.020473483949899673
3.0809998512268066 4.853003978729248 1.117377519607544 67.0 13 -0.020471179857850075
1.4840914011001587 2.336751937866211 -0.14507527649402618 24.0 6 -0.020468875765800476
3.102747917175293 4.88349723815918 1.3357594013214111 73.0 14 -0.020466571673750877
1.4674113988876343 2.3087053298950195 -0.04774978384375572 42.0 7 -0.02046426758170128
3.0982792377471924 4.872705936431885 1.547220230102539 115.0 15 -0.02046196348965168
1.4714372158050537 2.3061413764953613 0.04774978384375572 42.0 8 -0.02175935171544552
2.45975923538208 3.8536264896392822 -1.0554704666137695 46.0 1 -0.02175704762339592
1.5026962757110596 2.353318452835083 0.14633135497570038 33.0 9 -0.02175474353134632
1.545790195465088 2.4208061695098877 -0.5583071708679199 29.0 2 -0.021752439439296722
3.0610930919647217 4.792023181915283 0.49748495221138 49.0 10 -0.021750135347247124
1.5136361122131348 2.3686301708221436 -0.44521254301071167 41.0 3 -0.021747831255197525
3.064378499984741 4.793478012084961 0.6985551714897156 66.0 11 -0.021745527163147926
1.46629798412323 2.292786121368408 -0.3341657519340515 43.0 4 -0.021743223071098328
3.080850839614868 4.815545082092285 0.9054427742958069 61.0 12 -0.02174091897904873
1.4871207475662231 2.3244543075561523 -0.2414214164018631 35.0 5 -0.02173861488699913
3.0860650539398193 4.821836471557617 1.1127980947494507 66.0 13 -0.02173631265759468
1.4829542636871338 2.3161580562591553 -0.14413323998451233 30.0 6 -0.021734008565545082
3.098552703857422 4.837632656097412 1.326311469078064 76.0 14 -0.021731704473495483
1.4758628606796265 2.303311824798584 -0.04774978384375572 42.0 7 -0.021729400381445885
3.1015233993530273 4.8385467529296875 1.5399733781814575 115.0 15 -0.021727096289396286
1.4773160219192505 2.2976267337799072 0.047679975628852844 41.0 8 -0.0217040553689003
2.4784677028656006 3.85321044921875 -1.0577199459075928 45.0 1 -0.0217017512768507
1.5098204612731934 2.346379280090332 0.1462266743183136 35.0 9 -0.0216994471848011
1.5510432720184326 2.41044282913208 -0.5571622848510742 31.0 2 -0.021697143092751503
3.0691730976104736 4.76790714263916 0.49609050154685974 20.0 10 -0.021694839000701904
1.52510404586792 2.368314027786255 -0.44615116715431213 46.0 3 -0.021692534908652306
3.068190813064575 4.7627272605896 0.6956302523612976 52.0 11 -0.021690232679247856
1.4710657596588135 2.2826480865478516 -0.3334345519542694 37.0 4 -0.021687928587198257
3.080517053604126 4.778197288513184 0.9004368782043457 63.0 12 -0.02168562449514866
1.495226263999939 2.319248914718628 -0.2414214164018631 37.0 5 -0.02168332040309906
3.0943665504455566 4.797835350036621 1.1097452640533447 66.0 13 -0.02168101631104946
1.4845325946807861 2.300898313522339 -0.14350520074367523 34.0 6 -0.021678712218999863
3.1006267070770264 4.803864479064941 1.3200129270553589 76.0 14 -0.021676408126950264
1.4773863554000854 2.2880661487579346 -0.04754035547375679 42.0 7 -0.021674104034900665
3.1121041774749756 4.817955017089844 1.5368674993515015 113.0 15 -0.021671799942851067
1.497288703918457 2.3109161853790283 0.04806393012404442 35.0 8 -0.02164875902235508
2.5003817081451416 3.857618570327759 -1.0613192319869995 45.0 1 -0.02164645493030548
1.5212609767913818 2.3461225032806396 0.14654070138931274 38.0 9 -0.02164415270090103
1.5541067123413086 2.396778106689453 -0.5552542209625244 30.0 2 -0.021641848608851433
1.5494049787521362 2.388611078262329 0.24909110367298126 1.0 10 -0.021639544516801834
1.5312105417251587 2.3596622943878174 -0.4455254077911377 42.0 3 -0.021637240424752235
1.4801065921783447 2.2791638374328613 -0.33367830514907837 39.0 4 -0.021632632240653038
3.075653076171875 4.734285354614258 0.8941794633865356 21.0 12 -0.02163032814860344
1.4957144260406494 2.3023202419281006 -0.2402012199163437 41.0 5 -0.02162802405655384
3.100393533706665 4.77054500579834 1.1059290170669556 67.0 13 -0.021625719964504242
1.4914674758911133 2.29402756690979 -0.14340053498744965 37.0 6 -0.021623415872454643
3.1056876182556152 4.775042533874512 1.3150639533996582 73.0 14 -0.021621111780405045
1.4853626489639282 2.2828962802886963 -0.04754035547375679 46.0 7 -0.021618807688355446
3.1099350452423096 4.777918338775635 1.5275501012802124 111.0 15 -0.021616503596305847
1.5031592845916748 2.3023271560668945 0.04799411818385124 38.0 8 -0.02159346453845501
2.525554895401001 3.866813898086548 -1.0662680864334106 48.0 1 -0.02159116044640541
1.5338116884231567 2.3474855422973633 0.14695937931537628 43.0 9 -0.021588856354355812
1.5699812173843384 2.4028427600860596 -0.5579255223274231 23.0 2 -0.021586552262306213
1.5588229894638062 2.3848562240600586 0.2492654174566269 23.0 10 -0.021584248170256615
1.5459250211715698 2.364222288131714 -0.44740262627601624 38.0 3 -0.021581944078207016
1.5474231243133545 2.3656117916107178 0.3470838963985443 32.0 11 -0.021579639986157417
1.4891399145126343 2.2756447792053223 -0.33392205834388733 42.0 4 -0.02157733589410782
1.501560091972351 2.2937510013580322 -0.23985259234905243 41.0 5 -0.02157272771000862
3.099818706512451 4.733414173126221 1.0998231172561646 70.0 13 -0.021570423617959023
1.4972764253616333 2.285466194152832 -0.14319118857383728 41.0 6 -0.021568119525909424
3.114860773086548 4.752762317657471 1.3119146823883057 76.0 14 -0.021565815433859825
1.4944193363189697 2.279369354248047 -0.04757525771856308 44.0 7 -0.021563511341810226
3.1107003688812256 4.742802619934082 1.5197855234146118 102.0 15 -0.021561207249760628
1.5122853517532349 2.298736810684204 0.04802902415394783 39.0 8 -0.02153816819190979
2.5390384197235107 3.857973575592041 -1.0662680864334106 46.0 1 -0.02153586409986019
1.5474876165390015 2.3504583835601807 0.1474827378988266 46.0 9 -0.021533560007810593
2.535954236984253 3.851827383041382 -0.8964207768440247 41.0 2 -0.021531255915760994
1.5660417079925537 2.377736806869507 0.24909110367298126 24.0 10 -0.021528951823711395
1.560689926147461 2.368708372116089 -0.4492798447608948 40.0 3 -0.021526647731661797
1.5491158962249756 2.3502516746520996 0.3456214964389801 45.0 11 -0.021524343639612198
1.4970738887786865 2.270433187484741 -0.33392205834388733 42.0 4 -0.0215220395475626
1.5260361433029175 2.3134758472442627 0.4389551877975464 1.0 12 -0.021519735455513
1.5062668323516846 2.28350567817688 -0.23932965099811554 37.0 5 -0.021517431363463402
3.0957770347595215 4.691431999206543 1.0925723314285278 71.0 13 -0.021515127271413803
1.499742865562439 2.2718920707702637 -0.14266782999038696 49.0 6 -0.021512823179364204
3.118546485900879 4.72234582901001 1.3065158128738403 76.0 14 -0.021510519087314606
1.502366304397583 2.274139165878296 -0.04757525771856308 40.0 7 -0.021508214995265007
3.1155216693878174 4.714186191558838 1.5140914916992188 106.0 15 -0.02150591090321541
1.5302436351776123 2.3084452152252197 0.04834316670894623 42.0 8 -0.02148287184536457
2.5567967891693115 3.855584144592285 -1.0680676698684692 41.0 1 -0.021480567753314972
1.5490587949752808 2.3350560665130615 0.1468547135591507 44.0 9 -0.021478263661265373
2.5602378845214844 3.8593108654022217 -0.9002369046211243 48.0 2 -0.021475959569215775
1.5743327140808105 2.3722550868988037 0.24909110367298126 14.0 10 -0.021473655477166176
1.5711333751678467 2.3665380477905273 -0.4499055743217468 34.0 3 -0.021471351385116577
1.5518198013305664 2.336561441421509 0.3444027900695801 25.0 11 -0.02146904729306698
1.5005964040756226 2.2585792541503906 -0.3329470753669739 43.0 4 -0.02146674320101738
1.5373820066452026 2.31307053565979 0.4398937523365021 1.0 12 -0.02146443910896778
1.5131253004074097 2.2765750885009766 -0.2391553521156311 34.0 5 -0.021462135016918182
3.1034393310546875 4.667516708374023 1.0895193815231323 72.0 13 -0.021459830924868584
1.5021342039108276 2.2583277225494385 -0.14214447140693665 51.0 6 -0.021457528695464134
3.113419532775879 4.67898416519165 1.2975177764892578 71.0 14 -0.021455224603414536
1.5224847793579102 2.28719162940979 -0.047959212213754654 32.0 7 -0.021452920511364937
3.119107961654663 4.683987617492676 1.5078798532485962 108.0 15 -0.021450616419315338
1.5427355766296387 2.3097405433654785 0.04848278686404228 47.0 8 -0.02142757549881935
2.5799829959869385 3.8612189292907715 -1.0721168518066406 45.0 1 -0.021425271406769753
1.5523546934127808 2.3232638835906982 0.14643602073192596 40.0 9 -0.021422967314720154
2.5802390575408936 3.8601438999176025 -0.9025265574455261 20.0 2 -0.021420663222670555
1.579280972480774 2.3617770671844482 0.24856817722320557 32.0 10 -0.021418359130620956
1.5782856941223145 2.3593976497650146 -0.4495927095413208 36.0 3 -0.021416055038571358
1.544509768486023 2.3080337047576904 0.34099045395851135 13.0 11 -0.02141375094652176
1.5051578283309937 2.2483792304992676 -0.3322158455848694 36.0 4 -0.02141144871711731
1.5241646766662598 2.276771306991577 0.4339492619037628 1.0 12 -0.02140914462506771
1.5210633277893066 2.2712788581848145 -0.2391553521156311 32.0 5 -0.021406840533018112
3.1109726428985596 4.643606662750244 1.0864664316177368 72.0 13 -0.021404536440968513
1.5122313499450684 2.2563891410827637 -0.14235380291938782 51.0 6 -0.021402232348918915
3.117797374725342 4.65028190612793 1.2925688028335571 73.0 14 -0.021399928256869316
1.5345159769058228 2.288773536682129 -0.04809883236885071 39.0 7 -0.021397624164819717
3.126016855239868 4.660782814025879 1.5037387609481812 113.0 15 -0.02139532007277012
1.5537357330322266 2.309589147567749 0.04858750104904175 59.0 8 -0.021372279152274132
2.6003901958465576 3.8639588356018066 -1.0752661228179932 41.0 1 -0.021369975060224533
1.5604543685913086 2.31783127784729 0.14643602073192596 41.0 9 -0.021367670968174934
1.6198281049728394 2.405113935470581 -0.5636498332023621 8.0 2 -0.021365366876125336
1.5774965286254883 2.3413784503936768 0.2469993680715561 39.0 10 -0.021363064646720886
1.5872055292129517 2.3557889461517334 -0.4499055743217468 31.0 3 -0.021360760554671288
1.5366219282150269 2.2798540592193604 0.3375781178474426 23.0 11 -0.02135845646262169
1.5114963054656982 2.241729497909546 -0.3319721221923828 33.0 4 -0.02135615237057209
1.5365217924118042 2.277987241744995 0.4352007210254669 1.0 12 -0.02135384827852249
1.5167224407196045 2.2477893829345703 -0.23723793029785156 37.0 5 -0.021351544186472893
3.113173484802246 4.613737106323242 1.0818870067596436 71.0 13 -0.021349240094423294
1.5342326164245605 2.2728817462921143 -0.1437145471572876 36.0 6 -0.021346936002373695
3.123384952545166 4.625383377075195 1.2885197401046753 71.0 14 -0.021344631910324097
1.5469717979431152 2.290032148361206 -0.04823845252394676 46.0 7 -0.021342327818274498
3.1227951049804688 4.621031284332275 1.4944212436676025 117.0 15 -0.0213400237262249
1.5584217309951782 2.2991859912872314 0.04848278686404228 55.0 8 -0.02131698466837406
2.624798059463501 3.870987892150879 -1.0797650814056396 40.0 1 -0.021314680576324463
1.5730209350585938 2.318981409072876 0.1468547135591507 42.0 9 -0.021312376484274864
1.6211817264556885 2.3899810314178467 -0.5613601207733154 30.0 2 -0.021310072392225266
1.5785404443740845 2.326241970062256 0.2459534853696823 40.0 10 -0.021307768300175667
1.612060785293579 2.3747501373291016 -0.454598605632782 36.0 3 -0.021305464208126068
1.5468016862869263 2.2777602672576904 0.33806559443473816 33.0 11 -0.02130316011607647
1.5159662961959839 2.231513023376465 -0.3312409222126007 37.0 4 -0.02130085602402687
1.5455739498138428 2.2742443084716797 0.43551361560821533 3.0 12 -0.021298551931977272
1.5208086967468262 2.2378032207489014 -0.23671498894691467 39.0 5 -0.021296247839927673
3.117119073867798 4.584982395172119 1.077689290046692 68.0 13 -0.021293943747878075
1.5410348176956177 2.2658607959747314 -0.143609881401062 37.0 6 -0.021291639655828476
3.1285486221313477 4.59834098815918 1.2840206623077393 76.0 14 -0.021289335563778877
1.5538315773010254 2.2829649448394775 -0.048203546553850174 36.0 7 -0.02128703147172928
3.126948356628418 4.592536449432373 1.4887272119522095 120.0 15 -0.02128472737967968
1.563054084777832 2.288778305053711 0.04837806895375252 48.0 8 -0.021261688321828842
2.6448910236358643 3.8714559078216553 -1.082464575767517 38.0 1 -0.021259384229779243
1.5833606719970703 2.3167738914489746 0.14706405997276306 43.0 9 -0.021257080137729645
1.6261917352676392 2.3794443607330322 -0.5602152347564697 31.0 2 -0.021254776045680046
1.5866491794586182 2.32071852684021 0.2459534853696823 31.0 10 -0.021252471953630447
1.6181106567382812 2.365846872329712 -0.45397287607192993 36.0 3 -0.02125016786158085
1.548018217086792 2.262516975402832 0.3366031348705292 50.0 11 -0.02124786376953125
1.529350996017456 2.2343993186950684 -0.33245959877967834 40.0 4 -0.02124555967748165
1.561315894126892 2.2802441120147705 0.4377036690711975 7.0 12 -0.021243255585432053
1.527485966682434 2.2308366298675537 -0.23654069006443024 37.0 5 -0.021240951493382454
3.115354537963867 4.548157215118408 1.0715833902359009 66.0 13 -0.021238647401332855
1.5500619411468506 2.2621161937713623 -0.1437145471572876 39.0 6 -0.021236343309283257
3.135767698287964 4.574532985687256 1.280421495437622 81.0 14 -0.021234039217233658
1.5663154125213623 2.284123659133911 -0.04834316670894623 40.0 7 -0.02123173512518406
3.129842758178711 4.562479019165039 1.482515573501587 120.0 15 -0.02122943103313446
1.5687676668167114 2.280013084411621 0.04830826073884964 49.0 8 -0.021206391975283623
2.6628057956695557 3.8686225414276123 -1.0842641592025757 8.0 1 -0.021204087883234024
1.5891722440719604 2.307943105697632 0.1468547135591507 44.0 9 -0.021201783791184425
1.6266933679580688 2.3624348640441895 -0.557543933391571 35.0 2 -0.021199479699134827
1.5890899896621704 2.3069615364074707 0.24508193135261536 36.0 10 -0.021197175607085228
1.6263598203659058 2.3601839542388916 -0.45397287607192993 36.0 3 -0.02119487151503563
1.554779291152954 2.255465507507324 0.336359441280365 60.0 11 -0.02119256742298603
1.5348881483078003 2.225778818130493 -0.3319721221923828 40.0 4 -0.021190263330936432
1.5681447982788086 2.2731540203094482 0.43739083409309387 16.0 12 -0.021187959238886833
1.5443150997161865 2.2386107444763184 -0.2379351705312729 37.0 5 -0.021185655146837234
3.1222896575927734 4.524328708648682 1.0685304403305054 67.0 13 -0.021183351054787636
1.5568147897720337 2.2550477981567383 -0.143609881401062 41.0 6 -0.021181046962738037
3.1339993476867676 4.537902355194092 1.2732230424880981 81.0 14 -0.021178744733333588
1.5765516757965088 2.281932830810547 -0.048412974923849106 40.0 7 -0.02117644064128399
3.1358659267425537 4.537222385406494 1.4778567552566528 120.0 15 -0.02117413654923439
1.578994631767273 2.2778100967407227 0.04837806895375252 33.0 8 -0.021151095628738403
1.6368706226348877 2.3604204654693604 -0.663155734539032 14.0 1 -0.021148791536688805
1.5972193479537964 2.3023815155029297 0.1468547135591507 46.0 9 -0.021146487444639206
1.6248589754104614 2.342223882675171 -0.5541093349456787 33.0 2 -0.021144183352589607
1.5959967374801636 2.299764394760132 0.24490763247013092 29.0 10 -0.02114187926054001
1.6357132196426392 2.35611629486084 -0.45428574085235596 37.0 3 -0.02113957516849041
1.5626434087753296 2.2500243186950684 0.336359441280365 57.0 11 -0.02113727107644081
1.547178030014038 2.226928472518921 -0.3329470753669739 42.0 4 -0.021134966984391212
1.578323245048523 2.27091121673584 0.4380165636539459 28.0 12 -0.021132662892341614
1.554392695426941 2.2364797592163086 -0.23828379809856415 35.0 5 -0.021130360662937164
3.129098653793335 4.5005059242248535 1.0654774904251099 70.0 13 -0.021128056570887566
1.5726603269577026 2.2610769271850586 -0.1443425863981247 48.0 6 -0.021125752478837967
3.1397998332977295 4.512540340423584 1.2691738605499268 83.0 14 -0.021123448386788368
1.5867929458618164 2.279697895050049 -0.04848278686404228 35.0 7 -0.02112114429473877
3.1461660861968994 4.518320560455322 1.4752686023712158 120.0 15 -0.02111884020268917
1.639520287513733 2.3467044830322266 -0.6609062552452087 32.0 1 -0.021093495190143585
1.6098214387893677 2.3033413887023926 0.14727339148521423 45.0 9 -0.021091191098093987
1.6285247802734375 2.3301022052764893 -0.552582859992981 29.0 2 -0.021088887006044388
1.6005903482437134 2.2892801761627197 0.24438470602035522 23.0 10 -0.02108658291399479
1.6427960395812988 2.3487730026245117 -0.45397287607192993 39.0 3 -0.02108428068459034
1.5761765241622925 2.2526891231536865 0.3375781178474426 55.0 11 -0.02108197659254074
1.564049243927002 2.2345242500305176 -0.334896981716156 40.0 4 -0.021079672500491142
1.5817090272903442 2.2589151859283447 0.43676507472991943 38.0 12 -0.021077368408441544
1.5667616128921509 2.2375681400299072 -0.23898103833198547 35.0 5 -0.021075064316391945
3.1346495151519775 4.475086688995361 1.0620429515838623 71.0 13 -0.021072760224342346
1.5920045375823975 2.27193021774292 -0.14538930356502533 54.0 6 -0.021070456132292747
3.1387550830841064 4.477616786956787 1.262425422668457 76.0 14 -0.02106815204024315
1.5935922861099243 2.272508144378662 -0.048447877168655396 42.0 7 -0.02106584794819355
3.1430575847625732 4.480425834655762 1.4664688110351562 117.0 15 -0.02106354385614395
1.5845032930374146 2.25201153755188 0.04806393012404442 25.0 8 -0.021040502935647964
1.6510663032531738 2.34574818611145 -0.6622559428215027 37.0 1 -0.021038200706243515
1.622451663017273 2.3042397499084473 0.14769208431243896 43.0 9 -0.021035896614193916
1.6321278810501099 2.3179819583892822 -0.551056444644928 29.0 2 -0.021033592522144318
1.603982925415039 2.27716326713562 0.2436874657869339 18.0 10 -0.02103128843009472
1.6407439708709717 2.328491687774658 -0.4511570334434509 40.0 3 -0.02102898433804512
1.579456090927124 2.2406833171844482 0.3366031348705292 34.0 11 -0.02102668024599552
1.5718402862548828 2.229050636291504 -0.334896981716156 42.0 4 -0.021024376153945923
1.5850293636322021 2.2469239234924316 0.43551361560821533 32.0 12 -0.021022072061896324
1.5745621919631958 2.232085704803467 -0.23898103833198547 42.0 5 -0.021019767969846725
3.131009101867676 4.43684720993042 1.0555553436279297 70.0 13 -0.021017463877797127
1.6079888343811035 2.277780532836914 -0.14612199366092682 51.0 6 -0.021015159785747528
3.1476199626922607 4.457082271575928 1.2597260475158691 76.0 14 -0.02101285569369793
1.6142067909240723 2.284897565841675 -0.04883183166384697 54.0 7 -0.02101055160164833
3.1452996730804443 4.45049524307251 1.4602570533752441 111.0 15 -0.021008247509598732
1.5992913246154785 2.256256341934204 0.04827335476875305 37.0 8 -0.020985208451747894
1.6513545513153076 2.3288424015045166 -0.6591066122055054 40.0 1 -0.020982904359698296
1.6397300958633423 2.311594009399414 0.14852945506572723 46.0 9 -0.020980600267648697
1.6356662511825562 2.3058650493621826 -0.5495299100875854 33.0 2 -0.020978296175599098
1.6153794527053833 2.276426076889038 0.2442103773355484 13.0 10 -0.0209759920835495
1.6408584117889404 2.311474323272705 -0.44896697998046875 36.0 3 -0.0209736879914999
1.5838204622268677 2.230300188064575 0.33587193489074707 25.0 11 -0.020971383899450302
1.5853593349456787 2.231642246246338 -0.33611568808555603 39.0 4 -0.020969079807400703
1.6020179986953735 2.254258394241333 0.4380165636539459 28.0 12 -0.020966775715351105
1.589269757270813 2.2363200187683105 -0.24002692103385925 42.0 5 -0.020964471623301506
3.13169002532959 4.405087947845459 1.0505943298339844 72.0 13 -0.020962167531251907
1.6078267097473145 2.26076078414917 -0.14538930356502533 49.0 6 -0.02095986343920231
3.1541221141815186 4.433363914489746 1.2561267614364624 76.0 14 -0.02095755934715271
1.621013879776001 2.2776196002960205 -0.04879692941904068 42.0 7 -0.02095525525510311
3.151850938796997 4.4268999099731445 1.4561160802841187 113.0 15 -0.020952951163053513
1.6257514953613281 2.276697874069214 0.04883183166384697 42.0 8 -0.020929912105202675
1.6538094282150269 2.3151357173919678 -0.6568571329116821 33.0 1 -0.020927608013153076
1.6501113176345825 2.3091068267822266 0.1487388014793396 77.0 9 -0.020925303921103477
1.6448463201522827 2.301738977432251 -0.5499115586280823 35.0 2 -0.02092299982905388
1.6453313827514648 2.3015687465667725 0.24752230942249298 9.0 10 -0.02092069573700428
1.6512155532836914 2.308945655822754 -0.4495927095413208 36.0 3 -0.02091839164495468
1.5823554992675781 2.2118427753448486 0.33392205834388733 25.0 11 -0.020916087552905083
1.5931390523910522 2.226094961166382 -0.33611568808555603 36.0 4 -0.020913783460855484
1.6144771575927734 2.2550768852233887 0.43926802277565 22.0 12 -0.020911479368805885
1.598226547241211 2.2323782444000244 -0.2402012199163437 39.0 5 -0.020909175276756287
3.137902021408081 4.381361961364746 1.0475413799285889 71.0 13 -0.020906871184706688
1.6157079935073853 2.2551348209381104 -0.14538930356502533 48.0 6 -0.02090456709265709
3.1525511741638184 4.3985676765441895 1.2493783235549927 73.0 14 -0.02090226300060749
1.6371103525161743 2.2833235263824463 -0.0490412637591362 47.0 7 -0.020899958908557892
3.1537721157073975 4.397033214569092 1.4499043226242065 117.0 15 -0.020897656679153442
1.6360236406326294 2.2742559909820557 0.048901643604040146 41.0 8 -0.020874615758657455
1.6550517082214355 2.2998580932617188 -0.6541577577590942 26.0 1 -0.020872311666607857
1.6593290567398071 2.304953098297119 0.14884346723556519 46.0 9 -0.020870007574558258
1.650577425956726 2.2927961349487305 -0.5491483211517334 42.0 2 -0.02086770348250866
3.1227447986602783 4.336174011230469 0.4675033986568451 16.0 10 -0.02086539939045906
1.6615742444992065 2.3063735961914062 -0.45021843910217285 37.0 3 -0.020863095298409462
1.6051552295684814 2.227241039276123 0.3370906114578247 21.0 11 -0.020860791206359863
1.6067039966583252 2.228571891784668 -0.33733436465263367 33.0 4 -0.020858487114310265
1.6177164316177368 2.2430193424224854 0.4380165636539459 13.0 12 -0.020856183022260666
1.6130014657974243 2.2364816665649414 -0.24124708771705627 32.0 5 -0.020853878930211067
3.1439881324768066 4.357644081115723 1.044488549232483 71.0 13 -0.020851576700806618
1.6224017143249512 2.247861385345459 -0.14528462290763855 47.0 6 -0.02084927260875702
3.151914119720459 4.36541748046875 1.243079662322998 78.0 14 -0.02084696851670742
1.6368751525878906 2.266247272491455 -0.04879692941904068 43.0 7 -0.02084466442465782
3.1600515842437744 4.373470306396484 1.445763349533081 117.0 15 -0.020842360332608223
1.6474729776382446 2.273388385772705 0.04900635778903961 38.0 8 -0.020819319412112236
1.6687880754470825 2.3019559383392334 -0.6564072370529175 39.0 1 -0.020817015320062637
1.6556388139724731 2.2829790115356445 0.14779675006866455 35.0 9 -0.02081471122801304
1.6562650203704834 2.2838425636291504 -0.5483850836753845 46.0 2 -0.02081240713596344
3.1132936477661133 4.291379451751709 0.46384283900260925 45.0 10 -0.02081010304391384
1.6707745790481567 2.3021585941314697 -0.4505313038825989 38.0 3 -0.020807798951864243
1.624582052230835 2.2376883029937744 0.33952799439430237 32.0 11 -0.020805496722459793
1.6284722089767456 2.2422235012054443 -0.34025922417640686 26.0 4 -0.020803192630410194
1.6266968250274658 2.238957166671753 0.43832939863204956 15.0 12 -0.020800888538360596
1.6207979917526245 2.2308380603790283 -0.24124708771705627 34.0 5 -0.020798584446310997
3.149945020675659 4.3339385986328125 1.0414354801177979 71.0 13 -0.0207962803542614
1.6372851133346558 2.2518773078918457 -0.14591266214847565 42.0 6 -0.0207939762622118
3.16140079498291 4.3465094566345215 1.2408300638198853 81.0 14 -0.0207916721701622
1.6459518671035767 2.262136697769165 -0.04883183166384697 44.0 7 -0.020789368078112602
3.159381151199341 4.340546607971191 1.4385162591934204 120.0 15 -0.020787063986063004
1.6530412435531616 2.2643933296203613 0.048936549574136734 38.0 8 -0.020764023065567017
1.6756634712219238 2.2945432662963867 -0.6559573411941528 39.0 1 -0.020761718973517418
1.6643776893615723 2.2790894508361816 0.14790143072605133 36.0 9 -0.02075941488146782
1.6642276048660278 2.2780466079711914 -0.5483850836753845 46.0 2 -0.02075711265206337
3.122377634048462 4.27244234085083 0.4629712998867035 57.0 10 -0.02075480856001377
1.6753023862838745 2.2915289402008057 -0.4495927095413208 41.0 3 -0.020752504467964172
1.6405866146087646 2.2432198524475098 0.3412342071533203 38.0 11 -0.020750200375914574
1.6480109691619873 2.2525458335876465 -0.3426966071128845 23.0 4 -0.020747896283864975
1.6294476985931396 2.227173089981079 0.43707793951034546 4.0 12 -0.020745592191815376
1.6356351375579834 2.234814167022705 -0.24229297041893005 27.0 5 -0.020743288099765778
3.147658586502075 4.299155235290527 1.0357112884521484 68.0 13 -0.02074098400771618
1.656937837600708 2.262260913848877 -0.14695937931537628 37.0 6 -0.02073867991566658
3.1673388481140137 4.322873115539551 1.237230896949768 81.0 14 -0.02073637582361698
1.6558074951171875 2.259892463684082 -0.048901643604040146 40.0 7 -0.020734071731567383
3.163480281829834 4.316021919250488 1.4338575601577759 120.0 15 -0.020731767639517784
1.6593561172485352 2.2572882175445557 0.048901643604040146 39.0 8 -0.020708728581666946
1.6786458492279053 2.282693862915039 -0.6541577577590942 30.0 1 -0.020706424489617348
1.6735072135925293 2.274873971939087 0.14800609648227692 31.0 9 -0.02070412039756775
1.6756597757339478 2.276967763900757 -0.5495299100875854 44.0 2 -0.02070181630551815
3.120734453201294 4.2390546798706055 0.46053093671798706 54.0 10 -0.02069951221346855
1.6805505752563477 2.282778739929199 -0.44896697998046875 45.0 3 -0.020697208121418953
1.6491931676864624 2.239365577697754 0.3414779305458069 28.0 11 -0.020694904029369354
1.666068196296692 2.2614529132843018 -0.3448902666568756 27.0 4 -0.020692599937319756
1.637211561203003 2.2214720249176025 0.43707793951034546 5.0 12 -0.020690295845270157
1.651702880859375 2.240316152572632 -0.24351313710212708 22.0 5 -0.020687991753220558
3.1502466201782227 4.272891998291016 1.0318951606750488 67.0 13 -0.02068568766117096
1.663244605064392 2.2551467418670654 -0.1468547135591507 43.0 6 -0.02068338356912136
3.1735589504241943 4.30136775970459 1.234081506729126 83.0 14 -0.020681079477071762
1.667249083518982 2.258925199508667 -0.04900635778903961 42.0 7 -0.020678775385022163
3.1659035682678223 4.287858486175537 1.4281635284423828 120.0 15 -0.020676471292972565
1.6755553483963013 2.2627320289611816 0.049145977944135666 36.0 8 -0.020653432235121727
1.6831244230270386 2.2721221446990967 -0.6528080105781555 27.0 1 -0.02065112814307213
1.6786646842956543 2.266101837158203 0.14779675006866455 27.0 9 -0.02064882405102253
1.6890451908111572 2.279285430908203 -0.55143803358078 42.0 2 -0.02064651995897293
3.125281572341919 4.215878963470459 0.459136426448822 55.0 10 -0.020644215866923332
1.6990994215011597 2.2911784648895264 -0.45178279280662537 48.0 3 -0.020641911774873734
1.6664625406265259 2.2463490962982178 0.343427836894989 9.0 11 -0.020639607682824135
1.692879557609558 2.2811288833618164 -0.34879010915756226 24.0 4 -0.020637303590774536
3.1514034271240234 4.246467113494873 0.8375502228736877 15.0 12 -0.020634999498724937
1.7161298990249634 2.311613082885742 -0.25188007950782776 28.0 5 -0.02063269540667534
3.1534383296966553 4.246107578277588 1.0280789136886597 68.0 13 -0.02063039131462574
1.669914960861206 2.2477245330810547 -0.14675003290176392 42.0 6 -0.02062808722257614
3.1687939167022705 4.263673782348633 1.2264331579208374 81.0 14 -0.020625783130526543
1.680695652961731 2.261408567428589 -0.049180880188941956 40.0 7 -0.020623479038476944
3.1685802936553955 4.261832237243652 1.4229871034622192 120.0 15 -0.020621174946427345
1.6878315210342407 2.2635750770568848 0.04928559437394142 33.0 8 -0.020598135888576508
1.6918144226074219 2.2680904865264893 -0.6532579064369202 24.0 1 -0.02059583179652691
1.7247854471206665 2.311452865600586 0.15114626288414001 31.0 9 -0.02059352770447731
1.6934685707092285 2.268655300140381 -0.5502931475639343 40.0 2 -0.02059122361242771
3.1304430961608887 4.192172527313232 0.45774194598197937 54.0 10 -0.020588919520378113
1.704323410987854 2.2823662757873535 -0.4511570334434509 44.0 3 -0.020586615428328514
3.132772445678711 4.1937689781188965 0.642738938331604 63.0 11 -0.020584311336278915
1.7123181819915771 2.2914035320281982 -0.3512274920940399 35.0 4 -0.020582007244229317
1.752824068069458 2.3439037799835205 -0.2560635805130005 51.0 5 -0.02057739906013012
3.166322946548462 4.23405647277832 1.0276973247528076 71.0 13 -0.02057509496808052
1.6941096782684326 2.26456356048584 -0.14821544289588928 39.0 6 -0.02057279273867607
3.1677353382110596 4.2328596115112305 1.220584511756897 73.0 14 -0.020570488646626472
1.687381386756897 2.2539267539978027 -0.049145977944135666 39.0 7 -0.020568184554576874
3.176487922668457 4.24146842956543 1.4198813438415527 117.0 15 -0.020565880462527275
1.710134506225586 2.2768561840057373 0.049704451113939285 36.0 8 -0.020542839542031288
1.7079150676727295 2.2730774879455566 -0.6564072370529175 26.0 1 -0.02054053544998169
1.7396401166915894 2.315300464630127 0.15177428722381592 33.0 9 -0.02053823135793209
1.70452082157135 2.267735719680786 -0.55143803358078 38.0 2 -0.020535927265882492
3.1251707077026367 4.156288146972656 0.45495298504829407 54.0 10 -0.020533623173832893
1.7158420085906982 2.281139373779297 -0.4520956575870514 33.0 3 -0.020531319081783295
3.139038562774658 4.171703815460205 0.6410328149795532 74.0 11 -0.020529014989733696
1.740601897239685 2.3123738765716553 -0.35537102818489075 56.0 4 -0.020526710897684097
3.1505377292633057 4.185461044311523 0.8297285437583923 82.0 12 -0.020524408668279648
1.7821605205535889 2.366726875305176 -0.25920116901397705 13.0 5 -0.02052210457623005
3.1657280921936035 4.202591419219971 1.0227361917495728 70.0 13 -0.02051980048418045
1.7476801872253418 2.319249153137207 -0.15219298005104065 37.0 6 -0.020517496392130852
3.170760154724121 4.206215858459473 1.216085433959961 73.0 14 -0.020515192300081253
1.6948448419570923 2.2483198642730713 -0.049145977944135666 33.0 7 -0.020512888208031654
3.174251079559326 4.209318161010742 1.4126343727111816 113.0 15 -0.020510584115982056
1.7128500938415527 2.2647933959960938 0.04956483468413353 33.0 8 -0.02048754319548607
1.709564208984375 2.259631395339966 -0.6541577577590942 14.0 1 -0.02048523910343647
1.757354736328125 2.3219540119171143 0.1526116579771042 40.0 9 -0.02048293501138687
1.7195372581481934 2.271162986755371 -0.5537277460098267 34.0 2 -0.020480632781982422
3.124018907546997 4.124708652496338 0.4526869058609009 52.0 10 -0.020478326827287674
1.7186259031295776 2.2691385746002197 -0.4508441984653473 32.0 3 -0.020476024597883224
3.1420671939849854 4.147030353546143 0.6388391256332397 65.0 11 -0.020473720505833626
1.7662461996078491 2.330319881439209 -0.35902711749076843 19.0 4 -0.020471416413784027
3.156771183013916 4.163421630859375 0.8275384306907654 86.0 12 -0.02046911232173443
1.7615147829055786 2.3223931789398193 -0.2550176978111267 20.0 5 -0.02046680822968483
3.164224624633789 4.1717352867126465 1.0177751779556274 74.0 13 -0.02046450413763523
1.7782989740371704 2.3436717987060547 -0.15418173372745514 43.0 6 -0.020462200045585632
3.1787993907928467 4.187918186187744 1.2138359546661377 76.0 14 -0.020459895953536034
1.7232410907745361 2.2694640159606934 -0.04973935708403587 36.0 7 -0.020457591861486435
3.174903631210327 4.179751396179199 1.4064228534698486 113.0 15 -0.020455287769436836
1.7271993160247803 2.266453266143799 0.04973935708403587 31.0 8 -0.021752675995230675
1.7190176248550415 2.2548987865448 -0.6546075940132141 20.0 1 -0.021750371903181076
1.767871379852295 2.318981885910034 0.15282100439071655 33.0 9 -0.021748067811131477
1.7357877492904663 2.2760748863220215 -0.5563990473747253 27.0 2 -0.02174576371908188
3.1275222301483154 4.099521160125732 0.4511181116104126 54.0 10 -0.02174345962703228
1.755695104598999 2.3005101680755615 -0.4583530128002167 24.0 3 -0.02174115553498268
3.141585350036621 4.114975452423096 0.63567054271698 76.0 11 -0.021738851442933083
1.7603164911270142 2.3048996925354004 -0.35610225796699524 21.0 4 -0.021736547350883484
3.1640923023223877 4.142956733703613 0.8256612420082092 86.0 12 -0.021734243258833885
1.7647730112075806 2.30989670753479 -0.2543204724788666 31.0 5 -0.021731939166784286
3.162802219390869 4.138272285461426 1.01243257522583 72.0 13 -0.021729636937379837
1.7771717309951782 2.3244452476501465 -0.15334436297416687 49.0 6 -0.02172733284533024
3.1834754943847656 4.1623053550720215 1.2097868919372559 73.0 14 -0.02172502875328064
1.7457313537597656 2.2824950218200684 -0.05015821382403374 44.0 7 -0.02172272466123104
3.1824302673339844 4.159438610076904 1.4033169746398926 115.0 15 -0.021720420569181442
1.749314308166504 2.279750108718872 0.05015821382403374 41.0 8 -0.021697379648685455
1.7217379808425903 2.2430036067962646 -0.6528080105781555 14.0 1 -0.021695075556635857
1.775953769683838 2.312797784805298 0.15282100439071655 25.0 9 -0.021692771464586258
1.7473108768463135 2.274672269821167 -0.557543933391571 26.0 2 -0.02169046737253666
3.1369566917419434 4.082260608673096 0.4504208564758301 54.0 10 -0.02168816328048706
1.7669236660003662 2.2993760108947754 -0.45929163694381714 22.0 3 -0.021685859188437462
3.138275384902954 4.082502365112305 0.6322581768035889 76.0 11 -0.021683556959033012
1.7606900930404663 2.289607048034668 -0.35463979840278625 43.0 4 -0.021681252866983414
3.1592648029327393 4.106834888458252 0.8206552863121033 81.0 12 -0.021678948774933815
1.771608591079712 2.3021445274353027 -0.25414612889289856 35.0 5 -0.021676644682884216
3.169323205947876 4.11842679977417 1.0101428031921387 74.0 13 -0.021674340590834618
1.7763422727584839 2.3074605464935303 -0.1526116579771042 45.0 6 -0.02167203649878502
3.179424524307251 4.128566741943359 1.203038215637207 71.0 14 -0.02166973240673542
1.7622292041778564 2.287477493286133 -0.050402551889419556 43.0 7 -0.02166742831468582
3.185138463973999 4.133001804351807 1.398140549659729 120.0 15 -0.021665124222636223
1.7658209800720215 2.284705877304077 0.050402551889419556 45.0 8 -0.021642083302140236
1.7355176210403442 2.244687795639038 -0.6550575494766235 11.0 1 -0.021639779210090637
1.7852388620376587 2.308164119720459 0.15292568504810333 21.0 9 -0.021637476980686188
1.7608494758605957 2.2766306400299072 -0.5594519972801208 24.0 2 -0.02163517288863659
3.1407241821289062 4.059228897094727 0.4490264058113098 55.0 10 -0.02163286879658699
1.7543851137161255 2.2666378021240234 -0.45397287607192993 39.0 3 -0.02163056470453739
3.1512928009033203 4.069952011108398 0.6320144534111023 78.0 11 -0.021628260612487793
1.7625932693481445 2.2756006717681885 -0.3534211218357086 43.0 4 -0.021625956520438194
3.1614809036254883 4.080167770385742 0.817526638507843 81.0 12 -0.021623652428388596
1.7743524312973022 2.289957046508789 -0.2534489035606384 41.0 5 -0.021621348336338997
3.176464319229126 4.09802770614624 1.0078531503677368 72.0 13 -0.021619044244289398
1.7819379568099976 2.2980895042419434 -0.15240232646465302 43.0 6 -0.0216167401522398
3.1830661296844482 4.103585720062256 1.1989892721176147 81.0 14 -0.0216144360601902
1.7849147319793701 2.3002700805664062 -0.05082140862941742 32.0 7 -0.021612131968140602
3.190070152282715 4.109648704528809 1.393999457359314 117.0 15 -0.021609827876091003
1.7799270153045654 2.2864181995391846 0.0505770742893219 39.0 8 -0.021586788818240166
1.7553164958953857 2.253990650177002 -0.6595565676689148 9.0 1 -0.021584484726190567
3.1348724365234375 4.024024486541748 0.2673321068286896 61.0 9 -0.02158218063414097
1.7989486455917358 2.3091893196105957 -0.5689924359321594 1.0 2 -0.02157987654209137
3.1426260471343994 4.032526016235352 0.4472832679748535 57.0 10 -0.02157757245004177
1.7659308910369873 2.2651734352111816 -0.4549115002155304 26.0 3 -0.021575268357992172
3.1557130813598633 4.046404838562012 0.6300645470619202 78.0 11 -0.021572964265942574
1.7766304016113281 2.2772603034973145 -0.35463979840278625 37.0 4 -0.021570660173892975
3.1635515689849854 4.053533554077148 0.814397931098938 79.0 12 -0.021568356081843376
1.7786582708358765 2.2790369987487793 -0.25292596220970154 42.0 5 -0.021566051989793777
3.181083917617798 4.074535846710205 1.0048002004623413 72.0 13 -0.02156374789774418
1.7801135778427124 2.2792630195617676 -0.15156494081020355 42.0 6 -0.02156144380569458
3.1865742206573486 4.0786285400390625 1.1949400901794434 83.0 14 -0.02155913971364498
1.7843128442764282 2.282996892929077 -0.0505770742893219 36.0 7 -0.021556835621595383
3.1913046836853027 4.08174991607666 1.388305425643921 120.0 15 -0.021554531529545784
1.7878978252410889 2.2801907062530518 0.0505770742893219 42.0 8 -0.021531492471694946
1.7980518341064453 2.2923166751861572 -0.6726037263870239 1.0 1 -0.021529188379645348
3.1427359580993652 4.005200386047363 0.26680871844291687 67.0 9 -0.02152688428759575
2.2311768531799316 2.8434810638427734 -0.7025587558746338 1.0 2 -0.02152458019554615
3.1431519985198975 4.00429105758667 0.4453658163547516 59.0 10 -0.02152227610349655
1.7774864435195923 2.2636563777923584 -0.4558500647544861 9.0 3 -0.021519972011446953
3.1624622344970703 4.025998115539551 0.628602147102356 82.0 11 -0.021517667919397354
1.8029671907424927 2.29445743560791 -0.35829588770866394 30.0 4 -0.021515363827347755
3.1727981567382812 4.036255359649658 0.8131464719772339 77.0 12 -0.021513059735298157
1.7792143821716309 2.263416290283203 -0.25188007950782776 37.0 5 -0.021510755643248558
3.1795122623443604 4.043343544006348 0.999839186668396 70.0 13 -0.02150845155119896
1.7905290126800537 2.276174545288086 -0.15177428722381592 47.0 6 -0.02150614745914936
3.192355155944824 4.056760787963867 1.1917908191680908 86.0 14 -0.021503843367099762
1.7959823608398438 2.2814676761627197 -0.050681788474321365 42.0 7 -0.021501539275050163
3.1888015270233154 4.049335956573486 1.3810585737228394 121.0 15 -0.021499235183000565
1.7983242273330688 2.2770745754241943 0.050646886229515076 31.0 8 -0.021476196125149727
3.143076181411743 3.9769680500030518 0.26565733551979065 69.0 9 -0.02147158794105053
2.2410898208618164 2.83567476272583 -0.7025587558746338 1.0 2 -0.02146928384900093
3.149695873260498 3.9839181900024414 0.4443199634552002 56.0 10 -0.021466979756951332
2.251020669937134 2.846200704574585 -0.5747402906417847 1.0 3 -0.021464675664901733
3.1530957221984863 3.9853549003601074 0.6239711046218872 82.0 11 -0.021462371572852135
1.804805040359497 2.280367374420166 -0.3570772111415863 15.0 4 -0.021460067480802536
3.1758313179016113 4.01121711730957 0.8103306293487549 79.0 12 -0.021457763388752937
1.7883405685424805 2.258754253387451 -0.2520544230937958 33.0 5 -0.02145545929670334
3.1789801120758057 4.013751029968262 0.9952597618103027 67.0 13 -0.02145315520465374
1.7935017347335815 2.2636492252349854 -0.15135560929775238 45.0 6 -0.02145085297524929
3.1992347240448 4.036428451538086 1.1890913248062134 86.0 14 -0.021448548883199692
1.8051784038543701 2.2767512798309326 -0.050716694444417953 38.0 7 -0.021446244791150093
3.1957132816314697 4.029099941253662 1.3779526948928833 122.0 15 -0.021443940699100494
3.1245479583740234 3.9280951023101807 0.08761108666658401 38.0 8 -0.021420899778604507
3.1444995403289795 3.9503467082977295 0.26461061835289 66.0 9 -0.02141629159450531
2.2949907779693604 2.8831324577331543 -0.7162970304489136 1.0 2 -0.02141398750245571
3.1511728763580322 3.9573123455047607 0.4425768256187439 58.0 10 -0.021411683410406113
2.260941505432129 2.8383262157440186 -0.5747402906417847 1.0 3 -0.021409379318356514
3.159564256668091 3.9650094509124756 0.6225086450576782 80.0 11 -0.021407075226306915
1.8152294158935547 2.2771575450897217 -0.35756468772888184 1.0 4 -0.021404772996902466
3.176267385482788 3.9831175804138184 0.8068891167640686 77.0 12 -0.021402468904852867
1.8077900409698486 2.2662017345428467 -0.25362318754196167 37.0 5 -0.02140016481280327
3.1880733966827393 3.9964914321899414 0.993733286857605 67.0 13 -0.02139786072075367
