# .PCD v0.7 - Point Cloud Data file format
VERSION 0.7
FIELDS x y z intensity ring time
SIZE 4 4 4 4 4 4
TYPE F F F F F F
COUNT 1 1 1 1 1 1
WIDTH 541
HEIGHT 1
VIEWPOINT 0 0 0 1 0 0 0
POINTS 541
DATA ascii
-2.7027816772460938 -2.3100266456604004 0.6911102533340454 56.0 13 -0.04909377172589302
-2.347602605819702 -2.005751609802246 -0.16182279586791992 1.0 6 -0.04909146577119827
-2.6687827110290527 -2.279355525970459 0.8102737665176392 9.0 14 -0.04908916354179382
-2.2781684398651123 -1.9450528621673584 -0.05228740721940994 2.0 7 -0.049086861312389374
-2.6581978797912598 -2.2687110900878906 0.9364073872566223 44.0 15 -0.049084555357694626
-1.628353238105774 -1.3863275051116943 -0.5730253458023071 1.0 0 -0.04906382039189339
-2.2979724407196045 -1.9557280540466309 0.05267136171460152 7.0 8 -0.04906151443719864
-2.2916982173919678 -1.9496990442276 -0.6946488618850708 13.0 1 -0.04905921220779419
-2.6975150108337402 -2.294142484664917 0.18558332324028015 6.0 9 -0.04905690625309944
-2.2597570419311523 -1.921844482421875 -0.5766248106956482 12.0 2 -0.04905460402369499
-2.714106559753418 -2.307436943054199 0.31166893243789673 11.0 10 -0.049052298069000244
-1.5639220476150513 -1.3291207551956177 -0.325070858001709 1.0 3 -0.049049995839595795
-2.707994222640991 -2.300612449645996 0.43629229068756104 30.0 11 -0.04904768988490105
-2.694033622741699 -2.2871334552764893 0.5597225427627563 21.0 12 -0.04904308170080185
-1.4884800910949707 -1.2636637687683105 -0.17082524299621582 0.0 5 -0.0490407794713974
-2.6913695335388184 -2.2840638160705566 0.6861491799354553 46.0 13 -0.04903847724199295
-2.39418888092041 -2.0311379432678223 -0.1645442545413971 1.0 6 -0.0490361712872982
-2.6826677322387695 -2.2750673294067383 0.8120733499526978 8.0 14 -0.04903386905789375
-2.217829942703247 -1.8801918029785156 -0.05075160041451454 1.0 7 -0.049031563103199005
-2.6513631343841553 -2.2469286918640137 0.9312310218811035 44.0 15 -0.049029260873794556
-2.3307507038116455 -1.969637155532837 0.05326474457979202 3.0 8 -0.04900621995329857
-2.286580801010132 -1.9316269159317017 -0.6910496354103088 15.0 1 -0.04900391399860382
-2.670409917831421 -2.2550740242004395 0.18317586183547974 45.0 9 -0.04900161176919937
-2.2679519653320312 -1.9152114391326904 -0.577006459236145 13.0 2 -0.04899930581450462
-2.7236669063568115 -2.299233913421631 0.31184324622154236 10.0 10 -0.048997003585100174
-1.568552017211914 -1.3236534595489502 -0.325070858001709 1.0 3 -0.048994697630405426
-2.702352523803711 -2.27962589263916 0.43409866094589233 26.0 11 -0.04899239540100098
-2.6989800930023193 -2.2751691341400146 0.5590968132019043 17.0 12 -0.04898778721690178
-1.4898353815078735 -1.255892038345337 -0.17047663033008575 0.0 5 -0.04898548498749733
-2.688817024230957 -2.2657995223999023 0.6834778785705566 42.0 13 -0.04898317903280258
-2.4806954860687256 -2.08967924118042 -0.16998720169067383 1.0 6 -0.04898087680339813
-2.6891019344329834 -2.264434576034546 0.8116234540939331 8.0 14 -0.048978570848703384
-2.2044918537139893 -1.8556967973709106 -0.05029783770442009 2.0 7 -0.048976268619298935
-2.66214656829834 -2.240147352218628 0.9322662353515625 42.0 15 -0.04897396266460419
-2.3222930431365967 -1.9486353397369385 0.05291569605469704 3.0 8 -0.0489509217441082
-2.279872417449951 -1.9123623371124268 -0.687000572681427 22.0 1 -0.04894861951470375
-2.6905086040496826 -2.256005048751831 0.1840132474899292 9.0 9 -0.048946313560009
-2.2716145515441895 -1.9047602415084839 -0.5762432217597961 19.0 2 -0.04894401133060455
-2.7316761016845703 -2.289712429046631 0.31184324622154236 8.0 10 -0.048941709101200104
-1.5731627941131592 -1.3181700706481934 -0.325070858001709 1.0 3 -0.048939403146505356
-2.6996407508850098 -2.261256217956543 0.4323924481868744 17.0 11 -0.048937100917100906
-2.7023611068725586 -2.261930227279663 0.5581582188606262 15.0 12 -0.04893249273300171
-1.5097092390060425 -1.2632081508636475 -0.17221973836421967 0.0 5 -0.04893018677830696
-2.695204734802246 -2.255139112472534 0.6830962300300598 39.0 13 -0.04892788454890251
-2.5032942295074463 -2.0938220024108887 -0.17103391885757446 1.0 6 -0.048925578594207764
-2.6850297451019287 -2.2450339794158936 0.8080242872238159 8.0 14 -0.048923276364803314
-2.198681592941284 -1.8377307653427124 -0.05001859739422798 2.0 7 -0.048920970410108566
-2.662537097930908 -2.2246482372283936 0.9296780824661255 41.0 15 -0.04891866818070412
-2.2645552158355713 -1.886756181716919 0.051449693739414215 5.0 8 -0.04889562726020813
-2.283538579940796 -1.9018985033035278 -0.6861007809638977 24.0 1 -0.04889332503080368
-2.6845531463623047 -2.235098361968994 0.18307119607925415 9.0 9 -0.04889101907610893
-2.27103590965271 -1.8901419639587402 -0.5743350982666016 21.0 2 -0.04888871684670448
-2.7293283939361572 -2.270765781402588 0.31062304973602295 7.0 10 -0.048886410892009735
-1.5779836177825928 -1.3123953342437744 -0.325070858001709 1.0 3 -0.048884108662605286
-2.704465389251709 -2.2492802143096924 0.43190500140190125 15.0 11 -0.04888180270791054
-2.698087453842163 -2.242382049560547 0.555655300617218 13.0 12 -0.04887719452381134
-1.5141091346740723 -1.257930874824524 -0.17221973836421967 0.0 5 -0.04887489229440689
-2.70345139503479 -2.245246171951294 0.6830962300300598 34.0 13 -0.04887258633971214
-2.5078787803649902 -2.082080602645874 -0.1708245724439621 1.0 6 -0.048870284110307693
-2.6782445907592773 -2.2227325439453125 0.8035252690315247 8.0 14 -0.048867978155612946
-2.1635353565216064 -1.7955642938613892 -0.04907616600394249 2.0 7 -0.048865675926208496
-2.673259973526001 -2.2178080081939697 0.9307133555412292 40.0 15 -0.04886336997151375
-2.2714552879333496 -1.8784433603286743 0.051449693739414215 4.0 8 -0.04884033277630806
-2.2889926433563232 -1.8922739028930664 -0.6856508255004883 28.0 1 -0.04883802682161331
-2.700035572052002 -2.232076644897461 0.18359455466270447 7.0 9 -0.04883572459220886
-2.2715656757354736 -1.877200961112976 -0.5728086233139038 27.0 2 -0.048833418637514114
-2.7172703742980957 -2.2447280883789062 0.30835700035095215 7.0 10 -0.048831116408109665
-1.5825552940368652 -1.3068790435791016 -0.325070858001709 1.0 3 -0.04882881045341492
-2.714221715927124 -2.240617275238037 0.4321487247943878 12.0 11 -0.04882650822401047
-2.692185640335083 -2.221635341644287 0.552839457988739 13.0 12 -0.04882190003991127
-1.5061955451965332 -1.242495059967041 -0.17082524299621582 0.0 5 -0.04881959408521652
-2.708242416381836 -2.2332983016967773 0.6823329925537109 30.0 13 -0.04881729185581207
-2.4873907566070557 -2.0504469871520996 -0.1689404845237732 1.0 6 -0.048814985901117325
-2.6780824661254883 -2.207641124725342 0.8012757301330566 6.0 14 -0.048812683671712875
-2.1605305671691895 -1.7803709506988525 -0.04886673763394356 3.0 7 -0.04881037771701813
-2.663092851638794 -2.193722724914551 0.9245017170906067 40.0 15 -0.04880807548761368
-2.2761261463165283 -1.8696317672729492 0.05141478776931763 2.0 8 -0.04878503456711769
-2.292243003845215 -1.8821995258331299 -0.684751033782959 31.0 1 -0.04878273233771324
-2.693530559539795 -2.2117035388946533 0.18265250325202942 6.0 9 -0.048780426383018494
-2.277778148651123 -1.8696577548980713 -0.5728086233139038 31.0 2 -0.048778124153614044
-2.7169973850250244 -2.229386329650879 0.3074854612350464 6.0 10 -0.048775818198919296
-1.5868803262710571 -1.301623821258545 -0.325070858001709 1.0 3 -0.04877351596951485
-2.7139618396759033 -2.225310802459717 0.4309300482273102 11.0 11 -0.0487712100148201
-2.6964826583862305 -2.210190773010254 0.552213728427887 13.0 12 -0.0487666018307209
-1.5164721012115479 -1.2425445318222046 -0.17152249813079834 0.0 5 -0.04876429960131645
-2.708040237426758 -2.2180843353271484 0.6804249286651611 27.0 13 -0.048761993646621704
-2.5127205848693848 -2.05737042427063 -0.1701965481042862 1.0 6 -0.048759691417217255
-2.6868960857391357 -2.1999824047088623 0.8017256259918213 8.0 14 -0.048757389187812805
-2.1772549152374268 -1.7820625305175781 -0.04911107197403908 2.0 7 -0.04875508323311806
-2.6643714904785156 -2.1799864768981934 0.9224311113357544 40.0 15 -0.04875278100371361
-2.2544238567352295 -1.8393189907073975 0.05078650265932083 3.0 8 -0.04872974008321762
-2.2954518795013428 -1.872124433517456 -0.6838512420654297 38.0 1 -0.04872743412852287
-2.688850164413452 -2.1921920776367188 0.18181513249874115 5.0 9 -0.04872513189911842
-2.285487651824951 -1.8633346557617188 -0.5731902718544006 37.0 2 -0.048722825944423676
-2.7212865352630615 -2.217846632003784 0.3071368336677551 7.0 10 -0.048720523715019226
-2.7167086601257324 -2.212538003921509 0.4301988184452057 9.0 11 -0.04871591553092003
-2.702648878097534 -2.1995177268981934 0.5519008636474609 12.0 12 -0.04871130734682083
-1.548399806022644 -1.2601462602615356 -0.1746601164340973 1.0 5 -0.04870900511741638
-2.6940598487854004 -2.1917459964752197 0.675082266330719 22.0 13 -0.048706699162721634
-2.4900879859924316 -2.0250840187072754 -0.1682077795267105 2.0 6 -0.048704396933317184
-2.680950403213501 -2.1795263290405273 0.7976765036582947 8.0 14 -0.048702090978622437
-2.183462142944336 -1.7744516134262085 -0.04911107197403908 2.0 7 -0.04869978874921799
-2.6659674644470215 -2.1658005714416504 0.9203605651855469 40.0 15 -0.04869748279452324
-2.253061532974243 -1.8251447677612305 0.05061197653412819 3.0 8 -0.04867444187402725
-2.2807698249816895 -1.8469315767288208 -0.6775525808334351 41.0 1 -0.0486721396446228
-2.6840670108795166 -2.1727395057678223 0.18097776174545288 3.0 9 -0.048669833689928055
-2.291978120803833 -1.855345368385315 -0.5731902718544006 37.0 2 -0.048667531460523605
-2.732110023498535 -2.2108399868011475 0.3074854612350464 6.0 10 -0.048665229231119156
-1.595703363418579 -1.2907921075820923 -0.325070858001709 1.0 3 -0.04866292327642441
-2.7136104106903076 -2.1943042278289795 0.4284926652908325 6.0 11 -0.04866062104701996
-2.7026281356811523 -2.1838626861572266 0.550336480140686 12.0 12 -0.04865601286292076
-1.5248947143554688 -1.2321934700012207 -0.17152249813079834 0.0 5 -0.04865370690822601
-2.6971116065979004 -2.1786282062530518 0.6739373803138733 17.0 13 -0.048651404678821564
-2.4924802780151367 -2.0126147270202637 -0.16789376735687256 7.0 6 -0.048649098724126816
-2.679443836212158 -2.1628105640411377 0.794977068901062 8.0 14 -0.048646796494722366
-2.1647424697875977 -1.746727705001831 -0.04855259507894516 2.0 7 -0.04864449054002762
-2.6720075607299805 -2.155268430709839 0.9198428988456726 41.0 15 -0.04864218831062317
-2.2235796451568604 -1.7884432077407837 0.04980916902422905 6.0 8 -0.04861914739012718
-2.287203073501587 -1.8389588594436646 -0.6775525808334351 43.0 1 -0.04861684516072273
-2.666726589202881 -2.1433374881744385 0.17930300533771515 5.0 9 -0.048614539206027985
-2.287728786468506 -1.8387242555618286 -0.570518970489502 40.0 2 -0.048612236976623535
-2.7320449352264404 -2.195050001144409 0.30661389231681824 5.0 10 -0.04860993102192879
-2.7181575298309326 -2.1823325157165527 0.4280051589012146 5.0 11 -0.04860532283782959
-2.7025303840637207 -2.1682350635528564 0.5487721562385559 12.0 12 -0.04860071465373039
-1.4983153343200684 -1.2016652822494507 -0.16803626716136932 0.0 5 -0.04859841242432594
-2.7092952728271484 -2.172884464263916 0.675082266330719 16.0 13 -0.048596106469631195
-2.508840322494507 -2.0113980770111084 -0.16852180659770966 2.0 6 -0.048593804240226746
-2.6900179386138916 -2.1558825969696045 0.7958768606185913 9.0 14 -0.048591498285532
-2.1770694255828857 -1.7441613674163818 -0.048692215234041214 3.0 7 -0.04858919605612755
-2.6810226440429688 -2.1471357345581055 0.9203605651855469 43.0 15 -0.0485868901014328
-2.2313716411590576 -1.7819185256958008 0.04984407499432564 5.0 8 -0.04856385290622711
-2.2920854091644287 -1.8297479152679443 -0.6771027445793152 47.0 1 -0.048561546951532364
-2.6773147583007812 -2.1365067958831787 0.17951233685016632 5.0 9 -0.048559244722127914
-2.2837092876434326 -1.8217566013336182 -0.5678476095199585 44.0 2 -0.048556938767433167
-2.719820499420166 -2.1688737869262695 0.30434784293174744 6.0 10 -0.04855463653802872
-2.7242069244384766 -2.171593189239502 0.427761435508728 4.0 11 -0.04855002835392952
-2.696176767349243 -2.1477115154266357 0.5459563732147217 12.0 12 -0.04854542016983032
-2.712632656097412 -2.1592724323272705 0.6739373803138733 13.0 13 -0.048540811985731125
-2.5115063190460205 -1.9984588623046875 -0.1682077795267105 1.0 6 -0.04853850603103638
-2.6826510429382324 -2.1338768005371094 0.7913778424263 11.0 14 -0.04853620380163193
-2.176884412765503 -1.731571912765503 -0.04855259507894516 8.0 7 -0.04853389784693718
-2.671867609024048 -2.1245388984680176 0.9146665334701538 42.0 15 -0.04853159561753273
-2.2472901344299316 -1.7811810970306396 0.05005349963903427 3.0 8 -0.04850855469703674
-2.2972490787506104 -1.8201245069503784 -0.6766527891159058 50.0 1 -0.048506252467632294
-2.6726016998291016 -2.116759777069092 0.17867498099803925 6.0 9 -0.048503946512937546
-2.28543758392334 -1.8101170063018799 -0.5667027235031128 46.0 2 -0.048501644283533096
-2.7195639610290527 -2.153183698654175 0.3034762740135193 7.0 10 -0.04849933832883835
-2.732147693634033 -2.1615946292877197 0.427761435508728 4.0 11 -0.04849473014473915
-2.7009310722351074 -2.135364532470703 0.5453305840492249 13.0 12 -0.048490121960639954
-2.7062907218933105 -2.1388344764709473 0.6705028414726257 12.0 13 -0.048485513776540756
-2.526303768157959 -1.9958699941635132 -0.16873113811016083 2.0 6 -0.04848321154713631
-2.6916122436523438 -2.1257078647613525 0.7918277978897095 12.0 14 -0.04848090559244156
-2.176938056945801 -1.7186256647109985 -0.048412974923849106 12.0 7 -0.04847860336303711
-2.6675050258636475 -2.105156660079956 0.9105254411697388 44.0 15 -0.04847630113363266
-2.2189218997955322 -1.7461193799972534 0.04928559437394142 6.0 8 -0.04845326021313667
-2.291335344314575 -1.8024556636810303 -0.6730535626411438 45.0 1 -0.048450954258441925
-2.6831142902374268 -2.109886884689331 0.17888431251049042 6.0 9 -0.048448652029037476
-2.2951436042785645 -1.8041549921035767 -0.5674660205841064 49.0 2 -0.04844634607434273
-2.714905261993408 -2.133352756500244 0.30208179354667664 7.0 10 -0.04844404384493828
-2.7209434509277344 -2.137329339981079 0.42483654618263245 4.0 11 -0.04843943566083908
-2.7114765644073486 -2.1283631324768066 0.5459563732147217 12.0 12 -0.04843482747673988
-2.701754093170166 -2.1192078590393066 0.6674498915672302 10.0 13 -0.048430219292640686
-2.516312599182129 -1.9730415344238281 -0.1675797551870346 1.0 6 -0.04842791706323624
-2.7009196281433105 -2.1170296669006348 0.7922776341438293 15.0 14 -0.04842561110854149
-2.1813504695892334 -1.7097820043563843 -0.04837806895375252 11.0 7 -0.04842330887913704
-2.6763572692871094 -2.09702467918396 0.911043107509613 46.0 15 -0.04842100292444229
-2.1638429164886475 -1.6899713277816772 0.047924306243658066 7.0 8 -0.048397962003946304
-2.288710117340088 -1.786850094795227 -0.6703541874885559 43.0 1 -0.048395659774541855
-2.674720048904419 -2.088217258453369 0.17783759534358978 6.0 9 -0.04839335381984711
-2.2983317375183105 -1.7937164306640625 -0.5667027235031128 55.0 2 -0.04839105159044266
-2.72704815864563 -2.1275391578674316 0.3026047348976135 8.0 10 -0.04838874563574791
-2.72249698638916 -2.12246036529541 0.42386162281036377 4.0 11 -0.04838414117693901
-2.7142152786254883 -2.1152422428131104 0.5450177192687988 15.0 12 -0.04837953299283981
-2.7075860500335693 -2.1085574626922607 0.6670682430267334 10.0 13 -0.048374924808740616
-2.5657365322113037 -1.997371792793274 -0.17040587961673737 3.0 6 -0.04837261885404587
-2.69254732131958 -2.0960912704467773 0.7877786159515381 17.0 14 -0.04837031662464142
-2.2078208923339844 -1.718123197555542 -0.04883183166384697 13.0 7 -0.04836801066994667
-2.6806116104125977 -2.0852973461151123 0.9100078344345093 48.0 15 -0.04836570844054222
-2.174175500869751 -1.6864632368087769 0.04802902415394783 5.0 8 -0.048342667520046234
-2.2930824756622314 -1.7780569791793823 -0.6699042916297913 40.0 1 -0.048340365290641785
-2.6611111164093018 -2.0634264945983887 0.1764768660068512 7.0 9 -0.04833805933594704
-2.28564715385437 -1.771652102470398 -0.5621232986450195 47.0 2 -0.04833575710654259
-2.730938673019409 -2.11604380607605 0.30225610733032227 10.0 10 -0.04833345115184784
-2.7326595783233643 -2.1158509254455566 0.4243490695953369 4.0 11 -0.04832884296774864
-2.7055933475494385 -2.0941390991210938 0.5418890714645386 15.0 12 -0.048324234783649445
-2.713010549545288 -2.0983660221099854 0.6666866540908813 8.0 13 -0.04831962659955025
-2.584986686706543 -1.9986255168914795 -0.17124326527118683 5.0 6 -0.0483173243701458
-2.6948585510253906 -2.0835747718811035 0.7864289283752441 27.0 14 -0.04831501841545105
-2.2024309635162354 -1.7022322416305542 -0.04858750104904175 9.0 7 -0.0483127161860466
-2.6920981407165527 -2.079939842224121 0.9115607142448425 50.0 15 -0.04831041023135185
-2.2225277423858643 -1.712194561958313 0.04897145554423332 7.0 8 -0.048287373036146164
-2.303598165512085 -1.7740099430084229 -0.6712539792060852 24.0 1 -0.048285067081451416
-2.679015874862671 -2.0631206035614014 0.17720957100391388 9.0 9 -0.04828276485204697
-2.2852871417999268 -1.7592723369598389 -0.5605968832969666 47.0 2 -0.04828045889735222
-2.7316250801086426 -2.1021156311035156 0.30155888199806213 11.0 10 -0.04827815666794777
-2.736513614654541 -2.1043572425842285 0.42386162281036377 4.0 11 -0.04827354848384857
-2.70782470703125 -2.0815436840057373 0.5409504771232605 17.0 12 -0.048268940299749374
-2.7090556621551514 -2.0809860229492188 0.6640153527259827 7.0 13 -0.04826433211565018
-2.5884318351745605 -1.9876097440719604 -0.17103391885757446 5.0 6 -0.04826202616095543
-2.7048444747924805 -2.077000856399536 0.7873287796974182 31.0 14 -0.04825972393155098
-2.200131893157959 -1.6888316869735718 -0.048412974923849106 11.0 7 -0.04825741797685623
-2.683654308319092 -2.0592403411865234 0.906384289264679 50.0 15 -0.04825511574745178
-2.2758381366729736 -1.7412683963775635 0.05001859739422798 6.0 8 -0.048232074826955795
-2.273866653442383 -1.7391316890716553 -0.6609062552452087 1.0 1 -0.048229772597551346
-2.6668055057525635 -2.0396647453308105 0.17595350742340088 9.0 9 -0.0482274666428566
-2.298906087875366 -1.757646918296814 -0.5625049471855164 26.0 2 -0.04822516441345215
-2.7243337631225586 -2.0821566581726074 0.29999005794525146 12.0 10 -0.0482228584587574
-2.737166166305542 -2.090452194213867 0.4228866696357727 4.0 11 -0.0482182502746582
-2.714712381362915 -2.072552442550659 0.5409504771232605 22.0 12 -0.048213642090559006
-2.7159416675567627 -2.071990728378296 0.6640153527259827 7.0 13 -0.04820903390645981
-2.572775363922119 -1.9620590209960938 -0.1695685237646103 3.0 6 -0.04820673167705536
-2.707068681716919 -2.06447434425354 0.7859790325164795 39.0 14 -0.04820442572236061
-2.1882271766662598 -1.6681904792785645 -0.04802902415394783 7.0 7 -0.04820212349295616
-2.6812493801116943 -2.043304204940796 0.9032785296440125 51.0 15 -0.048199817538261414
-2.2410943508148193 -1.7010825872421265 0.04911107197403908 11.0 8 -0.04813917726278305
-2.671435594558716 -2.0269956588745117 0.1757441610097885 9.0 9 -0.04813456907868385
-2.3134591579437256 -1.7547390460968018 -0.5644130706787109 30.0 2 -0.048132263123989105
-2.7323086261749268 -2.071680784225464 0.29999005794525146 15.0 10 -0.048129960894584656
-2.7277681827545166 -2.066739797592163 0.4202055335044861 6.0 11 -0.04812535271048546
-2.7320988178253174 -2.0692696571350098 0.5428276658058167 27.0 12 -0.04812074452638626
-2.703526020050049 -2.04614520072937 0.6590543389320374 7.0 13 -0.048116136342287064
-2.5293211936950684 -1.9136043787002563 -0.16621901094913483 1.0 6 -0.048113830387592316
-2.721550703048706 -2.058293342590332 0.7877786159515381 49.0 14 -0.048111528158187866
-2.1994011402130127 -1.6633946895599365 -0.048133738338947296 13.0 7 -0.04810922220349312
-2.6813700199127197 -2.0271687507629395 0.9006903171539307 55.0 15 -0.04810691997408867
-2.233947992324829 -1.6840121746063232 0.04883183166384697 13.0 8 -0.04808387905359268
-1.9127334356307983 -1.4413483142852783 -0.5529297590255737 1.0 1 -0.04808157682418823
-2.6689231395721436 -2.0104477405548096 0.17511612176895142 10.0 9 -0.048079270869493484
-2.336822509765625 -1.7596429586410522 -0.5686108469963074 28.0 2 -0.048076968640089035
-2.7442984580993652 -2.065725803375244 0.30051299929618835 26.0 10 -0.04807466268539429
-2.721917152404785 -2.0481343269348145 0.41825562715530396 8.0 11 -0.04807005450129509
-2.736146926879883 -2.0573463439941406 0.5422019362449646 30.0 12 -0.04806544631719589
-2.7150049209594727 -2.040707588195801 0.6601991653442383 7.0 13 -0.048060838133096695
-2.281768560409546 -1.71444571018219 -0.14957617223262787 1.0 6 -0.048058535903692245
-2.7190122604370117 -2.0422348976135254 0.7850792407989502 53.0 14 -0.0480562299489975
-2.2051939964294434 -1.6557072401046753 -0.048133738338947296 13.0 7 -0.04805392771959305
-2.6853396892547607 -2.015476942062378 0.8996549844741821 54.0 15 -0.0480516217648983
-2.2430145740509033 -1.6786000728607178 0.048901643604040146 14.0 8 -0.04802858456969261
-1.8397321701049805 -1.376295566558838 -0.5304346084594727 1.0 1 -0.048026278614997864
-2.6695265769958496 -1.9963346719741821 0.17469742894172668 9.0 9 -0.048023976385593414
-2.3505055904388428 -1.757763385772705 -0.570518970489502 26.0 2 -0.048021670430898666
-2.7415590286254883 -2.0494563579559326 0.2994671165943146 26.0 10 -0.04801936820149422
-2.7290499210357666 -2.0386204719543457 0.41825562715530396 11.0 11 -0.04801476001739502
-2.733814001083374 -2.0406930446624756 0.5403247475624084 36.0 12 -0.04801015183329582
-2.715818166732788 -2.0265207290649414 0.6586726903915405 7.0 13 -0.048005543649196625
-2.2685272693634033 -1.692140817642212 -0.14832010865211487 6.0 6 -0.04800323769450188
-2.71518874168396 -2.0245771408081055 0.7819299101829529 63.0 14 -0.04800093546509743
-2.196531057357788 -1.6372435092926025 -0.0478195957839489 11.0 7 -0.04799863323569298
-2.700103759765625 -2.0118629932403564 0.9022431969642639 60.0 15 -0.04799632728099823
-2.253675937652588 -1.6743378639221191 0.04900635778903961 12.0 8 -0.04797328636050224
-1.9008464813232422 -1.4116933345794678 -0.5466310977935791 1.0 1 -0.047970984131097794
-2.676478862762451 -1.987004041671753 0.17469742894172668 9.0 9 -0.047968678176403046
-2.3755431175231934 -1.763590931892395 -0.5750983357429504 31.0 2 -0.047966375946998596
-2.737496852874756 -2.031562566757202 0.29824694991111755 37.0 10 -0.04796406999230385
-2.737744092941284 -2.030264377593994 0.4184993803501129 12.0 11 -0.04795946180820465
-2.7250497341156006 -2.019376754760742 0.5371960401535034 37.0 12 -0.04795485734939575
-2.71498703956604 -2.011186122894287 0.656764566898346 7.0 13 -0.047950249165296555
-2.259974718093872 -1.673514723777771 -0.147378072142601 4.0 6 -0.04794794321060181
-2.725372076034546 -2.0174059867858887 0.782829761505127 67.0 14 -0.04794564098119736
-2.1909799575805664 -1.6212403774261475 -0.04757525771856308 8.0 7 -0.04794333502650261
-2.697791337966919 -1.9955326318740845 0.8991374373435974 64.0 15 -0.04794103279709816
-2.2965216636657715 -1.6937603950500488 0.04980916902422905 25.0 8 -0.04791799187660217
-1.9277218580245972 -1.4212398529052734 -0.5529297590255737 1.0 1 -0.047915685921907425
-2.6753597259521484 -1.9717246294021606 0.17417407035827637 7.0 9 -0.047913383692502975
-2.3990695476531982 -1.768100380897522 -0.5792961716651917 30.0 2 -0.04791107773780823
-2.736551284790039 -2.016085624694824 0.2973753809928894 35.0 10 -0.04790877550840378
-2.736821174621582 -2.0148110389709473 0.4172806739807129 13.0 11 -0.04790416732430458
-2.735264539718628 -2.012193202972412 0.5378217697143555 43.0 12 -0.04789955914020538
-2.7156646251678467 -1.997044324874878 0.655238151550293 8.0 13 -0.047894950956106186
-2.267411470413208 -1.66679847240448 -0.1474827378988266 10.0 6 -0.047892648726701736
-2.730827808380127 -2.006725549697876 0.7823798060417175 77.0 14 -0.04789034277200699
-2.2062954902648926 -1.6206854581832886 -0.04778468981385231 9.0 7 -0.04788804054260254
-2.693840742111206 -1.9780993461608887 0.8955139517784119 67.0 15 -0.04788573458790779
-2.2991926670074463 -1.683371663093567 0.04973935708403587 35.0 8 -0.047862693667411804
-1.9106556177139282 -1.398388385772705 -0.5466310977935791 1.0 1 -0.047860391438007355
-2.6951215267181396 -1.9718081951141357 0.17501145601272583 7.0 9 -0.047858089208602905
-2.4258246421813965 -1.7747849225997925 -0.5842571258544922 29.0 2 -0.04785578325390816
-2.7403552532196045 -2.004169225692749 0.29702678322792053 42.0 10 -0.04785348102450371
-2.726207971572876 -1.992361307144165 0.41459953784942627 19.0 11 -0.04784887284040451
-2.7406764030456543 -2.0014679431915283 0.5375089049339294 51.0 12 -0.04784426465630531
-2.708348035812378 -1.977134346961975 0.6518035531044006 10.0 13 -0.047839656472206116
-2.274829149246216 -1.6600515842437744 -0.14758741855621338 15.0 6 -0.04783735051751137
-2.7157742977142334 -1.9811029434204102 0.7760811448097229 75.0 14 -0.04783504828810692
-2.2119393348693848 -1.6129740476608276 -0.04778468981385231 11.0 7 -0.04783274233341217
-2.6976075172424316 -1.9664074182510376 0.8944786190986633 70.0 15 -0.04783044010400772
-2.293731927871704 -1.667106032371521 0.04949502646923065 26.0 8 -0.047807399183511734
-1.9155254364013672 -1.3917104005813599 -0.5466310977935791 1.0 1 -0.047805096954107285
-2.6825952529907227 -1.9483048915863037 0.17375539243221283 7.0 9 -0.04780279099941254
-2.4415359497070312 -1.7732292413711548 -0.5865468978881836 24.0 2 -0.04780048877000809
-2.7505595684051514 -1.9969316720962524 0.2973753809928894 53.0 10 -0.04779818281531334
-2.725111484527588 -1.9770050048828125 0.41338086128234863 24.0 11 -0.04779357463121414
-2.739649534225464 -1.9860919713974 0.5359445214271545 51.0 12 -0.047788966447114944
-2.720001459121704 -1.9711250066757202 0.6529484391212463 11.0 13 -0.04778435826301575
-2.2757580280303955 -1.6485849618911743 -0.14727339148521423 18.0 6 -0.0477820560336113
-2.717938184738159 -1.9681822061538696 0.7747315168380737 78.0 14 -0.04777975007891655
-2.2855889797210693 -1.6544913053512573 -0.04925068840384483 19.0 7 -0.0477774478495121
-2.707584857940674 -1.9592446088790894 0.8955139517784119 70.0 15 -0.04777514189481735
-2.2979159355163574 -1.6579185724258423 0.049460120499134064 12.0 8 -0.047752104699611664
-1.9045659303665161 -1.3736165761947632 -0.5421320796012878 1.0 1 -0.047749798744916916
-2.679659128189087 -1.9319207668304443 0.17312735319137573 7.0 9 -0.047747496515512466
-2.4671318531036377 -1.7780424356460571 -0.5911262631416321 1.0 2 -0.04774519056081772
-2.7530100345611572 -1.9833436012268066 0.2968524396419525 58.0 10 -0.04774288833141327
-2.728774309158325 -1.9651603698730469 0.4128933846950531 31.0 11 -0.04773828014731407
-2.732135057449341 -1.9661327600479126 0.5331287384033203 57.0 12 -0.047733671963214874
-2.725614547729492 -1.9599956274032593 0.6525667905807495 12.0 13 -0.04772906377911568
-2.278541326522827 -1.6379019021987915 -0.14706405997276306 20.0 6 -0.04772675782442093
-2.720386028289795 -1.9547957181930542 0.773381769657135 86.0 14 -0.04772445559501648
-2.283231258392334 -1.6406680345535278 -0.04907616600394249 21.0 7 -0.04772215336561203
-2.7081313133239746 -1.9452732801437378 0.8934433460235596 72.0 15 -0.04771984741091728
-1.6601173877716064 -1.188965916633606 -0.5471434593200684 1.0 0 -0.04769911244511604
-2.2535717487335205 -1.6133992671966553 0.04837806895375252 18.0 8 -0.047696806490421295
-2.6867220401763916 -1.9220863580703735 0.17312735319137573 7.0 9 -0.0476921983063221
-2.7485721111297607 -1.965609073638916 0.2956322729587555 63.0 10 -0.0476875901222229
-2.7391886711120605 -1.957453966140747 0.41338086128234863 35.0 11 -0.0476829819381237
-2.72967791557312 -1.9492172002792358 0.5312514901161194 57.0 12 -0.047678373754024506
-2.729243755340576 -1.9481881856918335 0.6518035531044006 15.0 13 -0.04767376929521561
-2.29074764251709 -1.6345784664154053 -0.1474827378988266 15.0 6 -0.04767146334052086
-2.7208468914031982 -1.9407612085342407 0.7715821266174316 86.0 14 -0.04766916111111641
-2.28108811378479 -1.6264837980270386 -0.048901643604040146 17.0 7 -0.04766685515642166
-2.6979384422302246 -1.9230003356933594 0.8877493143081665 76.0 15 -0.04766455292701721
-1.7429832220077515 -1.2391318082809448 -0.5730253458023071 1.0 0 -0.047643814235925674
-2.241260051727295 -1.5927808284759521 0.04799411818385124 23.0 8 -0.047641512006521225
-2.6852729320526123 -1.906914234161377 0.17260399460792542 6.0 9 -0.04763690382242203
-2.745668888092041 -1.949082851409912 0.2945863902568817 61.0 10 -0.04763229563832283
-2.746005058288574 -1.9478802680969238 0.41338086128234863 46.0 11 -0.04762768745422363
-2.7396883964538574 -1.941961646080017 0.5318772196769714 62.0 12 -0.047623079270124435
-2.7312214374542236 -1.9352447986602783 0.6506586670875549 22.0 13 -0.04761847108602524
-2.298069953918457 -1.6277263164520264 -0.14758741855621338 13.0 6 -0.04761616885662079
-2.7291953563690186 -1.9323779344558716 0.7720320820808411 83.0 14 -0.04761386290192604
-2.2916481494903564 -1.6219775676727295 -0.04900635778903961 23.0 7 -0.04761156067252159
-2.698326349258423 -1.9091078042984009 0.8856788277626038 82.0 15 -0.04760925471782684
-2.2451722621917725 -1.5837949514389038 0.047959212213754654 26.0 8 -0.047586213797330856
-2.6984429359436035 -1.9021319150924683 0.17302268743515015 6.0 9 -0.04758160561323166
-2.7426841259002686 -1.9326003789901733 0.2935405373573303 63.0 10 -0.04757700115442276
-2.7414259910583496 -1.9302831888198853 0.4116746783256531 53.0 11 -0.04757239297032356
-2.7432188987731934 -1.9301137924194336 0.5312514901161194 67.0 12 -0.047567784786224365
-2.7170841693878174 -1.911016583442688 0.6456976532936096 26.0 13 -0.04756317660212517
-2.3037378787994385 -1.6196945905685425 -0.14758741855621338 11.0 6 -0.04756087064743042
-2.737518072128296 -1.9239606857299805 0.7724819779396057 92.0 14 -0.04755856841802597
-2.2874791622161865 -1.6070706844329834 -0.04879692941904068 23.0 7 -0.04755626246333122
-2.698650598526001 -1.8952362537384033 0.8836082816123962 78.0 15 -0.04755396023392677
-2.2441351413726807 -1.5713603496551514 0.0478195957839489 29.0 8 -0.047530919313430786
-2.68870210647583 -1.881250262260437 0.1719759702682495 6.0 9 -0.04752631112933159
-1.594119668006897 -1.1153850555419922 -0.3781834542751312 0.0 2 -0.04752400889992714
-2.7575762271881104 -1.9287248849868774 0.29441210627555847 72.0 10 -0.04752170294523239
-2.736758232116699 -1.91274094581604 0.4099684953689575 63.0 11 -0.047517094761133194
-2.5890088081359863 -1.8088061809539795 -0.3877882957458496 1.0 4 -0.047514792531728745
-2.753178596496582 -1.922788381576538 0.5318772196769714 75.0 12 -0.047512486577034
-2.440396308898926 -1.7043448686599731 -0.26042136549949646 1.0 5 -0.04751018434762955
-2.7269585132598877 -1.9037675857543945 0.6464609503746033 27.0 13 -0.0475078783929348
-2.314290761947632 -1.6150726079940796 -0.14790143072605133 9.0 6 -0.04750557616353035
-2.7266364097595215 -1.9021284580230713 0.7675330638885498 83.0 14 -0.0475032702088356
-2.2979953289031982 -1.6025073528289795 -0.048901643604040146 24.0 7 -0.04750096797943115
-2.7115883827209473 -1.8902238607406616 0.8856788277626038 78.0 15 -0.047498662024736404
-1.5972490310668945 -1.1105304956436157 -0.5212615728378296 1.0 0 -0.047477927058935165
-2.2676689624786377 -1.5760709047317505 0.048203546553850174 31.0 8 -0.047475624829530716
-1.608402132987976 -1.1174529790878296 -0.4521516263484955 1.0 1 -0.04747331887483597
-2.6919710636138916 -1.8695755004882812 0.17176662385463715 5.0 9 -0.04747101664543152
-2.7692019939422607 -1.9224961996078491 0.294935017824173 72.0 10 -0.04746640846133232
-2.7417867183685303 -1.9020453691482544 0.40972477197647095 68.0 11 -0.047461800277233124
-2.595306634902954 -1.7997578382492065 -0.3877882957458496 10.0 4 -0.047459494322538376
-2.7485101222991943 -1.905287742614746 0.5296871662139893 68.0 12 -0.047457192093133926
-2.350006341934204 -1.628435730934143 -0.25013697147369385 3.0 5 -0.04745488613843918
-2.731973171234131 -1.89311945438385 0.6460793018341064 33.0 13 -0.04745258390903473
-2.3445420265197754 -1.624043583869934 -0.14947150647640228 3.0 6 -0.04745027795433998
-2.7220449447631836 -1.8848328590393066 0.7643837332725525 81.0 14 -0.04744797572493553
-2.318373203277588 -1.604719638824463 -0.049215786159038544 29.0 7 -0.047445669770240784
-2.711815595626831 -1.8763505220413208 0.8836082816123962 78.0 15 -0.047443367540836334
-1.6013084650039673 -1.104669213294983 -0.5212615728378296 1.0 0 -0.047422632575035095
-2.3011386394500732 -1.5874499082565308 0.04879692941904068 36.0 8 -0.04742032662034035
-1.6283361911773682 -1.1228944063186646 -0.4566507041454315 1.0 1 -0.0474180243909359
-2.7050583362579346 -1.864701509475708 0.17218531668186188 5.0 9 -0.04741571843624115
-1.6828901767730713 -1.1596486568450928 -0.3972643315792084 1.0 2 -0.0474134162068367
-2.763103485107422 -1.9032918214797974 0.2935405373573303 75.0 10 -0.04741111025214195
-2.5982916355133057 -1.7890968322753906 -0.4996517598628998 2.0 3 -0.0474088080227375
-2.7484095096588135 -1.892462968826294 0.40972477197647095 70.0 11 -0.047406502068042755
-2.622830629348755 -1.80531907081604 -0.3909568786621094 18.0 4 -0.047404199838638306
-2.7356152534484863 -1.8822462558746338 0.5259327292442322 65.0 12 -0.04740189388394356
-2.3737337589263916 -1.6326425075531006 -0.2520544230937958 5.0 5 -0.04739959165453911
-2.742128849029541 -1.8853180408477783 0.6468425393104553 38.0 13 -0.04739728569984436
-2.4624061584472656 -1.6923651695251465 -0.15658919513225555 1.0 6 -0.04739498347043991
-2.725722074508667 -1.8726369142532349 0.7634838819503784 74.0 14 -0.04739268124103546
-2.3305535316467285 -1.6011464595794678 -0.0493554063141346 23.0 7 -0.047390375286340714
-2.7056093215942383 -1.8581229448318481 0.8794671893119812 78.0 15 -0.047388073056936264
-1.5860267877578735 -1.0859756469726562 -0.515049934387207 0.0 0 -0.04736733436584473
-2.320143222808838 -1.5880403518676758 0.04907616600394249 28.0 8 -0.04736503213644028
-1.6549574136734009 -1.1323245763778687 -0.46294930577278137 1.0 1 -0.04736272618174553
-2.7016608715057373 -1.8484807014465332 0.17155727744102478 5.0 9 -0.04736042395234108
-2.6365339756011963 -1.8032464981079102 -0.6208925247192383 1.0 2 -0.04735811799764633
-2.7582168579101562 -1.8857636451721191 0.2923203408718109 80.0 10 -0.04735581576824188
-2.630614757537842 -1.7978495359420776 -0.5046576261520386 22.0 3 -0.047353509813547134
-2.758605480194092 -1.8846163749694824 0.4102122485637665 77.0 11 -0.047351207584142685
-2.6553421020507812 -1.8140692710876465 -0.394856721162796 18.0 4 -0.04734890162944794
-2.74216890335083 -1.8726855516433716 0.5259327292442322 65.0 12 -0.04734659940004349
-2.38106369972229 -1.6254699230194092 -0.252228707075119 7.0 5 -0.04734429717063904
-2.735719919204712 -1.8668816089630127 0.6437895894050598 50.0 13 -0.04734199121594429
-2.550795316696167 -1.740034818649292 -0.16182279586791992 1.0 6 -0.04733968898653984
-2.7286972999572754 -1.861391305923462 0.7625840902328491 70.0 14 -0.04733738303184509
-2.3410847187042236 -1.5963813066482544 -0.049460120499134064 21.0 7 -0.04733508080244064
-2.707289695739746 -1.8454036712646484 0.8779142498970032 72.0 15 -0.047332774847745895
-1.6247667074203491 -1.1046053171157837 -0.5264379978179932 1.0 0 -0.047312039881944656
-2.298933982849121 -1.5623537302017212 0.04851769283413887 19.0 8 -0.04730973392724991
-1.6587032079696655 -1.1268302202224731 -0.46294930577278137 1.0 1 -0.04730743169784546
-2.707775831222534 -1.8395113945007324 0.17155727744102478 6.0 9 -0.04730512574315071
-2.6408753395080566 -1.7933902740478516 -0.6205108761787415 13.0 2 -0.04730282351374626
-2.7644553184509277 -1.8766064643859863 0.2923203408718109 80.0 10 -0.04730052128434181
-2.6545426845550537 -1.8013172149658203 -0.5080991983413696 24.0 3 -0.047298215329647064
-2.7451260089874268 -1.862086534500122 0.4072873890399933 77.0 11 -0.047295913100242615
-2.6777708530426025 -1.8163979053497314 -0.3972941040992737 16.0 4 -0.04729360714554787
-2.748363971710205 -1.863581895828247 0.5259327292442322 63.0 12 -0.04729130491614342
-2.3864409923553467 -1.6175649166107178 -0.252228707075119 7.0 5 -0.04728899896144867
-2.7272677421569824 -1.847888708114624 0.6403550505638123 53.0 13 -0.04728669673204422
-2.553244113922119 -1.7293261289596558 -0.16161344945430756 1.0 6 -0.04728439077734947
-2.738081932067871 -1.8545178174972534 0.7634838819503784 68.0 14 -0.04728208854794502
-2.349677324295044 -1.5908511877059937 -0.04952992871403694 20.0 7 -0.047279782593250275
-2.711794376373291 -1.8353328704833984 0.8773965835571289 74.0 15 -0.047277480363845825
-1.6924687623977661 -1.1424446105957031 -0.5471434593200684 1.0 0 -0.04725674167275429
-2.3190207481384277 -1.564788579940796 0.04883183166384697 23.0 8 -0.04725443944334984
-1.904767632484436 -1.2847816944122314 -0.5304346084594727 1.0 1 -0.04725213721394539
-2.7042441368103027 -1.8233495950698853 0.17092925310134888 5.0 9 -0.04724983125925064
-2.6761083602905273 -1.804378867149353 -0.6273800134658813 19.0 2 -0.04724752902984619
-2.770663261413574 -1.8674287796020508 0.2923203408718109 77.0 10 -0.047245223075151443
-2.6801605224609375 -1.805749535560608 -0.5118536353111267 25.0 3 -0.047242920845746994
-2.7512857913970947 -1.8529731035232544 0.4072873890399933 79.0 11 -0.047240614891052246
-2.6972689628601074 -1.8159079551696777 -0.3992440104484558 25.0 4 -0.0472383126616478
-2.758129835128784 -1.85618257522583 0.5265584588050842 63.0 12 -0.04723600670695305
-2.3934450149536133 -1.6107547283172607 -0.25240302085876465 6.0 5 -0.0472337044775486
-2.7366385459899902 -1.8410261869430542 0.6411182284355164 60.0 13 -0.04723139852285385
-2.573881149291992 -1.7308807373046875 -0.1625555008649826 3.0 6 -0.0472290962934494
-2.733217716217041 -1.8373385667800903 0.7603346109390259 66.0 14 -0.047226790338754654
-2.390070915222168 -1.6060618162155151 -0.0502629317343235 23.0 7 -0.047224488109350204
-2.716580867767334 -1.8247785568237305 0.8768789768218994 70.0 15 -0.04722218215465546
-2.3493919372558594 -1.5733742713928223 0.0493554063141346 14.0 8 -0.04719914495944977
-2.707272529602051 -1.8116772174835205 0.1707199066877365 6.0 9 -0.04719453677535057
-2.69870662689209 -1.8059450387954712 -0.6311962008476257 23.0 2 -0.04719223082065582
-2.773853063583374 -1.8555303812026978 0.29197174310684204 77.0 10 -0.04718992859125137
-2.7192885875701904 -1.818344235420227 -0.5181110501289368 47.0 3 -0.047187622636556625
-2.756086587905884 -1.842254638671875 0.4070436358451843 82.0 11 -0.047185320407152176
-2.738252639770508 -1.829641580581665 -0.4043624997138977 54.0 4 -0.04718301445245743
-2.751450538635254 -1.8377666473388672 0.524055540561676 63.0 12 -0.04718071222305298
-2.413963794708252 -1.6123502254486084 -0.25397181510925293 7.0 5 -0.04717840626835823
-2.749579906463623 -1.835822343826294 0.6426447629928589 61.0 13 -0.04717610403895378
-2.5500049591064453 -1.7019281387329102 -0.1606713980436325 2.0 6 -0.04717379808425903
-2.739614248275757 -1.827787160873413 0.7603346109390259 72.0 14 -0.047171495854854584
-2.3607261180877686 -1.5744085311889648 -0.04952992871403694 13.0 7 -0.047169189900159836
-2.7277562618255615 -1.8184993267059326 0.8784318566322327 66.0 15 -0.047166887670755386
-2.3898427486419678 -1.588409185409546 0.05008840560913086 17.0 8 -0.0471438467502594
-1.913690447807312 -1.2714531421661377 -0.5304346084594727 1.0 1 -0.04714154452085495
-2.706925392150879 -1.7977954149246216 0.17030121386051178 6.0 9 -0.0471392385661602
-2.727890729904175 -1.8117194175720215 -0.6365388631820679 60.0 2 -0.04713693633675575
-2.7720134258270264 -1.8403271436691284 0.2911001741886139 75.0 10 -0.047134630382061005
-2.747015953063965 -1.8230409622192383 -0.5221782922744751 50.0 3 -0.047132328152656555
-2.7658092975616455 -1.8348169326782227 0.40753111243247986 83.0 11 -0.04713002219796181
-2.739659070968628 -1.8167814016342163 -0.4036312997341156 45.0 4 -0.04712771996855736
-2.7479701042175293 -1.821602463722229 0.5221782922744751 65.0 12 -0.04712541401386261
-2.3996493816375732 -1.5907042026519775 -0.25188007950782776 7.0 5 -0.04712311178445816
-2.759244441986084 -1.828382134437561 0.6434080004692078 63.0 13 -0.04712080582976341
-2.564255475997925 -1.6985317468643188 -0.16119475662708282 2.0 6 -0.04711850360035896
-2.739478588104248 -1.8139095306396484 0.7585350275039673 66.0 14 -0.047116197645664215
-2.357870101928711 -1.5606399774551392 -0.0493554063141346 10.0 7 -0.047113895416259766
-2.717975616455078 -1.7983074188232422 0.8732554912567139 64.0 15 -0.047111593186855316
-2.44711971282959 -1.614190936088562 0.051170457154512405 20.0 8 -0.04708855226635933
-2.699843168258667 -1.7795428037643433 0.1694638431072235 5.0 9 -0.04708394408226013
-2.742393732070923 -1.807589054107666 -0.6384469270706177 42.0 2 -0.047081638127565384
-2.7684378623962402 -1.824062466621399 0.2900542914867401 67.0 10 -0.047079335898160934
-2.7418150901794434 -1.8058350086212158 -0.5199882388114929 47.0 3 -0.047077029943466187
-2.7605907917022705 -1.817510724067688 0.4058249592781067 73.0 11 -0.04707472771406174
-2.744325876235962 -1.806115746498108 -0.40338757634162903 40.0 4 -0.04707242175936699
-2.752662181854248 -1.8109127283096313 0.5218654274940491 67.0 12 -0.04707011952996254
-2.3985300064086914 -1.5779374837875366 -0.2511828541755676 7.0 5 -0.04706781357526779
-2.747565746307373 -1.8068739175796509 0.6392101645469666 65.0 13 -0.04706551134586334
-2.563493013381958 -1.685181736946106 -0.1607760637998581 1.0 6 -0.04706320911645889
-2.753937005996704 -1.8096860647201538 0.7607845067977905 66.0 14 -0.047060903161764145
-2.311490774154663 -1.5183660984039307 -0.04827335476875305 12.0 7 -0.047058600932359695
-2.7161624431610107 -1.783507227897644 0.8706672787666321 67.0 15 -0.04705629497766495
-2.37577748298645 -1.5552575588226318 0.04956483468413353 18.0 8 -0.04703325405716896
-2.699352979660034 -1.765734314918518 0.16904516518115997 6.0 9 -0.04702864587306976
-2.7404720783233643 -1.7926316261291504 -0.6365388631820679 36.0 2 -0.047026343643665314
-2.7747881412506104 -1.8143876791000366 0.2900542914867401 65.0 10 -0.047024037688970566
-2.741487979888916 -1.7919301986694336 -0.5187367796897888 45.0 3 -0.047021735459566116
-2.7602713108062744 -1.8035200834274292 0.4048500061035156 70.0 11 -0.04701943323016167
-2.7472898960113525 -1.7943542003631592 -0.4029000997543335 40.0 4 -0.04701712727546692
-2.7622745037078857 -1.8034535646438599 0.5224911570549011 67.0 12 -0.04701482504606247
-2.4073596000671387 -1.5717341899871826 -0.2515314817428589 7.0 5 -0.04701251909136772
-2.7439918518066406 -1.7908339500427246 0.6369204521179199 67.0 13 -0.04701021686196327
-2.592778444290161 -1.6915013790130615 -0.16224147379398346 1.0 6 -0.047007910907268524
-2.7537074089050293 -1.7958046197891235 0.7589848637580872 66.0 14 -0.047005608677864075
-2.3385543823242188 -1.5244847536087036 -0.048727117478847504 23.0 7 -0.04700330272316933
-2.7142791748046875 -1.7687408924102783 0.8680790662765503 61.0 15 -0.04700100049376488
-2.408021926879883 -1.564386010169983 0.05012331157922745 18.0 8 -0.04697795957326889
-2.7189018726348877 -1.7650009393692017 0.16988252103328705 6.0 9 -0.04697335138916969
-2.7467129230499268 -1.7830547094345093 -0.6365388631820679 36.0 2 -0.046971049159765244
-2.7794337272644043 -1.8036062717437744 0.28988000750541687 72.0 10 -0.046968743205070496
-2.7377829551696777 -1.7758995294570923 -0.5168595314025879 39.0 3 -0.046966440975666046
-2.7582218647003174 -1.7884739637374878 0.4036312997341156 75.0 11 -0.0469641350209713
-2.7368788719177246 -1.773956298828125 -0.40046271681785583 40.0 4 -0.04696183279156685
-2.766895055770874 -1.7927261590957642 0.5221782922744751 65.0 12 -0.0469595268368721
-2.42788028717041 -1.573071837425232 -0.25310027599334717 7.0 5 -0.04695722460746765
-2.7502262592315674 -1.7812446355819702 0.6369204521179199 66.0 13 -0.0469549186527729
-2.602020263671875 -1.684611439704895 -0.16245082020759583 1.0 6 -0.046952616423368454
-2.751779079437256 -1.780887484550476 0.7567353844642639 67.0 14 -0.046950310468673706
-2.353935480117798 -1.5228294134140015 -0.048936549574136734 26.0 7 -0.04694800823926926
-2.7317917346954346 -1.7665995359420776 0.8717026114463806 63.0 15 -0.04694570228457451
-2.4571659564971924 -1.5841423273086548 0.05103083327412605 9.0 8 -0.04692266508936882
-2.7216880321502686 -1.7533366680145264 0.16967318952083588 6.0 9 -0.04691805690526962
-2.7413668632507324 -1.7660140991210938 -0.6338675618171692 33.0 2 -0.046915750950574875
-2.7873873710632324 -1.7949718236923218 0.2900542914867401 65.0 10 -0.046913448721170425
-2.7472870349884033 -1.7684704065322876 -0.5174852609634399 42.0 3 -0.04691114276647568
-2.7661170959472656 -1.779909610748291 0.4038750231266022 68.0 11 -0.04690884053707123
-2.7430543899536133 -1.7643920183181763 -0.40046271681785583 40.0 4 -0.04690653458237648
-2.7648282051086426 -1.7777152061462402 0.520613968372345 67.0 12 -0.04690423235297203
-2.436708450317383 -1.5667424201965332 -0.2534489035606384 8.0 5 -0.04690192639827728
-2.75642728805542 -1.7716337442398071 0.6369204521179199 65.0 13 -0.04689962416887283
-2.643172025680542 -1.6981897354125977 -0.16464893519878387 3.0 6 -0.046897318214178085
-2.744861364364624 -1.7628463506698608 0.753136157989502 63.0 14 -0.046895015984773636
-2.3777475357055664 -1.526486873626709 -0.04932050406932831 25.0 7 -0.04689271003007889
-2.731438159942627 -1.75287926197052 0.8696320056915283 60.0 15 -0.04689040780067444
-2.445836305618286 -1.5647786855697632 0.050681788474321365 9.0 8 -0.04686736688017845
-2.7311577796936035 -1.7459763288497925 0.16988252103328705 6.0 9 -0.046862758696079254
-2.7425527572631836 -1.7532609701156616 -0.6327226758003235 34.0 2 -0.046860456466674805
-2.778526782989502 -1.7755753993988037 0.28848549723625183 63.0 10 -0.04685815051198006
-2.756772518157959 -1.7609972953796387 -0.5181110501289368 42.0 3 -0.04685584828257561
-2.7756597995758057 -1.7723792791366577 0.4043624997138977 72.0 11 -0.04685354232788086
-2.740830421447754 -1.7494659423828125 -0.3992440104484558 37.0 4 -0.04685124009847641
-2.7610249519348145 -1.7616788148880005 0.5187367796897888 67.0 12 -0.04684893414378166
-2.4152884483337402 -1.5410807132720947 -0.25065991282463074 7.0 5 -0.04684663191437721
-2.762594699859619 -1.7620010375976562 0.6369204521179199 65.0 13 -0.046844325959682465
-2.684450149536133 -1.711500883102417 -0.16684705018997192 8.0 6 -0.046842023730278015
-2.747710943222046 -1.7511602640151978 0.7522363662719727 63.0 14 -0.04683971777558327
-2.4859395027160645 -1.583718180656433 -0.051449693739414215 16.0 7 -0.04683741554617882
-2.7277631759643555 -1.737107753753662 0.866526186466217 56.0 15 -0.04683510959148407
-2.5244359970092773 -1.6014374494552612 0.052182696759700775 22.0 8 -0.046783529222011566
-2.735851764678955 -1.734885573387146 0.16977785527706146 7.0 9 -0.04677892103791237
-2.7459475994110107 -1.7406158447265625 -0.6319594383239746 34.0 2 -0.04677661508321762
-2.7785916328430176 -1.7606278657913208 0.2877882421016693 59.0 10 -0.04677431285381317
-2.746825933456421 -1.7398288249969482 -0.514982283115387 39.0 3 -0.04677200689911842
-2.7774131298065186 -1.758522629737854 0.4036312997341156 63.0 11 -0.046769704669713974
-2.7525594234466553 -1.7421135902404785 -0.3999752104282379 27.0 4 -0.046767398715019226
-2.7724711894989014 -1.7547158002853394 0.5196753740310669 71.0 12 -0.04676509648561478
-2.4211878776550293 -1.5317953824996948 -0.25065991282463074 7.0 5 -0.04676279053092003
-2.7593841552734375 -1.7450844049453735 0.6346307396888733 66.0 13 -0.04676048830151558
