# .PCD v0.7 - Point Cloud Data file format
VERSION 0.7
FIELDS x y z intensity ring time
SIZE 4 4 4 4 4 4
TYPE F F F F F F
COUNT 1 1 1 1 1 1
WIDTH 542
HEIGHT 1
VIEWPOINT 0 0 0 1 0 0 0
POINTS 542
DATA ascii
3.5819594860076904 0.4569544494152069 0.5719244480133057 100.0 12 -0.08744408935308456
1.7905932664871216 0.2284279316663742 -0.15792620182037354 98.0 5 -0.08744178712368011
3.60095477104187 0.4587390422821045 0.7056117057800293 100.0 13 -0.08743948489427567
1.8029747009277344 0.22936703264713287 -0.09525144845247269 93.0 6 -0.08743717521429062
3.611222743988037 0.45876622200012207 0.8404171466827393 100.0 14 -0.08743487298488617
1.7874000072479248 0.22675257921218872 -0.03144923597574234 97.0 7 -0.08743257075548172
3.616499423980713 0.4581521451473236 0.9767830967903137 124.0 15 -0.08743026852607727
3.086094856262207 0.38712844252586365 -0.833397388458252 78.0 0 -0.08740953356027603
1.7976747751235962 0.22518758475780487 0.031623758375644684 99.0 8 -0.08740722388029099
3.0803375244140625 0.3853141665458679 -0.7166941165924072 81.0 1 -0.08740492165088654
1.811417818069458 0.22626610100269318 0.09567013382911682 88.0 9 -0.08740261942148209
3.0858144760131836 0.3854523301124573 -0.6044829487800598 96.0 2 -0.08740031719207764
1.82681143283844 0.2278660237789154 0.1610638052225113 100.0 10 -0.08739800751209259
1.7916496992111206 0.2231617420911789 -0.28596222400665283 100.0 3 -0.08739570528268814
3.5832724571228027 0.4456850290298462 0.44336071610450745 100.0 11 -0.08739340305328369
1.7808401584625244 0.22118499875068665 -0.2203397899866104 92.0 4 -0.08739110082387924
3.5815725326538086 0.4442042112350464 0.5716116428375244 100.0 12 -0.0873887911438942
1.7874640226364136 0.2213733196258545 -0.15757757425308228 98.0 5 -0.08738648891448975
3.614224672317505 0.4476134181022644 0.7079014182090759 100.0 13 -0.0873841866850853
1.8116929531097412 0.22405385971069336 -0.09567013382911682 100.0 6 -0.08738188445568085
3.614736318588257 0.4463958144187927 0.8408671021461487 100.0 14 -0.0873795822262764
1.780241847038269 0.2195325642824173 -0.031309615820646286 97.0 7 -0.08737727254629135
3.6027371883392334 0.4436390995979309 0.9726420044898987 122.0 15 -0.0873749703168869
3.075986862182617 0.37441486120224 -0.8302915096282959 72.0 0 -0.08735423535108566
1.7885247468948364 0.21770256757736206 0.03144923597574234 100.0 8 -0.08735193312168121
3.091336250305176 0.37573423981666565 -0.7189435958862305 76.0 1 -0.08734962344169617
1.8201274871826172 0.2209046185016632 0.09608882665634155 90.0 9 -0.08734732121229172
3.0950024127960205 0.37508511543273926 -0.6060094237327576 100.0 2 -0.08734501898288727
1.81576669216156 0.219731405377388 0.1600179374217987 100.0 10 -0.08734271675348282
1.7806888818740845 0.21517208218574524 -0.2840850353240967 100.0 3 -0.08734040707349777
3.592689037322998 0.43412768840789795 0.4443356692790985 100.0 11 -0.08733810484409332
1.7816014289855957 0.21496687829494476 -0.2203397899866104 96.0 4 -0.08733580261468887
3.5870234966278076 0.4321710765361786 0.5722373723983765 100.0 12 -0.08733350038528442
1.78031325340271 0.21418102085590363 -0.15688033401966095 93.0 5 -0.08733119815587997
3.604145050048828 0.4329594373703003 0.7056117057800293 100.0 13 -0.08732888847589493
1.8125020265579224 0.2174108475446701 -0.09567013382911682 93.0 6 -0.08732658624649048
3.6086084842681885 0.43221795558929443 0.8390675187110901 100.0 14 -0.08732428401708603
1.7869539260864258 0.21403084695339203 -0.03141433000564575 100.0 7 -0.08732198178768158
3.602346181869507 0.430830180644989 0.9721243977546692 123.0 15 -0.08731967210769653
1.7833530902862549 0.21044321358203888 0.031344521790742874 100.0 8 -0.08729663491249084
3.081080675125122 0.36303389072418213 -0.7162442207336426 74.0 1 -0.0872943326830864
1.8248919248580933 0.2146991789340973 0.09629816561937332 86.0 9 -0.08729202300310135
3.1001923084259033 0.36473870277404785 -0.6067726016044617 96.0 2 -0.0872897207736969
1.8244377374649048 0.21432292461395264 0.16071519255638123 100.0 10 -0.08728741854429245
1.7735815048217773 0.20803400874137878 -0.2828335464000702 100.0 3 -0.087285116314888
3.5784835815429688 0.41910868883132935 0.442385733127594 100.0 11 -0.08728281408548355
1.784348964691162 0.20866650342941284 -0.22058352828025818 99.0 4 -0.0872805044054985
3.5846593379974365 0.41856369376182556 0.5716116428375244 100.0 12 -0.08727820217609406
1.785008192062378 0.20842693746089935 -0.1572289615869522 89.0 5 -0.0872758999466896
3.5939342975616455 0.4190109074115753 0.7033219933509827 100.0 13 -0.08727359771728516
1.803330421447754 0.2099292278289795 -0.0951467752456665 99.0 6 -0.08727128803730011
3.623645305633545 0.4211929142475128 0.8422167897224426 100.0 14 -0.08726898580789566
1.7916991710662842 0.2079405039548874 -0.03148414194583893 100.0 7 -0.08726668357849121
3.5981438159942627 0.41695764660835266 0.9705714583396912 122.0 15 -0.08726438134908676
2.059387683868408 0.23609429597854614 -0.5554257035255432 1.0 0 -0.08724363893270493
1.7940104007720947 0.20535345375537872 0.031519047915935516 99.0 8 -0.08724133670330048
3.0765206813812256 0.35161349177360535 -0.7148945331573486 78.0 1 -0.08723903447389603
1.8097554445266724 0.20651578903198242 0.09546079486608505 88.0 9 -0.08723673224449158
3.1014468669891357 0.35391396284103394 -0.6067726016044617 96.0 2 -0.08723443001508713
1.8330930471420288 0.2088548243045807 0.16141243278980255 97.0 10 -0.08723212033510208
1.7801851034164429 0.2025120109319687 -0.28377217054367065 100.0 3 -0.08722981810569763
3.575979709625244 0.406167596578598 0.44189828634262085 100.0 11 -0.08722751587629318
1.7712594270706177 0.20087042450904846 -0.21887736022472382 100.0 4 -0.08722521364688873
3.593949794769287 0.4069381058216095 0.5728631019592285 100.0 12 -0.08722290396690369
1.793643593788147 0.2030918449163437 -0.15792620182037354 96.0 5 -0.08722060173749924
3.6031785011291504 0.4073461592197418 0.7048484683036804 100.0 13 -0.08721829950809479
1.8040523529052734 0.2036326676607132 -0.0951467752456665 100.0 6 -0.08721599727869034
3.623157024383545 0.4083222448825836 0.841766893863678 100.0 14 -0.08721368759870529
1.8023499250411987 0.20280341804027557 -0.03165866807103157 100.0 7 -0.08721138536930084
3.6149356365203857 0.4061197340488434 0.974712610244751 122.0 15 -0.08720908313989639
2.0525190830230713 0.2280503660440445 -0.5533550977706909 1.0 0 -0.08718834817409515
1.7986911535263062 0.19953125715255737 0.031588856130838394 97.0 8 -0.0871860459446907
3.0835399627685547 0.34151649475097656 -0.7162442207336426 76.0 1 -0.08718373626470566
1.806459903717041 0.20007391273975372 0.09525144845247269 90.0 9 -0.08718143403530121
3.094857931137085 0.34222182631492615 -0.6052461862564087 96.0 2 -0.08717913180589676
1.8338109254837036 0.20245525240898132 0.16141243278980255 100.0 10 -0.08717682957649231
1.7789174318313599 0.19608069956302643 -0.28345927596092224 100.0 3 -0.08717451989650726
3.585268497467041 0.39455023407936096 0.4428732097148895 100.0 11 -0.08717221766710281
1.7699426412582397 0.1947779655456543 -0.21863360702991486 99.0 4 -0.08716991543769836
3.583498239517212 0.3937241733074188 0.5709858536720276 100.0 12 -0.08716761320829391
1.790380597114563 0.19639550149440765 -0.15757757425308228 93.0 5 -0.08716530352830887
3.612384796142578 0.3956201672554016 0.7063749432563782 100.0 13 -0.08716300129890442
1.8067375421524048 0.19755157828330994 -0.09525144845247269 100.0 6 -0.08716069906949997
3.6167421340942383 0.3954603970050812 0.8399673104286194 100.0 14 -0.08715839684009552
1.791085124015808 0.19552378356456757 -0.03144923597574234 100.0 7 -0.08715608716011047
3.616262674331665 0.3941289484500885 0.974712610244751 121.0 15 -0.08715378493070602
2.0494227409362793 0.22082920372486115 -0.5523198843002319 1.0 0 -0.08713304996490479
1.7993429899215698 0.1935649812221527 0.031588856130838394 97.0 8 -0.08713074773550034
3.0924060344696045 0.33212077617645264 -0.7180438041687012 72.0 1 -0.08712844550609589
1.8110853433609009 0.19450843334197998 0.09546079486608505 90.0 9 -0.08712613582611084
3.0862152576446533 0.3309110999107361 -0.6033380627632141 92.0 2 -0.08712383359670639
1.8225857019424438 0.1951000839471817 0.16036656498908997 98.0 10 -0.08712153136730194
1.7854505777359009 0.19080977141857147 -0.2843979001045227 100.0 3 -0.08711922913789749
3.586557149887085 0.38265958428382874 0.4428732097148895 100.0 11 -0.08711691945791245
1.7784743309020996 0.1897502839565277 -0.21960857510566711 99.0 4 -0.087114617228508
3.5847842693328857 0.3818376958370209 0.5709858536720276 100.0 12 -0.08711231499910355
1.7890408039093018 0.19024613499641418 -0.15740327537059784 100.0 5 -0.0871100127696991
3.617581367492676 0.38405415415763855 0.707138180732727 100.0 13 -0.08710770308971405
1.8113551139831543 0.19197964668273926 -0.09546079486608505 100.0 6 -0.0871054008603096
3.623847484588623 0.38407984375953674 0.8413169980049133 100.0 14 -0.08710309863090515
1.7877464294433594 0.18916195631027222 -0.03137942776083946 100.0 7 -0.0871007964015007
3.611786127090454 0.3815267086029053 0.973159670829773 122.0 15 -0.08709849417209625
2.0539863109588623 0.2144334614276886 -0.5533550977706909 1.0 0 -0.08707775175571442
1.795997142791748 0.18718287348747253 0.031519047915935516 94.0 8 -0.08707544952630997
3.095428705215454 0.32206645607948303 -0.7184937596321106 78.0 1 -0.08707314729690552
1.8196995258331299 0.18901027739048004 0.09587948024272919 86.0 9 -0.08707084506750107
3.095106840133667 0.3214854896068573 -0.6048645377159119 92.0 2 -0.08706853538751602
1.8192592859268188 0.18864449858665466 0.1600179374217987 98.0 10 -0.08706623315811157
1.7841086387634277 0.18468491733074188 -0.2840850353240967 100.0 3 -0.08706393092870712
3.5917553901672363 0.37117114663124084 0.44336071610450745 97.0 11 -0.08706162869930267
1.7811005115509033 0.18374519050121307 -0.21985231339931488 100.0 4 -0.08705931901931763
3.590024948120117 0.36972764134407043 0.5716116428375244 100.0 12 -0.08705701678991318
1.7877122163772583 0.18379580974578857 -0.1572289615869522 87.0 5 -0.08705471456050873
3.611023187637329 0.37125155329704285 0.7056117057800293 100.0 13 -0.08705241233110428
1.8159552812576294 0.18638011813163757 -0.09567013382911682 100.0 6 -0.08705011010169983
3.6271045207977295 0.3716273009777069 0.841766893863678 100.0 14 -0.08704780042171478
1.790385127067566 0.183123379945755 -0.03141433000564575 100.0 7 -0.08704549819231033
3.6054084300994873 0.36813271045684814 0.9710890650749207 122.0 15 -0.08704319596290588
2.058603286743164 0.207290381193161 -0.5543904304504395 1.0 0 -0.08702246099710464
1.7847017049789429 0.17970995604991913 0.031309615820646286 100.0 8 -0.0870201513171196
3.082960844039917 0.30989575386047363 -0.7153443694114685 76.0 1 -0.08701784908771515
1.8223353624343872 0.1828569769859314 0.09598415344953537 95.0 9 -0.0870155468583107
3.1001715660095215 0.31053125858306885 -0.6056278347969055 92.0 2 -0.08701324462890625
1.8258858919143677 0.1825704127550125 0.1605408787727356 95.0 10 -0.0870109349489212
1.7808423042297363 0.17775173485279083 -0.28345927596092224 100.0 3 -0.08700863271951675
3.5772271156311035 0.35705482959747314 0.4414108097553253 97.0 11 -0.0870063304901123
1.7837064266204834 0.1777232140302658 -0.22009605169296265 99.0 4 -0.08700402826070786
3.5952250957489014 0.3575839102268219 0.5722373723983765 100.0 12 -0.0870017260313034
1.788342833518982 0.17755480110645294 -0.1572289615869522 89.0 5 -0.08699941635131836
3.600637435913086 0.35685303807258606 0.7033219933509827 100.0 13 -0.08699711412191391
1.7987382411956787 0.17795288562774658 -0.09472808986902237 97.0 6 -0.08699481189250946
3.6342601776123047 0.3589044213294983 0.8431165814399719 100.0 14 -0.08699250966310501
1.7949936389923096 0.17726609110832214 -0.03148414194583893 100.0 7 -0.08699019998311996
3.6085939407348633 0.35573381185531616 0.9716067314147949 121.0 15 -0.08698789775371552
2.063159704208374 0.20047734677791595 -0.5554257035255432 1.0 0 -0.08696716278791428
1.797290563583374 0.17432621121406555 0.031519047915935516 99.0 8 -0.08696486055850983
3.084075927734375 0.2985932528972626 -0.7153443694114685 74.0 1 -0.08696255087852478
1.8150413036346436 0.1754084676504135 0.09556546807289124 95.0 9 -0.08696024864912033
3.11100697517395 0.3006526529788971 -0.6075358986854553 100.0 2 -0.08695794641971588
1.8324615955352783 0.1767691969871521 0.1610638052225113 98.0 10 -0.08695564419031143
1.7834184169769287 0.1717240810394287 -0.28377217054367065 100.0 3 -0.08695334196090698
3.5785117149353027 0.3439420163631439 0.4414108097553253 97.0 11 -0.08695103228092194
1.7784175872802734 0.17061607539653778 -0.21936483681201935 100.0 4 -0.08694873005151749
3.5965116024017334 0.3444034457206726 0.5722373723983765 100.0 12 -0.08694642782211304
1.7968848943710327 0.1720704436302185 -0.15792620182037354 84.0 5 -0.08694412559270859
3.6096787452697754 0.3450303077697754 0.7048484683036804 100.0 13 -0.08694181591272354
1.8033249378204346 0.17205281555652618 -0.09493743628263474 100.0 6 -0.08693951368331909
3.6219112873077393 0.34492209553718567 0.8399673104286194 100.0 14 -0.08693721145391464
1.8016034364700317 0.17125314474105835 -0.031588856130838394 100.0 7 -0.08693490922451019
3.6194896697998047 0.3434184491634369 0.9741949439048767 120.0 15 -0.08693259954452515
2.0638468265533447 0.19327381253242493 -0.5554257035255432 1.0 0 -0.08691186457872391
1.8018701076507568 0.16842316091060638 0.031588856130838394 99.0 8 -0.08690956234931946
3.0889804363250732 0.28818872570991516 -0.7162442207336426 76.0 1 -0.08690726011991501
1.8116652965545654 0.16870087385177612 0.09535612165927887 92.0 9 -0.08690495789051056
3.1042182445526123 0.28906238079071045 -0.6060094237327576 96.0 2 -0.08690264821052551
1.8370352983474731 0.17073991894721985 0.16141243278980255 100.0 10 -0.08690034598112106
1.784006953239441 0.16549812257289886 -0.28377217054367065 97.0 3 -0.08689804375171661
3.57969069480896 0.33144763112068176 0.4414108097553253 97.0 11 -0.08689574152231216
1.7710957527160645 0.16367603838443756 -0.21838988363742828 100.0 4 -0.08689343184232712
3.597691774368286 0.3318496346473694 0.5722373723983765 100.0 12 -0.08689112961292267
1.8014425039291382 0.1661643236875534 -0.1582748293876648 95.0 5 -0.08688882738351822
3.61086106300354 0.33242711424827576 0.7048484683036804 100.0 13 -0.08688652515411377
1.7919812202453613 0.16465997695922852 -0.09430939704179764 97.0 6 -0.08688421547412872
3.6230928897857666 0.33227965235710144 0.8399673104286194 100.0 14 -0.08688191324472427
1.7862591743469238 0.1635054647922516 -0.031309615820646286 100.0 7 -0.08687961101531982
3.62066650390625 0.3307810127735138 0.9741949439048767 120.0 15 -0.08687730878591537
3.093877077102661 0.2788431942462921 -0.8323620557785034 16.0 0 -0.08685657382011414
1.8064305782318115 0.16249112784862518 0.03165866807103157 97.0 8 -0.08685426414012909
3.0899674892425537 0.2774035930633545 -0.7162442207336426 72.0 1 -0.08685196191072464
1.816221833229065 0.16273194551467896 0.09556546807289124 92.0 9 -0.08684965968132019
3.0973870754241943 0.2775232791900635 -0.6044829487800598 96.0 2 -0.08684735745191574
1.8296821117401123 0.16361698508262634 0.16071519255638123 98.0 10 -0.0868450477719307
1.7963789701461792 0.1603228896856308 -0.2856493592262268 100.0 3 -0.08684274554252625
3.5966439247131348 0.32035812735557556 0.44336071610450745 96.0 11 -0.0868404433131218
1.7795653343200684 0.15819622576236725 -0.21936483681201935 96.0 4 -0.08683814108371735
3.5909576416015625 0.31859010457992554 0.5709858536720276 98.0 12 -0.0868358314037323
1.7901040315628052 0.15881820023059845 -0.1572289615869522 87.0 5 -0.08683352917432785
3.6237332820892334 0.32085880637168884 0.707138180732727 100.0 13 -0.0868312269449234
1.810450553894043 0.1599864661693573 -0.09525144845247269 100.0 6 -0.08682892471551895
3.631995439529419 0.3203144967556 0.841766893863678 100.0 14 -0.0868266150355339
1.788811206817627 0.15744413435459137 -0.031344521790742874 100.0 7 -0.08682431280612946
3.6198742389678955 0.31797221302986145 0.9736772775650024 120.0 15 -0.086822010576725
3.0967562198638916 0.26820921897888184 -0.8328797221183777 86.0 0 -0.08680127561092377
1.791048526763916 0.15480643510818481 0.03137942776083946 100.0 8 -0.08679897338151932
3.0986828804016113 0.26728641986846924 -0.7180438041687012 74.0 1 -0.08679666370153427
1.8187685012817383 0.15656369924545288 0.09567013382911682 90.0 9 -0.08679436147212982
3.1042048931121826 0.2672169804573059 -0.6056278347969055 87.0 2 -0.08679205924272537
1.8223017454147339 0.15654659271240234 0.1600179374217987 100.0 10 -0.08678975701332092
1.7615008354187012 0.15101374685764313 -0.2800177335739136 96.0 3 -0.08678744733333588
3.6016957759857178 0.30814245343208313 0.443848192691803 93.0 11 -0.08678514510393143
1.7801069021224976 0.15198294818401337 -0.21936483681201935 94.0 4 -0.08678284287452698
3.5940160751342773 0.3062201142311096 0.5712987184524536 100.0 12 -0.08678054064512253
1.7866770029067993 0.15222981572151184 -0.15688033401966095 98.0 5 -0.08677823096513748
3.6170060634613037 0.3075448274612427 0.7056117057800293 100.0 13 -0.08677592873573303
1.8149783611297607 0.1540030688047409 -0.09546079486608505 100.0 6 -0.08677362650632858
3.631150007247925 0.30746912956237793 0.8413169980049133 100.0 14 -0.08677132427692413
1.7853645086288452 0.15086352825164795 -0.031274713575839996 94.0 7 -0.08676902204751968
3.605562448501587 0.3040350079536438 0.9695361852645874 122.0 15 -0.08676671236753464
3.0995993614196777 0.25755706429481506 -0.833397388458252 72.0 0 -0.0867459774017334
1.7875920534133911 0.14822430908679962 0.031309615820646286 100.0 8 -0.08674367517232895
3.0918290615081787 0.2558247745037079 -0.7162442207336426 74.0 1 -0.0867413729429245
1.8212682008743286 0.1506957709789276 0.095774807035923 92.0 9 -0.08673906326293945
3.109031915664673 0.25670188665390015 -0.6063910126686096 92.0 2 -0.086736761033535
1.8228371143341064 0.15018586814403534 0.1600179374217987 100.0 10 -0.08673445880413055
1.7797359228134155 0.1463211476802826 -0.2828335464000702 100.0 3 -0.0867321565747261
3.5869219303131104 0.2942689061164856 0.44189828634262085 100.0 11 -0.08672984689474106
1.7845834493637085 0.1460934579372406 -0.21985231339931488 96.0 4 -0.08672754466533661
3.598949432373047 0.29462504386901855 0.5719244480133057 100.0 12 -0.08672524243593216
1.7871975898742676 0.14599260687828064 -0.15688033401966095 96.0 5 -0.08672294020652771
3.6141443252563477 0.2945972681045532 0.7048484683036804 99.0 13 -0.08672063797712326
1.807542085647583 0.14701853692531586 -0.09504210948944092 100.0 6 -0.08671832829713821
3.638028144836426 0.29526591300964355 0.842666745185852 100.0 14 -0.08671602606773376
1.8117659091949463 0.14704468846321106 -0.03172847628593445 100.0 7 -0.08671372383832932
3.6200294494628906 0.29316917061805725 0.973159670829773 122.0 15 -0.08671142160892487
3.1043307781219482 0.24704301357269287 -0.8344326615333557 69.0 0 -0.08669067919254303
1.8000342845916748 0.14324694871902466 0.031519047915935516 97.0 8 -0.08668837696313858
3.0926601886749268 0.24557112157344818 -0.7162442207336426 74.0 1 -0.08668607473373413
1.815810203552246 0.1438637226819992 0.09546079486608505 88.0 9 -0.08668377250432968
3.1157805919647217 0.24631258845329285 -0.6075358986854553 96.0 2 -0.08668147027492523
1.8273226022720337 0.14413490891456604 0.16036656498908997 100.0 10 -0.08667916059494019
1.7821805477142334 0.14057421684265137 -0.2831464111804962 100.0 3 -0.08667685836553574
3.5799624919891357 0.28174862265586853 0.4409233331680298 97.0 11 -0.08667455613613129
1.7810999155044556 0.13986344635486603 -0.21936483681201935 96.0 4 -0.08667225390672684
3.5999557971954346 0.28205958008766174 0.5719244480133057 100.0 12 -0.08666994422674179
1.7916691303253174 0.1400633305311203 -0.1572289615869522 100.0 5 -0.08666764199733734
3.6131441593170166 0.28245672583580017 0.7044668197631836 96.0 13 -0.08666533976793289
1.8060284852981567 0.1408696323633194 -0.09493743628263474 100.0 6 -0.08666303753852844
3.6331586837768555 0.2827472388744354 0.8413169980049133 100.0 14 -0.0866607278585434
1.8003060817718506 0.13979022204875946 -0.031519047915935516 100.0 7 -0.08665842562913895
3.6229567527770996 0.2806810736656189 0.9736772775650024 122.0 15 -0.0866561233997345
3.105132818222046 0.23674793541431427 -0.8344326615333557 75.0 0 -0.08663538843393326
1.7965353727340698 0.1366589516401291 0.03144923597574234 100.0 8 -0.08663308620452881
3.0973849296569824 0.23506833612918854 -0.7171440124511719 72.0 1 -0.08663077652454376
1.8043279647827148 0.13693499565124512 0.09483276307582855 90.0 9 -0.08662847429513931
3.1067919731140137 0.2352384328842163 -0.6056278347969055 87.0 2 -0.08662617206573486
1.8397109508514404 0.13897447288036346 0.16141243278980255 100.0 10 -0.08662386983633041
1.7688719034194946 0.13331271708011627 -0.28095632791519165 100.0 3 -0.08662156015634537
3.596759796142578 0.2704436779022217 0.4428732097148895 97.0 11 -0.08661925792694092
1.781577467918396 0.1336449235677719 -0.21936483681201935 96.0 4 -0.08661695569753647
3.589052677154541 0.26923254132270813 0.5700472593307495 100.0 12 -0.08661465346813202
1.8000707626342773 0.13471628725528717 -0.15792620182037354 100.0 5 -0.08661234378814697
3.619981050491333 0.2702837884426117 0.7056117057800293 99.0 13 -0.08661004155874252
1.8124842643737793 0.13500915467739105 -0.09525144845247269 100.0 6 -0.08660773932933807
3.6302366256713867 0.26977360248565674 0.8404171466827393 100.0 14 -0.08660543709993362
1.7927829027175903 0.13322699069976807 -0.03137942776083946 97.0 7 -0.08660312741994858
3.6315739154815674 0.2692357301712036 0.97574782371521 121.0 15 -0.08660082519054413
3.1020870208740234 0.22562646865844727 -0.833397388458252 70.0 0 -0.08658009022474289
1.8049564361572266 0.1312812864780426 0.031588856130838394 99.0 8 -0.08657778799533844
3.098147392272949 0.2247948944568634 -0.7171440124511719 72.0 1 -0.08657548576593399
1.8167473077774048 0.13150140643119812 0.09546079486608505 88.0 9 -0.08657317608594894
3.103677749633789 0.22410865128040314 -0.6048645377159119 92.0 2 -0.0865708738565445
1.8163379430770874 0.13083361089229584 0.15932069718837738 100.0 10 -0.08656857162714005
1.7752150297164917 0.12787146866321564 -0.2818949222564697 96.0 3 -0.0865662693977356
3.593677043914795 0.2582293748855591 0.442385733127594 100.0 11 -0.08656395971775055
1.7800308465957642 0.1275947093963623 -0.21912109851837158 99.0 4 -0.0865616574883461
3.5939114093780518 0.25698360800743103 0.5706729888916016 100.0 12 -0.08655935525894165
1.7886061668395996 0.1275818794965744 -0.15688033401966095 100.0 5 -0.0865570530295372
3.624774217605591 0.2585563659667969 0.7063749432563782 100.0 13 -0.08655474334955215
1.806945562362671 0.12857307493686676 -0.09493743628263474 99.0 6 -0.0865524411201477
3.6388869285583496 0.25828471779823303 0.8422167897224426 100.0 14 -0.08655013889074326
1.7872527837753296 0.12654487788677216 -0.031274713575839996 100.0 7 -0.0865478366613388
3.617075204849243 0.2554694414138794 0.9716067314147949 121.0 15 -0.08654552698135376
3.0989632606506348 0.2150699496269226 -0.8323620557785034 73.0 0 -0.08652479201555252
1.7894442081451416 0.12387558072805405 0.031309615820646286 100.0 8 -0.08652248978614807
3.106689453125 0.21451807022094727 -0.7189435958862305 74.0 1 -0.08652018755674362
1.8211803436279297 0.12543295323848724 0.09567013382911682 86.0 9 -0.08651788532733917
3.108321189880371 0.214084193110466 -0.6056278347969055 92.0 2 -0.08651557564735413
1.8286879062652588 0.12563025951385498 0.16036656498908997 99.0 10 -0.08651327341794968
1.7835335731506348 0.12221543490886688 -0.2831464111804962 100.0 3 -0.08651097118854523
3.6064391136169434 0.24649474024772644 0.443848192691803 96.0 11 -0.08650866895914078
1.790367841720581 0.1220550537109375 -0.2203397899866104 94.0 4 -0.08650635927915573
3.6026697158813477 0.24497374892234802 0.5719244480133057 100.0 12 -0.08650405704975128
1.7870527505874634 0.12120240926742554 -0.15670602023601532 100.0 5 -0.08650175482034683
3.621737003326416 0.24563530087471008 0.7056117057800293 100.0 13 -0.08649945259094238
1.8173468112945557 0.12293840944766998 -0.09546079486608505 100.0 6 -0.08649714291095734
3.6358776092529297 0.24531947076320648 0.8413169980049133 100.0 14 -0.08649484068155289
1.7856885194778442 0.12017068266868591 -0.031239807605743408 97.0 7 -0.08649253845214844
3.6140897274017334 0.24258221685886383 0.9705714583396912 120.0 15 -0.08649023622274399
3.0997307300567627 0.20371092855930328 -0.8323620557785034 75.0 0 -0.08646950125694275
1.7898658514022827 0.11762802302837372 0.031309615820646286 99.0 8 -0.0864671915769577
3.1035304069519043 0.203416645526886 -0.7180438041687012 72.0 1 -0.08646488934755325
1.825593113899231 0.11933603137731552 0.09587948024272919 84.0 9 -0.0864625871181488
3.1130027770996094 0.20294630527496338 -0.6063910126686096 92.0 2 -0.08646028488874435
1.8291362524032593 0.11892646551132202 0.16036656498908997 97.0 10 -0.08645797520875931
1.7662283182144165 0.11452680826187134 -0.2803305983543396 100.0 3 -0.08645567297935486
3.5953919887542725 0.23313449323177338 0.442385733127594 97.0 11 -0.08645337074995041
1.794744849205017 0.11606135219335556 -0.22082726657390594 96.0 4 -0.08645106852054596
3.6113879680633545 0.23290589451789856 0.5731759667396545 100.0 12 -0.08644875884056091
1.7914414405822754 0.1152198314666748 -0.15705464780330658 100.0 5 -0.08644645661115646
3.6108574867248535 0.231606125831604 0.7033219933509827 100.0 13 -0.08644415438175201
1.8078192472457886 0.1156395971775055 -0.09493743628263474 99.0 6 -0.08644185215234756
3.6425869464874268 0.23236292600631714 0.842666745185852 100.0 14 -0.08643954992294312
1.7920842170715332 0.11431818455457687 -0.031344521790742874 100.0 7 -0.08643724024295807
3.6264820098876953 0.23070186376571655 0.9736772775650024 120.0 15 -0.08643493801355362
3.113919973373413 0.1937284618616104 -0.8359856009483337 57.0 0 -0.08641420304775238
1.7882890701293945 0.11094362288713455 0.031274713575839996 100.0 8 -0.08641190081834793
3.096475124359131 0.19155818223953247 -0.7162442207336426 70.0 1 -0.08640959113836288
1.8220115900039673 0.11271566152572632 0.09567013382911682 82.0 9 -0.08640728890895844
3.121530532836914 0.1925613433122635 -0.6079174876213074 87.0 2 -0.08640498667955399
1.8335175514221191 0.11278592050075531 0.16071519255638123 100.0 10 -0.08640268445014954
1.7725324630737305 0.10872315615415573 -0.2812691926956177 100.0 3 -0.08640037477016449
3.588296890258789 0.21946948766708374 0.4414108097553253 97.0 11 -0.08639807254076004
1.7773255109786987 0.10839532315731049 -0.21863360702991486 99.0 4 -0.08639577031135559
3.6121790409088135 0.2202991396188736 0.5731759667396545 100.0 12 -0.08639346808195114
1.797798991203308 0.10932817310094833 -0.15757757425308228 98.0 5 -0.08639116585254669
3.61948299407959 0.21947483718395233 0.7048484683036804 100.0 13 -0.08638885617256165
1.8022310733795166 0.10896717756986618 -0.09462341666221619 100.0 6 -0.0863865539431572
3.6394851207733154 0.219412699341774 0.841766893863678 100.0 14 -0.08638425171375275
1.7984603643417358 0.10842332243919373 -0.03144923597574234 100.0 7 -0.0863819494843483
3.631122350692749 0.21827255189418793 0.974712610244751 120.0 15 -0.08637963980436325
1.8026210069656372 0.10583275556564331 0.031519047915935516 97.0 8 -0.08635660260915756
3.104874610900879 0.18174496293067932 -0.7180438041687012 68.0 1 -0.08635430037975311
1.8104307651519775 0.1056571826338768 0.09504210948944092 88.0 9 -0.08635199815034866
3.1123838424682617 0.1810944527387619 -0.6060094237327576 84.0 2 -0.08634968847036362
1.8339000940322876 0.10638457536697388 0.16071519255638123 98.0 10 -0.08634738624095917
1.776827335357666 0.10307378321886063 -0.2818949222564697 100.0 3 -0.08634508401155472
3.600895643234253 0.20825748145580292 0.4428732097148895 97.0 11 -0.08634278178215027
1.775693416595459 0.10238613188266754 -0.21838988363742828 100.0 4 -0.08634047210216522
3.605037212371826 0.20723450183868408 0.5719244480133057 100.0 12 -0.08633816987276077
1.8061259984970093 0.1035083755850792 -0.1582748293876648 93.0 5 -0.08633586764335632
3.631950855255127 0.20814567804336548 0.707138180732727 100.0 13 -0.08633356541395187
1.8085644245147705 0.10333144664764404 -0.09493743628263474 100.0 6 -0.08633125573396683
3.6440839767456055 0.20756490528583527 0.842666745185852 100.0 14 -0.08632895350456238
1.7968313694000244 0.10203187167644501 -0.03141433000564575 100.0 7 -0.08632665127515793
3.6299333572387695 0.20548781752586365 0.9741949439048767 117.0 15 -0.08632434904575348
2.424621820449829 0.13428467512130737 -0.650671124458313 1.0 0 -0.08630361407995224
1.8069727420806885 0.0997597724199295 0.031588856130838394 99.0 8 -0.0863013043999672
1.814759612083435 0.09987199306488037 0.09525144845247269 90.0 9 -0.0862966999411583
3.1090469360351562 0.17055797576904297 -0.6052461862564087 84.0 2 -0.08629439771175385
1.8262851238250732 0.09986689686775208 0.1600179374217987 98.0 10 -0.0862920880317688
1.7771763801574707 0.09687040001153946 -0.2818949222564697 96.0 3 -0.08628978580236435
3.605564832687378 0.19590288400650024 0.44336071610450745 93.0 11 -0.0862874835729599
1.7839686870574951 0.09661611169576645 -0.21936483681201935 100.0 4 -0.08628518134355545
3.5978147983551025 0.19485032558441162 0.5706729888916016 100.0 12 -0.0862828716635704
1.790543556213379 0.09665878117084503 -0.15688033401966095 96.0 5 -0.08628056943416595
3.632655382156372 0.1954672932624817 0.707138180732727 100.0 13 -0.0862782672047615
1.8029309511184692 0.09669637680053711 -0.09462341666221619 100.0 6 -0.08627596497535706
3.6408941745758057 0.19463439285755157 0.841766893863678 100.0 14 -0.08627365529537201
1.7891725301742554 0.09564532339572906 -0.031274713575839996 100.0 7 -0.08627135306596756
3.6305947303771973 0.19345012307167053 0.9741949439048767 120.0 15 -0.08626905083656311
2.3016035556793213 0.11941361427307129 -0.6175422668457031 1.0 0 -0.08624831587076187
1.7933146953582764 0.09304217249155045 0.031344521790742874 100.0 8 -0.08624601364135742
2.3470451831817627 0.12136168032884598 -0.5425819754600525 3.0 1 -0.08624370396137238
1.8230756521224976 0.09394822269678116 0.09567013382911682 90.0 9 -0.08624140173196793
1.8246327638626099 0.09339078515768051 0.15984363853931427 95.0 10 -0.08623679727315903
1.783406138420105 0.09128066152334213 -0.2828335464000702 100.0 3 -0.08623448759317398
3.6101596355438232 0.18414656817913055 0.443848192691803 96.0 11 -0.08623218536376953
1.7882444858551025 0.09090164303779602 -0.21985231339931488 100.0 4 -0.08622988313436508
3.6063644886016846 0.18269094824790955 0.5719244480133057 100.0 12 -0.08622758090496063
1.7829105854034424 0.09000659734010696 -0.15618307888507843 93.0 5 -0.08622527122497559
3.629362106323242 0.18322092294692993 0.7063749432563782 100.0 13 -0.08622296899557114
1.8191996812820435 0.0915202796459198 -0.09546079486608505 100.0 6 -0.08622066676616669
3.643465995788574 0.18265798687934875 0.8422167897224426 100.0 14 -0.08621836453676224
1.7994815111160278 0.08989861607551575 -0.03144923597574234 100.0 7 -0.08621606230735779
3.6273891925811768 0.18058271706104279 0.973159670829773 117.0 15 -0.08621375262737274
2.3097243309020996 0.1117527112364769 -0.6196128129959106 1.0 0 -0.08621454238891602
1.7916460037231445 0.08637282252311707 0.031309615820646286 99.0 8 -0.08621224015951157
2.3260629177093506 0.11172832548618317 -0.5376330614089966 3.0 1 -0.08620993793010712
1.8254026174545288 0.08736156672239304 0.095774807035923 92.0 9 -0.08620762825012207
2.366938829421997 0.1132788360118866 -0.4606129229068756 1.0 2 -0.08620532602071762
1.8309179544448853 0.08730525523424149 0.16036656498908997 100.0 10 -0.08620302379131317
1.785701870918274 0.0848359763622284 -0.2831464111804962 100.0 3 -0.08620072156190872
3.602879047393799 0.17053881287574768 0.4428732097148895 97.0 11 -0.08619841188192368
1.7885655164718628 0.0843471884727478 -0.21985231339931488 100.0 4 -0.08619610965251923
3.6149027347564697 0.16984164714813232 0.5731759667396545 100.0 12 -0.08619380742311478
1.7911746501922607 0.0841560810804367 -0.15688033401966095 98.0 5 -0.08619150519371033
3.630009174346924 0.1699182242155075 0.7063749432563782 100.0 13 -0.08618919551372528
1.8075522184371948 0.08429412543773651 -0.09483276307582855 100.0 6 -0.08618689328432083
3.6538443565368652 0.1697540581226349 0.8444663286209106 100.0 14 -0.08618459105491638
1.7918086051940918 0.08293230086565018 -0.031309615820646286 100.0 7 -0.08618228882551193
3.6318862438201904 0.1674652397632599 0.9741949439048767 117.0 15 -0.08617997914552689
2.312030553817749 0.10377561300992966 -0.6201304793357849 4.0 0 -0.08615924417972565
1.7999274730682373 0.08047507703304291 0.03144923597574234 99.0 8 -0.0861569419503212
2.3069703578948975 0.1027427390217781 -0.5331340432167053 12.0 1 -0.08615463972091675
1.8197107315063477 0.08072317391633987 0.09546079486608505 90.0 9 -0.0861523374915123
2.3555521965026855 0.10449333488941193 -0.45832324028015137 3.0 2 -0.08615002781152725
1.8391733169555664 0.081264927983284 0.1610638052225113 100.0 10 -0.0861477255821228
1.7662523984909058 0.07773487269878387 -0.2800177335739136 96.0 3 -0.08614542335271835
3.5994861125946045 0.1577865481376648 0.442385733127594 97.0 11 -0.0861431211233139
1.7769498825073242 0.07758340984582901 -0.21838988363742828 100.0 4 -0.08614081144332886
3.6194205284118652 0.1573963612318039 0.5738016963005066 100.0 12 -0.08613850921392441
1.7994195222854614 0.07825067639350891 -0.15757757425308228 100.0 5 -0.08613620698451996
3.6286189556121826 0.1571601778268814 0.7059933543205261 96.0 13 -0.08613390475511551
1.801849365234375 0.0777253732085228 -0.0945187509059906 99.0 6 -0.08613159507513046
3.642732620239258 0.15649935603141785 0.841766893863678 100.0 14 -0.08612929284572601
1.8040745258331299 0.07719048857688904 -0.031519047915935516 100.0 7 -0.08612699061632156
3.6363086700439453 0.1549500823020935 0.9752302169799805 117.0 15 -0.08612468838691711
2.318169355392456 0.09594352543354034 -0.6216834187507629 54.0 0 -0.08610395342111588
1.794203519821167 0.07394502311944962 0.031344521790742874 100.0 8 -0.08610164374113083
2.2761614322662354 0.09341017156839371 -0.5259355902671814 28.0 1 -0.08609934151172638
1.8079948425292969 0.07419732958078384 0.09483276307582855 88.0 9 -0.08609703928232193
2.2754762172698975 0.092983178794384 -0.4426769018173218 20.0 2 -0.08609473705291748
1.8354644775390625 0.07468291372060776 0.16071519255638123 98.0 10 -0.08609242737293243
1.7921719551086426 0.0726081058382988 -0.2840850353240967 100.0 3 -0.08609012514352798
3.6119158267974854 0.1457001268863678 0.443848192691803 96.0 11 -0.08608782291412354
1.775226354598999 0.0713009312748909 -0.21814614534378052 99.0 4 -0.08608552068471909
3.612027168273926 0.14507494866847992 0.5725501775741577 100.0 12 -0.08608321100473404
1.7996816635131836 0.07196857780218124 -0.15757757425308228 100.0 5 -0.08608090877532959
3.629145383834839 0.1444920003414154 0.7059933543205261 96.0 13 -0.08607860654592514
1.818075180053711 0.07206852734088898 -0.09535612165927887 100.0 6 -0.08607630431652069
3.6452040672302246 0.14385879039764404 0.8422167897224426 100.0 14 -0.08607400208711624
1.7903335094451904 0.07065590471029282 -0.031274713575839996 100.0 7 -0.0860716924071312
3.6368024349212646 0.14288978278636932 0.9752302169799805 120.0 15 -0.08606939017772675
2.299185276031494 0.08712112158536911 -0.6165069937705994 55.0 0 -0.0860486552119255
1.8004335165023804 0.06822232902050018 0.03144923597574234 94.0 8 -0.08604635298252106
2.2706165313720703 0.08564066141843796 -0.5245858430862427 46.0 1 -0.08604404330253601
1.8122345209121704 0.06803517788648605 0.09504210948944092 90.0 9 -0.08604174107313156
2.252243995666504 0.08416153490543365 -0.43809744715690613 25.0 2 -0.08603943884372711
1.8317317962646484 0.06812690198421478 0.16036656498908997 98.0 10 -0.08603713661432266
1.7924028635025024 0.06666415184736252 -0.2840850353240967 100.0 3 -0.08603482693433762
3.6044440269470215 0.13342878222465515 0.4428732097148895 97.0 11 -0.08603252470493317
1.7814042568206787 0.06563329696655273 -0.21887736022472382 100.0 4 -0.08603022247552872
3.6046154499053955 0.1321752369403839 0.5712987184524536 100.0 12 -0.08602792024612427
1.7879756689071655 0.06524962931871414 -0.15653172135353088 89.0 5 -0.08602561801671982
3.641376256942749 0.1328868567943573 0.708283007144928 96.0 13 -0.08602330833673477
1.806328535079956 0.06560458987951279 -0.09472808986902237 100.0 6 -0.08602100610733032
3.647608757019043 0.13183942437171936 0.842666745185852 100.0 14 -0.08601870387792587
1.792567491531372 0.06447744369506836 -0.031309615820646286 100.0 7 -0.08601640164852142
3.6411402225494385 0.13033480942249298 0.9762654304504395 117.0 15 -0.08601409196853638
2.274362564086914 0.07862791419029236 -0.6097776889801025 37.0 0 -0.08599335700273514
1.7886697053909302 0.061524294316768646 0.031239807605743408 97.0 8 -0.08599105477333069
2.243635416030884 0.07678157836198807 -0.5182872414588928 42.0 1 -0.08598875254392624
1.816453218460083 0.06184518709778786 0.09525144845247269 88.0 9 -0.08598644286394119
2.234851598739624 0.0760904923081398 -0.43466290831565857 30.0 2 -0.08598414063453674
1.827965259552002 0.0619177520275116 0.1600179374217987 100.0 10 -0.0859818384051323
1.788676142692566 0.060274410992860794 -0.28345927596092224 100.0 3 -0.08597953617572784
3.6167917251586914 0.12124592810869217 0.4443356692790985 96.0 11 -0.0859772339463234
1.7855905294418335 0.05954648181796074 -0.21936483681201935 94.0 4 -0.08597492426633835
3.6129519939422607 0.11985299736261368 0.5725501775741577 100.0 12 -0.0859726220369339
1.7881821393966675 0.0593196377158165 -0.15653172135353088 93.0 5 -0.08597031980752945
3.630044937133789 0.11978752911090851 0.7059933543205261 96.0 13 -0.085968017578125
1.8065464496612549 0.059298448264598846 -0.09472808986902237 93.0 6 -0.08596570789813995
3.655837297439575 0.11935949325561523 0.8444663286209106 94.0 14 -0.0859634056687355
1.790783166885376 0.05815529823303223 -0.031274713575839996 100.0 7 -0.08596110343933105
3.633849859237671 0.11737363785505295 0.9741949439048767 120.0 15 -0.0859588012099266
2.1606991291046143 0.06714743375778198 -0.5792370438575745 25.0 0 -0.08593805879354477
1.788873553276062 0.055280670523643494 0.031239807605743408 97.0 8 -0.08593575656414032
2.236098289489746 0.06871042400598526 -0.5164876580238342 74.0 1 -0.08593345433473587
1.8246433734893799 0.05574769899249077 0.09567013382911682 86.0 9 -0.08593115210533142
2.2135181427001953 0.06762885302305222 -0.43046510219573975 46.0 2 -0.08592884987592697
1.8281701803207397 0.05553697049617767 0.1600179374217987 100.0 10 -0.08592654019594193
1.7849266529083252 0.05391150340437889 -0.2828335464000702 100.0 3 -0.08592423796653748
3.623145580291748 0.10879801213741302 0.4450668692588806 72.0 11 -0.08592193573713303
1.7937242984771729 0.05355057120323181 -0.2203397899866104 94.0 4 -0.08591963350772858
3.621246337890625 0.10747761279344559 0.5738016963005066 100.0 12 -0.08591732382774353
1.788378357887268 0.053078580647706985 -0.15653172135353088 96.0 5 -0.08591502159833908
3.6304407119750977 0.10711461305618286 0.7059933543205261 96.0 13 -0.08591271936893463
1.8107353448867798 0.0531095527112484 -0.09493743628263474 99.0 6 -0.08591041713953018
3.658179759979248 0.10665681213140488 0.8449162244796753 97.0 14 -0.08590810745954514
1.8029683828353882 0.05225103348493576 -0.03148414194583893 100.0 7 -0.08590580523014069
3.6419615745544434 0.10490994900465012 0.9762654304504395 117.0 15 -0.08590350300073624
2.141608953475952 0.05907256901264191 -0.5740606784820557 37.0 0 -0.085882768034935
1.7930535078048706 0.04914510250091553 0.031309615820646286 99.0 8 -0.08588046580553055
2.211000680923462 0.060214292258024216 -0.510638952255249 71.0 1 -0.0858781561255455
1.816840648651123 0.049162447452545166 0.09525144845247269 82.0 9 -0.08587585389614105
2.209815502166748 0.05979607626795769 -0.42970186471939087 79.0 2 -0.0858735516667366
1.828352928161621 0.04915464296936989 0.1600179374217987 100.0 10 -0.08587124943733215
1.7851040363311768 0.04768013954162598 -0.2828335464000702 100.0 3 -0.0858689397573471
3.595721483230591 0.09541378170251846 0.4416545331478119 9.0 11 -0.08586663752794266
1.785962700843811 0.04707925766706467 -0.21936483681201935 96.0 4 -0.08586433529853821
3.6215996742248535 0.09483548253774643 0.5738016963005066 100.0 12 -0.08586203306913376
1.7925361394882202 0.046939484775066376 -0.15688033401966095 93.0 5 -0.08585972338914871
3.6307926177978516 0.09444212168455124 0.7059933543205261 96.0 13 -0.08585742115974426
1.802923321723938 0.04658176004886627 -0.0945187509059906 90.0 6 -0.08585511893033981
3.6507370471954346 0.09368579089641571 0.8431165814399719 97.0 14 -0.08585281670093536
1.799141526222229 0.04585565999150276 -0.03141433000564575 94.0 7 -0.08585050702095032
3.642305612564087 0.09219726175069809 0.9762654304504395 117.0 15 -0.08584820479154587
2.1302144527435303 0.05131789296865463 -0.5709548592567444 42.0 0 -0.08582746982574463
1.8012105226516724 0.043076641857624054 0.03144923597574234 99.0 8 -0.08582516759634018
2.1917152404785156 0.05203402787446976 -0.506139874458313 47.0 1 -0.08582286536693573
1.8130078315734863 0.042726464569568634 0.09504210948944092 80.0 9 -0.08582055568695068
2.204122543334961 0.051943715661764145 -0.42855700850486755 94.0 2 -0.08581825345754623
1.8364808559417725 0.042958084493875504 0.16071519255638123 100.0 10 -0.08581595122814178
1.79710853099823 0.041724156588315964 -0.28471076488494873 100.0 3 -0.08581364899873734
3.607940196990967 0.08313692361116409 0.4431169629096985 11.0 11 -0.08581133931875229
1.7821471691131592 0.0407535620033741 -0.21887736022472382 96.0 4 -0.08580903708934784
3.621908664703369 0.08219392597675323 0.5738016963005066 100.0 12 -0.08580673485994339
1.8006565570831299 0.040863268077373505 -0.15757757425308228 100.0 5 -0.08580443263053894
3.6428768634796143 0.0820336788892746 0.708283007144928 96.0 13 -0.0858021229505539
1.8070684671401978 0.040376849472522736 -0.09472808986902237 88.0 6 -0.08579982072114944
3.6510422229766846 0.0809425413608551 0.8431165814399719 97.0 14 -0.085797518491745
1.7932929992675781 0.03944366052746773 -0.031309615820646286 97.0 7 -0.08579521626234055
3.646467924118042 0.07956599444150925 0.977300763130188 120.0 15 -0.0857929140329361
2.112997531890869 0.043524131178855896 -0.5662961006164551 44.0 0 -0.08577217161655426
1.8053486347198486 0.03687102347612381 0.031519047915935516 97.0 8 -0.08576986938714981
2.164606809616089 0.043830305337905884 -0.49984127283096313 67.0 1 -0.08576756715774536
1.8171396255493164 0.036477312445640564 0.09525144845247269 84.0 9 -0.08576526492834091
2.194476366043091 0.04405197873711586 -0.42664891481399536 86.0 2 -0.08576295524835587
1.8326354026794434 0.03646840900182724 0.16036656498908997 98.0 10 -0.08576065301895142
1.7992182970046997 0.03548930212855339 -0.28502362966537476 100.0 3 -0.08575835078954697
3.6141626834869385 0.07065779715776443 0.443848192691803 9.0 11 -0.08575604856014252
1.790217399597168 0.034686654806137085 -0.21985231339931488 94.0 4 -0.08575373888015747
3.6142733097076416 0.0693979486823082 0.5725501775741577 100.0 12 -0.08575143665075302
1.788836121559143 0.03434758260846138 -0.15653172135353088 96.0 5 -0.08574913442134857
3.649029493331909 0.06942823529243469 0.7094278931617737 99.0 13 -0.08574683219194412
1.807198405265808 0.034069135785102844 -0.09472808986902237 90.0 6 -0.08574452996253967
3.6551990509033203 0.06826933473348618 0.8440163731575012 97.0 14 -0.08574222028255463
1.7814236879348755 0.032961223274469376 -0.031100187450647354 90.0 7 -0.08573991805315018
3.6428604125976562 0.06676692515611649 0.9762654304504395 117.0 15 -0.08573761582374573
2.1015474796295166 0.03594931587576866 -0.5631902813911438 44.0 0 -0.08571688085794449
1.793469786643982 0.030366215854883194 0.031309615820646286 97.0 8 -0.08571457117795944
2.1647465229034424 0.03627460077404976 -0.49984127283096313 77.0 1 -0.08571226894855499
1.8212499618530273 0.030200699344277382 0.09546079486608505 78.0 9 -0.08570996671915054
2.206394672393799 0.03658732399344444 -0.4289386570453644 75.0 2 -0.0857076644897461
1.8207988739013672 0.029875364154577255 0.15932069718837738 100.0 10 -0.08570535480976105
1.789455533027649 0.029048703610897064 -0.28345927596092224 100.0 3 -0.0857030525803566
3.6084325313568115 0.05794672667980194 0.4431169629096985 8.0 11 -0.08570075035095215
1.790327548980713 0.028437795117497444 -0.21985231339931488 92.0 4 -0.0856984481215477
3.6184439659118652 0.05684245005249977 0.5731759667396545 100.0 12 -0.08569614589214325
1.780976414680481 0.027977513149380684 -0.15583446621894836 100.0 5 -0.0856938362121582
3.651212692260742 0.056721583008766174 0.7098095417022705 96.0 13 -0.08569153398275375
1.8113003969192505 0.0278214979916811 -0.09493743628263474 88.0 6 -0.0856892317533493
3.6632094383239746 0.05562727898359299 0.8458160161972046 100.0 14 -0.08568692952394485
1.811519980430603 0.027193287387490273 -0.031623758375644684 100.0 7 -0.08568461984395981
3.643071413040161 0.05404959246516228 0.9762654304504395 117.0 15 -0.08568231761455536
2.095864772796631 0.028533874079585075 -0.5616373419761658 39.0 0 -0.08566158264875412
1.785566806793213 0.02399853616952896 0.03116999939084053 99.0 8 -0.08565928041934967
2.166808605194092 0.028743280097842216 -0.5002912282943726 68.0 1 -0.08565697073936462
1.8293284177780151 0.024266516789793968 0.09587948024272919 84.0 9 -0.08565466850996017
2.2241766452789307 0.02911604382097721 -0.43237319588661194 82.0 2 -0.08565236628055573
1.828861117362976 0.023622725158929825 0.1600179374217987 100.0 10 -0.08565006405115128
1.7855956554412842 0.022751351818442345 -0.2828335464000702 100.0 3 -0.08564776182174683
3.592733383178711 0.04515007138252258 0.44116705656051636 8.0 11 -0.08564545214176178
1.798351526260376 0.022599980235099792 -0.22082726657390594 94.0 4 -0.08564314991235733
3.6265134811401367 0.04494331032037735 0.5744274258613586 100.0 12 -0.08564084768295288
1.7890323400497437 0.02185831591486931 -0.15653172135353088 98.0 5 -0.08563854545354843
3.6317572593688965 0.04373873025178909 0.7059933543205261 93.0 13 -0.08563623577356339
1.8053950071334839 0.02142884023487568 -0.09462341666221619 93.0 6 -0.08563393354415894
3.6672706604003906 0.04352806881070137 0.8467158079147339 94.0 14 -0.08563163131475449
1.7936041355133057 0.020974967628717422 -0.031309615820646286 100.0 7 -0.08562932908535004
3.643230438232422 0.041969165205955505 0.9762654304504395 117.0 15 -0.08562701940536499
2.0940163135528564 0.02156410738825798 -0.5611197352409363 32.0 0 -0.08560628443956375
1.7936348915100098 0.018157726153731346 0.031309615820646286 99.0 8 -0.0856039822101593
2.1668920516967773 0.021558158099651337 -0.5002912282943726 66.0 1 -0.08560167998075485
1.8214101791381836 0.01812099851667881 0.09546079486608505 78.0 9 -0.0855993777513504
2.236039876937866 0.021855823695659637 -0.43466290831565857 100.0 2 -0.08559706807136536
1.8309215307235718 0.017576491460204124 0.16019225120544434 92.0 10 -0.08559476584196091
1.7935625314712524 0.0169048048555851 -0.2840850353240967 100.0 3 -0.08559246361255646
3.6008036136627197 0.03330834582448006 0.4421420395374298 9.0 11 -0.08559016138315201
1.790476679801941 0.016562363132834435 -0.21985231339931488 96.0 4 -0.08558785170316696
3.6305930614471436 0.0329519622027874 0.5750531554222107 100.0 12 -0.08558554947376251
1.7890949249267578 0.015925908461213112 -0.15653172135353088 96.0 5 -0.08558324724435806
