# .PCD v0.7 - Point Cloud Data file format
VERSION 0.7
FIELDS x y z intensity ring time
SIZE 4 4 4 4 4 4
TYPE F F F F F F
COUNT 1 1 1 1 1 1
WIDTH 551
HEIGHT 1
VIEWPOINT 0 0 0 1 0 0 0
POINTS 551
DATA ascii
-1.5872458219528198 2.9015657901763916 -0.886196494102478 5.0 0 -0.060932788997888565
-2.5172643661499023 4.601686954498291 0.09155532717704773 5.0 8 -0.060930486768484116
-1.8025555610656738 3.29653263092041 -0.8674113154411316 3.0 1 -0.06092818081378937
-3.4666662216186523 6.34250545501709 0.3788076937198639 5.0 9 -0.06092587858438492
-2.060502052307129 3.771390676498413 -0.8353618383407593 1.0 2 -0.06092357262969017
-3.4722397327423096 6.357975006103516 0.6337965726852417 81.0 10 -0.06092127040028572
-2.411517858505249 4.415700435638428 -0.7968772649765015 1.0 3 -0.06091896444559097
-3.4707820415496826 6.357943534851074 0.8894025683403015 64.0 11 -0.06091666221618652
-2.581575632095337 4.731010437011719 -0.6617506146430969 1.0 4 -0.060914359986782074
-3.461045503616333 6.345373153686523 1.1447875499725342 65.0 12 -0.060912054032087326
-3.0586459636688232 5.609954833984375 -0.5590169429779053 6.0 5 -0.06090975180268288
-3.4631400108337402 6.351849555969238 1.4062623977661133 90.0 13 -0.06090744584798813
-2.573878765106201 4.722784042358398 -0.2818814814090729 1.0 6 -0.06090514361858368
-3.4511845111846924 6.335181713104248 1.665537714958191 100.0 14 -0.06090283766388893
-2.487384557723999 4.567875385284424 -0.09078741818666458 58.0 7 -0.06090053543448448
-3.428321599960327 6.298439025878906 1.9214726686477661 28.0 15 -0.060898229479789734
-1.5813002586364746 2.913605213165283 -0.8882669806480408 4.0 0 -0.060877494513988495
-2.506906270980835 4.620992660522461 0.09176475554704666 3.0 8 -0.06087518855929375
-1.7891803979873657 3.2993783950805664 -0.8665115237236023 3.0 1 -0.0608728863298893
-3.441807746887207 6.346943378448486 0.37838900089263916 4.0 9 -0.06087058037519455
-2.047983407974243 3.778203248977661 -0.8353618383407593 1.0 2 -0.0608682781457901
-3.4511382579803467 6.369453430175781 0.6337965726852417 90.0 10 -0.06086597591638565
-2.4092607498168945 4.448408126831055 -0.8012574315071106 1.0 3 -0.0608636699616909
-3.438173294067383 6.350816249847412 0.8867214322090149 59.0 11 -0.06086136773228645
-2.57827091217041 4.764435291290283 -0.6651629209518433 1.0 4 -0.060859061777591705
-3.439985990524292 6.356814384460449 1.1447875499725342 61.0 12 -0.060856759548187256
-3.040026903152466 5.620066165924072 -0.5590169429779053 6.0 5 -0.06085445359349251
-3.4297428131103516 6.343174934387207 1.40168297290802 90.0 13 -0.06085215136408806
-2.604858160018921 4.8195929527282715 -0.28711506724357605 1.0 6 -0.06084984540939331
-3.427198648452759 6.3437604904174805 1.6646379232406616 100.0 14 -0.06084754317998886
-2.4836299419403076 4.59721040725708 -0.09120627492666245 61.0 7 -0.06084523722529411
-3.4092507362365723 6.313173294067383 1.9225080013275146 33.0 15 -0.060842934995889664
-1.5756988525390625 2.927612543106079 -0.8908551931381226 5.0 0 -0.060822200030088425
-2.5029420852661133 4.650409698486328 0.09218360483646393 3.0 8 -0.06081989407539368
-1.7809982299804688 3.3104422092437744 -0.867861270904541 3.0 1 -0.06081759184598923
-3.4054434299468994 6.332531929016113 0.3768189251422882 5.0 9 -0.06081528589129448
-2.040360927581787 3.7957046031951904 -0.8376515507698059 1.0 2 -0.06081298366189003
-3.4203944206237793 6.365666389465332 0.6322277188301086 86.0 10 -0.06081067770719528
-2.383275032043457 4.435492992401123 -0.7975029945373535 1.0 3 -0.06080837547779083
-3.409581422805786 6.34819221496582 0.884771466255188 63.0 11 -0.060806069523096085
-2.9004886150360107 5.402590274810791 -0.7529088854789734 1.0 4 -0.060803767293691635
-3.4140374660491943 6.361822128295898 1.14353609085083 61.0 12 -0.06080146133899689
-3.0298099517822266 5.648200035095215 -0.5607600808143616 6.0 5 -0.06079915910959244
-3.4049782752990723 6.347592353820801 1.4001564979553223 97.0 13 -0.06079685315489769
-2.588862419128418 4.828204154968262 -0.28711506724357605 1.0 6 -0.06079455092549324
-3.396935224533081 6.337915420532227 1.6601388454437256 100.0 14 -0.06079224497079849
-2.475123167037964 4.61995267868042 -0.09148551523685455 58.0 7 -0.06078994274139404
-3.3835432529449463 6.3182244300842285 1.9204374551773071 44.0 15 -0.060787636786699295
-1.5696207284927368 2.939638614654541 -0.8929257392883301 6.0 0 -0.060766901820898056
-2.4998748302459717 4.683816909790039 0.09267228096723557 4.0 8 -0.06076459959149361
-1.7721842527389526 3.3217966556549072 -0.8692108988761902 3.0 1 -0.06076229363679886
-3.3748581409454346 6.32852029800415 0.37587687373161316 5.0 9 -0.06075999140739441
-2.025913715362549 3.798985242843628 -0.836888313293457 1.0 2 -0.06075768545269966
-3.401142120361328 6.380489826202393 0.6325763463973999 88.0 10 -0.06075538322329521
-2.3752102851867676 4.457731246948242 -0.8000059723854065 1.0 3 -0.060753077268600464
-3.385533094406128 6.356551647186279 0.8842840790748596 59.0 11 -0.060750775039196014
-3.3806750774383545 6.352774143218994 1.1397815942764282 61.0 12 -0.06074616685509682
-3.0035736560821533 5.644145965576172 -0.5593655109405518 6.0 5 -0.06074386090040207
-3.382798671722412 6.359440326690674 1.4001564979553223 97.0 13 -0.06074155867099762
-2.5719916820526123 4.837212085723877 -0.28711506724357605 1.0 6 -0.06073925271630287
-3.36930513381958 6.339408874511719 1.6574394702911377 100.0 14 -0.06073695048689842
-2.4655473232269287 4.640926361083984 -0.09172984212636948 70.0 7 -0.060734644532203674
-3.362375259399414 6.33170223236084 1.9209550619125366 45.0 15 -0.060732342302799225
-1.5521187782287598 2.931440830230713 -0.888784646987915 5.0 0 -0.060711607336997986
-2.457319498062134 4.643025875091553 0.09169494360685349 27.0 8 -0.06070930138230324
-1.7578452825546265 3.3227944374084473 -0.867861270904541 3.0 1 -0.06070699915289879
-3.3443455696105957 6.324371814727783 0.3749348223209381 5.0 9 -0.06070469319820404
-2.014476776123047 3.809504985809326 -0.8376515507698059 1.0 2 -0.06070239096879959
-3.3714022636413574 6.378231048583984 0.6311818957328796 86.0 10 -0.06070008501410484
-2.3688642978668213 4.483459949493408 -0.8031346201896667 1.0 3 -0.060697782784700394
-3.36147141456604 6.364819526672363 0.8837965726852417 57.0 11 -0.060695476830005646
-3.3538713455200195 6.355800151824951 1.1382173299789429 67.0 12 -0.06069086864590645
-2.979205846786499 5.645785331726074 -0.5584940314292908 3.0 5 -0.060688566416502
-3.356917381286621 6.364263534545898 1.3986300230026245 92.0 13 -0.06068626046180725
-2.5681331157684326 4.870894432067871 -0.2885805070400238 1.0 6 -0.0606839582324028
-3.3471574783325195 6.351130962371826 1.6574394702911377 100.0 14 -0.06068165600299835
-2.447467565536499 4.645967483520508 -0.0916600376367569 60.0 7 -0.060679350048303604
-3.3402514457702637 6.3434014320373535 1.9209550619125366 42.0 15 -0.060677047818899155
-1.5418773889541626 2.936840772628784 -0.888784646987915 5.0 0 -0.06065630912780762
-2.4318037033081055 4.633869171142578 0.0913458988070488 65.0 8 -0.06065400689840317
-1.7543821334838867 3.344442129135132 -0.8719103336334229 3.0 1 -0.06065170094370842
-3.318537473678589 6.328932285308838 0.3745161294937134 5.0 9 -0.06064939871430397
-2.01210618019104 3.83737850189209 -0.8422309160232544 1.0 2 -0.06064709275960922
-3.3426413536071777 6.377608299255371 0.6299616694450378 81.0 10 -0.06064479053020477
-2.34403133392334 4.4742045402526855 -0.8000059723854065 1.0 3 -0.060642484575510025
-3.3373897075653076 6.372997760772705 0.8833090662956238 57.0 11 -0.060640182346105576
-2.871371269226074 5.485429286956787 -0.7602210640907288 1.0 4 -0.06063787639141083
-3.32983136177063 6.363968849182129 1.1375916004180908 63.0 12 -0.06063557416200638
-2.971418619155884 5.681384086608887 -0.5609343647956848 7.0 5 -0.06063327193260193
-3.323760986328125 6.355066776275635 1.3940505981445312 100.0 13 -0.06063096597790718
-2.5659186840057373 4.908149719238281 -0.29025524854660034 1.0 6 -0.06062866374850273
-3.3195505142211914 6.352414131164551 1.6547400951385498 100.0 14 -0.06062635779380798
-2.4516046047210693 4.69347620010376 -0.09242794662714005 100.0 7 -0.060624055564403534
-3.3073601722717285 6.334471702575684 1.9147433042526245 21.0 15 -0.060621749609708786
-1.5400195121765137 2.9596099853515625 -0.8939610123634338 5.0 0 -0.06060101464390755
-2.428537368774414 4.667163848876953 0.09183456003665924 45.0 8 -0.0605987086892128
-1.7408994436264038 3.3470876216888428 -0.8710105419158936 3.0 1 -0.06059640645980835
-3.296426296234131 6.340476989746094 0.3745161294937134 5.0 9 -0.0605941005051136
-3.3155715465545654 6.382744312286377 0.6292644739151001 81.0 10 -0.0605894960463047
-2.33125901222229 4.489777565002441 -0.8012574315071106 1.0 3 -0.060587190091609955
-3.306892156600952 6.368752479553223 0.8811154365539551 56.0 11 -0.060584887862205505
-2.8467204570770264 5.484847068786621 -0.7587586045265198 1.0 4 -0.06058258190751076
-3.3057756423950195 6.372047424316406 1.1369657516479492 63.0 12 -0.06058027967810631
-2.9864237308502197 5.758932113647461 -0.5675581693649292 1.0 5 -0.06057797372341156
-3.293219804763794 6.353261947631836 1.3909976482391357 100.0 13 -0.06057567149400711
-2.579151153564453 4.977816104888916 -0.293814092874527 1.0 6 -0.06057336553931236
-3.2962467670440674 6.364537239074707 1.6547400951385498 100.0 14 -0.06057106330990791
-2.431528329849243 4.694901466369629 -0.09228832274675369 61.0 7 -0.060568757355213165
-3.280789375305176 6.337399482727051 1.912155270576477 24.0 15 -0.060566455125808716
-1.5243651866912842 2.9546661376953125 -0.8908551931381226 5.0 0 -0.06054571643471718
-2.424245595932007 4.700916767120361 0.09232323616743088 58.0 8 -0.06054341420531273
-1.7179046869277954 3.332660436630249 -0.865611732006073 3.0 1 -0.06054111197590828
-3.2621891498565674 6.331210613250732 0.3732600808143616 5.0 9 -0.06053880602121353
-3.2896206378936768 6.3871941566467285 0.6285672187805176 78.0 10 -0.060534197837114334
-3.277170419692993 6.368473529815674 0.8794092535972595 59.0 11 -0.06052958965301514
-3.27878737449646 6.377092361450195 1.1357142925262451 63.0 12 -0.06052498146891594
-3.271024227142334 6.364717483520508 1.3909976482391357 95.0 13 -0.06052037328481674
-3.251711130142212 6.32986307144165 -0.3729460537433624 2.0 6 -0.06051807105541229
-3.2668874263763428 6.3621368408203125 1.651140809059143 100.0 14 -0.060515765100717545
-2.4143033027648926 4.703782558441162 -0.09228832274675369 63.0 7 -0.060513462871313095
-3.2566561698913574 6.347663879394531 1.911637544631958 30.0 15 -0.06051115691661835
-1.5201995372772217 2.9720089435577393 -0.8944786190986633 4.0 0 -0.06049042195081711
-2.4169259071350098 4.72715425491333 0.09267228096723557 58.0 8 -0.06048811972141266
-1.7195641994476318 3.3646652698516846 -0.8723602890968323 3.0 1 -0.06048581376671791
-3.2355241775512695 6.333666801452637 0.37273672223091125 5.0 9 -0.06048351153731346
-3.2636821269989014 6.391539573669434 0.6278699636459351 81.0 10 -0.060478903353214264
-3.251309871673584 6.372801780700684 0.8784343004226685 63.0 11 -0.060474295169115067
-3.2502286434173584 6.376179218292236 1.1335242986679077 65.0 12 -0.06046968698501587
-3.2434377670288086 6.365602016448975 1.3887079954147339 95.0 13 -0.06046507880091667
-3.2422873973846436 6.366090774536133 -0.3744114637374878 69.0 6 -0.060462772846221924
-3.238471746444702 6.361344337463379 1.6479915380477905 100.0 14 -0.060460470616817474
-2.3824527263641357 4.681882858276367 -0.09169494360685349 55.0 7 -0.060458164662122726
-3.2327282428741455 6.355547904968262 1.910602331161499 33.0 15 -0.06045586243271828
-1.501951813697815 2.9617912769317627 -0.8898199200630188 5.0 0 -0.06043512746691704
-2.4112603664398193 4.756964683532715 0.09309113770723343 50.0 8 -0.06043282151222229
-1.7051671743392944 3.365431785583496 -0.8710105419158936 3.0 1 -0.06043051928281784
-3.2106871604919434 6.339578151702881 0.3724226951599121 5.0 9 -0.06042821332812309
-3.2323544025421143 6.385117053985596 0.6261268854141235 78.0 10 -0.060423605144023895
-3.228147506713867 6.3823418617248535 0.8781905770301819 64.0 11 -0.0604189969599247
-3.220825672149658 6.3733811378479 1.1310213804244995 65.0 12 -0.0604143887758255
-3.2229666709899902 6.3803911209106445 1.389471173286438 95.0 13 -0.0604097805917263
-3.2128422260284424 6.363107204437256 -0.3735741078853607 7.0 6 -0.060407478362321854
-3.212733030319214 6.365651607513428 1.646191954612732 100.0 14 -0.060405172407627106
-2.350782632827759 4.659820079803467 -0.09110156446695328 26.0 7 -0.060402870178222656
-3.2035634517669678 6.352994918823242 1.9064611196517944 36.0 15 -0.06040056794881821
-1.4950754642486572 2.97391939163208 -0.8918904662132263 5.0 0 -0.06037982925772667
-1.6995313167572021 3.3835535049438477 -0.8741598725318909 3.0 1 -0.06037522107362747
-3.1867473125457764 6.3471760749816895 0.37221336364746094 6.0 9 -0.06037291884422302
-1.1064140796661377 2.203690528869629 -0.4793122112751007 5.0 2 -0.060370612889528275
-3.202895402908325 6.382115840911865 0.6247323155403137 76.0 10 -0.060368310660123825
-3.203181028366089 6.388247013092041 0.8774593472480774 73.0 11 -0.06036370247602463
-3.1950175762176514 6.377520561218262 1.1297698020935059 61.0 12 -0.06035909429192543
-3.191006898880005 6.372291564941406 1.3852733373641968 87.0 13 -0.06035448610782623
-3.189622640609741 6.375084400177002 1.6457420587539673 100.0 14 -0.060349877923727036
-3.1744587421417236 6.350314140319824 1.9023200273513794 39.0 15 -0.06034526973962784
-1.484686017036438 2.9791197776794434 -0.8918904662132263 5.0 0 -0.0603245347738266
-1.6807602643966675 3.3755102157592773 -0.8705606460571289 3.0 1 -0.0603199265897274
-3.1627936363220215 6.354684829711914 0.3720040023326874 7.0 9 -0.060317620635032654
-1.10396409034729 2.2180845737457275 -0.4816019535064697 77.0 2 -0.060315318405628204
-3.1805994510650635 6.393256664276123 0.6247323155403137 76.0 10 -0.060313012450933456
-3.1746788024902344 6.386944770812988 0.8757531642913818 76.0 11 -0.06030840799212456
-3.1736137866973877 6.390405178070068 1.1300827264785767 63.0 12 -0.06030379980802536
-3.1643805503845215 6.374598026275635 1.383365273475647 95.0 13 -0.06029919162392616
-3.1638851165771484 6.379197597503662 1.6439424753189087 100.0 14 -0.060294583439826965
-3.1488401889801025 6.354434013366699 1.9002496004104614 43.0 15 -0.06028997525572777
-1.477699875831604 2.991212844848633 -0.8939610123634338 5.0 0 -0.06026923656463623
-1.6681054830551147 3.3796091079711914 -0.8701107501983643 3.0 1 -0.06026463210582733
-3.1344048976898193 6.353148937225342 0.3712713122367859 9.0 9 -0.060262326151132584
-1.0944770574569702 2.2184038162231445 -0.48083871603012085 80.0 2 -0.060260023921728134
-3.1529741287231445 6.393599033355713 0.6236864924430847 78.0 10 -0.060257717967033386
-1.0821149349212646 2.195277452468872 -0.3876446485519409 1.0 3 -0.06025541573762894
-3.1444668769836426 6.381962776184082 0.8735595345497131 73.0 11 -0.06025310978293419
-3.147799015045166 6.394354343414307 1.1288312673568726 63.0 12 -0.06024850159883499
-3.138640880584717 6.378559589385986 1.3818389177322388 97.0 13 -0.060243893414735794
-3.1330020427703857 6.372713565826416 1.6394433975219727 100.0 14 -0.0602392852306366
-3.1249375343322754 6.361917972564697 1.899214267730713 45.0 15 -0.0602346770465374
-1.4680997133255005 2.998087167739868 -0.8944786190986633 5.0 0 -0.06021394208073616
-1.6597247123718262 3.3924126625061035 -0.8719103336334229 3.0 1 -0.06020933389663696
-3.105191230773926 6.349697113037109 0.3704339563846588 10.0 9 -0.06020703166723251
-1.080689787864685 2.209864616394043 -0.4781673550605774 78.0 2 -0.060204725712537766
-3.134138345718384 6.4117255210876465 0.6243837475776672 78.0 10 -0.060202423483133316
-1.0987271070480347 2.248737096786499 -0.3964049816131592 1.0 3 -0.06020011752843857
-3.122169017791748 6.3929009437561035 0.8735595345497131 75.0 11 -0.06019781529903412
-1.1068254709243774 2.2673180103302 -0.3097918927669525 1.0 4 -0.06019550934433937
-3.118530511856079 6.391099452972412 1.1263282299041748 60.0 12 -0.06019320711493492
-3.114633560180664 6.385948181152344 1.3810756206512451 95.0 13 -0.060188598930835724
-3.1004953384399414 6.362588405609131 1.6340445280075073 100.0 14 -0.060183990746736526
-3.1010212898254395 6.369312286376953 1.8981789350509644 45.0 15 -0.06017938256263733
-1.4584681987762451 3.004932165145874 -0.8949962854385376 5.0 0 -0.06015864759683609
-1.6546759605407715 3.41221284866333 -0.8755095601081848 3.0 1 -0.06015403941273689
-3.0838770866394043 6.362295627593994 0.3705386221408844 12.0 9 -0.060151733458042145
-1.0678308010101318 2.203023910522461 -0.47587767243385315 78.0 2 -0.060149431228637695
-3.1021804809570312 6.402904033660889 0.6224662661552429 85.0 10 -0.06014712527394295
-1.099480152130127 2.2703378200531006 -0.3995336890220642 1.0 3 -0.0601448230445385
-3.0998358726501465 6.403759479522705 0.8735595345497131 73.0 11 -0.06014251708984375
-1.0591322183609009 2.188969850540161 -0.2985799014568329 1.0 4 -0.0601402148604393
-3.0901806354522705 6.389499187469482 1.1241382360458374 58.0 12 -0.06013790890574455
-3.092324733734131 6.396780490875244 1.3810756206512451 92.0 13 -0.060133300721645355
-1.0644704103469849 2.202944040298462 -0.12822310626506805 1.0 6 -0.060130998492240906
-3.0808074474334717 6.378637313842773 1.6353943347930908 100.0 14 -0.06012869253754616
-1.0380480289459229 2.1501777172088623 -0.041676346212625504 1.0 7 -0.06012639030814171
-3.071211576461792 6.364440441131592 1.8935202360153198 46.0 15 -0.06012408435344696
-1.4387587308883667 2.990854501724243 -0.8893022537231445 5.0 0 -0.0601038932800293
-1.6309356689453125 3.393378496170044 -0.8692108988761902 3.0 1 -0.0600992850959301
-3.0618984699249268 6.3706865310668945 0.3704339563846588 32.0 9 -0.06009698286652565
-1.0618350505828857 2.2102768421173096 -0.476640909910202 78.0 2 -0.0600946769118309
-3.0780880451202393 6.410100936889648 0.6221176981925964 85.0 10 -0.06009237468242645
-1.0949680805206299 2.281285047531128 -0.4007851481437683 2.0 3 -0.060090068727731705
-3.073171854019165 6.40559196472168 0.8723408579826355 76.0 11 -0.060087766498327255
-1.0604546070098877 2.2103676795959473 -0.30101728439331055 1.0 4 -0.06008546054363251
-3.0664141178131104 6.394367218017578 1.1231995820999146 60.0 12 -0.06008315831422806
-1.0885531902313232 2.2709672451019287 -0.22032971680164337 1.0 5 -0.06008085235953331
-3.063192129135132 6.393371105194092 1.37802255153656 92.0 13 -0.06007855013012886
-1.0585001707077026 2.2102487087249756 -0.12843245267868042 1.0 6 -0.06007624417543411
-3.0613229274749756 6.392332553863525 1.6362940073013306 100.0 14 -0.06007394194602966
-3.0806496143341064 6.435572147369385 -0.12454037368297577 1.0 7 -0.060071635991334915
-3.04341983795166 6.360648155212402 1.8893790245056152 47.0 15 -0.060069333761930466
-1.432990312576294 3.0043277740478516 -0.8918904662132263 5.0 0 -0.06004859879612923
-1.0137583017349243 2.1263444423675537 0.041117873042821884 1.0 8 -0.06004629284143448
-1.6339263916015625 3.4286744594573975 -0.8768593072891235 3.0 1 -0.06004399061203003
-3.065673589706421 6.433091163635254 0.37346941232681274 40.0 9 -0.06004168465733528
-1.0519661903381348 2.2084689140319824 -0.4754960536956787 71.0 2 -0.06003938242793083
-3.053386688232422 6.413078308105469 0.6214204430580139 85.0 10 -0.060037076473236084
-1.075513243675232 2.2599315643310547 -0.3964049816131592 2.0 3 -0.060034774243831635
-3.044236898422241 6.399614334106445 0.870147168636322 75.0 11 -0.06003246828913689
-1.0735838413238525 2.256895065307617 -0.3068670332431793 1.0 4 -0.06003016605973244
-3.0443427562713623 6.4027180671691895 1.1228867769241333 58.0 12 -0.06002786010503769
-2.9060850143432617 6.114692211151123 -0.5923104286193848 1.0 5 -0.06002555787563324
-3.0369176864624023 6.392854690551758 1.3757330179214478 90.0 13 -0.06002325192093849
-1.0580177307128906 2.228180408477783 -0.1292698234319687 1.0 6 -0.06002094969153404
-3.0375988483428955 6.397169589996338 1.6349443197250366 100.0 14 -0.060018643736839294
-3.033567190170288 6.391556739807129 -0.12349322438240051 1.0 7 -0.060016341507434845
-3.020653009414673 6.367216110229492 1.8883438110351562 46.0 15 -0.0600140355527401
-1.4288016557693481 3.0212879180908203 -0.8955139517784119 6.0 0 -0.05999330058693886
-1.006701946258545 2.1296942234039307 0.041117873042821884 1.0 8 -0.05999099835753441
-1.6217141151428223 3.432312250137329 -0.8764093518257141 3.0 1 -0.05998869240283966
-3.0372273921966553 6.431111812591553 0.37273672223091125 45.0 9 -0.05998639017343521
-1.0437989234924316 2.210169553756714 -0.4751144051551819 52.0 2 -0.05998408421874046
-3.0321044921875 6.423167705535889 0.6214204430580139 91.0 10 -0.059981781989336014
-1.0730702877044678 2.274204969406128 -0.39828217029571533 2.0 3 -0.059979476034641266
-3.0162253379821777 6.39531135559082 0.8681973218917847 75.0 11 -0.059977173805236816
-1.050463318824768 2.2283079624176025 -0.30247974395751953 2.0 4 -0.05997486785054207
-3.020291805267334 6.409731388092041 1.1222609281539917 58.0 12 -0.05997256562113762
-1.073467493057251 2.278136968612671 -0.22032971680164337 1.0 5 -0.05997025966644287
-3.0123565196990967 6.395784854888916 1.3742064237594604 90.0 13 -0.05996795743703842
-1.0353107452392578 2.1991500854492188 -0.1273857206106186 1.0 6 -0.059965651482343674
-3.006124496459961 6.388337135314941 1.6299954652786255 100.0 14 -0.059963349252939224
-1.0213360786437988 2.1714324951171875 -0.041885774582624435 1.0 7 -0.059961047023534775
-2.9967660903930664 6.374223709106445 1.8873085975646973 47.0 15 -0.05995874106884003
-1.4207051992416382 3.0315053462982178 -0.8970668315887451 5.0 0 -0.05993800610303879
-1.0213173627853394 2.1802775859832764 0.04202539846301079 1.0 8 -0.05993570014834404
-1.6047658920288086 3.4273626804351807 -0.8737099766731262 3.0 1 -0.05993339791893959
-3.0113720893859863 6.434439659118652 0.3723180294036865 24.0 9 -0.05993109196424484
-1.0319161415100098 2.204909324645996 -0.4732063114643097 40.0 2 -0.05992878973484039
-3.006289482116699 6.426493167877197 0.6207231879234314 91.0 10 -0.059926483780145645
-1.0617789030075073 2.2707788944244385 -0.39703071117401123 2.0 3 -0.059924181550741196
-2.9947218894958496 6.407599449157715 0.8684410452842712 76.0 11 -0.05992187559604645
-1.0544419288635254 2.2571403980255127 -0.30589208006858826 1.0 4 -0.059919573366642
-2.9928829669952393 6.409496307373047 1.1203837394714355 61.0 12 -0.05991727113723755
-1.065508246421814 2.2818703651428223 -0.22032971680164337 1.0 5 -0.0599149651825428
-2.9916718006134033 6.409820079803467 1.374969720840454 90.0 13 -0.05991266295313835
-2.8481433391571045 6.105075359344482 -0.353058397769928 1.0 6 -0.059910356998443604
-2.978863477706909 6.388195037841797 1.627295970916748 100.0 14 -0.059908054769039154
-1.0154391527175903 2.1786093711853027 -0.04195558279752731 1.0 7 -0.059905748814344406
-2.974499225616455 6.384644985198975 1.8873085975646973 47.0 15 -0.05990344658493996
-1.4052332639694214 3.025933027267456 -0.8939610123634338 6.0 0 -0.05988270789384842
-0.9918094277381897 2.1366703510284424 0.041117873042821884 1.0 8 -0.05988040566444397
-1.6018133163452148 3.4523890018463135 -0.8786588907241821 3.0 1 -0.05987809970974922
-1.0184319019317627 2.196030378341675 -0.470535010099411 20.0 2 -0.059873491525650024
-2.9771335124969482 6.422488212585449 0.6193286776542664 91.0 10 -0.059871189296245575
-1.0472017526626587 2.2601330280303955 -0.39452776312828064 1.0 3 -0.059868887066841125
-2.970669746398926 6.414410591125488 0.8679535388946533 76.0 11 -0.05986658111214638
-2.963027238845825 6.403768539428711 1.117568016052246 63.0 12 -0.05986197292804718
-2.846313953399658 6.151525020599365 -0.5930076837539673 1.0 5 -0.05985967069864273
-2.9676320552825928 6.416659355163574 1.3742064237594604 90.0 13 -0.05985736474394798
-2.8385467529296875 6.140361785888672 -0.35452380776405334 1.0 6 -0.05985506251454353
-2.9532783031463623 6.391477584838867 1.6254963874816895 100.0 14 -0.059852756559848785
-0.994413435459137 2.1530940532684326 -0.041397109627723694 1.0 7 -0.059850454330444336
-2.9440956115722656 6.3774495124816895 1.8821321725845337 47.0 15 -0.05984814837574959
-1.3987007141113281 3.0395944118499756 -0.8965492248535156 6.0 0 -0.05982741340994835
-0.9843454360961914 2.1401190757751465 0.041117873042821884 1.0 8 -0.0598251074552536
-1.5970792770385742 3.4738943576812744 -0.8827080130577087 3.0 1 -0.05982280522584915
-1.0115803480148315 2.2013559341430664 -0.47091662883758545 9.0 2 -0.059818197041749954
-2.948042154312134 6.418356895446777 0.6179341673851013 93.0 10 -0.059815894812345505
-1.0360097885131836 2.256593704223633 -0.39327630400657654 2.0 3 -0.05981358885765076
-2.9457786083221436 6.419328212738037 0.8672223091125488 73.0 11 -0.05981128662824631
-1.0684512853622437 2.3294034004211426 -0.31466665863990784 1.0 4 -0.05980898067355156
-2.940657138824463 6.414072036743164 1.117568016052246 63.0 12 -0.05980667844414711
-2.808218240737915 6.1252007484436035 -0.5895214676856995 1.0 5 -0.05980437248945236
-2.938673973083496 6.41270112991333 1.371153473854065 95.0 13 -0.05980207026004791
-2.795468807220459 6.103021621704102 -0.3518023192882538 1.0 6 -0.059799764305353165
-2.931762218475342 6.4035186767578125 1.625946283340454 100.0 14 -0.059797462075948715
-2.872471809387207 6.276910781860352 -0.12049141526222229 1.0 7 -0.05979515612125397
-2.91860032081604 6.380661487579346 1.8800616264343262 47.0 15 -0.05979285389184952
-1.3888825178146362 3.0462162494659424 -0.8970668315887451 6.0 0 -0.05977211892604828
-0.9768684506416321 2.143542528152466 0.041117873042821884 1.0 8 -0.05976981297135353
-1.5720174312591553 3.45107364654541 -0.8755095601081848 3.0 1 -0.05976751074194908
-0.9716203808784485 2.134000301361084 0.1228848323225975 1.0 9 -0.059765204787254333
-0.9916865825653076 2.178072452545166 -0.46519237756729126 1.0 2 -0.059762902557849884
-2.927271842956543 6.432235240936279 0.6182828545570374 59.0 10 -0.059760596603155136
-1.0379408597946167 2.281773567199707 -0.39703071117401123 1.0 3 -0.05975829437375069
-2.915135145187378 6.411501407623291 0.8647848963737488 71.0 11 -0.05975598841905594
-1.0603141784667969 2.3331186771392822 -0.31466665863990784 1.0 4 -0.05975368618965149
-2.917431116104126 6.422499656677246 1.1172550916671753 65.0 12 -0.05975138023495674
-1.0246806144714355 2.2568016052246094 -0.21684348583221436 1.0 5 -0.05974907800555229
-2.9065301418304443 6.401468753814697 1.3665740489959717 95.0 13 -0.059746772050857544
-2.772498846054077 6.109104633331299 -0.3515929877758026 1.0 6 -0.059744469821453094
-2.907780408859253 6.410165309906006 1.6250464916229248 100.0 14 -0.05974216386675835
-2.8472390174865723 6.27961540222168 -0.12035179883241653 1.0 7 -0.0597398616373539
-2.896311044692993 6.390810012817383 1.8800616264343262 46.0 15 -0.05973755568265915
-1.3824788331985474 3.0618503093719482 -0.9001726508140564 5.0 0 -0.05971682071685791
-0.9595056176185608 2.1250686645507812 0.04069900885224342 1.0 8 -0.05971451848745346
-1.5615652799606323 3.460092067718506 -0.8764093518257141 3.0 1 -0.05971221253275871
-0.9214600920677185 2.042707681655884 0.11744190007448196 2.0 9 -0.05970991030335426
-0.9788554310798645 2.1709535121917725 -0.46290263533592224 1.0 2 -0.059707604348659515
-1.027137279510498 2.2801589965820312 -0.39609211683273315 2.0 3 -0.05970299616456032
-2.888662099838257 6.412588119506836 0.8635662794113159 69.0 11 -0.05970069393515587
-1.030974268913269 2.289743661880493 -0.3083294630050659 1.0 4 -0.05969838798046112
-2.8917534351348877 6.42543888092041 1.1160036325454712 65.0 12 -0.05969608575105667
-1.033144474029541 2.2967047691345215 -0.22032971680164337 1.0 5 -0.05969377979636192
-2.881439447402954 6.408497333526611 1.3658108711242676 95.0 13 -0.059691477566957474
-2.748453140258789 6.115581035614014 -0.35138362646102905 1.0 6 -0.059689171612262726
-2.8770809173583984 6.40477991104126 1.620997428894043 100.0 14 -0.059686869382858276
-0.9718124866485596 2.163388967514038 -0.041397109627723694 1.0 7 -0.05968456715345383
-2.8739867210388184 6.400880336761475 1.8800616264343262 47.0 15 -0.05968226119875908
-1.3733594417572021 3.0701844692230225 -0.9012079238891602 5.0 0 -0.05966152623295784
-0.9484461545944214 2.1212689876556396 0.04055939242243767 1.0 8 -0.05965922027826309
-1.5600035190582275 3.4907009601593018 -0.8827080130577087 3.0 1 -0.05965691804885864
-0.9098935723304749 2.0369536876678467 0.11691854149103165 4.0 9 -0.059654612094163895
-0.9568580389022827 2.142091751098633 -0.45603352785110474 1.0 2 -0.059652309864759445
-1.0119259357452393 2.267495632171631 -0.39327630400657654 2.0 3 -0.05964770168066025
-2.863520383834839 6.419507026672363 0.863078773021698 73.0 11 -0.0596453957259655
-1.0144908428192139 2.275376796722412 -0.30589208006858826 1.0 4 -0.05964309349656105
-2.862553358078003 6.423365116119385 1.1138135194778442 67.0 12 -0.0596407875418663
-1.0040342807769775 2.252981185913086 -0.21579761803150177 1.0 5 -0.05963848531246185
-2.8590502738952637 6.418517112731934 1.3658108711242676 97.0 13 -0.059636183083057404
-0.9756425619125366 2.191329002380371 -0.12571097910404205 1.0 6 -0.059633877128362656
-2.8483664989471436 6.40054178237915 1.6173982620239258 100.0 14 -0.059631574898958206
-0.9655015468597412 2.17059063911438 -0.04146691784262657 1.0 7 -0.05962926894426346
-2.848935604095459 6.407840728759766 1.8790262937545776 47.0 15 -0.05962696671485901
-1.3571561574935913 3.062595844268799 -0.8975844979286194 5.0 0 -0.05960622802376747
-0.9280776977539062 2.0953128337860107 0.04000091552734375 1.0 8 -0.05960392579436302
-1.5478099584579468 3.496124744415283 -0.8827080130577087 3.0 1 -0.059601619839668274
-0.902778148651123 2.040117025375366 0.11691854149103165 9.0 9 -0.059599317610263824
-0.9557310342788696 2.1597812175750732 -0.45908647775650024 1.0 2 -0.05959701165556908
-0.9356826543807983 2.1154732704162598 0.2023756206035614 1.0 10 -0.05959470942616463
-1.0064014196395874 2.2764339447021484 -0.394214928150177 2.0 3 -0.05959240347146988
-2.8410956859588623 6.429462909698486 0.863078773021698 69.0 11 -0.05959010124206543
-0.9953141212463379 2.253481864929199 -0.30247974395751953 1.0 4 -0.05958779901266098
-2.833733081817627 6.41886043548584 1.111310601234436 67.0 12 -0.05958549305796623
-2.705253839492798 6.127833843231201 -0.5860351920127869 1.0 5 -0.05958319082856178
-2.839799642562866 6.435642242431641 1.3673373460769653 97.0 13 -0.059580884873867035
-0.9744358658790588 2.2093405723571777 -0.12654836475849152 1.0 6 -0.059578582644462585
-2.826794385910034 6.412228107452393 1.6178481578826904 100.0 14 -0.05957627668976784
-2.7753827571868896 6.298593044281006 -0.120142363011837 1.0 7 -0.05957397446036339
-2.8203229904174805 6.403602600097656 1.8748853206634521 46.0 15 -0.05957166850566864
-1.346458077430725 3.067314386367798 -0.8975844979286194 5.0 0 -0.0595509335398674
-0.9223642945289612 2.1022021770477295 0.04007072374224663 1.0 8 -0.05954862758517265
-1.531684160232544 3.4925827980041504 -0.8804585337638855 3.0 1 -0.059546325355768204
-0.8952061533927917 2.0412704944610596 0.11681386828422546 8.0 9 -0.059544019401073456
-0.9481855630874634 2.16310453414917 -0.45908647775650024 1.0 2 -0.059541717171669006
-0.9202964305877686 2.100477457046509 0.2006325125694275 1.0 10 -0.05953941494226456
-1.0071660280227661 2.299837112426758 -0.3976564407348633 2.0 3 -0.05953710898756981
-2.8162457942962646 6.433886528015137 0.8623475432395935 61.0 11 -0.05953480675816536
-0.9874413013458252 2.2569425106048584 -0.30247974395751953 1.0 4 -0.05953250080347061
-2.812429904937744 6.428223133087158 1.111310601234436 67.0 12 -0.05953019857406616
-1.0090376138687134 2.3073973655700684 -0.22032971680164337 1.0 5 -0.059527892619371414
-2.807880401611328 6.423928737640381 1.362757921218872 97.0 13 -0.059525590389966965
-0.9667173027992249 2.21272873878479 -0.12654836475849152 1.0 6 -0.05952328443527222
-2.804395914077759 6.422056198120117 1.6178481578826904 100.0 14 -0.05952098220586777
-2.7480831146240234 6.293100357055664 -0.1198631301522255 1.0 7 -0.05951867625117302
-2.7928879261016846 6.39875602722168 1.8707441091537476 47.0 15 -0.05951637402176857
-1.3349717855453491 3.0702245235443115 -0.8970668315887451 5.0 0 -0.05949563905596733
-0.9074147343635559 2.0869109630584717 0.03972167521715164 1.0 8 -0.05949333310127258
-1.5200930833816528 3.497643232345581 -0.8804585337638855 4.0 1 -0.059491030871868134
-0.8896663188934326 2.048046827316284 0.11702320724725723 7.0 9 -0.059488724917173386
-0.9375019073486328 2.1591973304748535 -0.4575599730014801 1.0 2 -0.059486422687768936
-0.8970954418182373 2.0671229362487793 0.19714628159999847 1.0 10 -0.05948411673307419
-1.0042519569396973 2.314037322998047 -0.3995336890220642 2.0 3 -0.05948181450366974
-2.7877864837646484 6.426799297332764 0.8601539134979248 69.0 11 -0.05947950854897499
-0.9799520969390869 2.260204315185547 -0.30247974395751953 1.0 4 -0.05947720631957054
-2.789975643157959 6.438000679016113 1.111310601234436 67.0 12 -0.05947490036487579
-0.9803867936134338 2.263371467590332 -0.21579761803150177 1.0 5 -0.059472598135471344
-2.7787604331970215 6.415189266204834 1.358941674232483 100.0 13 -0.059470292180776596
-0.9482653141021729 2.1902620792388916 -0.12508295476436615 1.0 6 -0.05946798995137215
-2.779986619949341 6.424167633056641 1.6160485744476318 100.0 14 -0.0594656839966774
-2.726097583770752 6.30265474319458 -0.1198631301522255 1.0 7 -0.05946338176727295
-2.7720696926116943 6.412011623382568 1.871779441833496 46.0 15 -0.0594610758125782
-1.3278416395187378 3.081731081008911 -0.8991374373435974 5.0 0 -0.05944034084677696
-0.898543119430542 2.086392402648926 0.039651867002248764 1.0 8 -0.05943803861737251
-1.5040229558944702 3.4939780235290527 -0.8782089948654175 5.0 1 -0.059435732662677765
-0.8801431655883789 2.045635938644409 0.11670918762683868 2.0 9 -0.059433430433273315
-0.9303359389305115 2.162294387817383 -0.4575599730014801 1.0 2 -0.05943112447857857
-0.8886619210243225 2.0664258003234863 0.1967976689338684 1.0 10 -0.05942882224917412
-0.9946086406707764 2.3138985633850098 -0.39890795946121216 2.0 3 -0.05942651629447937
-2.756714344024658 6.41642951965332 0.8574727773666382 67.0 11 -0.05942421406507492
-0.9720569849014282 2.263611078262329 -0.30247974395751953 1.0 4 -0.05942190811038017
-2.7674872875213623 6.447699546813965 1.111310601234436 67.0 12 -0.05941960588097572
-0.9803348183631897 2.2850899696350098 -0.21754072606563568 1.0 5 -0.059417299926280975
-2.7563486099243164 6.4248504638671875 1.358941674232483 100.0 13 -0.059414997696876526
-0.9500600099563599 2.215585947036743 -0.12633900344371796 1.0 6 -0.05941269174218178
-2.7514047622680664 6.419502258300781 1.612449288368225 100.0 14 -0.05941038951277733
-0.9339073300361633 2.180020332336426 -0.041397109627723694 1.0 7 -0.05940808355808258
-2.7466275691986084 6.414546489715576 1.8697088956832886 47.0 15 -0.05940578132867813
-1.3203264474868774 3.0954620838165283 -0.9017255902290344 5.0 0 -0.05938504636287689
-0.8967460989952087 2.1023917198181152 0.039896201342344284 2.0 8 -0.059382740408182144
-1.4956377744674683 3.5081703662872314 -0.8804585337638855 4.0 1 -0.059380438178777695
-0.8690828680992126 2.039508819580078 0.11618582904338837 2.0 9 -0.05937813222408295
-0.9193278551101685 2.1584649085998535 -0.45603352785110474 1.0 2 -0.0593758299946785
-0.8763990998268127 2.0586700439453125 0.19575178623199463 1.0 10 -0.05937352403998375
-0.986893892288208 2.3193464279174805 -0.3992207944393158 2.0 3 -0.0593712218105793
-2.735856056213379 6.429666042327881 0.8579602837562561 63.0 11 -0.05936891585588455
-0.943949282169342 2.2194952964782715 -0.2961425185203552 1.0 4 -0.0593666136264801
-2.737233877182007 6.439141750335693 1.1081818342208862 67.0 12 -0.059364307671785355
-0.9645615220069885 2.270160675048828 -0.21579761803150177 1.0 5 -0.059362005442380905
-2.7297134399414062 6.4276814460754395 1.3574153184890747 100.0 13 -0.05935969948768616
-0.9278854727745056 2.185960531234741 -0.12445490807294846 1.0 6 -0.05935739725828171
-2.7232892513275146 6.418780326843262 1.6097497940063477 100.0 14 -0.05935509502887726
-2.674220085144043 6.30312442779541 -0.1195140853524208 1.0 7 -0.05935278907418251
-2.7212042808532715 6.416980266571045 1.867638349533081 47.0 15 -0.05935048684477806
-1.3057552576065063 3.091153860092163 -0.8991374373435974 5.0 0 -0.05932974815368652
-0.8859236836433411 2.098295211791992 0.03975658118724823 2.0 8 -0.059327445924282074
-1.481255054473877 3.5100371837615967 -0.8795586824417114 3.0 1 -0.059325139969587326
-0.8662596940994263 2.0537216663360596 0.11681386828422546 2.0 9 -0.05932283774018288
-0.906447172164917 2.1489980220794678 -0.45336219668388367 2.0 2 -0.05932053178548813
-0.8738520741462708 2.0727319717407227 0.1967976689338684 1.0 10 -0.05931822955608368
-0.9726556539535522 2.308213949203491 -0.3967178463935852 2.0 3 -0.05931592360138893
-2.7138140201568604 6.443307876586914 0.8584477305412292 63.0 11 -0.05931362137198448
-0.9496713876724243 2.255872964859009 -0.300529807806015 1.0 4 -0.059311315417289734
-2.709019660949707 6.438205718994141 1.10630464553833 67.0 12 -0.059309013187885284
-0.9767226576805115 2.321260929107666 -0.22032971680164337 1.0 5 -0.059306710958480835
-2.7087838649749756 6.440789699554443 1.3581784963607788 100.0 13 -0.05930440500378609
-2.5920212268829346 6.166177749633789 -0.350546270608902 1.0 6 -0.05930210277438164
-2.6993587017059326 6.424654006958008 1.608850121498108 100.0 14 -0.05929979681968689
-2.630967617034912 6.264947891235352 -0.1186065599322319 1.0 7 -0.05929749459028244
-2.691683292388916 6.412661075592041 1.8634971380233765 47.0 15 -0.05929518863558769
-1.2934668064117432 3.092128276824951 -0.8981021642684937 5.0 0 -0.05927445366978645
-0.8785933256149292 2.1013753414154053 0.03975658118724823 2.0 8 -0.059272147715091705
-1.4667387008666992 3.5097928047180176 -0.8782089948654175 2.0 1 -0.059269845485687256
-0.8575454354286194 2.0530474185943604 0.1166045218706131 2.0 9 -0.05926753953099251
-0.901966392993927 2.159395456314087 -0.4548886716365814 2.0 2 -0.05926523730158806
-0.8527944087982178 2.042675256729126 0.19366006553173065 1.0 10 -0.05926293507218361
-0.9562240839004517 2.2915422916412354 -0.39327630400657654 2.0 3 -0.05926062911748886
-2.6867198944091797 6.4417500495910645 0.856985330581665 63.0 11 -0.05925832688808441
-0.9310981035232544 2.233522415161133 -0.2971175014972687 1.0 4 -0.059256020933389664
-2.683488607406616 6.4403300285339355 1.105053186416626 67.0 12 -0.059253718703985214
-0.96861332654953 2.3246564865112305 -0.22032971680164337 1.0 5 -0.059251412749290466
-2.6817543506622314 6.439332008361816 1.355888843536377 100.0 13 -0.05924911051988602
-2.5766232013702393 6.189938545227051 -0.35138362646102905 1.0 6 -0.05924680456519127
-2.6784114837646484 6.437635898590088 1.6097497940063477 100.0 14 -0.05924450233578682
-2.6213691234588623 6.3036346435546875 -0.11916503310203552 1.0 7 -0.05924219638109207
-2.664834976196289 6.411313056945801 1.86039137840271 47.0 15 -0.05923989415168762
-1.2893182039260864 3.1126880645751953 -0.9027608633041382 6.0 0 -0.059219155460596085
-0.863603949546814 2.0859532356262207 0.03940753638744354 2.0 8 -0.059216853231191635
-1.4574594497680664 3.5220935344696045 -0.8800085783004761 1.0 1 -0.059214551001787186
-0.8446236252784729 2.0411157608032227 0.11576715111732483 2.0 9 -0.05921224504709244
-0.8944236636161804 2.1625306606292725 -0.4548886716365814 2.0 2 -0.05920994281768799
-0.8487040400505066 2.053004503250122 0.19435729086399078 2.0 10 -0.05920763686299324
-0.9542546272277832 2.309471368789673 -0.39577925205230713 2.0 3 -0.05920533463358879
-2.65891432762146 6.438244819641113 0.8552790880203247 69.0 11 -0.05920302867889404
-0.9252022504806519 2.240267038345337 -0.2976049780845642 1.0 4 -0.059200726449489594
-2.663625955581665 6.452844619750977 1.105678915977478 67.0 12 -0.059198420494794846
-0.9300970435142517 2.25435209274292 -0.21335725486278534 1.0 5 -0.059196118265390396
-2.654771089553833 6.437763690948486 1.3535990715026855 100.0 13 -0.05919381231069565
-2.54130220413208 6.165657043457031 -0.34949955344200134 1.0 6 -0.0591915100812912
-2.653337001800537 6.437473297119141 1.6075003147125244 100.0 14 -0.05918920412659645
-0.8896675705909729 2.1595661640167236 -0.0407688245177269 1.0 7 -0.059186901897192
-2.6435608863830566 6.420114517211914 1.86039137840271 47.0 15 -0.05918459594249725
-1.2811896800994873 3.122307777404785 -0.9043138027191162 6.0 0 -0.059163860976696014
-0.8589577078819275 2.094356060028076 0.03951225057244301 2.0 8 -0.059161558747291565
-1.4531638622283936 3.544938087463379 -0.8845075964927673 1.0 1 -0.05915925279259682
-0.8446686863899231 2.060537099838257 0.11670918762683868 2.0 9 -0.05915695056319237
-0.8924572467803955 2.178201675415039 -0.4575599730014801 4.0 2 -0.05915464460849762
-0.8449109792709351 2.063182830810547 0.1950545459985733 1.0 10 -0.05915234237909317
-0.9518293738365173 2.3254199028015137 -0.3979693353176117 2.0 3 -0.05915003642439842
-2.63604474067688 6.443353176116943 0.8547916412353516 80.0 11 -0.05914773419499397
-0.9102510213851929 2.2249503135681152 -0.29516759514808655 1.0 4 -0.059145428240299225
-2.63847279548645 6.452500820159912 1.1041146516799927 69.0 12 -0.059143126010894775
-0.933169424533844 2.2832441329956055 -0.21579761803150177 1.0 5 -0.05914082005620003
-2.6289517879486084 6.435627460479736 1.3513094186782837 100.0 13 -0.05913851782679558
-0.891618013381958 2.1837539672851562 -0.12361754477024078 1.0 6 -0.05913621187210083
-2.62976336479187 6.44082498550415 1.6061506271362305 100.0 14 -0.05913390964269638
-0.8825017213821411 2.1625044345855713 -0.0407688245177269 1.0 7 -0.05913160368800163
-2.620795726776123 6.42526912689209 1.859356164932251 47.0 15 -0.05912930145859718
-1.2897411584854126 3.1730709075927734 -0.9177724123001099 1.0 0 -0.059108566492795944
-0.8474923968315125 2.0860769748687744 0.03930281847715378 2.0 8 -0.059106260538101196
-1.443598985671997 3.55515456199646 -0.885857343673706 4.0 1 -0.05910395830869675
-0.8292083740234375 2.043116331100464 0.11555780470371246 1.0 9 -0.059101652354002
-0.8771082758903503 2.1611385345458984 -0.45336219668388367 3.0 2 -0.05909935012459755
-0.8350692391395569 2.0585880279541016 0.19435729086399078 2.0 10 -0.0590970441699028
-0.9300097227096558 2.2937817573547363 -0.39202481508255005 1.0 3 -0.05909474194049835
-2.613173484802246 6.448379039764404 0.8543041348457336 78.0 11 -0.059092435985803604
-0.9069507718086243 2.2391531467437744 -0.29662999510765076 1.0 4 -0.059090133756399155
-2.6114871501922607 6.450684547424316 1.102237343788147 69.0 12 -0.05908782780170441
-0.9251942038536072 2.286487340927124 -0.21579761803150177 1.0 5 -0.05908552557229996
-2.6061246395111084 6.440670013427734 1.3505462408065796 100.0 13 -0.05908321961760521
-0.887367308139801 2.1941046714782715 -0.12403623014688492 1.0 6 -0.05908091738820076
-2.602153778076172 6.437317848205566 1.603001356124878 100.0 14 -0.05907861143350601
-2.5499346256256104 6.311306476593018 -0.11881598085165024 1.0 7 -0.05907630920410156
-2.5983526706695557 6.434377670288086 1.859356164932251 47.0 15 -0.05907400697469711
-0.9782212376594543 2.432173013687134 -0.7024349570274353 1.0 0 -0.059053268283605576
-0.835728645324707 2.077890634536743 0.039093390107154846 2.0 8 -0.059050966054201126
-1.443537712097168 3.590909481048584 -0.8935056328773499 1.0 1 -0.05904866009950638
-0.8741949796676636 2.1757266521453857 0.1228848323225975 1.0 9 -0.05904635787010193
-0.872839093208313 2.173448324203491 -0.45527029037475586 4.0 2 -0.05904405191540718
-0.8304877281188965 2.06903076171875 0.1950545459985733 1.0 10 -0.05904174968600273
-0.9230669140815735 2.30084228515625 -0.3926505744457245 2.0 3 -0.05903944373130798
-2.592125177383423 6.461146831512451 0.8547916412353516 78.0 11 -0.059037141501903534
-0.8946957588195801 2.231250762939453 -0.29516759514808655 1.0 4 -0.059034835547208786
-2.5860157012939453 6.452425479888916 1.1009858846664429 69.0 12 -0.05903253331780434
-0.9097978472709656 2.271207809448242 -0.21405449509620667 1.0 5 -0.05903022736310959
-2.583958387374878 6.453824043273926 1.3513094186782837 100.0 13 -0.05902792513370514
-0.8867404460906982 2.2158849239349365 -0.12508295476436615 1.0 6 -0.05902562290430069
-2.578540563583374 6.446812629699707 1.603001356124878 100.0 14 -0.05902331694960594
-2.514519691467285 6.286748886108398 -0.11818769574165344 1.0 7 -0.05902101472020149
-2.5672695636749268 6.4218831062316895 1.8531444072723389 47.0 15 -0.059018708765506744
-0.969724714756012 2.435573101043701 -0.7024349570274353 1.0 0 -0.058997973799705505
-0.8266279697418213 2.0772242546081543 0.03902358189225197 3.0 8 -0.05899566784501076
-0.821945309638977 2.0675575733184814 0.1166045218706131 1.0 9 -0.05899105966091156
-0.8652474880218506 2.1764817237854004 -0.45527029037475586 4.0 2 -0.05898875743150711
-0.8144312500953674 2.0496981143951416 0.19296279549598694 1.0 10 -0.05898645147681236
-0.9150303602218628 2.3040499687194824 -0.3926505744457245 2.0 3 -0.05898414924740791
-2.5640337467193604 6.459533214569092 0.8533292412757874 78.0 11 -0.058981847018003464
-0.8821199536323547 2.2234437465667725 -0.29370513558387756 2.0 4 -0.058979541063308716
-2.5601630210876465 6.456352710723877 1.1000473499298096 67.0 12 -0.058977238833904266
-2.469111919403076 6.2267351150512695 -0.5860351920127869 1.0 5 -0.05897493287920952
-2.5585224628448486 6.455503463745117 1.349782943725586 97.0 13 -0.05897263064980507
-0.8789995312690735 2.2189669609069824 -0.12508295476436615 1.0 6 -0.05897032469511032
-2.553870677947998 6.450338363647461 1.601651668548584 100.0 14 -0.05896802246570587
-2.489990472793579 6.292203426361084 -0.11811788380146027 1.0 7 -0.058965716511011124
-2.5394530296325684 6.420470714569092 1.8500385284423828 48.0 15 -0.058963414281606674
-0.951300859451294 2.413780689239502 -0.6951879858970642 14.0 0 -0.05894267559051514
-0.8201043605804443 2.0819575786590576 0.039058487862348557 3.0 8 -0.05894037336111069
-0.9544839262962341 2.424337387084961 -0.6015191078186035 3.0 1 -0.05893807113170624
-0.8176489472389221 2.077847957611084 0.11702320724725723 1.0 9 -0.05893576517701149
-0.8562074899673462 2.1758346557617188 -0.45450708270072937 6.0 2 -0.05893346294760704
-0.8131049275398254 2.067362070083618 0.19435729086399078 1.0 10 -0.05893115699291229
-0.9069826006889343 2.307229995727539 -0.3926505744457245 2.0 3 -0.05892885476350784
-2.5356640815734863 6.453662872314453 0.8513793349266052 86.0 11 -0.058926548808813095
-0.8801575303077698 2.2412912845611572 -0.2956550419330597 2.0 4 -0.058924246579408646
-2.537611961364746 6.465249538421631 1.1000473499298096 67.0 12 -0.0589219406247139
-2.438627243041992 6.213059425354004 -0.5839434862136841 1.0 5 -0.05891963839530945
-2.528801441192627 6.446119785308838 1.3459666967391968 97.0 13 -0.0589173324406147
-0.8668734431266785 2.2108654975891113 -0.12445490807294846 1.0 6 -0.05891503021121025
-2.5313405990600586 6.459212779998779 1.601651668548584 100.0 14 -0.0589127242565155
-0.8518426418304443 2.1747641563415527 -0.0407688245177269 1.0 7 -0.05891042202711105
-2.519137144088745 6.434692859649658 1.8515914678573608 48.0 15 -0.058908116072416306
-0.9428699016571045 2.417086362838745 -0.6951879858970642 3.0 0 -0.058887381106615067
-0.8113796710968018 2.0810813903808594 0.03898867964744568 4.0 8 -0.05888507887721062
-0.93964684009552 2.411313056945801 -0.5974700450897217 15.0 1 -0.05888277292251587
-0.8038666248321533 2.0639398097991943 0.11608116328716278 2.0 9 -0.05888047069311142
