# .PCD v0.7 - Point Cloud Data file format
VERSION 0.7
FIELDS x y z intensity ring time
SIZE 4 4 4 4 4 4
TYPE F F F F F F
COUNT 1 1 1 1 1 1
WIDTH 549
HEIGHT 1
VIEWPOINT 0 0 0 1 0 0 0
POINTS 549
DATA ascii
3.048442840576172 0.7900833487510681 0.7270418405532837 71.0 14 -0.08705664426088333
2.9966578483581543 0.7761054039001465 -0.05403264984488487 83.0 7 -0.08705433458089828
3.04660964012146 0.7884750962257385 0.8432324528694153 74.0 15 -0.08705203235149384
2.95977520942688 0.7615929245948792 -0.8189034461975098 64.0 0 -0.0870312973856926
2.9999442100524902 0.7713723182678223 0.05406755208969116 74.0 8 -0.08702899515628815
2.961381673812866 0.7609042525291443 -0.7058964967727661 76.0 1 -0.0870266854763031
3.0235061645507812 0.7768666744232178 0.16360221803188324 76.0 9 -0.08702438324689865
2.9626541137695312 0.760680079460144 -0.5945608615875244 76.0 2 -0.0870220810174942
3.020264148712158 0.7749115228652954 0.27279746532440186 72.0 10 -0.08701977878808975
1.7470146417617798 0.44790706038475037 -0.2856493592262268 18.0 3 -0.0870174765586853
3.024855613708496 0.774962842464447 0.38340097665786743 72.0 11 -0.08701516687870026
3.033149480819702 0.7765251398086548 0.4958972930908203 60.0 12 -0.08701056241989136
3.039532423019409 0.7770273685455322 0.6098255515098572 62.0 13 -0.08700595051050186
3.001366138458252 0.7667139768600464 -0.16234615445137024 68.0 6 -0.08700364828109741
3.054957628250122 0.7804042100906372 0.727941632270813 65.0 14 -0.08700134605169296
2.991598606109619 0.7636612057685852 -0.05389302968978882 75.0 7 -0.08699904382228851
3.047471761703491 0.7773573398590088 0.8427148461341858 72.0 15 -0.08699673414230347
2.960411548614502 0.7513006329536438 -0.8183858394622803 65.0 0 -0.08697599917650223
3.0005476474761963 0.7609275579452515 0.05403264984488487 57.0 8 -0.08697369694709778
2.956332206726074 0.7491655349731445 -0.7040968537330627 76.0 1 -0.08697139471769333
3.0183210372924805 0.7648741602897644 0.1631835252046585 68.0 9 -0.08696909248828888
2.968966245651245 0.7518172860145569 -0.5953240990638733 74.0 2 -0.08696678280830383
3.030543565750122 0.7668458819389343 0.2734947204589844 69.0 10 -0.08696448057889938
1.746575117111206 0.4416274130344391 -0.2853364944458008 50.0 3 -0.08696217834949493
3.0177862644195557 0.7624955773353577 0.3821823000907898 77.0 11 -0.08695987612009048
1.7879613637924194 0.4517591595649719 -0.22643324732780457 81.0 4 -0.08695756644010544
3.0548605918884277 0.7712973952293396 0.49902600049972534 86.0 12 -0.08695526421070099
1.7927600145339966 0.452306866645813 -0.1617610603570938 32.0 5 -0.08695296198129654
3.042092800140381 0.7669427394866943 0.6098255515098572 62.0 13 -0.08695065975189209
3.0499703884124756 0.7683642506599426 0.7261420488357544 71.0 14 -0.0869460478425026
3.0575270652770996 0.769131600856781 0.8447853922843933 70.0 15 -0.0869414433836937
2.959139108657837 0.740540623664856 -0.8173506259918213 67.0 0 -0.08692070841789246
2.9644722938537598 0.7407743334770203 -0.7054465413093567 81.0 1 -0.08691609650850296
2.965728759765625 0.7405399680137634 -0.5941792130470276 84.0 2 -0.08691149204969406
3.036935806274414 0.7577572464942932 0.27384334802627563 69.0 10 -0.08690918236970901
1.7691138982772827 0.441089391708374 -0.28877806663513184 76.0 3 -0.08690688014030457
3.0318551063537598 0.7553654909133911 0.3836447298526764 76.0 11 -0.08690457791090012
1.7606326341629028 0.4383229911327362 -0.22277717292308807 82.0 4 -0.08690227568149567
3.0402822494506836 0.7563365697860718 0.4962101876735687 77.0 12 -0.08689996600151062
1.7961835861206055 0.4468398690223694 -0.16193535923957825 89.0 5 -0.08689766377210617
3.0522398948669434 0.7587472200393677 0.6113520860671997 61.0 13 -0.08689536154270172
1.8026680946350098 0.4477858543395996 -0.09734489023685455 58.0 6 -0.08689305931329727
3.0469601154327393 0.7563040256500244 0.7247923612594604 67.0 14 -0.08689074963331223
1.7972601652145386 0.4457755982875824 -0.032321859151124954 45.0 7 -0.08688844740390778
3.0564422607421875 0.7575267553329468 0.8437501192092896 72.0 15 -0.08688614517450333
2.9560790061950684 0.7288185954093933 -0.8157976865768433 64.0 0 -0.08686541020870209
1.807666301727295 0.44534385204315186 0.0324963815510273 60.0 8 -0.08686310797929764
2.9746084213256836 0.7322872281074524 -0.7072461247444153 78.0 1 -0.08686079829931259
1.8056190013885498 0.44417107105255127 0.09744956344366074 59.0 9 -0.08685849606990814
2.9663894176483154 0.7297134399414062 -0.5937976241111755 76.0 2 -0.08685619384050369
1.7783161401748657 0.43679651618003845 -0.29002952575683594 73.0 3 -0.0868515819311142
3.0306174755096436 0.7438305616378784 0.38315722346305847 76.0 11 -0.08684927970170975
1.7698639631271362 0.43406549096107483 -0.22375212609767914 79.0 4 -0.0868469774723053
3.0429036617279053 0.7457200288772583 0.4962101876735687 76.0 12 -0.08684467524290085
1.7745108604431152 0.43487682938575745 -0.15984363853931427 77.0 5 -0.0868423655629158
3.054870128631592 0.748087465763092 0.6113520860671997 62.0 13 -0.08684006333351135
1.8119802474975586 0.44338902831077576 -0.09776357561349869 75.0 6 -0.0868377611041069
3.049581289291382 0.745664119720459 0.7247923612594604 67.0 14 -0.08683545887470245
1.7949199676513672 0.4385503828525543 -0.03225204721093178 93.0 7 -0.086833156645298
3.0571916103363037 0.746394157409668 0.8432324528694153 74.0 15 -0.08683084696531296
2.9567277431488037 0.71803879737854 -0.815280020236969 65.0 0 -0.08681011199951172
1.7936633825302124 0.43525904417037964 0.03221714124083519 96.0 8 -0.08680780977010727
2.969571352005005 0.7200617790222168 -0.7054465413093567 81.0 1 -0.08680550754070282
1.8188050985336304 0.440686970949173 0.09807758778333664 95.0 9 -0.08680319786071777
2.9708268642425537 0.7198157906532288 -0.5941792130470276 79.0 2 -0.08680089563131332
1.814447045326233 0.4392967224121094 0.1633298546075821 16.0 10 -0.08679859340190887
1.7702298164367676 0.42826423048973083 -0.2884652018547058 85.0 3 -0.08679629117250443
3.033195972442627 0.733246386051178 0.38315722346305847 77.0 11 -0.08679398149251938
1.763649821281433 0.4260208010673523 -0.22277717292308807 77.0 4 -0.08679167926311493
3.045488119125366 0.735094428062439 0.4962101876735687 76.0 12 -0.08678937703371048
1.7644717693328857 0.425566703081131 -0.15879777073860168 79.0 5 -0.08678707480430603
3.053645610809326 0.7364979386329651 0.610588788986206 63.0 13 -0.08678477257490158
1.825166940689087 0.43986940383911133 -0.09839160740375519 100.0 6 -0.08678246289491653
3.059743881225586 0.7368402481079102 0.7265920042991638 68.0 14 -0.08678016066551208
1.808105230331421 0.4350888729095459 -0.03246147558093071 100.0 7 -0.08677785843610764
3.0485081672668457 0.7330088019371033 0.840126633644104 76.0 15 -0.08677555620670319
2.9612185955047607 0.7076467275619507 -0.8157976865768433 64.0 0 -0.08675481379032135
1.7757225036621094 0.42434701323509216 0.031868092715740204 83.0 8 -0.0867525115609169
2.9663803577423096 0.7083330750465393 -0.7040968537330627 76.0 1 -0.08675020933151245
1.8164469003677368 0.43340879678726196 0.09786824882030487 87.0 9 -0.086747907102108
2.96962571144104 0.7080124020576477 -0.5934159755706787 84.0 2 -0.08674560487270355
1.8334883451461792 0.4367986023426056 0.16489866375923157 60.0 10 -0.0867432951927185
1.750649333000183 0.4167407155036926 -0.28502362966537476 81.0 3 -0.08674099296331406
3.031874418258667 0.7217353582382202 0.3826697766780853 76.0 11 -0.0867386907339096
1.7844383716583252 0.42445507645606995 -0.22521455585956573 79.0 4 -0.08673638850450516
3.0518791675567627 0.7253719568252563 0.4968359172344208 76.0 12 -0.08673407882452011
1.7698233127593994 0.4203260540962219 -0.15914638340473175 82.0 5 -0.08673177659511566
3.0505940914154053 0.7239416241645813 0.6094439625740051 65.0 13 -0.08672947436571121
1.8053898811340332 0.4281073212623596 -0.09724021703004837 93.0 6 -0.08672717213630676
3.0624241828918457 0.7256200313568115 0.7265920042991638 68.0 14 -0.08672486245632172
1.7901545763015747 0.42416462302207947 -0.032112427055835724 100.0 7 -0.08672256022691727
3.0548081398010254 0.7232524752616882 0.8411619663238525 74.0 15 -0.08672025799751282
2.965550661087036 0.6977488994598389 -0.8163152933120728 67.0 0 -0.08669952303171158
1.7889455556869507 0.420582115650177 0.032077521085739136 78.0 8 -0.08669722080230713
2.9594709873199463 0.6952283382415771 -0.7018473148345947 81.0 1 -0.08669491112232208
1.8043380975723267 0.4238686263561249 0.09713554382324219 82.0 9 -0.08669260889291763
2.9797239303588867 0.6994373202323914 -0.5949424505233765 84.0 2 -0.08669030666351318
1.8330621719360352 0.4299412965774536 0.16472434997558594 65.0 10 -0.08668800443410873
1.7597862482070923 0.4124305844306946 -0.28627508878707886 79.0 3 -0.08668569475412369
3.026768445968628 0.7088068723678589 0.38169482350349426 80.0 11 -0.08668339252471924
1.7627156972885132 0.41279172897338867 -0.22228971123695374 82.0 4 -0.08668109029531479
3.062086343765259 0.7165154218673706 0.49808740615844727 73.0 12 -0.08667878806591034
1.7829201221466064 0.4168676733970642 -0.16019225120544434 82.0 5 -0.08667647838592529
3.053102493286133 0.7132877707481384 0.6094439625740051 65.0 13 -0.08667417615652084
1.7971482276916504 0.4195328652858734 -0.09671685099601746 90.0 6 -0.0866718739271164
3.057222366333008 0.7136892080307007 0.7247923612594604 67.0 14 -0.08666957169771194
1.781887173652649 0.4156423509120941 -0.03193790465593338 88.0 7 -0.0866672620177269
3.061077117919922 0.7134609818458557 0.8421972393989563 74.0 15 -0.08666495978832245
2.967848300933838 0.6879115104675293 -0.8163152933120728 67.0 0 -0.08664422482252121
1.786434292793274 0.41374456882476807 0.03200771287083626 78.0 8 -0.08664192259311676
2.9693548679351807 0.6871671676635742 -0.7036469578742981 81.0 1 -0.08663962036371231
1.7979505062103271 0.41608116030693054 0.09671685099601746 84.0 9 -0.08663731068372726
2.970550298690796 0.6868991851806641 -0.5926527976989746 84.0 2 -0.08663500845432281
1.8325366973876953 0.4234112501144409 0.1645500361919403 67.0 10 -0.08663270622491837
1.759219765663147 0.406147837638855 -0.28596222400665283 87.0 3 -0.08663040399551392
3.029101848602295 0.698767900466919 0.38169482350349426 77.0 11 -0.08662809431552887
1.7602059841156006 0.406052827835083 -0.221802219748497 75.0 4 -0.08662579208612442
3.043271541595459 0.7014757394790649 0.4946458339691162 72.0 12 -0.08662348985671997
1.7881760597229004 0.41184690594673157 -0.1605408787727356 82.0 5 -0.08662118762731552
3.059277057647705 0.7040420770645142 0.610207200050354 65.0 13 -0.08661887794733047
1.806315541267395 0.41536086797714233 -0.09713554382324219 96.0 6 -0.08661657571792603
3.055774211883545 0.7026728987693787 0.7238925695419312 68.0 14 -0.08661427348852158
1.8007959127426147 0.4137607514858246 -0.03225204721093178 100.0 7 -0.08661197125911713
3.069075107574463 0.7046036124229431 0.8437501192092896 72.0 15 -0.08660966157913208
2.9663467407226562 0.6772052049636841 -0.815280020236969 65.0 0 -0.08658892661333084
1.7955949306488037 0.4095975458621979 0.03214733302593231 80.0 8 -0.08658662438392639
2.979217052459717 0.679049551486969 -0.7054465413093567 86.0 1 -0.08658432215452194
1.8032866716384888 0.410690039396286 0.09692620486021042 88.0 9 -0.08658201992511749
2.9689834117889404 0.6761720180511475 -0.5918895602226257 84.0 2 -0.08657971024513245
1.8261597156524658 0.41556403040885925 0.16385279595851898 65.0 10 -0.086577408015728
1.7721140384674072 0.4029400050640106 -0.28783944249153137 87.0 3 -0.08657510578632355
3.041081190109253 0.6909173130989075 0.3829135298728943 81.0 11 -0.0865728035569191
1.7654844522476196 0.40078458189964294 -0.22228971123695374 79.0 4 -0.08657049387693405
3.0476279258728027 0.6912860870361328 0.49495869874954224 76.0 12 -0.0865681916475296
1.7778736352920532 0.40327078104019165 -0.15949499607086182 88.0 5 -0.08656588941812515
3.063509941101074 0.6943264007568359 0.610588788986206 63.0 13 -0.0865635871887207
1.803787112236023 0.4084867238998413 -0.09692620486021042 96.0 6 -0.08656127750873566
3.0544068813323975 0.6911424398422241 0.7229927778244019 68.0 14 -0.08655897527933121
1.8022291660308838 0.4074726402759552 -0.03225204721093178 98.0 7 -0.08655667304992676
3.0583248138427734 0.6909069418907166 0.840126633644104 74.0 15 -0.08655437082052231
2.9649229049682617 0.6659991145133972 -0.8142447471618652 67.0 0 -0.08653363585472107
1.7853068113327026 0.4006992280483246 0.03193790465593338 75.0 8 -0.08653132617473602
2.9815690517425537 0.6686466336250305 -0.7054465413093567 81.0 1 -0.08652902394533157
1.8047094345092773 0.40439239144325256 0.09692620486021042 90.0 9 -0.08652672171592712
2.9770729541778564 0.6670911312103271 -0.5930343866348267 87.0 2 -0.08652441948652267
1.8198223114013672 0.4074453115463257 0.16315554082393646 67.0 10 -0.08652210980653763
1.7638710737228394 0.3945958614349365 -0.28627508878707886 81.0 3 -0.08651980757713318
3.037662982940674 0.678997814655304 0.3821823000907898 77.0 11 -0.08651750534772873
1.766872763633728 0.394618958234787 -0.22228971123695374 82.0 4 -0.08651520311832428
3.0615899562835693 0.6832257509231567 0.4968359172344208 76.0 12 -0.08651289343833923
1.7753812074661255 0.39619484543800354 -0.15914638340473175 85.0 5 -0.08651059120893478
3.065915107727051 0.683627724647522 0.610588788986206 63.0 13 -0.08650828897953033
1.813000202178955 0.40392470359802246 -0.09734489023685455 96.0 6 -0.08650598675012589
3.0663115978240967 0.6825942993164062 0.7252422571182251 71.0 14 -0.08650368452072144
1.803640604019165 0.4011787474155426 -0.03225204721093178 100.0 7 -0.08650137484073639
3.056946277618408 0.6793881058692932 0.8390913605690002 76.0 15 -0.08649907261133194
2.9710018634796143 0.656481146812439 -0.815280020236969 67.0 0 -0.0864783376455307
1.774978518486023 0.3918786644935608 0.03172847628593445 75.0 8 -0.08647603541612625
2.9724669456481934 0.6557153463363647 -0.702747106552124 81.0 1 -0.0864737257361412
1.8100107908248901 0.3989505171775818 0.09713554382324219 88.0 9 -0.08647142350673676
2.977466344833374 0.6562733054161072 -0.5926527976989746 84.0 2 -0.0864691212773323
1.8251248598098755 0.40194785594940186 0.16350416839122772 67.0 10 -0.08646681904792786
1.761379361152649 0.38758689165115356 -0.2856493592262268 97.0 3 -0.08646450936794281
3.0361368656158447 0.6675383448600769 0.38169482350349426 77.0 11 -0.08646220713853836
1.7759950160980225 0.39015311002731323 -0.2232646644115448 77.0 4 -0.08645990490913391
3.0600976943969727 0.6716868877410889 0.4962101876735687 73.0 12 -0.08645760267972946
1.776753544807434 0.389994740486145 -0.15914638340473175 85.0 5 -0.08645530045032501
3.0510237216949463 0.6691355109214783 0.6071542501449585 65.0 13 -0.08645299077033997
1.8007419109344482 0.39460137486457825 -0.09661218523979187 93.0 6 -0.08645068854093552
3.0705792903900146 0.6723026633262634 0.7256921529769897 68.0 14 -0.08644838631153107
1.8147976398468018 0.397016704082489 -0.03242656961083412 100.0 7 -0.08644608408212662
3.0592989921569824 0.6687139272689819 0.8390913605690002 76.0 15 -0.08644377440214157
2.9732754230499268 0.6461056470870972 -0.815280020236969 65.0 0 -0.08642303943634033
1.7880606651306152 0.3882256746292114 0.03193790465593338 80.0 8 -0.08642073720693588
2.9671199321746826 0.6436836123466492 -0.7009475231170654 81.0 1 -0.08641843497753143
1.8055366277694702 0.3913610875606537 0.09682153165340424 95.0 9 -0.08641613274812698
2.979738712310791 0.6458765864372253 -0.5926527976989746 84.0 2 -0.08641382306814194
1.8284642696380615 0.39599576592445374 0.16367848217487335 71.0 10 -0.08641152083873749
1.7743055820465088 0.38394320011138916 -0.28752657771110535 97.0 3 -0.08640921860933304
3.032627582550049 0.6556783318519592 0.38096359372138977 81.0 11 -0.08640691637992859
1.7618234157562256 0.3805975914001465 -0.22131474316120148 73.0 4 -0.08640460669994354
3.0624239444732666 0.6610001921653748 0.4962101876735687 76.0 12 -0.08640230447053909
1.7819992303848267 0.38463059067726135 -0.15949499607086182 85.0 5 -0.08640000224113464
3.053340435028076 0.6584835052490234 0.6071542501449585 65.0 13 -0.0863977000117302
1.7903939485549927 0.3857885003089905 -0.09598415344953537 85.0 6 -0.08639539033174515
3.067192554473877 0.6603489518165588 0.7243424654006958 71.0 14 -0.0863930881023407
1.814217209815979 0.3902601897716522 -0.03239166736602783 98.0 7 -0.08639078587293625
3.0691699981689453 0.659653902053833 0.8411619663238525 76.0 15 -0.0863884836435318
2.9792912006378174 0.6365295052528381 -0.8163152933120728 65.0 0 -0.08636774867773056
1.7854934930801392 0.381148099899292 0.031868092715740204 85.0 8 -0.08636543899774551
2.973160743713379 0.6341346502304077 -0.7018473148345947 83.0 1 -0.08636313676834106
1.8010315895080566 0.38380688428878784 0.09650751203298569 88.0 9 -0.08636083453893661
2.97621488571167 0.6342430114746094 -0.5915079116821289 87.0 2 -0.08635853230953217
1.8259376287460327 0.388782262802124 0.1633298546075821 72.0 10 -0.08635622262954712
1.7814315557479858 0.3789800703525543 -0.2884652018547058 100.0 3 -0.08635392040014267
3.036839723587036 0.6455004215240479 0.38120734691619873 77.0 11 -0.08635161817073822
1.759257197380066 0.37362179160118103 -0.22082726657390594 71.0 4 -0.08634931594133377
3.060847520828247 0.6494868993759155 0.4955844581127167 77.0 12 -0.08634700626134872
1.7950249910354614 0.3808896541595459 -0.1605408787727356 91.0 5 -0.08634470403194427
3.063302755355835 0.6494492292404175 0.6086807250976562 65.0 13 -0.08634240180253983
1.8034528493881226 0.38202109932899475 -0.09661218523979187 93.0 6 -0.08634009957313538
3.058039426803589 0.6472180485725403 0.7216430306434631 71.0 14 -0.08633778989315033
1.805786371231079 0.3818559944629669 -0.03221714124083519 100.0 7 -0.08633548766374588
3.0752341747283936 0.6497343182563782 0.8421972393989563 74.0 15 -0.08633318543434143
2.9739325046539307 0.6245384812355042 -0.8142447471618652 67.0 0 -0.08631245046854019
1.7965986728668213 0.3769659698009491 0.032042618840932846 90.0 8 -0.08631014823913574
2.975356340408325 0.623751699924469 -0.7018473148345947 83.0 1 -0.0863078385591507
1.8023601770401 0.3775181472301483 0.09650751203298569 84.0 9 -0.08630553632974625
2.978410482406616 0.6238508820533752 -0.5915079116821289 87.0 2 -0.0863032341003418
1.8194830417633057 0.3807731866836548 0.16263261437416077 74.0 10 -0.08630093187093735
1.784677267074585 0.37316322326660156 -0.28877806663513184 100.0 3 -0.0862986221909523
3.046846866607666 0.6365203261375427 0.3821823000907898 77.0 11 -0.08629631996154785
1.7683236598968506 0.36910051107406616 -0.221802219748497 71.0 4 -0.0862940177321434
3.055361270904541 0.6371846795082092 0.4943329691886902 80.0 12 -0.08629171550273895
1.7826905250549316 0.37177374958992004 -0.15932069718837738 91.0 5 -0.0862894058227539
3.069395065307617 0.639553964138031 0.6094439625740051 65.0 13 -0.08628710359334946
1.800864815711975 0.3749089539051056 -0.0964028462767601 85.0 6 -0.08628480136394501
3.064095973968506 0.6373324394226074 0.7225428223609924 71.0 14 -0.08628249913454056
1.8051502704620361 0.37514379620552063 -0.0321822389960289 98.0 7 -0.08628019690513611
3.066133975982666 0.6366413831710815 0.8390913605690002 76.0 15 -0.08627788722515106
2.9686334133148193 0.6120731234550476 -0.8121742010116577 67.0 0 -0.08621478080749512
1.7764239311218262 0.3659408986568451 0.03165866807103157 85.0 8 -0.08621247857809067
2.985257387161255 0.614414393901825 -0.7036469578742981 83.0 1 -0.08621017634868622
1.8075796365737915 0.372029185295105 0.09671685099601746 86.0 9 -0.08620786666870117
2.982600212097168 0.6133249998092651 -0.5918895602226257 87.0 2 -0.08620556443929672
1.8169631958007812 0.3733004033565521 0.1622839868068695 79.0 10 -0.08620326220989227
1.776357889175415 0.3646339178085327 -0.2872137129306793 100.0 3 -0.08620095998048782
3.053048610687256 0.6261456608772278 0.3826697766780853 80.0 11 -0.08619865030050278
1.765775203704834 0.361820250749588 -0.22131474316120148 71.0 4 -0.08619634807109833
3.061436414718628 0.6273107528686523 0.49495869874954224 76.0 12 -0.08619404584169388
1.7723296880722046 0.3628401458263397 -0.1582748293876648 84.0 5 -0.08619174361228943
3.0640249252319336 0.6267252564430237 0.6079174876213074 66.0 13 -0.08618943393230438
1.8120107650756836 0.3703058063983917 -0.09692620486021042 90.0 6 -0.08618713170289993
3.072139263153076 0.6272678971290588 0.7238925695419312 67.0 14 -0.08618482947349548
1.802530288696289 0.3680397570133209 -0.032112427055835724 100.0 7 -0.08618252724409103
3.064552068710327 0.6251616477966309 0.8380560874938965 76.0 15 -0.08618021756410599
2.970752000808716 0.6017075181007385 -0.8121742010116577 67.0 0 -0.08615948259830475
1.7737078666687012 0.3592536151409149 0.031588856130838394 83.0 8 -0.0861571803689003
2.97963809967041 0.6029660701751709 -0.7018473148345947 83.0 1 -0.08615487813949585
1.8206133842468262 0.3680916428565979 0.09734489023685455 88.0 9 -0.0861525759100914
2.984722852706909 0.6029106378555298 -0.5918895602226257 87.0 2 -0.08615026623010635
1.8182553052902222 0.3669552505016327 0.1622839868068695 79.0 10 -0.0861479640007019
1.7736845016479492 0.3579600751399994 -0.28658798336982727 100.0 3 -0.08614566177129745
3.039541006088257 0.612878143787384 0.3807198405265808 80.0 11 -0.086143359541893
1.774749517440796 0.3575303554534912 -0.22228971123695374 75.0 4 -0.08614104986190796
3.063607692718506 0.6166197061538696 0.49495869874954224 80.0 12 -0.08613874763250351
1.7794455289840698 0.3578292429447174 -0.15879777073860168 91.0 5 -0.08613644540309906
3.058387517929077 0.6150121092796326 0.6063910126686096 65.0 13 -0.08613414317369461
1.8014799356460571 0.36193394660949707 -0.09629816561937332 96.0 6 -0.08613183349370956
3.074202299118042 0.6170775294303894 0.7238925695419312 67.0 14 -0.08612953126430511
1.8096861839294434 0.3629246652126312 -0.03221714124083519 100.0 7 -0.08612722903490067
3.0705037117004395 0.6152202486991882 0.8390913605690002 76.0 15 -0.08612492680549622
2.98030948638916 0.5933623313903809 -0.8142447471618652 67.0 0 -0.08610419183969498
1.7847574949264526 0.35501015186309814 0.03176337853074074 90.0 8 -0.08610188215970993
2.9779019355773926 0.5918024778366089 -0.7009475231170654 83.0 1 -0.08609957993030548
1.810132622718811 0.3594017028808594 0.09671685099601746 86.0 9 -0.08609727770090103
2.988631248474121 0.5933924913406372 -0.5922711491584778 84.0 2 -0.08609497547149658
1.8272795677185059 0.36247387528419495 0.16298124194145203 81.0 10 -0.08609266579151154
1.7787984609603882 0.3525350093841553 -0.2872137129306793 100.0 3 -0.08609036356210709
3.04555606842041 0.6030377149581909 0.38120734691619873 76.0 11 -0.08608806133270264
1.7643024921417236 0.3490212559700012 -0.22082726657390594 73.0 4 -0.08608575910329819
3.069617509841919 0.6066871285438538 0.4955844581127167 80.0 12 -0.08608344942331314
1.7903951406478882 0.3538583219051361 -0.15966932475566864 82.0 5 -0.08608114719390869
3.0605154037475586 0.6043347120285034 0.6063910126686096 66.0 13 -0.08607884496450424
1.8066515922546387 0.35641610622406006 -0.09650751203298569 96.0 6 -0.08607654273509979
3.0667779445648193 0.6044577360153198 0.7216430306434631 71.0 14 -0.08607424050569534
1.8168280124664307 0.3577648997306824 -0.032321859151124954 100.0 7 -0.0860719308257103
3.0688416957855225 0.6037518382072449 0.8380560874938965 76.0 15 -0.08606962859630585
2.982362747192383 0.5829547047615051 -0.8142447471618652 67.0 0 -0.08604889363050461
1.7879483699798584 0.34916168451309204 0.031798284500837326 85.0 8 -0.08604659140110016
2.9761245250701904 0.580656886100769 -0.7000477313995361 83.0 1 -0.08604428172111511
1.8113762140274048 0.35308051109313965 0.09671685099601746 88.0 9 -0.08604197949171066
2.9810492992401123 0.5810777544975281 -0.5903630256652832 87.0 2 -0.08603967726230621
1.82657790184021 0.35571280121803284 0.1628069132566452 84.0 10 -0.08603737503290176
1.7780792713165283 0.34594595432281494 -0.2869008481502533 100.0 3 -0.08603506535291672
3.049591064453125 0.5927810072898865 0.3814510703086853 80.0 11 -0.08603276312351227
1.7616126537322998 0.34210407733917236 -0.2203397899866104 73.0 4 -0.08603046089410782
3.0620205402374268 0.5940879583358765 0.49402010440826416 82.0 12 -0.08602815866470337
1.7994428873062134 0.34912481904029846 -0.16036656498908997 99.0 5 -0.08602585643529892
3.0703160762786865 0.5951414108276367 0.6079174876213074 65.0 13 -0.08602354675531387
1.8039628267288208 0.3493484556674957 -0.09629816561937332 90.0 6 -0.08602124452590942
3.063129425048828 0.592639148235321 0.7202933430671692 68.0 14 -0.08601894229650497
1.8043222427368164 0.34876465797424316 -0.032077521085739136 100.0 7 -0.08601664006710052
3.0785181522369385 0.5945001840591431 0.840126633644104 74.0 15 -0.08601433038711548
2.976790189743042 0.5710854530334473 -0.8121742010116577 67.0 0 -0.08599359542131424
1.7891563177108765 0.3429188132286072 0.031798284500837326 93.0 8 -0.08599129319190979
2.9857890605926514 0.5717298984527588 -0.7018473148345947 81.0 1 -0.08598899096250534
1.8086743354797363 0.34600529074668884 0.09650751203298569 86.0 9 -0.0859866812825203
2.9830594062805176 0.5706690549850464 -0.5903630256652832 92.0 2 -0.08598437905311584
1.825851321220398 0.3489609956741333 0.16263261437416077 95.0 10 -0.0859820768237114
1.7831567525863647 0.34047767519950867 -0.28752657771110535 100.0 3 -0.08597977459430695
3.049691915512085 0.5817610025405884 0.38120734691619873 81.0 11 -0.0859774723649025
1.7588962316513062 0.33520910143852234 -0.21985231339931488 82.0 4 -0.08597516268491745
3.0621352195739746 0.5830255746841431 0.49370723962783813 77.0 12 -0.085972860455513
1.7810784578323364 0.3391144573688507 -0.15862344205379486 91.0 5 -0.08597055822610855
3.082017660140991 0.5862553715705872 0.6098255515098572 63.0 13 -0.0859682559967041
1.8051713705062866 0.3430488109588623 -0.09629816561937332 90.0 6 -0.08596594631671906
3.076667070388794 0.5841233134269714 0.7229927778244019 73.0 14 -0.0859636440873146
1.7996346950531006 0.34134674072265625 -0.03197281062602997 100.0 7 -0.08596134185791016
3.0729820728302 0.5823125243186951 0.8380560874938965 74.0 15 -0.0859590396285057
2.974968671798706 0.5599755048751831 -0.811138927936554 67.0 0 -0.08593829721212387
1.7903424501419067 0.33667096495628357 0.031798284500837326 97.0 8 -0.08593599498271942
2.9877665042877197 0.5613046884536743 -0.7018473148345947 86.0 1 -0.08593369275331497
1.8137969970703125 0.34042608737945557 0.09671685099601746 86.0 9 -0.08593139052391052
2.9888925552368164 0.5609762072563171 -0.5911262631416321 87.0 2 -0.08592908829450607
1.8113924264907837 0.3396475315093994 0.16123811900615692 92.0 10 -0.08592677861452103
1.7707430124282837 0.33170565962791443 -0.2853364944458008 97.0 3 -0.08592447638511658
3.0575575828552246 0.5722067356109619 0.38193854689598083 77.0 11 -0.08592217415571213
1.760055661201477 0.32906773686408997 -0.21985231339931488 82.0 4 -0.08591987192630768
3.068035364151001 0.5730592608451843 0.4943329691886902 80.0 12 -0.08591756224632263
1.7822513580322266 0.3328956365585327 -0.15862344205379486 84.0 5 -0.08591526001691818
3.0705361366271973 0.5729718208312988 0.6071542501449585 66.0 13 -0.08591295778751373
1.8102848529815674 0.3374779522418976 -0.09650751203298569 90.0 6 -0.08591065555810928
3.074855089187622 0.5726671814918518 0.7220929265022278 68.0 14 -0.08590834587812424
1.8067131042480469 0.3361596167087555 -0.032077521085739136 100.0 7 -0.08590604364871979
3.0673985481262207 0.5701707005500793 0.8359856009483337 76.0 15 -0.08590374141931534
2.976905107498169 0.549588143825531 -0.811138927936554 67.0 0 -0.0858830064535141
1.7836406230926514 0.32896900177001953 0.03165866807103157 94.0 8 -0.08588070422410965
2.982041597366333 0.549460232257843 -0.7000477313995361 83.0 1 -0.0858783945441246
1.8188444375991821 0.3351336717605591 0.09692620486021042 86.0 9 -0.08587609231472015
2.986971139907837 0.549828052520752 -0.5903630256652832 92.0 2 -0.0858737900853157
1.8204050064086914 0.334764301776886 0.16193535923957825 92.0 10 -0.08587148785591125
1.7621760368347168 0.3237374424934387 -0.28377217054367065 93.0 3 -0.08586917817592621
3.049773931503296 0.5597378015518188 0.3807198405265808 81.0 11 -0.08586687594652176
1.7709561586380005 0.3247123956680298 -0.2210710197687149 92.0 4 -0.08586457371711731
3.069918394088745 0.5628827214241028 0.4943329691886902 77.0 12 -0.08586227148771286
1.7853623628616333 0.3270309269428253 -0.15879777073860168 88.0 5 -0.08585996180772781
3.064793109893799 0.5608357787132263 0.6056278347969055 67.0 13 -0.08585765957832336
1.809486985206604 0.33079805970191956 -0.0964028462767601 100.0 6 -0.08585535734891891
3.08066987991333 0.5626298785209656 0.7229927778244019 67.0 14 -0.08585305511951447
1.7901135683059692 0.3269325792789459 -0.03176337853074074 100.0 7 -0.08585074543952942
3.0730738639831543 0.5606883764266968 0.8370208144187927 76.0 15 -0.08584844321012497
2.990211248397827 0.5412572026252747 -0.8142447471618652 67.0 0 -0.08582770824432373
1.7965279817581177 0.3251889646053314 0.031868092715740204 92.0 8 -0.08582540601491928
2.9761767387390137 0.538180410861969 -0.6982480883598328 86.0 1 -0.08582310378551483
1.8121412992477417 0.3273628354072571 0.09650751203298569 90.0 9 -0.08582079410552979
2.996600389480591 0.5407935976982117 -0.5918895602226257 92.0 2 -0.08581849187612534
1.833327293395996 0.3305284380912781 0.16298124194145203 90.0 10 -0.08581618964672089
1.7710158824920654 0.31929439306259155 -0.28502362966537476 100.0 3 -0.08581388741731644
3.0516130924224854 0.5496233701705933 0.3807198405265808 83.0 11 -0.08581157773733139
1.7739770412445068 0.3191889524459839 -0.22131474316120148 96.0 4 -0.08580927550792694
3.071864604949951 0.5521624088287354 0.4943329691886902 80.0 12 -0.08580697327852249
1.7884539365768433 0.3211493492126465 -0.15897206962108612 87.0 5 -0.08580467104911804
3.0743649005889893 0.5520579814910889 0.6071542501449585 66.0 13 -0.085802361369133
1.8066422939300537 0.324089914560318 -0.09619349241256714 100.0 6 -0.08580005913972855
3.0786819458007812 0.5517240166664124 0.7220929265022278 67.0 14 -0.0857977569103241
1.7912436723709106 0.3206823468208313 -0.03176337853074074 100.0 7 -0.08579545468091965
3.078815221786499 0.5506387948989868 0.8380560874938965 76.0 15 -0.0857931524515152
2.9919896125793457 0.5313389301300049 -0.8142447471618652 67.0 0 -0.08577241003513336
1.797652244567871 0.3189154863357544 0.031868092715740204 90.0 8 -0.08577010780572891
2.981874704360962 0.5284691452980042 -0.6991478800773621 86.0 1 -0.08576780557632446
1.8093396425247192 0.3203383982181549 0.09629816561937332 86.0 9 -0.08576550334692001
2.9906442165374756 0.5294849872589111 -0.5903630256652832 87.0 2 -0.08576319366693497
1.8304892778396606 0.3237525522708893 0.16263261437416077 92.0 10 -0.08576089143753052
1.7740648984909058 0.3134545087814331 -0.2853364944458008 90.0 3 -0.08575858920812607
3.059377908706665 0.5400022864341736 0.3814510703086853 80.0 11 -0.08575628697872162
1.7633508443832397 0.3109259605407715 -0.21985231339931488 96.0 4 -0.08575397729873657
3.0659918785095215 0.5400661826133728 0.4930815100669861 80.0 12 -0.08575167506933212
1.7934333086013794 0.31590843200683594 -0.15932069718837738 87.0 5 -0.08574937283992767
3.076273202896118 0.5413237810134888 0.6071542501449585 67.0 13 -0.08574707061052322
1.8097296953201294 0.3181268870830536 -0.09629816561937332 99.0 6 -0.08574476838111877
3.0709922313690186 0.5392894148826599 0.7198433876037598 71.0 14 -0.08574245870113373
1.7825042009353638 0.3127005100250244 -0.031588856130838394 100.0 7 -0.08574015647172928
3.0883302688598633 0.5412214398384094 0.840126633644104 74.0 15 -0.08573785424232483
2.986213207244873 0.5195663571357727 -0.8121742010116577 77.0 0 -0.08571711927652359
1.80269455909729 0.3133246600627899 0.03193790465593338 90.0 8 -0.08571480959653854
2.9913816452026367 0.5193899273872375 -0.7009475231170654 86.0 1 -0.0857125073671341
1.810446858406067 0.31402018666267395 0.09629816561937332 86.0 9 -0.08571020513772964
2.9905405044555664 0.5187062621116638 -0.5899814367294312 96.0 2 -0.0857079029083252
1.8276817798614502 0.3166819214820862 0.1622839868068695 90.0 10 -0.08570559322834015
1.7887731790542603 0.309617817401886 -0.28752657771110535 100.0 3 -0.0857032909989357
3.0632007122039795 0.5296571850776672 0.38169482350349426 87.0 11 -0.08570098876953125
1.7702935934066772 0.3057836592197418 -0.22058352828025818 99.0 4 -0.0856986865401268
3.0678582191467285 0.5293598175048828 0.4930815100669861 80.0 12 -0.08569638431072235
1.7847083806991577 0.3079519271850586 -0.15844914317131042 88.0 5 -0.0856940746307373
3.0820136070251465 0.5312483906745911 0.6079174876213074 66.0 13 -0.08569177240133286
1.8127974271774292 0.31214800477027893 -0.0964028462767601 93.0 6 -0.0856894701719284
3.0747768878936768 0.528895914554596 0.7202933430671692 68.0 14 -0.08568716794252396
1.777672529220581 0.3054600954055786 -0.03148414194583893 100.0 7 -0.08568485826253891
3.0825841426849365 0.5291326642036438 0.8380560874938965 76.0 15 -0.08568255603313446
2.982295036315918 0.508166491985321 -0.8106213212013245 75.0 0 -0.08566182106733322
1.7958921194076538 0.30568748712539673 0.031798284500837326 94.0 8 -0.08565951883792877
2.997018814086914 0.5095974206924438 -0.7018473148345947 86.0 1 -0.08565720915794373
1.8154163360595703 0.3086839020252228 0.09650751203298569 90.0 9 -0.08565490692853928
2.9962034225463867 0.5089222192764282 -0.59074467420578 96.0 2 -0.08565260469913483
1.8209189176559448 0.3089665174484253 0.16158674657344818 90.0 10 -0.08565030246973038
1.77036714553833 0.3000703752040863 -0.2843979001045227 100.0 3 -0.08564800024032593
3.065030574798584 0.518962025642395 0.38169482350349426 83.0 11 -0.08564569056034088
1.7733075618743896 0.29993289709091187 -0.22082726657390594 100.0 4 -0.08564338833093643
3.0676488876342773 0.5188546180725098 0.49276861548423767 82.0 12 -0.08564108610153198
1.7877370119094849 0.3020516633987427 -0.15862344205379486 82.0 5 -0.08563878387212753
3.0761055946350098 0.5191805958747864 0.6063910126686096 66.0 13 -0.08563647419214249
1.8158454895019531 0.30614984035491943 -0.09650751203298569 96.0 6 -0.08563417196273804
3.088134288787842 0.5201007723808289 0.7229927778244019 68.0 14 -0.08563186973333359
1.7806476354599 0.2998950481414795 -0.031519047915935516 97.0 7 -0.08562956750392914
3.0728914737701416 0.5169836282730103 0.8349502682685852 78.0 15 -0.08562725782394409
2.984050989151001 0.49775242805480957 -0.8106213212013245 75.0 0 -0.08560652285814285
1.792951226234436 0.29907190799713135 0.03172847628593445 94.0 8 -0.0856042206287384
2.9871585369110107 0.497736394405365 -0.6991478800773621 83.0 1 -0.08560191839933395
1.8223931789398193 0.30333006381988525 0.09682153165340424 92.0 9 -0.0855996161699295
2.9998984336853027 0.49878162145614624 -0.5911262631416321 92.0 2 -0.08559730648994446
1.8219863176345825 0.3026079535484314 0.16158674657344818 92.0 10 -0.08559500426054001
1.7694038152694702 0.29387468099594116 -0.2840850353240967 97.0 3 -0.08559270203113556
3.0549845695495605 0.5068463683128357 0.38023239374160767 81.0 11 -0.08559039980173111
1.7821260690689087 0.29534852504730225 -0.221802219748497 94.0 4 -0.08558809012174606
3.079185724258423 0.5097557306289673 0.4943329691886902 80.0 12 -0.08558578789234161
1.77895188331604 0.2941853702068329 -0.1577518880367279 85.0 5 -0.08558348566293716
3.077810287475586 0.5089776515960693 0.6063910126686096 65.0 13 -0.08558118343353271
1.8050274848937988 0.2981729805469513 -0.09587948024272919 96.0 6 -0.08557887375354767
3.0898420810699463 0.5098578929901123 0.7229927778244019 68.0 14 -0.08557657152414322
1.7974679470062256 0.2962806224822998 -0.031798284500837326 100.0 7 -0.08557426929473877
3.0784900188446045 0.5068809986114502 0.8359856009483337 78.0 15 -0.08557196706533432
2.99521803855896 0.48941245675086975 -0.8132094740867615 81.0 0 -0.08555123209953308
1.7939839363098145 0.2928127348423004 0.03172847628593445 92.0 8 -0.08554892241954803
2.9850311279296875 0.48667827248573303 -0.6982480883598328 86.0 1 -0.08554662019014359
1.8116130828857422 0.2950401306152344 0.09619349241256714 92.0 9 -0.08554431796073914
2.9976603984832764 0.488200306892395 -0.5903630256652832 92.0 2 -0.08554201573133469
1.830845832824707 0.2978453040122986 0.1622839868068695 92.0 10 -0.08553970605134964
1.7704187631607056 0.287696897983551 -0.2840850353240967 97.0 3 -0.08553740382194519
3.0508570671081543 0.49522438645362854 0.3795011639595032 80.0 11 -0.08553510159254074
1.7753078937530518 0.28785625100135803 -0.22082726657390594 94.0 4 -0.08553279936313629
3.080946445465088 0.49900490045547485 0.4943329691886902 77.0 12 -0.08553048968315125
1.7838512659072876 0.28892114758491516 -0.15810051560401917 88.0 5 -0.0855281874537468
3.0756924152374268 0.4976031482219696 0.6056278347969055 67.0 13 -0.08552588522434235
1.8021138906478882 0.2912326753139496 -0.09567013382911682 96.0 6 -0.0855235829949379
3.080059766769409 0.49720656871795654 0.7202933430671692 68.0 14 -0.08552127331495285
1.8044137954711914 0.29095903038978577 -0.03190299868583679 100.0 7 -0.0855189710855484
3.0840554237365723 0.4967455565929413 0.8370208144187927 76.0 15 -0.08551666885614395
2.9988152980804443 0.4792596995830536 -0.813727080821991 75.0 0 -0.08549593389034271
1.8107928037643433 0.28907015919685364 0.03200771287083626 88.0 8 -0.08549363166093826
2.9944097995758057 0.47748231887817383 -0.7000477313995361 86.0 1 -0.08549132198095322
1.8126318454742432 0.2887150049209595 0.09619349241256714 92.0 9 -0.08548901975154877
2.9974076747894287 0.4774254262447357 -0.5899814367294312 96.0 2 -0.08548671752214432
1.8279391527175903 0.2908260226249695 0.16193535923957825 95.0 10 -0.08548441529273987
1.7772650718688965 0.28244486451148987 -0.28502362966537476 100.0 3 -0.08548210561275482
3.058448553085327 0.48550617694854736 0.38023239374160767 83.0 11 -0.08547980338335037
1.7763018608093262 0.28165704011917114 -0.22082726657390594 90.0 4 -0.08547750115394592
3.0748655796051025 0.48701050877571106 0.4930815100669861 80.0 12 -0.08547519892454147
1.7887847423553467 0.2833154797554016 -0.15844914317131042 88.0 5 -0.08547288924455643
3.0851666927337646 0.48809167742729187 0.6071542501449585 66.0 13 -0.08547058701515198
1.8090378046035767 0.2858768701553345 -0.09598415344953537 100.0 6 -0.08546828478574753
3.0798518657684326 0.4861474335193634 0.7198433876037598 71.0 14 -0.08546598255634308
1.781714916229248 0.2809217572212219 -0.03148414194583893 100.0 7 -0.08546368032693863
3.0934033393859863 0.4871814548969269 0.8390913605690002 74.0 15 -0.08546137064695358
2.99092698097229 0.46729710698127747 -0.811138927936554 77.0 0 -0.08544063568115234
1.792033076286316 0.27966371178627014 0.03165866807103157 83.0 8 -0.0854383334517479
3.00761079788208 0.468829870223999 -0.702747106552124 86.0 1 -0.08543603122234344
1.8175758123397827 0.28300005197525024 0.0964028462767601 92.0 9 -0.0854337215423584
2.999056100845337 0.46695879101753235 -0.5899814367294312 96.0 2 -0.08543141931295395
1.8250057697296143 0.2838307023048401 0.16158674657344818 92.0 10 -0.0854291170835495
1.7840960025787354 0.27714937925338745 -0.28596222400665283 100.0 3 -0.08542681485414505
3.066009759902954 0.47573959827423096 0.38096359372138977 80.0 11 -0.08542450517416
1.7811977863311768 0.2760624885559082 -0.22131474316120148 88.0 4 -0.08542220294475555
3.0726423263549805 0.4756704568862915 0.49245578050613403 80.0 12 -0.0854199007153511
1.7838557958602905 0.27615565061569214 -0.15792620182037354 96.0 5 -0.08541759848594666
3.0907323360443115 0.4779186546802521 0.6079174876213074 66.0 13 -0.0854152962565422
1.8159462213516235 0.2804744839668274 -0.09629816561937332 96.0 6 -0.08541298657655716
3.0873076915740967 0.47628581523895264 0.7211931347846985 67.0 14 -0.08541068434715271
1.7767555713653564 0.2737865447998047 -0.03137942776083946 100.0 7 -0.08540838211774826
3.0874478816986084 0.4752041697502136 0.8370208144187927 74.0 15 -0.08540607988834381
2.984901189804077 0.4556870460510254 -0.8090683817863464 77.0 0 -0.08538533747196198
1.7811371088027954 0.27159833908081055 0.03144923597574234 85.0 8 -0.08538303524255753
3.011155605316162 0.45862114429473877 -0.7031970620155334 88.0 1 -0.08538073301315308
1.8126288652420044 0.27575215697288513 0.09608882665634155 90.0 9 -0.08537843078374863
3.004549503326416 0.4570770263671875 -0.59074467420578 96.0 2 -0.08537612855434418
1.8200759887695312 0.2765609622001648 0.1610638052225113 100.0 10 -0.08537381887435913
1.77919340133667 0.2700311839580536 -0.28502362966537476 100.0 3 -0.08537151664495468
3.085315704345703 0.4677112102508545 0.38315722346305847 81.0 11 -0.08536921441555023
1.7860759496688843 0.270438015460968 -0.221802219748497 88.0 4 -0.08536691218614578
3.0762369632720947 0.465238094329834 0.49276861548423767 82.0 12 -0.08536460250616074
1.7808690071105957 0.269331693649292 -0.15757757425308228 89.0 5 -0.08536230027675629
3.0807347297668457 0.4653668701648712 0.6056278347969055 66.0 13 -0.08535999804735184
1.8188890218734741 0.27443233132362366 -0.0964028462767601 100.0 6 -0.08535769581794739
3.087024688720703 0.46521642804145813 0.7207432389259338 66.0 14 -0.08535538613796234
1.791542410850525 0.2696658968925476 -0.031623758375644684 100.0 7 -0.08535308390855789
3.0852668285369873 0.4638502597808838 0.8359856009483337 76.0 15 -0.08535078167915344
2.9902946949005127 0.4458353519439697 -0.8101036548614502 77.0 0 -0.0853300467133522
1.7761409282684326 0.26449528336524963 0.031344521790742874 90.0 8 -0.08532774448394775
2.9992454051971436 0.44610118865966797 -0.7000477313995361 83.0 1 -0.08532543480396271
1.82148277759552 0.27059754729270935 0.09650751203298569 88.0 9 -0.08532313257455826
3.006126642227173 0.4465870261192322 -0.59074467420578 92.0 2 -0.08532083034515381
1.824972152709961 0.2707904279232025 0.16141243278980255 100.0 10 -0.08531852811574936
1.7723091840744019 0.2626601755619049 -0.28377217054367065 100.0 3 -0.08531621843576431
3.0633652210235596 0.45345115661621094 0.38023239374160767 83.0 11 -0.08531391620635986
1.7870091199874878 0.2642013132572174 -0.221802219748497 90.0 4 -0.08531161397695541
3.087613344192505 0.4559392035007477 0.4943329691886902 80.0 12 -0.08530931174755096
1.7857403755187988 0.26369526982307434 -0.15792620182037354 96.0 5 -0.08530700206756592
3.078455686569214 0.45403796434402466 0.6048645377159119 66.0 13 -0.08530469983816147
1.802052617073059 0.26546138525009155 -0.09546079486608505 96.0 6 -0.08530239760875702
3.09055757522583 0.45472073554992676 0.7211931347846985 67.0 14 -0.08530009537935257
1.7924727201461792 0.2634109556674957 -0.031623758375644684 100.0 7 -0.08529778569936752
3.0906901359558105 0.4536381661891937 0.8370208144187927 76.0 15 -0.08529548346996307
3.041537284851074 0.4426285922527313 -0.8235622644424438 60.0 0 -0.08527474850416183
1.7948633432388306 0.2608828544616699 0.03165866807103157 99.0 8 -0.08527244627475739
3.018141031265259 0.43814805150032043 -0.7040968537330627 68.0 1 -0.08527014404535294
1.8145097494125366 0.2630917727947235 0.09608882665634155 86.0 9 -0.08526783436536789
3.021267890930176 0.4380635917186737 -0.5934159755706787 79.0 2 -0.08526553213596344
1.8298497200012207 0.2649899125099182 0.1617610603570938 100.0 10 -0.08526322990655899
1.7771251201629639 0.2570379376411438 -0.2843979001045227 100.0 3 -0.08526092767715454
3.05707049369812 0.44162067770957947 0.3792574405670166 81.0 11 -0.0852586179971695
1.772202491760254 0.2556944489479065 -0.21985231339931488 94.0 4 -0.08525631576776505
3.089185953140259 0.44515931606292725 0.4943329691886902 80.0 12 -0.0852540135383606
1.794537901878357 0.25859734416007996 -0.15862344205379486 89.0 5 -0.08525171130895615
3.080021619796753 0.44328999519348145 0.6048645377159119 66.0 13 -0.0852494016289711
1.8069220781326294 0.2597372829914093 -0.09567013382911682 99.0 6 -0.08524709939956665
3.086339235305786 0.4430997371673584 0.7198433876037598 66.0 14 -0.0852447971701622
1.7973402738571167 0.2577205300331116 -0.03169357031583786 100.0 7 -0.08524249494075775
3.088430166244507 0.4422982633113861 0.8359856009483337 76.0 15 -0.0852401852607727
3.0947060585021973 0.4393410086631775 -0.8375384211540222 92.0 0 -0.08521945029497147
1.7977429628372192 0.25489625334739685 0.03169357031583786 100.0 8 -0.08521714806556702
3.0678892135620117 0.43444013595581055 -0.7153443694114685 78.0 1 -0.08521484583616257
1.8074620962142944 0.25595253705978394 0.09567013382911682 88.0 9 -0.08521254360675812
3.0869271755218506 0.43658801913261414 -0.6060094237327576 100.0 2 -0.08521023392677307
1.8347092866897583 0.25915777683258057 0.16210968792438507 100.0 10 -0.08520793169736862
1.78583562374115 0.2519363462924957 -0.2856493592262268 100.0 3 -0.08520562946796417
3.06449031829834 0.43177831172943115 0.3799886405467987 80.0 11 -0.08520332723855972
1.773040533065796 0.24981656670570374 -0.21985231339931488 94.0 4 -0.08520101755857468
3.0847768783569336 0.4340860843658447 0.4933943450450897 82.0 12 -0.08519871532917023
1.7954297065734863 0.2523311674594879 -0.15862344205379486 100.0 5 -0.08519641309976578
3.089326858520508 0.43362823128700256 0.6063910126686096 67.0 13 -0.08519411087036133
1.8078176975250244 0.25342875719070435 -0.09567013382911682 96.0 6 -0.08519180119037628
3.0858616828918457 0.4325912296772003 0.7193935513496399 67.0 14 -0.08518949896097183
1.7843225002288818 0.24981755018234253 -0.03144923597574234 97.0 7 -0.08518719673156738
3.1051855087280273 0.4341965317726135 0.840126633644104 74.0 15 -0.08518489450216293
3.075096845626831 0.42615827918052673 -0.8318444490432739 77.0 0 -0.0851641595363617
1.800559163093567 0.24920785427093506 0.03172847628593445 99.0 8 -0.08516184985637665
3.0847561359405518 0.4263995289802551 -0.7189435958862305 81.0 1 -0.0851595476269722
1.8122578859329224 0.2505047023296356 0.09587948024272919 88.0 9 -0.08515724539756775
3.086413621902466 0.42607972025871277 -0.6056278347969055 100.0 2 -0.0851549431681633
1.8276636600494385 0.2519841194152832 0.16141243278980255 100.0 10 -0.08515263348817825
1.7905750274658203 0.24655216932296753 -0.28627508878707886 100.0 3 -0.0851503312587738
3.0816378593444824 0.4237763583660126 0.38193854689598083 85.0 11 -0.08514802902936935
1.7777924537658691 0.24447596073150635 -0.2203397899866104 96.0 4 -0.0851457267999649
3.0920703411102295 0.42466115951538086 0.4943329691886902 87.0 12 -0.08514341711997986
1.788360834121704 0.24529331922531128 -0.15792620182037354 96.0 5 -0.08514111489057541
3.110198974609375 0.42604488134384155 0.610207200050354 73.0 13 -0.08513881266117096
1.8086481094360352 0.24743276834487915 -0.09567013382911682 99.0 6 -0.08513651043176651
3.0988636016845703 0.42394116520881653 0.7220929265022278 67.0 14 -0.08513420820236206
1.7831597328186035 0.24362795054912567 -0.03141433000564575 100.0 7 -0.08513189852237701
3.0912954807281494 0.4218066930770874 0.8359856009483337 74.0 15 -0.08512959629297256
3.0707499980926514 0.41518262028694153 -0.8302915096282959 73.0 0 -0.08510886132717133
1.7914671897888184 0.24189719557762146 0.031553950160741806 100.0 8 -0.08510655909776688
3.0842220783233643 0.41590648889541626 -0.7184937596321106 76.0 1 -0.08510424941778183
1.8131211996078491 0.24417757987976074 0.09587948024272919 88.0 9 -0.08510194718837738
3.0878095626831055 0.41584303975105286 -0.6056278347969055 96.0 2 -0.08509964495897293
1.8166415691375732 0.24432800710201263 0.16036656498908997 100.0 10 -0.08509734272956848
1.777678370475769 0.23877184092998505 -0.2840850353240967 100.0 3 -0.08509503304958344
3.5552191734313965 0.4768953025341034 0.44043582677841187 101.0 11 -0.08509273082017899
1.778635025024414 0.23826834559440613 -0.2203397899866104 96.0 4 -0.08509042859077454
