# .PCD v0.7 - Point Cloud Data file format
VERSION 0.7
FIELDS x y z intensity ring time
SIZE 4 4 4 4 4 4
TYPE F F F F F F
COUNT 1 1 1 1 1 1
WIDTH 539
HEIGHT 1
VIEWPOINT 0 0 0 1 0 0 0
POINTS 539
DATA ascii
0.7185725569725037 -2.2154853343963623 0.20377011597156525 10.0 10 -0.016295647248625755
0.7291086316108704 -2.24930739402771 -0.3745041489601135 100.0 3 -0.016293343156576157
0.7072173953056335 -2.183070659637451 0.28176194429397583 10.0 11 -0.016291040927171707
0.7300712466239929 -2.254960060119629 -0.29102399945259094 100.0 4 -0.01628873683512211
0.7102951407432556 -2.1951851844787598 0.3654309809207916 9.0 12 -0.01628643274307251
0.6980113983154297 -2.157222032546997 -0.1983664631843567 58.0 5 -0.01628412865102291
0.7128040194511414 -2.2042531967163086 0.45030924677848816 8.0 13 -0.016281824558973312
0.7118608355522156 -2.202648639678955 -0.12131475657224655 31.0 6 -0.016279520466923714
0.7097656726837158 -2.1974761486053467 0.5331340432167053 7.0 14 -0.016277216374874115
0.7064306139945984 -2.188457489013672 -0.040140535682439804 51.0 7 -0.016274912282824516
0.7093784809112549 -2.198901414871216 0.6190952062606812 8.0 15 -0.016272608190774918
0.4006160497665405 -1.2470248937606812 -0.3509586453437805 10.0 0 -0.01625187136232853
0.7023809552192688 -2.1876602172851562 0.040105629712343216 24.0 8 -0.01624956727027893
0.4858439564704895 -1.5141342878341675 -0.3671201467514038 7.0 1 -0.016247263178229332
0.7062512636184692 -2.2023565769195557 0.12121009081602097 14.0 9 -0.016244959086179733
0.5977064967155457 -1.8638732433319092 -0.38047316670417786 5.0 2 -0.016242656856775284
0.7047542333602905 -2.199007034301758 0.20202700793743134 11.0 10 -0.016240352764725685
0.7248678207397461 -2.2631261348724365 -0.37638136744499207 100.0 3 -0.016238048672676086
0.7026183605194092 -2.194979190826416 0.28298062086105347 9.0 11 -0.016235744580626488
0.7228003740310669 -2.259385824203491 -0.2912677526473999 100.0 4 -0.01623344048857689
0.7008234262466431 -2.1920065879821777 0.36449235677719116 8.0 12 -0.01623113639652729
0.6892635226249695 -2.1558499336242676 -0.19801783561706543 61.0 5 -0.01622883230447769
0.706300675868988 -2.210468053817749 0.45107248425483704 8.0 13 -0.016226528212428093
0.7035602331161499 -2.2032177448272705 -0.12121009081602097 33.0 6 -0.016224224120378494
0.7032756209373474 -2.203653335571289 0.5340338349342346 7.0 14 -0.016221920028328896
0.693926215171814 -2.175668716430664 -0.039861299097537994 49.0 7 -0.016219615936279297
0.6981782913208008 -2.1903207302093506 0.6159893274307251 8.0 15 -0.016217311844229698
0.39742952585220337 -1.2520982027053833 -0.3519938886165619 9.0 0 -0.01619657687842846
0.6911123991012573 -2.178662061691284 0.039896201342344284 24.0 8 -0.01619427278637886
0.4817334711551666 -1.5195362567901611 -0.3680199384689331 7.0 1 -0.016191968694329262
0.697352945804596 -2.2009999752044678 0.121000736951828 15.0 9 -0.016189664602279663
0.5923828482627869 -1.869691252708435 -0.38123640418052673 6.0 2 -0.016187360510230064
0.6970736384391785 -2.201453685760498 0.20202700793743134 11.0 10 -0.016185056418180466
0.7116000652313232 -2.248692750930786 -0.37356552481651306 100.0 3 -0.016182752326130867
0.6979452967643738 -2.2068817615509033 0.2841993272304535 10.0 11 -0.01618044823408127
0.7155073881149292 -2.2637877464294434 -0.29151150584220886 100.0 4 -0.01617814414203167
0.6937624216079712 -2.1963231563568115 0.3648051917552948 9.0 12 -0.01617584004998207
0.6799336075782776 -2.152543306350708 -0.19749490916728973 80.0 5 -0.016173535957932472
0.6962165832519531 -2.2054314613342285 0.44954603910446167 8.0 13 -0.016171231865882874
0.6970670819282532 -2.2094695568084717 -0.12141943722963333 33.0 6 -0.016168927773833275
0.6949931383132935 -2.2042365074157715 0.53358393907547 7.0 14 -0.016166623681783676
0.6887310743331909 -2.185706615447998 -0.04000091552734375 48.0 7 -0.016164319589734077
0.6882072687149048 -2.1853740215301514 0.6139188408851624 8.0 15 -0.01616201549768448
0.3965247571468353 -1.264538049697876 -0.35509976744651794 9.0 0 -0.01614128053188324
0.6829051971435547 -2.1791532039642334 0.039861299097537994 25.0 8 -0.01613897643983364
0.47293177247047424 -1.5100505352020264 -0.3653205335140228 7.0 1 -0.016136672347784042
0.6932455897331238 -2.214857339859009 0.1216287761926651 16.0 9 -0.016134368255734444
0.5893716216087341 -1.8829894065856934 -0.383526086807251 6.0 2 -0.016132064163684845
0.687005877494812 -2.1962673664093018 0.20132976770401 13.0 10 -0.016129760071635246
0.7013886570930481 -2.243621587753296 -0.37231406569480896 100.0 3 -0.016127455979585648
0.6837255954742432 -2.188462495803833 0.28151822090148926 10.0 11 -0.01612515188753605
0.7076011300086975 -2.2662715911865234 -0.29151150584220886 100.0 4 -0.01612284779548645
0.6890339255332947 -2.2081596851348877 0.3663695454597473 9.0 12 -0.01612054370343685
0.6702600121498108 -2.1493146419525146 -0.19697196781635284 65.0 5 -0.016118239611387253
0.6826688647270203 -2.189105987548828 0.4457298517227173 8.0 13 -0.016115935519337654
0.6869733929634094 -2.2042617797851562 -0.121000736951828 37.0 6 -0.016113631427288055
0.6878743171691895 -2.2085094451904297 0.5340338349342346 7.0 14 -0.016111327335238457
0.6793145537376404 -2.1823694705963135 -0.039896201342344284 56.0 7 -0.016109023243188858
0.6805746555328369 -2.187762975692749 0.6139188408851624 8.0 15 -0.01610671915113926
0.3930298388004303 -1.2696738243103027 -0.3561350107192993 9.0 0 -0.01608598418533802
0.6741119623184204 -2.1777031421661377 0.03979148715734482 27.0 8 -0.01608368009328842
0.46420222520828247 -1.5005221366882324 -0.36262112855911255 7.0 1 -0.016081376001238823
0.6802002787590027 -2.2000906467437744 0.12068671733140945 17.0 9 -0.016079071909189224
0.5778293609619141 -1.8701308965682983 -0.38047316670417786 6.0 2 -0.016076767817139626
0.6824784874916077 -2.2101926803588867 0.2023756206035614 12.0 10 -0.016074463725090027
0.6954905390739441 -2.2537271976470947 -0.37356552481651306 100.0 3 -0.016072159633040428
0.6737409830093384 -2.183248281478882 0.2805432379245758 10.0 11 -0.01606985554099083
0.6973459124565125 -2.2611398696899414 -0.2905365228652954 100.0 4 -0.01606755144894123
0.6807399988174438 -2.2086639404296875 0.3660567104816437 9.0 12 -0.016065247356891632
0.6650997400283813 -2.1592578887939453 -0.19766922295093536 66.0 5 -0.016062943264842033
0.6792618036270142 -2.20660400390625 0.4487827718257904 8.0 13 -0.016060639172792435
0.6730167269706726 -2.1876754760742188 -0.11995401978492737 37.0 6 -0.016058336943387985
0.679775059223175 -2.2110157012939453 0.5340338349342346 7.0 14 -0.016056032851338387
0.6758063435554504 -2.1981072425842285 -0.040140535682439804 64.0 7 -0.016053728759288788
0.675203263759613 -2.197511672973633 0.6159893274307251 8.0 15 -0.01605142466723919
0.39198416471481323 -1.2821226119995117 -0.3592408299446106 9.0 0 -0.0160306878387928
0.6690469980239868 -2.1897213459014893 0.03996601328253746 31.0 8 -0.016028383746743202
0.4592686593532562 -1.5040770769119263 -0.3630710244178772 7.0 1 -0.016026079654693604
0.6709660887718201 -2.1987483501434326 0.12047737836837769 19.0 9 -0.016023775562644005
0.5718708038330078 -1.8740142583847046 -0.3808547556400299 6.0 2 -0.016021471470594406
0.6735969185829163 -2.2087502479553223 0.20202700793743134 13.0 10 -0.016019167378544807
0.6887713670730591 -2.259920358657837 -0.3741912841796875 100.0 3 -0.01601686328649521
0.6686264276504517 -2.195197582244873 0.28176194429397583 10.0 11 -0.01601455919444561
0.6878975629806519 -2.2598824501037598 -0.29004907608032227 100.0 4 -0.01601225510239601
0.6714901328086853 -2.207364559173584 0.3654309809207916 9.0 12 -0.016009952872991562
0.6571812033653259 -2.1616811752319336 -0.19766922295093536 66.0 5 -0.016007648780941963
0.6738393306732178 -2.216475248336792 0.45030924677848816 8.0 13 -0.016005344688892365
0.6653764247894287 -2.1900112628936768 -0.11995401978492737 40.0 6 -0.016003040596842766
0.6686557531356812 -2.2021872997283936 0.5313344597816467 7.0 14 -0.016000736504793167
0.6648420691490173 -2.1910016536712646 -0.03996601328253746 66.0 7 -0.01599843241274357
0.6660234332084656 -2.1962742805480957 0.6149541139602661 8.0 15 -0.01599612832069397
0.38616636395454407 -1.2798516750335693 -0.3582055866718292 9.0 0 -0.01597539149224758
0.6602442860603333 -2.1882143020629883 0.039896201342344284 29.0 8 -0.015973087400197983
0.457953542470932 -1.5187314748764038 -0.3662203252315521 7.0 1 -0.015970783308148384
0.6644396185874939 -2.2049014568328857 0.12068671733140945 18.0 9 -0.015968479216098785
0.5616017580032349 -1.8648185729980469 -0.37856507301330566 6.0 2 -0.015966176986694336
0.6620516180992126 -2.1997568607330322 0.20098112523555756 14.0 10 -0.015963871031999588
0.6799143552780151 -2.26053786277771 -0.3738784193992615 100.0 3 -0.01596156880259514
0.6621031761169434 -2.2013204097747803 0.28224945068359375 10.0 11 -0.01595926471054554
0.6788622140884399 -2.258467674255371 -0.28956159949302673 100.0 4 -0.01595696061849594
0.6580981016159058 -2.1907765865325928 0.3623022735118866 9.0 12 -0.015954656526446342
0.6461941599845886 -2.1525120735168457 -0.19662334024906158 66.0 5 -0.015952352434396744
0.665710985660553 -2.2189300060272217 0.45030924677848816 8.0 13 -0.015950048342347145
0.6613603234291077 -2.205827236175537 -0.12068671733140945 44.0 6 -0.015947744250297546
0.6616986393928528 -2.2083566188812256 0.532234251499176 7.0 14 -0.015945440158247948
0.6566159725189209 -2.1913936138153076 -0.03993110731244087 72.0 7 -0.01594313606619835
0.6583526730537415 -2.1985857486724854 0.6149541139602661 8.0 15 -0.01594083197414875
0.3779469132423401 -1.2661826610565186 -0.3540644645690918 10.0 0 -0.015958309173583984
0.6499366760253906 -2.1787803173065186 0.03968677297234535 31.0 8 -0.015956005081534386
0.45206671953201294 -1.5164276361465454 -0.3653205335140228 7.0 1 -0.015953700989484787
0.6586499810218811 -2.2108066082000732 0.12089607119560242 20.0 9 -0.01595139689743519
0.5568608641624451 -1.870336890220642 -0.37932828068733215 6.0 2 -0.01594909280538559
0.654384970664978 -2.197892427444458 0.2006325125694275 13.0 10 -0.01594678871333599
0.6720777153968811 -2.258758783340454 -0.3732526898384094 100.0 3 -0.015944484621286392
0.6563159823417664 -2.2071950435638428 0.2827368974685669 10.0 11 -0.015942180529236794
0.6740254163742065 -2.268200635910034 -0.2905365228652954 100.0 4 -0.015939876437187195
0.6528995037078857 -2.1985137462615967 0.3632408678531647 9.0 12 -0.015937572345137596
0.6394285559654236 -2.154531717300415 -0.19662334024906158 65.0 5 -0.015935268253087997
0.6553873419761658 -2.209717035293579 0.44801953434944153 8.0 13 -0.015932966023683548
0.6555623412132263 -2.211724042892456 -0.12089607119560242 47.0 6 -0.01593066193163395
0.6529280543327332 -2.202836513519287 0.5304346084594727 7.0 14 -0.01592835783958435
0.6451845765113831 -2.1781067848205566 -0.039651867002248764 84.0 7 -0.015926053747534752
0.6481522917747498 -2.189528703689575 0.6118482351303101 8.0 15 -0.015923749655485153
0.3700289726257324 -1.25644052028656 -0.3509586453437805 15.0 0 -0.015903012827038765
0.6402528882026672 -2.1753928661346436 0.039582058787345886 35.0 8 -0.015900708734989166
0.4454059600830078 -1.51433527469635 -0.36442074179649353 7.0 1 -0.015898404642939568
0.6482897400856018 -2.205540895462036 0.12047737836837769 19.0 9 -0.01589610055088997
0.547788679599762 -1.864830732345581 -0.3778018355369568 6.0 2 -0.01589379645884037
0.646324872970581 -2.2002761363983154 0.2006325125694275 13.0 10 -0.01589149236679077
0.6626815795898438 -2.257416009902954 -0.3726269602775574 100.0 3 -0.015889188274741173
0.6448688507080078 -2.1981565952301025 0.2812744677066803 11.0 11 -0.015886886045336723
0.6679414510726929 -2.278275728225708 -0.29151150584220886 100.0 4 -0.015884581953287125
0.6492804288864136 -2.216057538986206 0.36574381589889526 9.0 12 -0.015882277861237526
0.6320873498916626 -2.1587729454040527 -0.1967976689338684 83.0 5 -0.015879973769187927
0.6461811661720276 -2.2083358764648438 0.44725629687309265 8.0 13 -0.01587766967713833
0.6440884470939636 -2.2026097774505615 -0.12026803940534592 48.0 6 -0.01587536558508873
0.6448501348495483 -2.205214738845825 0.5304346084594727 8.0 14 -0.01587306149303913
0.6400015950202942 -2.190053701400757 -0.03982638940215111 95.0 7 -0.015870757400989532
0.6422892212867737 -2.199307441711426 0.6139188408851624 8.0 15 -0.015868453308939934
0.36272650957107544 -1.2485125064849854 -0.3483704626560211 24.0 0 -0.015847716480493546
0.6311604976654053 -2.173884153366089 0.03951225057244301 38.0 8 -0.015845412388443947
0.44093865156173706 -1.5197007656097412 -0.3653205335140228 7.0 1 -0.015843108296394348
0.6378039121627808 -2.198199510574341 0.11995401978492737 21.0 9 -0.0158408060669899
0.5429160594940186 -1.872388243675232 -0.3789466917514801 7.0 2 -0.0158385019749403
0.641028881072998 -2.212198495864868 0.20150406658649445 15.0 10 -0.0158361978828907
0.6544032692909241 -2.2598297595977783 -0.3726269602775574 100.0 3 -0.015833893790841103
0.6334969401359558 -2.1890642642974854 0.2798120379447937 11.0 11 -0.015831589698791504
0.6551746129989624 -2.2654528617858887 -0.28956159949302673 100.0 4 -0.015829285606741905
0.6415409445762634 -2.218310594558716 0.36574381589889526 9.0 12 -0.015826981514692307
0.6245481967926025 -2.160966157913208 -0.1967976689338684 85.0 5 -0.015824677422642708
0.636289656162262 -2.203033685684204 0.4457298517227173 8.0 13 -0.01582237333059311
0.6330724358558655 -2.193331241607666 -0.11964000016450882 47.0 6 -0.01582006923854351
0.6378434896469116 -2.211308479309082 0.5313344597816467 7.0 14 -0.015817765146493912
0.6351242661476135 -2.2018814086914062 -0.04000091552734375 100.0 7 -0.015815461054444313
0.6346084475517273 -2.201535940170288 0.6139188408851624 8.0 15 -0.015813156962394714
0.3626261055469513 -1.2646273374557495 -0.35251155495643616 45.0 0 -0.015792421996593475
0.6261528134346008 -2.1836540699005127 0.039651867002248764 45.0 8 -0.015790117904543877
0.43374934792518616 -1.5136611461639404 -0.36352092027664185 7.0 1 -0.015787813812494278
0.6306769847869873 -2.2023327350616455 0.12005870044231415 22.0 9 -0.01578550972044468
0.5331361293792725 -1.8629469871520996 -0.37665697932243347 6.0 2 -0.01578320562839508
0.6322070360183716 -2.2105915546417236 0.20115545392036438 15.0 10 -0.015780901536345482
0.649078369140625 -2.2695841789245605 -0.3738784193992615 100.0 3 -0.015778597444295883
0.6284164190292358 -2.1987876892089844 0.28078699111938477 10.0 11 -0.015776293352246284
0.6454777717590332 -2.2599778175354004 -0.2885866165161133 100.0 4 -0.015773989260196686
0.6316249966621399 -2.2129385471343994 0.36449235677719116 9.0 12 -0.015771685168147087
0.6180940866470337 -2.1669650077819824 -0.19714628159999847 85.0 5 -0.01576938107609749
0.6322115063667297 -2.216459035873413 0.44801953434944153 8.0 13 -0.01576707698404789
0.6257957816123962 -2.195418357849121 -0.11964000016450882 47.0 6 -0.01576477289199829
0.6262359023094177 -2.198417901992798 0.5277352333068848 8.0 14 -0.015762468799948692
0.622506856918335 -2.1867752075195312 -0.03968677297234535 100.0 7 -0.015760164707899094
0.6269197463989258 -2.20373797416687 0.6139188408851624 8.0 15 -0.015757860615849495
0.3563252091407776 -1.2583876848220825 -0.35044100880622864 34.0 0 -0.015737125650048256
0.6190710663795471 -2.1877505779266357 0.03968677297234535 44.0 8 -0.015734821557998657
0.4295237958431244 -1.5189164876937866 -0.36442074179649353 8.0 1 -0.01573251746594906
0.6222833395004272 -2.200568199157715 0.11984935402870178 23.0 9 -0.01573021337389946
0.5280231833457947 -1.868483304977417 -0.37742021679878235 6.0 2 -0.01572790928184986
0.6237902045249939 -2.208841323852539 0.20080682635307312 15.0 10 -0.015725605189800262
0.6416888236999512 -2.2737374305725098 -0.3741912841796875 100.0 3 -0.015723301097750664
0.6239701509475708 -2.2124316692352295 0.28224945068359375 10.0 11 -0.015720997005701065
0.6397389769554138 -2.269860029220581 -0.28956159949302673 100.0 4 -0.015718692913651466
0.6210678219795227 -2.203612804412842 0.3626151382923126 10.0 12 -0.015716388821601868
0.6087444424629211 -2.16133189201355 -0.19644904136657715 91.0 5 -0.01571408472955227
0.6239388585090637 -2.2167627811431885 0.4476379454135895 8.0 13 -0.01571178063750267
0.6219140291213989 -2.211048126220703 -0.1203727126121521 49.0 6 -0.01570947654545307
0.6206676363945007 -2.208094596862793 0.5295348167419434 8.0 14 -0.015707172453403473
0.6152519583702087 -2.1888277530670166 -0.03968677297234535 100.0 7 -0.015704868361353874
0.6196084022521973 -2.2058045864105225 0.6139188408851624 8.0 15 -0.015702564269304276
0.354529470205307 -1.2689268589019775 -0.35302919149398804 21.0 0 -0.015681829303503036
0.6080460548400879 -2.176309823989868 0.03944243863224983 44.0 8 -0.015679525211453438
0.4255325198173523 -1.524086356163025 -0.3653205335140228 7.0 1 -0.01567722111940384
0.6167453527450562 -2.2104220390319824 0.12026803940534592 23.0 9 -0.01567491702735424
0.5183338522911072 -1.8589682579040527 -0.3751305043697357 6.0 2 -0.01567261293530464
0.6155412197113037 -2.209085702896118 0.2006325125694275 16.0 10 -0.015670308843255043
0.6293731927871704 -2.2587268352508545 -0.3713754713535309 100.0 3 -0.015668004751205444
0.6145004034042358 -2.206838846206665 0.2812744677066803 10.0 11 -0.015665700659155846
0.632208526134491 -2.2719688415527344 -0.28956159949302673 100.0 4 -0.015663396567106247
0.6149599552154541 -2.211477041244507 0.3635537326335907 10.0 12 -0.015661092475056648
0.5990621447563171 -2.1557650566101074 -0.19575178623199463 88.0 5 -0.01565878838300705
0.616584300994873 -2.2188196182250977 0.4476379454135895 8.0 13 -0.01565648429095745
0.6145786046981812 -2.2130982875823975 -0.1203727126121521 55.0 6 -0.015654182061553
0.6143840551376343 -2.2138960361480713 0.5304346084594727 8.0 14 -0.015651877969503403
0.6044011116027832 -2.1794002056121826 -0.03947734460234642 100.0 7 -0.015649573877453804
0.6077772974967957 -2.1930606365203857 0.6097776889801025 8.0 15 -0.015647269785404205
0.35186055302619934 -1.2756825685501099 -0.35458213090896606 18.0 0 -0.015626532956957817
0.5983203649520874 -2.170707941055298 0.03930281847715378 47.0 8 -0.015624228864908218
0.41503503918647766 -1.506774663925171 -0.36082151532173157 7.0 1 -0.01562192477285862
0.6084953546524048 -2.2106356620788574 0.12016335874795914 24.0 9 -0.015619621612131596
0.5090402960777283 -1.8493199348449707 -0.3728407919406891 6.0 2 -0.015617317520081997
0.6060987710952759 -2.2034308910369873 0.19993527233600616 18.0 10 -0.015615013428032398
0.6214848756790161 -2.2609097957611084 -0.3713754713535309 100.0 3 -0.0156127093359828
0.6041639447212219 -2.199399709701538 0.2800557613372803 11.0 11 -0.0156104052439332
0.6253249049186707 -2.2779905796051025 -0.29004907608032227 100.0 4 -0.015608101151883602
0.6103720664978027 -2.2250399589538574 0.3654309809207916 10.0 12 -0.015605797059834003
0.5915337204933167 -2.1578428745269775 -0.19575178623199463 91.0 5 -0.015603492967784405
0.6077975630760193 -2.2171714305877686 0.4468746781349182 8.0 13 -0.015601188875734806
0.6021003723144531 -2.1978933811187744 -0.11943066120147705 57.0 6 -0.015598884783685207
0.6076814532279968 -2.2197866439819336 0.5313344597816467 8.0 14 -0.015596581622958183
0.5978454351425171 -2.185354471206665 -0.0395471528172493 100.0 7 -0.015594277530908585
0.6011374592781067 -2.1988956928253174 0.6108129620552063 8.0 15 -0.015591973438858986
0.34870320558547974 -1.2825560569763184 -0.3561350107192993 17.0 0 -0.015571237541735172
0.5928379893302917 -2.1805014610290527 0.03944243863224983 51.0 8 -0.015568933449685574
0.4087509512901306 -1.5044530630111694 -0.3599216938018799 7.0 1 -0.015566629357635975
0.5997286438941956 -2.2088911533355713 0.11995401978492737 25.0 9 -0.015564325265586376
0.5043150782585144 -1.8587522506713867 -0.37436726689338684 5.0 2 -0.015562021173536777
0.6011466383934021 -2.217175006866455 0.20098112523555756 18.0 10 -0.015559717081487179
0.613710880279541 -2.2650792598724365 -0.3716883361339569 100.0 3 -0.01555741298943758
0.5964831709861755 -2.2014951705932617 0.2800557613372803 11.0 11 -0.015555108897387981
0.6142565608024597 -2.268662691116333 -0.2885866165161133 100.0 4 -0.015552804805338383
0.6005377173423767 -2.219529867172241 0.36417946219444275 10.0 12 -0.015550501644611359
0.5850380063056946 -2.163741111755371 -0.1961004137992859 88.0 5 -0.01554819755256176
0.598642885684967 -2.2155938148498535 0.44611144065856934 8.0 13 -0.015545893460512161
0.5924787521362305 -2.194300889968872 -0.1191166415810585 56.0 6 -0.015543589368462563
0.5964952111244202 -2.210710287094116 0.5286350250244141 8.0 14 -0.015541285276412964
0.5928177833557129 -2.1970810890197754 -0.03972167521715164 100.0 7 -0.015538981184363365
0.5924522876739502 -2.1972501277923584 0.6097776889801025 8.0 15 -0.015536677092313766
0.34422409534454346 -1.283765435218811 -0.3561350107192993 15.0 0 -0.015515941195189953
0.5848420262336731 -2.182659864425659 0.03944243863224983 54.0 8 -0.015513637103140354
0.4032338857650757 -1.5059411525726318 -0.3599216938018799 8.0 1 -0.015511333011090755
0.5899478197097778 -2.203254222869873 0.11953534185886383 28.0 9 -0.015509028919041157
0.49630144238471985 -1.8548115491867065 -0.3732224106788635 6.0 2 -0.015506724826991558
0.5939184427261353 -2.221184730529785 0.20115545392036438 19.0 10 -0.01550442073494196
0.6073300242424011 -2.272933006286621 -0.3726269602775574 100.0 3 -0.015502117574214935
0.5873860120773315 -2.1998307704925537 0.27956831455230713 12.0 11 -0.015499813482165337
0.6059375405311584 -2.2708985805511475 -0.2885866165161133 100.0 4 -0.015497509390115738
0.5902402997016907 -2.212069272994995 0.3626151382923126 10.0 12 -0.01549520529806614
0.5785079598426819 -2.1696205139160156 -0.19644904136657715 88.0 5 -0.01549290120601654
0.5909053087234497 -2.21766996383667 0.44611144065856934 8.0 13 -0.015490597113966942
0.5843018889427185 -2.194425582885742 -0.11901197582483292 61.0 6 -0.015488293021917343
0.5867705941200256 -2.2052457332611084 0.5268353819847107 8.0 14 -0.015485988929867744
0.5830883979797363 -2.1914072036743164 -0.039582058787345886 100.0 7 -0.015483684837818146
0.5877572298049927 -2.2105064392089844 0.6128835082054138 9.0 15 -0.015481380745768547
0.33727189898490906 -1.275620698928833 -0.3535468280315399 11.0 0 -0.015460644848644733
0.5786234140396118 -2.1884539127349854 0.03951225057244301 52.0 8 -0.015458340756595135
0.3892775774002075 -1.4733566045761108 -0.35182347893714905 9.0 1 -0.01545603759586811
0.5832733511924744 -2.2091622352600098 0.1197446808218956 28.0 9 -0.015453733503818512
0.4913264513015747 -1.8622276782989502 -0.37436726689338684 5.0 2 -0.015451429411768913
0.5815899968147278 -2.2059054374694824 0.1995866596698761 20.0 10 -0.015449125319719315
0.599789559841156 -2.2749342918395996 -0.3726269602775574 100.0 3 -0.015446821227669716
0.5816050171852112 -2.2075254917144775 0.28029951453208923 12.0 11 -0.015444517135620117
0.5994144082069397 -2.2767350673675537 -0.2890741229057312 100.0 4 -0.015442213043570518
0.5805047154426575 -2.206474781036377 0.3613636791706085 11.0 12 -0.01543990895152092
0.5689048767089844 -2.163918972015381 -0.19575178623199463 88.0 5 -0.015437604859471321
0.5855449438095093 -2.2272119522094727 0.4476379454135895 8.0 13 -0.015435300767421722
0.580574095249176 -2.2098731994628906 -0.1197446808218956 64.0 6 -0.015432997606694698
0.5804440975189209 -2.210949420928955 0.5277352333068848 8.0 14 -0.0154306935146451
0.5749281644821167 -2.191494941711426 -0.0395471528172493 100.0 7 -0.015428389422595501
0.5780779719352722 -2.2050700187683105 0.6108129620552063 8.0 15 -0.015426085330545902
0.33157700300216675 -1.271124243736267 -0.3519938886165619 10.0 0 -0.015405349433422089
0.5679540038108826 -2.1788504123687744 0.03930281847715378 51.0 8 -0.01540304534137249
0.3772551417350769 -1.4483050107955933 -0.3455248177051544 15.0 1 -0.015400741249322891
0.5765648484230042 -2.215050220489502 0.11995401978492737 27.0 9 -0.015398437157273293
0.48564305901527405 -1.8657464981079102 -0.3747488856315613 6.0 2 -0.015396133065223694
0.5737701058387756 -2.2058937549591064 0.19941233098506927 20.0 10 -0.015393828973174095
0.5893601775169373 -2.2674551010131836 -0.37106260657310486 100.0 3 -0.015391524881124496
0.5748940110206604 -2.2133846282958984 0.28078699111938477 13.0 11 -0.015389220789074898
0.5924608111381531 -2.28265643119812 -0.28956159949302673 100.0 4 -0.015386916697025299
0.5747827887535095 -2.2161359786987305 0.3626151382923126 11.0 12 -0.015384613536298275
0.5583484172821045 -2.1543197631835938 -0.19470593333244324 85.0 5 -0.015382309444248676
0.5748112797737122 -2.2178397178649902 0.44534823298454285 9.0 13 -0.015380005352199078
0.571354329586029 -2.206085681915283 -0.11943066120147705 61.0 6 -0.015377701260149479
0.5766292214393616 -2.2280547618865967 0.5313344597816467 8.0 14 -0.01537539716809988
0.5687766671180725 -2.199296474456787 -0.039651867002248764 100.0 7 -0.015373093076050282
0.5694108009338379 -2.203333616256714 0.6097776889801025 8.0 15 -0.015370788984000683
0.3269158601760864 -1.2723309993743896 -0.3519938886165619 8.0 0 -0.01535005308687687
0.5598474144935608 -2.178882598876953 0.03926791250705719 59.0 8 -0.01534774899482727
0.37025895714759827 -1.4420630931854248 -0.3437252342700958 23.0 1 -0.015345444902777672
0.5668436288833618 -2.2093112468719482 0.11953534185886383 26.0 9 -0.015343140810728073
0.47441330552101135 -1.8503984212875366 -0.37131431698799133 6.0 2 -0.015340836718678474
0.5661759376525879 -2.209911823272705 0.1995866596698761 20.0 10 -0.01533853355795145
0.579575777053833 -2.2638590335845947 -0.3701240122318268 100.0 3 -0.015336229465901852
0.563717782497406 -2.2019166946411133 0.2790808379650116 11.0 11 -0.015333925373852253
0.5854731798171997 -2.2885570526123047 -0.29004907608032227 100.0 4 -0.015331621281802654
0.569000780582428 -2.2257845401763916 0.3638666272163391 11.0 12 -0.015329317189753056
0.5537839531898499 -2.1678378582000732 -0.19575178623199463 94.0 5 -0.015327013097703457
0.5637653470039368 -2.2085180282592773 0.44305849075317383 8.0 13 -0.015324709005653858
0.5617837905883789 -2.202359199523926 -0.1191166415810585 64.0 6 -0.01532240491360426
0.5674962997436523 -2.2263762950897217 0.5304346084594727 8.0 14 -0.01532010082155466
0.5571449995040894 -2.1857666969299316 -0.039372626692056656 100.0 7 -0.015317797660827637
0.5636234879493713 -2.2127959728240967 0.6118482351303101 8.0 15 -0.015315493568778038
0.31962722539901733 -1.262228012084961 -0.3488880693912506 8.0 0 -0.01529475674033165
0.5523481965065002 -2.18285870552063 0.03930281847715378 55.0 8 -0.015292453579604626
0.3711812198162079 -1.4679709672927856 -0.34957394003868103 20.0 1 -0.015290149487555027
0.5572746396064758 -2.205564498901367 0.11922132223844528 28.0 9 -0.015287845395505428
0.467951238155365 -1.8520430326461792 -0.37131431698799133 5.0 2 -0.01528554130345583
0.5599213242530823 -2.217670202255249 0.2001095712184906 21.0 10 -0.015283237211406231
0.5731198191642761 -2.2716143131256104 -0.37106260657310486 100.0 3 -0.015280933119356632
0.5551584959030151 -2.202043056488037 0.27883708477020264 13.0 11 -0.015278629027307034
0.5722318887710571 -2.2714381217956543 -0.2876116633415222 100.0 4 -0.015276324935257435
0.5598745346069336 -2.2240238189697266 0.3632408678531647 11.0 12 -0.015274020843207836
0.5467000603675842 -2.171689987182617 -0.19592611491680145 95.0 5 -0.015271716751158237
0.5570105910301208 -2.214280605316162 0.4438217580318451 8.0 13 -0.015269413590431213
0.5536057353019714 -2.2023699283599854 -0.11901197582483292 68.0 6 -0.015267109498381615
0.555923342704773 -2.213223457336426 0.5268353819847107 8.0 14 -0.015264805406332016
0.5520508885383606 -2.1994311809539795 -0.039582058787345886 100.0 7 -0.015262501314282417
0.5587992072105408 -2.22796368598938 0.6154717206954956 9.0 15 -0.015260197222232819
0.3198961019515991 -1.2820799350738525 -0.3540644645690918 9.0 0 -0.015239461325109005
0.5452089309692383 -2.186713695526123 0.039337724447250366 61.0 8 -0.015237157233059406
0.37312161922454834 -1.497621774673462 -0.3563224971294403 14.0 1 -0.015234853141009808
0.5476423501968384 -2.19974422454834 0.11880263686180115 30.0 9 -0.015232549048960209
0.46148350834846497 -1.8536653518676758 -0.37131431698799133 6.0 2 -0.01523024495691061
0.5531390309333801 -2.223478078842163 0.20045821368694305 21.0 10 -0.015227940864861012
0.5647100210189819 -2.271683931350708 -0.37074974179267883 100.0 3 -0.015225636772811413
0.546989917755127 -2.202040910720825 0.2785933315753937 14.0 11 -0.015223333612084389
0.5642997622489929 -2.2734217643737793 -0.2876116633415222 100.0 4 -0.01522102952003479
0.5492541790008545 -2.214460849761963 0.3613636791706085 11.0 12 -0.015218725427985191
0.5391157865524292 -2.1735851764678955 -0.19592611491680145 93.0 5 -0.015216421335935593
0.5511670112609863 -2.2238335609436035 0.44534823298454285 9.0 13 -0.015214117243885994
0.5473552942276001 -2.2101049423217773 -0.11932599544525146 69.0 6 -0.015211813151836395
0.5463217496871948 -2.2075839042663574 0.5250357985496521 8.0 14 -0.015209509059786797
0.539089560508728 -2.1799912452697754 -0.03919810429215431 100.0 7 -0.015207204967737198
0.5487017631530762 -2.2205233573913574 0.6128835082054138 9.0 15 -0.0152049008756876
0.31172987818717957 -1.2681807279586792 -0.34992337226867676 8.0 0 -0.015184164978563786
0.5380497574806213 -2.1905453205108643 0.039372626692056656 64.0 8 -0.015181860886514187
0.3720720708370209 -1.5159482955932617 -0.3603716194629669 12.0 1 -0.015179556794464588
0.5427250266075134 -2.2112467288970947 0.11932599544525146 33.0 9 -0.015177253633737564
0.4512690305709839 -1.8400110006332397 -0.3682613670825958 6.0 2 -0.015174949541687965
0.5425289869308472 -2.2137844562530518 0.19941233098506927 21.0 10 -0.015172645449638367
0.5572469830513 -2.275560140609741 -0.37106260657310486 100.0 3 -0.015170341357588768
0.5402436852455139 -2.2077934741973877 0.2790808379650116 14.0 11 -0.01516803726553917
0.5563605427742004 -2.2753775119781494 -0.2876116633415222 100.0 4 -0.01516573317348957
0.5414387583732605 -2.214351177215576 0.3610507845878601 11.0 12 -0.015163429081439972
0.5310525298118591 -2.173518180847168 -0.19575178623199463 94.0 5 -0.015161124989390373
0.5452637672424316 -2.233372926712036 0.4468746781349182 9.0 13 -0.015158820897340775
0.5396369099617004 -2.2120022773742676 -0.11932599544525146 71.0 6 -0.015156516805291176
0.5413819551467896 -2.220837354660034 0.5277352333068848 8.0 14 -0.015154212713241577
0.5328048467636108 -2.185652494430542 -0.03926791250705719 100.0 7 -0.015151909552514553
0.5404207706451416 -2.2185769081115723 0.6118482351303101 8.0 15 -0.015149605460464954
0.3073011636734009 -1.269261121749878 -0.34992337226867676 9.0 0 -0.01512886956334114
0.5298415422439575 -2.1884305477142334 0.03930281847715378 67.0 8 -0.015126565471291542
0.36933404207229614 -1.526644229888916 -0.36262112855911255 9.0 1 -0.015124261379241943
0.5350032448768616 -2.213127613067627 0.11932599544525146 33.0 9 -0.015121957287192345
0.44392165541648865 -1.8377580642700195 -0.36749815940856934 6.0 2 -0.015119653195142746
0.5338628888130188 -2.2117912769317627 0.1990637183189392 23.0 10 -0.015117349103093147
0.5487707853317261 -2.273554801940918 -0.3704368472099304 100.0 3 -0.015115045011043549
0.5333849191665649 -2.2115020751953125 0.27932456135749817 15.0 11 -0.01511274091899395
0.5488120317459106 -2.277209997177124 -0.2876116633415222 100.0 4 -0.015110436826944351
0.5346308350563049 -2.2200684547424316 0.36167651414871216 11.0 12 -0.015108132734894753
0.5197332501411438 -2.1598618030548096 -0.19435729086399078 91.0 5 -0.015105829574167728
0.5341801047325134 -2.2198989391326904 0.4438217580318451 9.0 13 -0.01510352548211813
0.5313649773597717 -2.209895610809326 -0.1191166415810585 69.0 6 -0.015101221390068531
0.5349248647689819 -2.226409912109375 0.5286350250244141 8.0 14 -0.015098917298018932
0.525172233581543 -2.1874990463256836 -0.03926791250705719 100.0 7 -0.015096613205969334
0.5299691557884216 -2.2091784477233887 0.6087424159049988 8.0 15 -0.015094309113919735
0.30219367146492004 -1.2665148973464966 -0.3488880693912506 8.0 0 -0.015073573216795921
0.5212716460227966 -2.1863763332366943 0.0392330102622509 63.0 8 -0.015071269124746323
0.35948678851127625 -1.5089672803878784 -0.3581221103668213 8.0 1 -0.015068965032696724
0.5268120765686035 -2.213038444519043 0.11922132223844528 35.0 9 -0.015066660940647125
0.43691563606262207 -1.8354003429412842 -0.36673489212989807 5.0 2 -0.015064356848597527
0.5283697843551636 -2.2213027477264404 0.19976095855236053 23.0 10 -0.015062052756547928
0.5394611954689026 -2.269690990447998 -0.36949828267097473 100.0 3 -0.015059749595820904
0.5252031683921814 -2.2114195823669434 0.2790808379650116 14.0 11 -0.015057445503771305
0.5417762994766235 -2.2829747200012207 -0.28809913992881775 100.0 4 -0.015055141411721706
0.5287014245986938 -2.229609489440918 0.36292800307273865 12.0 12 -0.015052837319672108
0.5140281319618225 -2.1694176197052 -0.1950545459985733 94.0 5 -0.015050533227622509
0.52733314037323 -2.2255704402923584 0.44458499550819397 9.0 13 -0.01504822913557291
0.5236477255821228 -2.2117369174957275 -0.1191166415810585 71.0 6 -0.015045925043523312
0.5280474424362183 -2.2320563793182373 0.5295348167419434 8.0 14 -0.015043620951473713
0.5179932117462158 -2.191265344619751 -0.03930281847715378 100.0 7 -0.015041316859424114
0.5258071422576904 -2.22605562210083 0.6128835082054138 8.0 15 -0.015039012767374516
0.29931551218032837 -1.2751370668411255 -0.3509586453437805 9.0 0 -0.015018276870250702
0.5118086338043213 -2.1803953647613525 0.039093390107154846 67.0 8 -0.015015972778201103
0.3533274531364441 -1.5064183473587036 -0.3572222888469696 7.0 1 -0.015013668686151505
0.517716646194458 -2.2090301513671875 0.11890730261802673 38.0 9 -0.01501136552542448
0.43242377042770386 -1.84654700756073 -0.36864298582077026 6.0 2 -0.015009061433374882
0.519316554069519 -2.2193443775177 0.19941233098506927 23.0 10 -0.015006757341325283
0.5315883755683899 -2.273576498031616 -0.36981111764907837 100.0 3 -0.015004453249275684
0.515673041343689 -2.205507278442383 0.27810585498809814 14.0 11 -0.015002149157226086
0.5329009890556335 -2.2809858322143555 -0.2876116633415222 100.0 4 -0.014999845065176487
0.5209150910377502 -2.2314417362213135 0.36292800307273865 11.0 12 -0.014997540973126888
0.5078103542327881 -2.1770198345184326 -0.1955774873495102 100.0 5 -0.01499523688107729
0.516498863697052 -2.2160162925720215 0.44229528307914734 9.0 13 -0.014992932789027691
0.5119135975837708 -2.1980795860290527 -0.11827926337718964 80.0 6 -0.014990629628300667
0.5163292288780212 -2.218792676925659 0.5259355902671814 8.0 14 -0.014988325536251068
0.512607216835022 -2.2027981281280518 -0.03947734460234642 100.0 7 -0.01498602144420147
0.5154086351394653 -2.216587781906128 0.6097776889801025 9.0 15 -0.01498371735215187
0.2957324981689453 -1.2799384593963623 -0.3519938886165619 9.0 0 -0.014962981455028057
0.5074122548103333 -2.1978440284729004 0.039372626692056656 69.0 8 -0.014960677362978458
0.34517550468444824 -1.4963099956512451 -0.3545228838920593 7.0 1 -0.01495837327092886
0.5078222751617432 -2.2031280994415283 0.1184886172413826 40.0 9 -0.014956069178879261
0.41891998052597046 -1.8174357414245605 -0.36253711581230164 6.0 2 -0.014953765086829662
0.5129081606864929 -2.22696852684021 0.19993527233600616 25.0 10 -0.014951460994780064
0.524091899394989 -2.277343511581421 -0.3701240122318268 100.0 3 -0.014949156902730465
0.5080308318138123 -2.209317445755005 0.2783496081829071 16.0 11 -0.014946852810680866
0.522758960723877 -2.2751848697662354 -0.28663671016693115 100.0 4 -0.014944549649953842
0.51096510887146 -2.2256345748901367 0.36167651414871216 12.0 12 -0.014942245557904243
0.5002080202102661 -2.178779363632202 -0.1955774873495102 98.0 5 -0.014939941465854645
0.5096379518508911 -2.221632957458496 0.44305849075317383 9.0 13 -0.014937637373805046
0.5082539916038513 -2.217374086380005 -0.11922132223844528 73.0 6 -0.014935333281755447
0.5094510912895203 -2.2243804931640625 0.5268353819847107 9.0 14 -0.014933029189705849
0.5009613037109375 -2.189067840576172 -0.03919810429215431 100.0 7 -0.01493072509765625
0.5094341039657593 -2.2278783321380615 0.6123659014701843 9.0 15 -0.014928421005606651
0.2878362834453583 -1.2658929824829102 -0.34785282611846924 9.0 0 -0.014907685108482838
0.4997374713420868 -2.199601888656616 0.039372626692056656 71.0 8 -0.014905381016433239
0.3425385355949402 -1.5089081525802612 -0.3572222888469696 7.0 1 -0.01490307692438364
0.5023377537727356 -2.2146260738372803 0.11901197582483292 41.0 9 -0.014900772832334042
0.41170477867126465 -1.8150579929351807 -0.36177387833595276 6.0 2 -0.014898469671607018
0.5033700466156006 -2.2209725379943848 0.19923801720142365 25.0 10 -0.014896165579557419
0.5165754556655884 -2.281085252761841 -0.3704368472099304 100.0 3 -0.01489386148750782
0.499439537525177 -2.207205057144165 0.2778621315956116 16.0 11 -0.014891557395458221
0.5165652632713318 -2.284740924835205 -0.2876116633415222 100.0 4 -0.014889253303408623
0.501451849937439 -2.2196972370147705 0.36042505502700806 12.0 12 -0.014886949211359024
0.4899652302265167 -2.168851375579834 -0.1945316195487976 100.0 5 -0.014884645119309425
0.5044738054275513 -2.2348885536193848 0.44534823298454285 9.0 13 -0.014882341027259827
0.5009499192237854 -2.221083402633667 -0.11932599544525146 80.0 6 -0.014880036935210228
0.5008267760276794 -2.2223432064056396 0.5259355902671814 8.0 14 -0.01487773284316063
0.49112075567245483 -2.18104887008667 -0.03902358189225197 100.0 7 -0.01487542875111103
0.4986855089664459 -2.216449737548828 0.6087424159049988 9.0 15 -0.014873124659061432
0.2817286550998688 -1.2593488693237305 -0.34578225016593933 9.0 0 -0.014852389693260193
0.4903111755847931 -2.1935269832611084 0.0392330102622509 69.0 8 -0.014850085601210594
0.3381190598011017 -1.513898491859436 -0.3581221103668213 7.0 1 -0.014847781509160995
0.4971679747104645 -2.2260260581970215 0.11953534185886383 43.0 9 -0.014845477417111397
0.4019458591938019 -1.8011549711227417 -0.35872092843055725 8.0 2 -0.014843173325061798
0.49561402201652527 -2.2227160930633545 0.19923801720142365 26.0 10 -0.0148408692330122
0.5068917870521545 -2.2751624584198 -0.3691853880882263 100.0 3 -0.0148385651409626
0.493888795375824 -2.218623161315918 0.2790808379650116 17.0 11 -0.014836261048913002
0.5085865259170532 -2.2865302562713623 -0.2876116633415222 100.0 4 -0.014833956956863403
0.49451714754104614 -2.223276138305664 0.3607378900051117 12.0 12 -0.014831652864813805
0.48152703046798706 -2.166658639907837 -0.19418299198150635 100.0 5 -0.014829348772764206
0.4924137592315674 -2.217470169067383 0.44153204560279846 9.0 13 -0.014827044680714607
0.49276140332221985 -2.2208683490753174 -0.11922132223844528 75.0 6 -0.014824741519987583
0.4955970048904419 -2.2354931831359863 0.5286350250244141 8.0 14 -0.014822437427937984
0.48475098609924316 -2.186569929122925 -0.039093390107154846 100.0 7 -0.014820133335888386
0.4888261556625366 -2.2067744731903076 0.6056365966796875 8.0 15 -0.014817829243838787
0.2789916694164276 -1.267871618270874 -0.34785282611846924 9.0 0 -0.014797093346714973
0.4826049208641052 -2.193187713623047 0.03919810429215431 71.0 8 -0.014794789254665375
0.3305860757827759 -1.5035916566848755 -0.3554226756095886 7.0 1 -0.014792485162615776
0.48810896277427673 -2.221895456314087 0.11922132223844528 43.0 9 -0.014790181070566177
0.3994443714618683 -1.819805383682251 -0.3621554970741272 10.0 2 -0.014787876978516579
0.4861452281475067 -2.2166481018066406 0.19854077696800232 25.0 10 -0.01478557288646698
0.4968051314353943 -2.2652535438537598 -0.3673081696033478 81.0 3 -0.014783268794417381
0.48780345916748047 -2.2260656356811523 0.2798120379447937 15.0 11 -0.014780964702367783
0.501001238822937 -2.2882041931152344 -0.2876116633415222 100.0 4 -0.014778661541640759
0.4884423017501831 -2.232707977294922 0.36198940873146057 12.0 12 -0.01477635744959116
0.474811851978302 -2.1722190380096436 -0.1945316195487976 98.0 5 -0.014774053357541561
0.4842188358306885 -2.21525502204895 0.4407688081264496 9.0 13 -0.014771749265491962
0.4836893379688263 -2.2146852016448975 -0.11880263686180115 85.0 6 -0.014769445173442364
0.48735034465789795 -2.233316421508789 0.5277352333068848 8.0 14 -0.014767141081392765
0.47881942987442017 -2.1960642337799072 -0.0392330102622509 100.0 7 -0.014764836989343166
0.4827648997306824 -2.216017723083496 0.607707142829895 9.0 15 -0.014762532897293568
0.27560344338417053 -1.2725658416748047 -0.3488880693912506 9.0 0 -0.014741797000169754
0.4749462604522705 -2.194859027862549 0.03919810429215431 76.0 8 -0.014739492908120155
0.3245120644569397 -1.5009269714355469 -0.3545228838920593 7.0 1 -0.014737188816070557
0.4790500998497009 -2.215693235397339 0.11880263686180115 45.0 9 -0.014734884724020958
0.39672380685806274 -1.8364719152450562 -0.3652084171772003 9.0 2 -0.014732581563293934
0.4800528883934021 -2.224090814590454 0.1990637183189392 28.0 10 -0.014730277471244335
0.4838976562023163 -2.243802309036255 -0.3635537326335907 35.0 3 -0.014727973379194736
0.47668492794036865 -2.212230920791626 0.2778621315956116 15.0 11 -0.014725669287145138
0.49217548966407776 -2.286057710647583 -0.2871242165565491 100.0 4 -0.014723365195095539
0.4814514219760895 -2.2362465858459473 0.3623022735118866 13.0 12 -0.01472106110304594
0.4684438109397888 -2.1776773929595947 -0.19488023221492767 100.0 5 -0.014718757010996342
0.4785461127758026 -2.226529121398926 0.4426769018173218 10.0 13 -0.014716452918946743
0.4730204641819 -2.202690839767456 -0.11806992441415787 76.0 6 -0.014714148826897144
0.47628071904182434 -2.2197611331939697 0.5241360068321228 8.0 14 -0.01471184566617012
0.47111475467681885 -2.1956844329833984 -0.03919810429215431 100.0 7 -0.014709541574120522
0.47500866651535034 -2.2157177925109863 0.6071895360946655 9.0 15 -0.014707237482070923
0.271964430809021 -1.277299165725708 -0.34992337226867676 9.0 0 -0.014686500653624535
0.4676654040813446 -2.1964218616485596 0.03919810429215431 81.0 8 -0.01468419749289751
0.3203439712524414 -1.5058069229125977 -0.3554226756095886 7.0 1 -0.014681893400847912
0.4708974063396454 -2.2153985500335693 0.11869796365499496 47.0 9 -0.014679589308798313
0.3886796534061432 -1.830163836479187 -0.36368197202682495 7.0 2 -0.014677285216748714
0.47352731227874756 -2.231599807739258 0.1995866596698761 29.0 10 -0.014674981124699116
0.47768455743789673 -2.2511918544769287 -0.36449235677719116 45.0 3 -0.014672677032649517
0.4705812633037567 -2.2196249961853027 0.2785933315753937 18.0 11 -0.014670372940599918
0.4845918118953705 -2.28767728805542 -0.2871242165565491 100.0 4 -0.01466806884855032
0.4728246331214905 -2.2340481281280518 0.36167651414871216 13.0 12 -0.014665765687823296
0.4608396589756012 -2.1792991161346436 -0.19488023221492767 100.0 5 -0.014663461595773697
0.4731908142566681 -2.2377073764801025 0.44458499550819397 9.0 13 -0.014661157503724098
0.4653005301952362 -2.2022933959960938 -0.11796525865793228 86.0 6 -0.0146588534116745
0.46891701221466064 -2.2213282585144043 0.5241360068321228 8.0 14 -0.0146565493196249
0.4609716236591339 -2.1855759620666504 -0.03898867964744568 100.0 7 -0.014654245227575302
0.47125518321990967 -2.2362654209136963 0.6123659014701843 9.0 15 -0.014651941135525703
0.2667126953601837 -1.274458885192871 -0.3488880693912506 9.0 0 -0.01463937759399414
0.4596119523048401 -2.1981210708618164 0.03919810429215431 79.0 8 -0.014637073501944542
0.31641677021980286 -1.514601230621338 -0.3572222888469696 7.0 1 -0.014634769409894943
0.46195846796035767 -2.2131993770599365 0.1184886172413826 48.0 9 -0.014632465317845345
0.3786785304546356 -1.8142130374908447 -0.360247403383255 6.0 2 -0.014630161225795746
0.4632938504219055 -2.221536636352539 0.19854077696800232 31.0 10 -0.014627857133746147
0.4702361226081848 -2.2567949295043945 -0.3651180863380432 56.0 3 -0.014625553973019123
0.4624429941177368 -2.22133469581604 0.2785933315753937 19.0 11 -0.014623249880969524
0.4753952622413635 -2.285550832748413 -0.28663671016693115 100.0 4 -0.014620945788919926
0.4630255103111267 -2.22802996635437 0.36042505502700806 15.0 12 -0.014618641696870327
0.45241910219192505 -2.1769931316375732 -0.1945316195487976 100.0 5 -0.014616337604820728
0.4657842814922333 -2.2432713508605957 0.44534823298454285 10.0 13 -0.01461403351277113
0.4572255611419678 -2.203984022140503 -0.11796525865793228 88.0 6 -0.014611729420721531
0.4615635275840759 -2.2268483638763428 0.5250357985496521 8.0 14 -0.014609425328671932
0.4521469175815582 -2.1833343505859375 -0.038918863981962204 100.0 7 -0.014607121236622334
0.45992428064346313 -2.2228434085845947 0.6082248091697693 9.0 15 -0.014604817144572735
0.2599276602268219 -1.264028549194336 -0.34578225016593933 9.0 0 -0.014584081247448921
0.4487167298793793 -2.184041976928711 0.038918863981962204 89.0 8 -0.014581777155399323
0.31191158294677734 -1.5195144414901733 -0.3581221103668213 7.0 1 -0.014579473994672298
0.4554338753223419 -2.220668077468872 0.11880263686180115 50.0 9 -0.0145771699026227
0.3743155300617218 -1.8251398801803589 -0.3621554970741272 6.0 2 -0.014574865810573101
0.45473673939704895 -2.2192366123199463 0.19819216430187225 29.0 10 -0.014572561718523502
0.4579971432685852 -2.2371349334716797 -0.36167651414871216 49.0 3 -0.014570257626473904
0.4538906216621399 -2.219045877456665 0.27810585498809814 18.0 11 -0.014567953534424305
0.4674144983291626 -2.287196397781372 -0.28663671016693115 100.0 4 -0.014565649442374706
0.45603546500205994 -2.233503580093384 0.3610507845878601 15.0 12 -0.014563345350325108
0.44322261214256287 -2.170750856399536 -0.19383437931537628 100.0 5 -0.014561041258275509
0.4544191360473633 -2.2275710105895996 0.4419136643409729 10.0 13 -0.01455873716622591
0.45232173800468445 -2.2192656993865967 -0.11869796365499496 100.0 6 -0.014556434005498886
0.4526209533214569 -2.22271728515625 0.5236860513687134 9.0 14 -0.014554129913449287
0.445320188999176 -2.1888184547424316 -0.03898867964744568 100.0 7 -0.014551825821399689
0.44908395409584045 -2.2092902660369873 0.6040836572647095 9.0 15 -0.01454952172935009
0.2539837658405304 -1.2573537826538086 -0.3437117040157318 9.0 0 -0.014528785832226276
0.44029924273490906 -2.1816744804382324 0.038849055767059326 86.0 8 -0.014526481740176678
0.30275365710258484 -1.5014909505844116 -0.35362306237220764 7.0 1 -0.014524177648127079
0.4496515989303589 -2.2320339679718018 0.11932599544525146 53.0 9 -0.01452187355607748
0.36871767044067383 -1.830284595489502 -0.3629187345504761 6.0 2 -0.014519569464027882
0.4469875991344452 -2.2208104133605957 0.19819216430187225 32.0 10 -0.014517265371978283
0.45330098271369934 -2.2542128562927246 -0.36417946219444275 71.0 3 -0.014514961279928684
0.44535985589027405 -2.216724395751953 0.2776183784008026 17.0 11 -0.014512657187879086
0.46099022030830383 -2.2965993881225586 -0.2876116633415222 100.0 4 -0.014510354027152061
0.4501785933971405 -2.2447659969329834 0.3626151382923126 15.0 12 -0.014508049935102463
0.4364263117313385 -2.176191568374634 -0.19418299198150635 100.0 5 -0.014505745843052864
0.4450981020927429 -2.2214434146881104 0.44038718938827515 10.0 13 -0.014503441751003265
0.4426117539405823 -2.2110390663146973 -0.11817460507154465 100.0 6 -0.014501137658953667
0.4471527636051178 -2.2357490062713623 0.526385486125946 9.0 14 -0.014498833566904068
0.4376772940158844 -2.1903598308563232 -0.03898867964744568 100.0 7 -0.01449652947485447
0.44288182258605957 -2.2184219360351562 0.606154203414917 9.0 15 -0.01449422538280487
