# .PCD v0.7 - Point Cloud Data file format
VERSION 0.7
FIELDS x y z intensity ring time
SIZE 4 4 4 4 4 4
TYPE F F F F F F
COUNT 1 1 1 1 1 1
WIDTH 548
HEIGHT 1
VIEWPOINT 0 0 0 1 0 0 0
POINTS 548
DATA ascii
1.821291446685791 -2.112966537475586 0.048692215234041214 86.0 8 -0.0747639611363411
1.8382598161697388 -2.1334056854248047 0.14758741855621338 79.0 9 -0.0747593492269516
1.4145265817642212 -1.6422182321548462 -0.421306312084198 5.0 2 -0.07475704699754715
1.8395349979400635 -2.1363930702209473 0.24665075540542603 85.0 10 -0.0747547447681427
1.8234577178955078 -2.118468999862671 -0.4427095949649811 111.0 3 -0.07475243508815765
1.8320547342300415 -2.1292083263397217 0.3448902666568756 79.0 11 -0.0747501328587532
1.8277995586395264 -2.1250128746032715 -0.3441590666770935 80.0 4 -0.07474783062934875
1.838175892829895 -2.1370766162872314 0.44646400213241577 94.0 12 -0.0747455283999443
1.8250534534454346 -2.1225695610046387 -0.24490763247013092 75.0 5 -0.07474322617053986
1.836391568183899 -2.1365103721618652 0.5476218461990356 81.0 13 -0.07474091649055481
1.8300727605819702 -2.129910469055176 -0.14716872572898865 94.0 6 -0.07473861426115036
1.843660593032837 -2.146482467651367 0.6532579064369202 92.0 14 -0.07473631203174591
1.8319330215454102 -2.1328284740448 -0.04907616600394249 91.0 7 -0.07473400980234146
1.8247942924499512 -2.125267744064331 0.7505752444267273 88.0 15 -0.07473170012235641
0.9523746967315674 -1.112332820892334 -0.39236968755722046 6.0 0 -0.07471096515655518
1.8168754577636719 -2.122032642364502 0.04876202344894409 84.0 8 -0.07470866292715073
1.1518453359603882 -1.3457813262939453 -0.4089610278606415 1.0 1 -0.07470636069774628
1.8230109214782715 -2.1307036876678467 0.14695937931537628 79.0 9 -0.07470405846834183
1.4113376140594482 -1.650129795074463 -0.4220695197582245 6.0 2 -0.07470174878835678
1.829477071762085 -2.139772653579712 0.24630212783813477 81.0 10 -0.07469944655895233
1.8177063465118408 -2.1260054111480713 -0.4430224299430847 107.0 3 -0.07469714432954788
1.8146659135818481 -2.123199701309204 0.3429403603076935 83.0 11 -0.07469484210014343
1.8104268312454224 -2.118988275527954 -0.342209130525589 76.0 4 -0.07469253242015839
1.828139066696167 -2.1404759883880615 0.4458382725715637 94.0 12 -0.07469023019075394
1.8176332712173462 -2.128927230834961 -0.24490763247013092 77.0 5 -0.07468792796134949
1.821648120880127 -2.133629560470581 0.545332133769989 85.0 13 -0.07468562573194504
1.8178132772445679 -2.1298909187316895 -0.14675003290176392 96.0 6 -0.07468331605195999
1.8213545083999634 -2.1347944736480713 0.6478590965270996 90.0 14 -0.07468101382255554
1.8205841779708862 -2.134645938873291 -0.04897145554423332 88.0 7 -0.07467871159315109
1.8136045932769775 -2.127214193344116 0.7490223050117493 86.0 15 -0.07467640936374664
0.9461777806282043 -1.112541675567627 -0.3913344144821167 6.0 0 -0.0746556743979454
1.8042761087417603 -2.122267484664917 0.04862240329384804 86.0 8 -0.07465336471796036
1.1408308744430542 -1.3423691987991333 -0.40671154856681824 2.0 1 -0.07465106248855591
1.8030014038085938 -2.121518135070801 0.14591266214847565 76.0 9 -0.07464876025915146
1.403315544128418 -1.6518083810806274 -0.421306312084198 6.0 2 -0.07464645802974701
1.819791555404663 -2.1427900791168213 0.2459534853696823 79.0 10 -0.07464414834976196
1.8051602840423584 -2.126314163208008 -0.4417709708213806 107.0 3 -0.07464184612035751
1.8072435855865479 -2.129521131515503 0.3429403603076935 85.0 11 -0.07463954389095306
1.795314073562622 -2.116212844848633 -0.3407467305660248 78.0 4 -0.07463724166154861
1.8082517385482788 -2.131463050842285 0.4427095949649811 91.0 12 -0.07463493198156357
1.8105634450912476 -2.1349432468414307 -0.24490763247013092 83.0 5 -0.07463262975215912
1.814189076423645 -2.1399753093719482 0.545332133769989 85.0 13 -0.07463032752275467
1.8090763092041016 -2.1346993446350098 -0.14664535224437714 100.0 6 -0.07462802529335022
1.8063336610794067 -2.1322176456451416 0.6451596617698669 96.0 14 -0.07462571561336517
1.8044471740722656 -2.129990816116333 -0.048727117478847504 91.0 7 -0.07462341338396072
1.8102859258651733 -2.137639284133911 0.7505752444267273 91.0 15 -0.07462111115455627
0.9397956728935242 -1.1128857135772705 -0.39029911160469055 7.0 0 -0.07460037618875504
1.7998089790344238 -2.1312949657440186 0.048692215234041214 84.0 8 -0.07459807395935059
1.1426584720611572 -1.353590488433838 -0.4089610278606415 5.0 1 -0.07459576427936554
1.7994489669799805 -2.132378339767456 0.1462266743183136 81.0 9 -0.07459346204996109
1.3899457454681396 -1.6476929187774658 -0.419016569852829 5.0 2 -0.07459115982055664
1.8020256757736206 -2.136944532394409 0.24455901980400085 79.0 10 -0.07458885759115219
1.7980992794036865 -2.1322884559631348 -0.4417709708213806 107.0 3 -0.07458654791116714
1.800171971321106 -2.135502338409424 0.3429403603076935 83.0 11 -0.0745842456817627
1.7908449172973633 -2.125190258026123 -0.3412342071533203 78.0 4 -0.07458194345235825
1.7982553243637085 -2.1347405910491943 0.44208386540412903 91.0 12 -0.0745796412229538
1.787699818611145 -2.1229615211486816 -0.24281588196754456 77.0 5 -0.07457733154296875
1.8121411800384521 -2.151986598968506 0.5468586087226868 83.0 13 -0.0745750293135643
1.7981289625167847 -2.1361031532287598 -0.14633135497570038 96.0 6 -0.07457272708415985
1.799252986907959 -2.1381959915161133 0.6451596617698669 90.0 14 -0.0745704248547554
1.7879903316497803 -2.1255645751953125 -0.04848278686404228 88.0 7 -0.07456812262535095
1.7928667068481445 -2.1321165561676025 0.7464341521263123 88.0 15 -0.0745658129453659
0.9309402704238892 -1.1102381944656372 -0.3882285952568054 6.0 0 -0.0745391845703125
1.7791396379470825 -2.1225521564483643 0.04834316670894623 86.0 8 -0.07453688234090805
1.1426959037780762 -1.3637441396713257 -0.41076064109802246 6.0 1 -0.0745345801115036
1.7877739667892456 -2.134366035461426 0.14591266214847565 79.0 9 -0.07453227043151855
1.381664514541626 -1.6495248079299927 -0.4182533621788025 5.0 2 -0.0745299682021141
1.7919973134994507 -2.1401665210723877 0.2442103773355484 79.0 10 -0.07452766597270966
1.7826646566390991 -2.1297757625579834 -0.4398937523365021 107.0 3 -0.0745253637433052
1.7897850275039673 -2.139040946960449 0.34245288372039795 85.0 11 -0.07452305406332016
1.7779490947723389 -2.1256494522094727 -0.34025922417640686 80.0 4 -0.07452075183391571
1.7891520261764526 -2.139801502227783 0.4417709708213806 84.0 12 -0.07451844960451126
1.7802784442901611 -2.1291890144348145 -0.24281588196754456 75.0 5 -0.07451614737510681
1.7966870069503784 -2.14957594871521 0.5445688962936401 83.0 13 -0.07451383769512177
1.7902876138687134 -2.142679214477539 -0.14633135497570038 96.0 6 -0.07451153546571732
1.7889057397842407 -2.141784906387329 0.6442598700523376 92.0 14 -0.07450923323631287
1.777624487876892 -2.1290335655212402 -0.048412974923849106 88.0 7 -0.07450693100690842
1.7738988399505615 -2.1253254413604736 0.7417754530906677 84.0 15 -0.07450462132692337
0.9270591735839844 -1.113481044769287 -0.3882285952568054 6.0 0 -0.07448388636112213
1.764044165611267 -2.1195273399353027 0.048133738338947296 86.0 8 -0.07448158413171768
1.1304503679275513 -1.3587363958358765 -0.4080612361431122 6.0 1 -0.07447928190231323
1.7828670740127563 -2.1436643600463867 0.14612199366092682 76.0 9 -0.07447697967290878
1.393473505973816 -1.6754695177078247 -0.42359596490859985 6.0 2 -0.07447466999292374
1.7794206142425537 -2.140280246734619 0.24351313710212708 85.0 10 -0.07447236776351929
1.7676438093185425 -2.1268703937530518 -0.4380165636539459 100.0 3 -0.07447006553411484
1.770890474319458 -2.131533622741699 0.34025922417640686 87.0 11 -0.07446776330471039
1.7730551958084106 -2.134896755218506 -0.3407467305660248 80.0 4 -0.07446545362472534
1.7867188453674316 -2.152113199234009 0.4430224299430847 100.0 12 -0.07446315139532089
1.7651994228363037 -2.126192808151245 -0.24177002906799316 75.0 5 -0.07446084916591644
1.7753809690475464 -2.139216184616089 0.5403710603713989 75.0 13 -0.074458546936512
1.7751458883285522 -2.139692544937134 -0.14570331573486328 99.0 6 -0.07445623725652695
1.7789305448532104 -2.1450164318084717 0.6433600783348083 94.0 14 -0.0744539350271225
1.7663531303405762 -2.1306073665618896 -0.04830826073884964 91.0 7 -0.07445163279771805
1.7640039920806885 -2.1285297870635986 0.740740180015564 88.0 15 -0.0744493305683136
0.9280902743339539 -1.1226660013198853 -0.39029911160469055 7.0 0 -0.07442859560251236
1.7566349506378174 -2.1256721019744873 0.048133738338947296 86.0 8 -0.07442628592252731
1.1182538270950317 -1.3536595106124878 -0.4053618311882019 5.0 1 -0.07442398369312286
1.7639275789260864 -2.136014699935913 0.14517995715141296 81.0 9 -0.07442168146371841
1.3776155710220337 -1.668213129043579 -0.42054301500320435 5.0 2 -0.07441937923431396
1.7719388008117676 -2.1464786529541016 0.24351313710212708 81.0 10 -0.07441706955432892
1.7589519023895264 -2.1315040588378906 -0.4377036690711975 111.0 3 -0.07441476732492447
1.758386492729187 -2.1315767765045166 0.3392842710018158 87.0 11 -0.07441246509552002
1.7554885149002075 -2.1288206577301025 -0.33879682421684265 80.0 4 -0.07441016286611557
1.7729132175445557 -2.1507155895233154 0.4414581060409546 94.0 12 -0.07440785318613052
1.7552320957183838 -2.1292667388916016 -0.2414214164018631 75.0 5 -0.07440555095672607
1.770400047302246 -2.148430585861206 0.5411343574523926 76.0 13 -0.07440324872732162
1.7600467205047607 -2.1366264820098877 -0.14507527649402618 92.0 6 -0.07440094649791718
1.7590445280075073 -2.13616943359375 0.6388610601425171 92.0 14 -0.07439864426851273
1.7652597427368164 -2.144479751586914 -0.04848278686404228 95.0 7 -0.07439633458852768
1.7565633058547974 -2.134674310684204 0.740740180015564 86.0 15 -0.07439403235912323
0.9241657853126526 -1.1258989572525024 -0.39029911160469055 7.0 0 -0.07437329739332199
1.7517412900924683 -2.1348824501037598 0.048203546553850174 89.0 8 -0.07437099516391754
1.1135218143463135 -1.3575547933578491 -0.4053618311882019 6.0 1 -0.0743686854839325
1.7488625049591064 -2.13289213180542 0.14455191791057587 84.0 9 -0.07436638325452805
1.3705393075942993 -1.6714935302734375 -0.4201614260673523 6.0 2 -0.0743640810251236
1.7619094848632812 -2.149569272994995 0.243164524435997 83.0 10 -0.07436177879571915
1.7489967346191406 -2.1345748901367188 -0.43707793951034546 104.0 3 -0.0743594691157341
1.7521928548812866 -2.139237403869629 0.33952799439430237 100.0 11 -0.07435716688632965
1.7430164813995361 -2.1287918090820312 -0.3378218412399292 85.0 4 -0.0743548646569252
1.7578879594802856 -2.147719621658325 0.43958091735839844 88.0 12 -0.07435256242752075
1.7452647686004639 -2.1322970390319824 -0.24107277393341064 80.0 5 -0.0743502601981163
1.7591601610183716 -2.1500391960144043 0.5399894714355469 81.0 13 -0.07434795051813126
1.755106806755066 -2.1458489894866943 -0.14528462290763855 94.0 6 -0.0743456482887268
1.745409607887268 -2.134753465652466 0.6366115212440491 87.0 14 -0.07434334605932236
1.7438429594039917 -2.133596658706665 -0.04809883236885071 91.0 7 -0.07434104382991791
1.749101161956787 -2.1407928466796875 0.740740180015564 88.0 15 -0.07433873414993286
0.9202300310134888 -1.1291178464889526 -0.39029911160469055 6.0 0 -0.07431799918413162
1.7392263412475586 -2.1347832679748535 0.04806393012404442 89.0 8 -0.07431569695472717
1.1186211109161377 -1.3735218048095703 -0.4089610278606415 6.0 1 -0.07431339472532272
1.7414066791534424 -2.138983726501465 0.14455191791057587 84.0 9 -0.07431108504533768
1.3584989309310913 -1.6686550378799438 -0.4182533621788025 6.0 2 -0.07430878281593323
1.7493646144866943 -2.1495249271392822 0.2424672693014145 83.0 10 -0.07430648058652878
1.7402883768081665 -2.1391348838806152 -0.43676507472991943 100.0 3 -0.07430417835712433
1.7472200393676758 -2.148421049118042 0.3400155007839203 91.0 11 -0.07430187612771988
1.7330706119537354 -2.1317825317382812 -0.33733436465263367 85.0 4 -0.07429956644773483
1.742905616760254 -2.1446447372436523 0.4377036690711975 88.0 12 -0.07429726421833038
1.7327852249145508 -2.1321914196014404 -0.24037553369998932 80.0 5 -0.07429496198892593
1.7504063844680786 -2.1546428203582764 0.5396078824996948 78.0 13 -0.07429265975952148
1.7450875043869019 -2.148861885070801 -0.14507527649402618 99.0 6 -0.07429035007953644
1.7367191314697266 -2.139319896697998 0.6361616253852844 90.0 14 -0.07428804785013199
1.7338643074035645 -2.1365654468536377 -0.04802902415394783 84.0 7 -0.07428574562072754
1.7294470071792603 -2.131882667541504 0.7355638146400452 82.0 15 -0.07428344339132309
0.9138525724411011 -1.1293197870254517 -0.3892638683319092 6.0 0 -0.07426270097494125
1.7267332077026367 -2.13462233543396 0.047924306243658066 89.0 8 -0.0742603987455368
1.1113693714141846 -1.3743873834609985 -0.4080612361431122 6.0 1 -0.07425809651613235
1.7339295148849487 -2.1450493335723877 0.14455191791057587 81.0 9 -0.0742557942867279
1.3427923917770386 -1.6611723899841309 -0.415200412273407 5.0 2 -0.07425349205732346
1.734337568283081 -2.146320104598999 0.2414214164018631 85.0 10 -0.07425118237733841
1.7253631353378296 -2.135976552963257 -0.4348878860473633 107.0 3 -0.07424888014793396
1.7322274446487427 -2.14523983001709 0.3385530710220337 99.0 11 -0.07424657791852951
1.7281123399734497 -2.1409082412719727 -0.3378218412399292 85.0 4 -0.07424427568912506
1.7391301393508911 -2.155327558517456 0.438642293214798 100.0 12 -0.07424196600914001
1.7203272581100464 -2.1320250034332275 -0.239678293466568 83.0 5 -0.07423966377973557
1.7367116212844849 -2.1530990600585938 0.5376997590065002 85.0 13 -0.07423736155033112
1.735068678855896 -2.1518306732177734 -0.144865944981575 99.0 6 -0.07423505932092667
1.7267951965332031 -2.1423346996307373 0.6352618336677551 90.0 14 -0.07423274964094162
1.7213772535324097 -2.13637638092041 -0.047889403998851776 84.0 7 -0.07423044741153717
1.717147707939148 -2.1318883895874023 0.7334932088851929 84.0 15 -0.07422814518213272
0.9123249650001526 -1.135514736175537 -0.39029911160469055 7.0 0 -0.07420741021633148
1.7117583751678467 -2.131282329559326 0.04771488159894943 89.0 8 -0.07420510798692703
1.104124903678894 -1.3752192258834839 -0.4071614444255829 6.0 1 -0.07420279830694199
1.723931074142456 -2.1479735374450684 0.1443425863981247 81.0 9 -0.07420049607753754
1.3394430875778198 -1.6689115762710571 -0.41596361994743347 5.0 2 -0.07419819384813309
1.721847653388977 -2.1461448669433594 0.24072414636611938 87.0 10 -0.07419589161872864
1.7080096006393433 -2.1296579837799072 -0.4323849081993103 100.0 3 -0.07419358193874359
1.7123115062713623 -2.1357858180999756 0.33611568808555603 95.0 11 -0.07419127970933914
1.7169042825698853 -2.142280340194702 -0.3370906114578247 91.0 4 -0.07418897747993469
1.7254204750061035 -2.153676986694336 0.43707793951034546 94.0 12 -0.07418667525053024
1.7103829383850098 -2.1349070072174072 -0.23932965099811554 83.0 5 -0.0741843655705452
1.723049283027649 -2.1514861583709717 0.5357916951179504 78.0 13 -0.07418206334114075
1.7225539684295654 -2.151637554168701 -0.14444725215435028 96.0 6 -0.0741797611117363
1.7217415571212769 -2.1513922214508057 0.6361616253852844 94.0 14 -0.07417745888233185
1.7176569700241089 -2.1470565795898438 -0.04799411818385124 88.0 7 -0.0741751492023468
1.7072824239730835 -2.1348519325256348 0.7324579358100891 86.0 15 -0.07417284697294235
0.9083557724952698 -1.1386924982070923 -0.39029911160469055 7.0 0 -0.07415211200714111
1.7018146514892578 -2.1341171264648438 0.047645069658756256 91.0 8 -0.07414980977773666
1.0920294523239136 -1.369922161102295 -0.4044620394706726 6.0 1 -0.07414750754833221
1.7089546918869019 -2.144606113433838 0.1437145471572876 87.0 9 -0.07414519786834717
1.3385035991668701 -1.6797187328338623 -0.4174901247024536 5.0 2 -0.07414289563894272
1.716828465461731 -2.1552586555480957 0.24107277393341064 85.0 10 -0.07414059340953827
1.7030264139175415 -2.138697862625122 -0.43301063776016235 100.0 3 -0.07413829118013382
1.7023731470108032 -2.138643741607666 0.3356282114982605 93.0 11 -0.07413598150014877
1.7032357454299927 -2.140493869781494 -0.33587193489074707 88.0 4 -0.07413367927074432
1.7203518152236938 -2.162778377532959 0.4377036690711975 88.0 12 -0.07413137704133987
1.7004398107528687 -2.1377458572387695 -0.23898103833198547 83.0 5 -0.07412907481193542
1.7143067121505737 -2.1559510231018066 0.5354101061820984 83.0 13 -0.07412676513195038
1.7100615501403809 -2.1513831615448 -0.14402855932712555 100.0 6 -0.07412446290254593
1.7069474458694458 -2.1482350826263428 0.6334622502326965 92.0 14 -0.07412216067314148
1.7113957405090332 -2.154604911804199 -0.04802902415394783 84.0 7 -0.07411985844373703
1.7022225856781006 -2.143824338912964 0.7334932088851929 84.0 15 -0.07411755621433258
0.9067742824554443 -1.1448850631713867 -0.3913344144821167 7.0 0 -0.07409681379795074
1.6943548917770386 -2.140044689178467 0.047645069658756256 91.0 8 -0.0740945115685463
1.092078447341919 -1.379837989807129 -0.4062616229057312 6.0 1 -0.07409220933914185
1.6940228939056396 -2.141160726547241 0.1430865228176117 90.0 9 -0.0740899071097374
1.3301957845687866 -1.6813011169433594 -0.41672685742378235 5.0 2 -0.07408759742975235
1.7068227529525757 -2.1581132411956787 0.24072414636611938 85.0 10 -0.0740852952003479
1.6906499862670898 -2.1384310722351074 -0.43175917863845825 100.0 3 -0.07408299297094345
1.69243586063385 -2.141458034515381 0.33514073491096497 93.0 11 -0.074080690741539
1.6859091520309448 -2.133965015411377 -0.33392205834388733 88.0 4 -0.07407838106155396
1.698100209236145 -2.15016770362854 0.4339492619037628 86.0 12 -0.0740760788321495
1.6929672956466675 -2.1436684131622314 -0.23898103833198547 83.0 5 -0.07407377660274506
1.706770658493042 -2.161921977996826 0.5354101061820984 85.0 13 -0.0740714743733406
1.7037787437438965 -2.158906936645508 -0.14413323998451233 100.0 6 -0.07406917214393616
1.6897825002670288 -2.1419405937194824 0.6298630237579346 94.0 14 -0.07406686246395111
1.6939581632614136 -2.1480040550231934 -0.04774978384375572 91.0 7 -0.07406456023454666
1.6923366785049438 -2.146718978881836 0.7324579358100891 86.0 15 -0.07406225800514221
0.8884426355361938 -1.1298205852508545 -0.38512274622917175 6.0 0 -0.07404152303934097
1.686874508857727 -2.1459460258483887 0.047645069658756256 89.0 8 -0.07403921335935593
1.0848472118377686 -1.3805769681930542 -0.4053618311882019 6.0 1 -0.07403691112995148
1.686538577079773 -2.1470608711242676 0.1430865228176117 84.0 9 -0.07403460890054703
1.324318766593933 -1.6859341859817505 -0.41672685742378235 6.0 2 -0.07403230667114258
1.693126916885376 -2.1562230587005615 0.23985259234905243 90.0 10 -0.07402999699115753
1.6843949556350708 -2.145873546600342 -0.4320720434188843 104.0 3 -0.07402769476175308
1.6874014139175415 -2.1504762172698975 0.3356282114982605 95.0 11 -0.07402539253234863
1.6809002161026 -2.142961025238037 -0.3344095051288605 85.0 4 -0.07402309030294418
1.6844899654388428 -2.1483094692230225 0.4323849081993103 88.0 12 -0.07402078807353973
1.6805568933486938 -2.143293619155884 -0.23828379809856415 88.0 5 -0.07401847839355469
1.6992135047912598 -2.1678667068481445 0.5354101061820984 83.0 13 -0.07401617616415024
1.6900734901428223 -2.156980514526367 -0.143609881401062 99.0 6 -0.07401387393474579
1.6846987009048462 -2.1508941650390625 0.6307628154754639 92.0 14 -0.07401157170534134
1.6778203248977661 -2.142882823944092 -0.0475054495036602 88.0 7 -0.07400926202535629
1.6753076314926147 -2.1404428482055664 0.7283168435096741 86.0 15 -0.07400695979595184
0.8844934105873108 -1.1329149007797241 -0.38512274622917175 6.0 0 -0.0739862248301506
1.6670703887939453 -2.136057138442993 0.04729602113366127 91.0 8 -0.07398392260074615
1.0848162174224854 -1.3905011415481567 -0.4071614444255829 5.0 1 -0.07398161292076111
1.6765769720077515 -2.149784803390503 0.14287716150283813 87.0 9 -0.07397931069135666
1.3220478296279907 -1.6951911449432373 -0.41787171363830566 6.0 2 -0.07397700846195221
1.680690050125122 -2.155834674835205 0.2391553521156311 90.0 10 -0.07397470623254776
1.6696085929870605 -2.1423914432525635 -0.4301948547363281 104.0 3 -0.07397240400314331
1.6774446964263916 -2.1532211303710938 0.33514073491096497 99.0 11 -0.07397009432315826
1.6734095811843872 -2.148815393447876 -0.3344095051288605 88.0 4 -0.07396779209375381
1.6781940460205078 -2.1557350158691406 0.43269777297973633 86.0 12 -0.07396548986434937
1.6632739305496216 -2.1365692615509033 -0.2368893027305603 88.0 5 -0.07396318763494492
1.6819902658462524 -2.1613898277282715 0.5323571562767029 83.0 13 -0.07396087795495987
1.681307315826416 -2.161290407180786 -0.14350520074367523 100.0 6 -0.07395857572555542
1.6747878789901733 -2.1536850929260254 0.6298630237579346 94.0 14 -0.07395627349615097
1.6740117073059082 -2.1534628868103027 -0.047610167413949966 91.0 7 -0.07395397126674652
1.671381950378418 -2.1508541107177734 0.7298697233200073 72.0 15 -0.07395166158676147
0.8852675557136536 -1.142102837562561 -0.3871932923793793 7.0 0 -0.07393092662096024
1.6547049283981323 -2.13554048538208 0.047156404703855515 94.0 8 -0.07392862439155579
1.0775692462921143 -1.3911982774734497 -0.4062616229057312 5.0 1 -0.07392632216215134
1.6715080738067627 -2.158782720565796 0.1430865228176117 90.0 9 -0.07392401993274689
1.318526268005371 -1.7029002904891968 -0.41863495111465454 6.0 2 -0.07392171025276184
1.6670571565628052 -2.1538102626800537 0.23828379809856415 87.0 10 -0.07391940802335739
1.6488229036331177 -2.1310205459594727 -0.42675328254699707 93.0 3 -0.07391710579395294
1.660202145576477 -2.1465017795562744 0.33319082856178284 100.0 11 -0.07391480356454849
1.6646844148635864 -2.1530730724334717 -0.3341657519340515 91.0 4 -0.07391249388456345
1.6706589460372925 -2.1615798473358154 0.43269777297973633 86.0 12 -0.073910191655159
1.6582427024841309 -2.145515203475952 -0.23723793029785156 88.0 5 -0.07390788942575455
1.6648329496383667 -2.1548190116882324 0.5293042063713074 85.0 13 -0.0739055871963501
1.6676486730575562 -2.159242630004883 -0.14298184216022491 100.0 6 -0.07390327751636505
1.6708327531814575 -2.1641457080841064 0.6312127113342285 39.0 14 -0.0739009752869606
1.6603760719299316 -2.1513779163360596 -0.047435641288757324 95.0 7 -0.07389867305755615
0.8812754154205322 -1.1451860666275024 -0.3871932923793793 7.0 0 -0.07387563586235046
1.6448018550872803 -2.1381337642669678 0.04708659276366234 94.0 8 -0.07387332618236542
1.0584511756896973 -1.3764135837554932 -0.40086281299591064 6.0 1 -0.07387102395296097
1.6566591262817383 -2.1551032066345215 0.1424584835767746 90.0 9 -0.07386872172355652
1.3113776445388794 -1.7059359550476074 -0.4182533621788025 6.0 2 -0.07386641949415207
1.6595287322998047 -2.159616470336914 0.23828379809856415 85.0 10 -0.07386410981416702
1.644984483718872 -2.141463041305542 -0.42769187688827515 97.0 3 -0.07386180758476257
1.6454452276229858 -2.1428370475769043 0.33172836899757385 95.0 11 -0.07385950535535812
1.6511150598526 -2.1509974002838135 -0.3329470753669739 91.0 4 -0.07385720312595367
1.6667109727859497 -2.1720998287200928 0.4336363673210144 82.0 12 -0.07385489344596863
1.6483173370361328 -2.1481289863586426 -0.2368893027305603 88.0 5 -0.07385259121656418
1.6716395616531372 -2.1793105602264404 0.5338835716247559 15.0 13 -0.07385028898715973
1.650378942489624 -2.1523709297180176 -0.14214447140693665 100.0 6 -0.07384798675775528
1.6528562307357788 -2.157160520553589 -0.047435641288757324 95.0 7 -0.07384337484836578
1.5881929397583008 -2.0735175609588623 0.6998467445373535 1.0 15 -0.07384107261896133
0.8843095302581787 -1.157465934753418 -0.39029911160469055 7.0 0 -0.0738203376531601
1.6409696340560913 -2.148629665374756 0.0471913106739521 97.0 8 -0.07381803542375565
1.0654655694961548 -1.3955891132354736 -0.4053618311882019 6.0 1 -0.0738157257437706
1.6442794799804688 -2.154522180557251 0.14203980565071106 93.0 9 -0.07381342351436615
1.293503999710083 -1.6948963403701782 -0.4144371747970581 5.0 2 -0.0738111212849617
1.6519800424575806 -2.165395975112915 0.23828379809856415 83.0 10 -0.07380881905555725
1.637499451637268 -2.1471920013427734 -0.42769187688827515 97.0 3 -0.0738065093755722
1.6403623819351196 -2.1517250537872314 0.3322158455848694 75.0 11 -0.07380420714616776
1.6375805139541626 -2.1488535404205322 -0.33172836899757385 90.0 4 -0.0738019049167633
1.6408090591430664 -2.15386962890625 -0.2368893027305603 88.0 5 -0.07379729300737381
1.6497489213943481 -2.166389226913452 0.5293042063713074 1.0 13 -0.07379499077796936
1.641646146774292 -2.156529426574707 -0.14203980565071106 100.0 6 -0.07379268854856491
1.5541945695877075 -2.042389392852783 0.5925211310386658 1.0 14 -0.07379038631916046
1.6380521059036255 -2.153367757797241 -0.04722621291875839 95.0 7 -0.07378808408975601
0.8709241151809692 -1.148232340812683 -0.3861580491065979 7.0 0 -0.07376503944396973
1.6346676349639893 -2.155937910079956 0.04722621291875839 99.0 8 -0.07376273721456528
1.0582332611083984 -1.3961938619613647 -0.4044620394706726 6.0 1 -0.07376043498516083
1.6355425119400024 -2.1586568355560303 0.14193512499332428 80.0 9 -0.07375812530517578
1.2887654304504395 -1.7009658813476562 -0.41481876373291016 6.0 2 -0.07375582307577133
1.6359906196594238 -2.160031318664551 0.23706360161304474 31.0 10 -0.07375352084636688
1.6252247095108032 -2.146595001220703 -0.42644038796424866 97.0 3 -0.07375121861696243
1.6312674283981323 -2.156139850616455 -0.3319721221923828 91.0 4 -0.07374660670757294
1.5526068210601807 -2.0529139041900635 0.40766826272010803 1.0 12 -0.07374430447816849
1.6284734010696411 -2.1532273292541504 -0.23619204759597778 85.0 5 -0.07374200224876404
1.609025478363037 -2.1282849311828613 0.5186188817024231 1.0 13 -0.07373970001935959
1.6377209424972534 -2.167026996612549 -0.14235380291938782 100.0 6 -0.07373739033937454
1.6269100904464722 -2.154284715652466 -0.04712149500846863 98.0 7 -0.07373278588056564
1.5783344507217407 -2.090721845626831 0.701917290687561 1.0 15 -0.0737304836511612
0.8669107556343079 -1.1512653827667236 -0.3861580491065979 6.0 0 -0.07370974123477936
1.6151058673858643 -2.1456542015075684 0.046877164393663406 67.0 8 -0.07370743900537491
1.0580400228500366 -1.406107783317566 -0.4062616229057312 5.0 1 -0.07370513677597046
1.2828201055526733 -1.7054543495178223 -0.41481876373291016 6.0 2 -0.07370053231716156
1.6106003522872925 -2.1427807807922363 -0.4245631992816925 104.0 3 -0.07369592040777206
1.548984408378601 -2.061554193496704 0.31661656498908997 2.0 11 -0.07369361817836761
1.6177701950073242 -2.1538846492767334 -0.3307534456253052 88.0 4 -0.07369131594896317
1.6137696504592896 -2.149339437484741 -0.2351461946964264 88.0 5 -0.07368670403957367
1.6265506744384766 -2.167937755584717 -0.14203980565071106 100.0 6 -0.07368209958076477
1.5574370622634888 -2.0765745639801025 0.5992696285247803 2.0 14 -0.07367978990077972
1.6121830940246582 -2.150351047515869 -0.046912070363759995 75.0 7 -0.07367748767137527
1.5571238994598389 -2.077667713165283 0.6957056522369385 6.0 15 -0.07367518544197083
0.8628868460655212 -1.1542843580245972 -0.3861580491065979 7.0 0 -0.07365445047616959
1.041462779045105 -1.394180178642273 -0.40176263451576233 6.0 1 -0.07364983856678009
1.5490939617156982 -2.073733329772949 0.13565480709075928 7.0 9 -0.07364753633737564
1.2792085409164429 -1.7130680084228516 -0.4155820310115814 6.0 2 -0.07364523410797119
1.5434030294418335 -2.067620038986206 0.22573336958885193 2.0 10 -0.07364293187856674
1.6019295454025269 -2.1468067169189453 -0.4242503345012665 107.0 3 -0.0736406221985817
1.6090553998947144 -2.1579270362854004 -0.3305096924304962 91.0 4 -0.0736360177397728
1.5787447690963745 -2.117276906967163 0.41830578446388245 1.0 12 -0.07363371551036835
1.6086385250091553 -2.158154249191284 -0.23549480736255646 85.0 5 -0.0736314058303833
1.5577646493911743 -2.090662956237793 0.5067887306213379 2.0 13 -0.07362910360097885
1.5629806518554688 -2.0991923809051514 0.6042185425758362 5.0 14 -0.07362449914216995
1.5525323152542114 -2.0859196186065674 0.6967409253120422 6.0 15 -0.07361988723278046
0.8611549735069275 -1.1603920459747314 -0.3871932923793793 6.0 0 -0.07359915226697922
1.5241942405700684 -2.0538265705108643 0.044643256813287735 7.0 8 -0.07359685003757477
1.0368337631225586 -1.3976261615753174 -0.40176263451576233 6.0 1 -0.07359454780817032
1.2697135210037231 -1.7127913236618042 -0.4144371747970581 6.0 2 -0.07358993589878082
1.5900973081588745 -2.145758628845215 -0.4229988753795624 100.0 3 -0.07358533143997192
1.5668197870254517 -2.1151180267333984 0.32319754362106323 1.0 11 -0.07358302175998688
1.5948024988174438 -2.153679132461548 -0.32904723286628723 91.0 4 -0.07358071953058243
1.5537151098251343 -2.09895920753479 0.4136127531528473 3.0 12 -0.07357841730117798
1.5449841022491455 -2.087926149368286 0.5048806071281433 3.0 13 -0.07357380539178848
1.5490591526031494 -2.0949623584747314 0.6015191078186035 5.0 14 -0.07356920093297958
1.5285687446594238 -2.0680055618286133 -0.04488758742809296 7.0 7 -0.07356689870357513
1.5475376844406128 -2.094433546066284 0.6977761387825012 6.0 15 -0.07356458902359009
0.8595944046974182 -1.1663516759872437 -0.3882285952568054 6.0 0 -0.07354385405778885
1.0250153541564941 -1.3918219804763794 -0.39906319975852966 5.0 1 -0.07353924959897995
1.5322108268737793 -2.0812807083129883 0.1354454606771469 1.0 9 -0.0735369473695755
1.2628626823425293 -1.7154113054275513 -0.4140555262565613 6.0 2 -0.07353463768959045
1.5434646606445312 -2.0973339080810547 0.2278251051902771 2.0 10 -0.073532335460186
1.5849385261535645 -2.1544783115386963 -0.42362460494041443 100.0 3 -0.07353003323078156
1.5417864322662354 -2.096585988998413 0.31954145431518555 3.0 11 -0.0735277310013771
1.5825718641281128 -2.1528351306915283 -0.32807230949401855 91.0 4 -0.07352542132139206
1.5335121154785156 -2.086860179901123 0.410171240568161 4.0 12 -0.07352311909198761
1.535736322402954 -2.090651273727417 -0.22695355117321014 1.0 5 -0.07352081686258316
1.5330374240875244 -2.086977243423462 0.5033541321754456 3.0 13 -0.07351851463317871
1.5166635513305664 -2.0654425621032715 -0.1342940777540207 4.0 6 -0.07351620495319366
1.5255932807922363 -2.0783636569976807 0.5952205061912537 4.0 14 -0.07351390272378922
1.537932276725769 -2.0967071056365967 0.6967409253120422 6.0 15 -0.07350929826498032
0.8507521152496338 -1.1632570028305054 -0.3861580491065979 6.0 0 -0.07348856329917908
1.5357892513275146 -2.0999274253845215 0.045411162078380585 1.0 8 -0.07348625361919403
1.0247511863708496 -1.401684045791626 -0.40086281299591064 6.0 1 -0.07348395138978958
1.5402565002441406 -2.107579231262207 0.1368062049150467 5.0 9 -0.07348164916038513
1.2496181726455688 -1.7105166912078857 -0.41176581382751465 6.0 2 -0.07347934693098068
1.5392922163009644 -2.1078038215637207 0.228348046541214 5.0 10 -0.07347703725099564
1.5735372304916382 -2.155486583709717 -0.42268598079681396 104.0 3 -0.07347473502159119
1.5356289148330688 -2.103558301925659 0.3197851777076721 4.0 11 -0.07347243279218674
1.5762176513671875 -2.159949779510498 -0.3283160626888275 95.0 4 -0.07347013056278229
1.5250540971755981 -2.090604305267334 0.4098583459854126 3.0 12 -0.07346782088279724
1.5323166847229004 -2.1021013259887695 0.5056438446044922 4.0 13 -0.07346321642398834
1.522554874420166 -2.0902419090270996 0.597020149230957 4.0 14 -0.07345861196517944
1.5070301294326782 -2.0689287185668945 -0.04467816278338432 1.0 7 -0.0734563022851944
1.5283297300338745 -2.0989394187927246 0.6957056522369385 6.0 15 -0.07345400005578995
0.8421465754508972 -1.1599664688110352 -0.384087473154068 7.0 0 -0.07343326508998871
1.5210349559783936 -2.0958316326141357 0.04520173370838165 6.0 8 -0.07343096286058426
1.0196069478988647 -1.405430555343628 -0.40086281299591064 5.0 1 -0.07342865318059921
1.5258535146713257 -2.103243112564087 0.1361781805753708 6.0 9 -0.07342635095119476
1.2470974922180176 -1.719636082649231 -0.41291067004203796 8.0 2 -0.07342404872179031
1.530755877494812 -2.11155104637146 0.22817371785640717 4.0 10 -0.07342174649238586
1.5625261068344116 -2.156167507171631 -0.4217473566532135 107.0 3 -0.07341943681240082
1.5279088020324707 -2.1091725826263428 0.3197851777076721 4.0 11 -0.07341713458299637
1.5663394927978516 -2.1622233390808105 -0.3278285562992096 90.0 4 -0.07341483235359192
1.5189058780670166 -2.097515106201172 0.410171240568161 5.0 12 -0.07341253012418747
1.5088567733764648 -2.085170269012451 0.5003012418746948 3.0 13 -0.07340791821479797
1.5135506391525269 -2.0924253463745117 -0.13534079492092133 6.0 6 -0.07340561598539352
1.5156149864196777 -2.0952792167663574 0.597020149230957 5.0 14 -0.07340331375598907
1.515031337738037 -2.0952422618865967 -0.045131925493478775 6.0 7 -0.07340101152658463
1.5096768140792847 -2.0886049270629883 0.6905292868614197 6.0 15 -0.07339870184659958
0.8360356688499451 -1.1596184968948364 -0.38305220007896423 7.0 0 -0.07337796688079834
1.5047231912612915 -2.087885856628418 0.044922493398189545 6.0 8 -0.07337566465139389
1.0172189474105835 -1.411966323852539 -0.40176263451576233 6.0 1 -0.07337336242198944
1.5282100439071655 -2.121255397796631 0.13701553642749786 5.0 9 -0.07337106019258499
1.243682861328125 -1.726948618888855 -0.41367393732070923 10.0 2 -0.07336875051259995
1.5225812196731567 -2.1149988174438477 0.22799941897392273 6.0 10 -0.0733664482831955
1.546136736869812 -2.148509979248047 -0.4192444086074829 107.0 3 -0.07336414605379105
1.5058361291885376 -2.0932788848876953 0.31661656498908997 4.0 11 -0.0733618438243866
1.5580013990402222 -2.1657943725585938 -0.327584832906723 91.0 4 -0.07335953414440155
1.511941909790039 -2.1025404930114746 0.410171240568161 4.0 12 -0.0733572319149971
1.5187785625457764 -2.112825632095337 -0.22765080630779266 1.0 5 -0.07335492968559265
1.506516456604004 -2.0965394973754883 0.5018276572227478 3.0 13 -0.0733526274561882
1.5031081438064575 -2.092566728591919 -0.13502678275108337 10.0 6 -0.07335031777620316
1.508658528327942 -2.1002936363220215 0.597020149230957 5.0 14 -0.0733480155467987
1.5010768175125122 -2.0905089378356934 -0.044922493398189545 6.0 7 -0.07334571331739426
1.4982362985610962 -2.0873217582702637 0.6884586811065674 6.0 15 -0.07334341108798981
0.8366840481758118 -1.1686677932739258 -0.38512274622917175 6.0 0 -0.07332267612218857
1.4977911710739136 -2.0928642749786377 0.044922493398189545 6.0 8 -0.07332036644220352
1.0011924505233765 -1.3994826078414917 -0.3972635865211487 6.0 1 -0.07331806421279907
1.5095465183258057 -2.110067844390869 0.13596881926059723 5.0 9 -0.07331576198339462
1.2516534328460693 -1.7502264976501465 -0.4182533621788025 12.0 2 -0.07331345975399017
1.5120831727981567 -2.115173578262329 0.22747649252414703 4.0 10 -0.07331115007400513
1.5424491167068481 -2.158447027206421 -0.4201830327510834 111.0 3 -0.07330884784460068
1.4919631481170654 -2.088569164276123 0.31515416502952576 4.0 11 -0.07330654561519623
1.545041561126709 -2.162872552871704 -0.326366126537323 94.0 4 -0.07330424338579178
1.502665400505066 -2.104327440261841 0.4095454514026642 4.0 12 -0.07330193370580673
1.5048184394836426 -2.1081206798553467 -0.22660492360591888 1.0 5 -0.07329963147640228
1.4972751140594482 -2.098327398300171 0.5010644793510437 3.0 13 -0.07329732924699783
1.4950006008148193 -2.0959134101867676 -0.1349221020936966 10.0 6 -0.07329502701759338
1.4903688430786133 -2.0894200801849365 0.5925211310386658 5.0 14 -0.07329271733760834
1.4918142557144165 -2.0922186374664307 -0.04485268518328667 6.0 7 -0.07329041510820389
1.491306185722351 -2.0922787189483643 0.6884586811065674 6.0 15 -0.07328811287879944
0.8372814059257507 -1.1777340173721313 -0.3871932923793793 6.0 0 -0.0732673779129982
1.495476245880127 -2.104339599609375 0.0450621135532856 7.0 8 -0.07326507568359375
1.0033175945281982 -1.4123271703720093 -0.39996302127838135 6.0 1 -0.0732627660036087
1.495600700378418 -2.105293035507202 0.13534079492092133 5.0 9 -0.07326046377420425
1.2435691356658936 -1.7511659860610962 -0.4174901247024536 17.0 2 -0.0732581615447998
1.5050607919692993 -2.120176315307617 0.22747649252414703 4.0 10 -0.07325585931539536
1.5364261865615845 -2.165161371231079 -0.4204958975315094 107.0 3 -0.07325354963541031
1.48732590675354 -2.09674334526062 0.3156416416168213 3.0 11 -0.07325124740600586
1.530969500541687 -2.1582694053649902 -0.3249036967754364 94.0 4 -0.07324894517660141
1.484252691268921 -2.0931851863861084 0.40641677379608154 4.0 12 -0.07324664294719696
1.5139497518539429 -2.1358554363250732 -0.22904527187347412 1.0 5 -0.07324433326721191
1.483498215675354 -2.093669891357422 0.4987747371196747 3.0 13 -0.07324203103780746
1.483424425125122 -2.0943403244018555 -0.13450342416763306 9.0 6 -0.07323972880840302
1.4811792373657227 -2.091170310974121 0.5916213393211365 5.0 14 -0.07323742657899857
1.4825570583343506 -2.0938901901245117 -0.04478287696838379 6.0 7 -0.07323512434959412
1.4865919351577759 -2.1003663539886475 0.6894939541816711 6.0 15 -0.07323281466960907
0.8216200470924377 -1.1651523113250732 -0.3820169270038605 6.0 0 -0.07320666313171387
1.4827766418457031 -2.1035284996032715 0.044922493398189545 6.0 8 -0.07320436090230942
1.0023772716522217 -1.4225410223007202 -0.40176263451576233 6.0 1 -0.07320205867290497
1.4825369119644165 -2.104748010635376 0.1349221020936966 5.0 9 -0.07319974899291992
1.2424887418746948 -1.7639532089233398 -0.4193982183933258 16.0 2 -0.07319744676351547
1.486585259437561 -2.1112778186798096 0.22590766847133636 5.0 10 -0.07319514453411102
1.525827169418335 -2.167813777923584 -0.41987013816833496 107.0 3 -0.07319284230470657
1.476979374885559 -2.099191904067993 0.31515416502952576 3.0 11 -0.07319053262472153
1.5222933292388916 -2.164397716522217 -0.3249036967754364 88.0 4 -0.07318823039531708
1.4712938070297241 -2.0926625728607178 0.40516531467437744 4.0 12 -0.07318592816591263
1.4805272817611694 -2.1057958602905273 -0.22521042823791504 1.0 5 -0.07318362593650818
1.4777060747146606 -2.10256290435791 0.49953794479370117 4.0 13 -0.07318131625652313
1.477668046951294 -2.1032893657684326 -0.13471277058124542 9.0 6 -0.07317901402711868
1.4626930952072144 -2.082746744155884 0.5875722169876099 4.0 14 -0.07317671179771423
1.4649478197097778 -2.086731433868408 -0.04450363665819168 6.0 7 -0.07317440956830978
1.4714903831481934 -2.0968291759490967 0.6863881349563599 6.0 15 -0.07317209988832474
0.815332293510437 -1.1648478507995605 -0.3809816539287567 6.0 0 -0.0731513649225235
1.4639610052108765 -2.0923070907592773 0.04457344859838486 6.0 8 -0.07314906269311905
0.9907040596008301 -1.4164499044418335 -0.39906319975852966 5.0 1 -0.0731467604637146
1.4728922843933105 -2.1066365242004395 0.13471277058124542 5.0 9 -0.07314445823431015
1.2498234510421753 -1.7875874042510986 -0.4239776134490967 19.0 2 -0.0731421485543251
1.474640965461731 -2.109921932220459 0.22521042823791504 5.0 10 -0.07313984632492065
1.510331630706787 -2.1617915630340576 -0.4176800549030304 111.0 3 -0.0731375440955162
1.469642996788025 -2.104334592819214 0.31515416502952576 4.0 11 -0.07313524186611176
1.510183572769165 -2.1631875038146973 -0.32392874360084534 85.0 4 -0.07313293218612671
1.470762848854065 -2.1075053215026855 0.407042533159256 4.0 12 -0.07313062995672226
1.4754480123519897 -2.1142187118530273 -0.2255590558052063 1.0 5 -0.07312832772731781
1.465864658355713 -2.1012675762176514 0.4980114996433258 3.0 13 -0.07312602549791336
1.4726020097732544 -2.111710786819458 -0.1349221020936966 9.0 6 -0.07312371581792831
1.452070713043213 -2.0830438137054443 0.5862225294113159 5.0 14 -0.07312141358852386
1.4622278213500977 -2.0983948707580566 -0.044643256813287735 6.0 7 -0.07311911135911942
1.4575368165969849 -2.0924415588378906 0.6832823157310486 7.0 15 -0.07311680912971497
0.8134657740592957 -1.170859932899475 -0.3820169270038605 7.0 0 -0.07309607416391373
1.449804425239563 -2.0875494480133057 0.04436401650309563 6.0 8 -0.07309376448392868
0.9879763722419739 -1.4231010675430298 -0.39996302127838135 6.0 1 -0.07309146225452423
1.4700844287872314 -2.118328332901001 0.13513144850730896 5.0 9 -0.07308916002511978
1.2514111995697021 -1.803229570388794 -0.42664891481399536 17.0 2 -0.07308685779571533
1.4672669172286987 -2.1150565147399902 0.22521042823791504 5.0 10 -0.07308454811573029
1.4971479177474976 -2.1589341163635254 -0.41611573100090027 107.0 3 -0.07308224588632584
1.4509791135787964 -2.093137502670288 0.3127167820930481 3.0 11 -0.07307994365692139
1.5060151815414429 -2.1733405590057373 -0.32465994358062744 99.0 4 -0.07307764142751694
1.4633976221084595 -2.112626075744629 0.407042533159256 5.0 12 -0.07307533174753189
1.4567140340805054 -2.1029775142669678 -0.2238159328699112 1.0 5 -0.07307302951812744
1.4540505409240723 -2.0999155044555664 0.49648505449295044 3.0 13 -0.07307072728872299
1.4606752395629883 -2.110269546508789 -0.13450342416763306 9.0 6 -0.07306842505931854
1.4536612033843994 -2.1009199619293213 0.5898216962814331 5.0 14 -0.07306612282991409
1.4571692943572998 -2.1067755222320557 -0.04471306502819061 6.0 7 -0.07306381314992905
1.4524213075637817 -2.1006946563720703 0.6843175888061523 6.0 15 -0.0730615109205246
0.8181474208831787 -1.186415195465088 -0.3861580491065979 6.0 0 -0.07304077595472336
1.4425086975097656 -2.092597484588623 0.04436401650309563 6.0 8 -0.07303847372531891
0.9763683080673218 -1.4169131517410278 -0.3972635865211487 6.0 1 -0.07303616404533386
1.4490853548049927 -2.1037094593048096 0.13387538492679596 5.0 9 -0.07303386181592941
1.2540186643600464 -1.8205212354660034 -0.42970186471939087 17.0 2 -0.07303155958652496
1.4576154947280884 -2.1168832778930664 0.22486181557178497 6.0 10 -0.07302925735712051
1.4940826892852783 -2.1706557273864746 -0.41736721992492676 118.0 3 -0.07302694767713547
1.4425386190414429 -2.0965540409088135 0.31247302889823914 4.0 11 -0.07302464544773102
1.4905450344085693 -2.16713547706604 -0.3229537904262543 90.0 4 -0.07302234321832657
1.4515374898910522 -2.111210346221924 0.4057910442352295 4.0 12 -0.07302004098892212
1.4696826934814453 -2.137601852416992 -0.22695355117321014 1.0 5 -0.07301773875951767
1.446711540222168 -2.104978322982788 0.49648505449295044 4.0 13 -0.07301542907953262
1.4465141296386719 -2.105478048324585 -0.13387538492679596 9.0 6 -0.07301312685012817
1.4374929666519165 -2.093130350112915 0.5862225294113159 5.0 14 -0.07301082462072372
1.4452792406082153 -2.105254888534546 -0.04457344859838486 6.0 7 -0.07300852239131927
1.4450796842575073 -2.1057515144348145 0.6843175888061523 6.0 15 -0.07300621271133423
0.8118187785148621 -1.1860754489898682 -0.38512274622917175 6.0 0 -0.07298547774553299
1.4374537467956543 -2.1009209156036377 0.044433824717998505 6.0 8 -0.07298317551612854
0.978017270565033 -1.4299637079238892 -0.39996302127838135 6.0 1 -0.07298087328672409
1.4398462772369385 -2.10520601272583 0.1336660534143448 5.0 9 -0.07297856360673904
1.2421159744262695 -1.816784143447876 -0.42779380083084106 15.0 2 -0.0729762613773346
1.44796884059906 -2.118668794631958 0.2245132029056549 5.0 10 -0.07297395914793015
1.4831537008285522 -2.1709647178649902 -0.4164285957813263 111.0 3 -0.0729716569185257
1.4352115392684937 -2.101576805114746 0.31247302889823914 4.0 11 -0.07296935468912125
1.4732749462127686 -2.1573128700256348 -0.32076016068458557 91.0 4 -0.0729670450091362
1.4333909749984741 -2.0996975898742676 0.40266236662864685 5.0 12 -0.07296474277973175
1.4914113283157349 -2.1855077743530273 -0.23148564994335175 1.0 5 -0.0729624405503273
1.4393551349639893 -2.110015392303467 0.49648505449295044 4.0 13 -0.07296013832092285
1.43915593624115 -2.1105146408081055 -0.13387538492679596 9.0 6 -0.0729578286409378
1.4261525869369507 -2.091445207595825 0.5844228863716125 4.0 14 -0.07295552641153336
1.4360374212265015 -2.1067311763763428 -0.04450363665819168 6.0 7 -0.0729532241821289
1.4359132051467896 -2.107339382171631 0.6832823157310486 6.0 15 -0.07295092195272446
0.7991942763328552 -1.175978660583496 -0.3809816539287567 7.0 0 -0.07293017953634262
1.434973955154419 -2.112292766571045 0.04457344859838486 6.0 8 -0.07292787730693817
0.9732699394226074 -1.433199167251587 -0.39996302127838135 6.0 1 -0.07292557507753372
1.4328571557998657 -2.1099693775177 0.1336660534143448 5.0 9 -0.07292327284812927
1.2371872663497925 -1.8225176334381104 -0.4281754195690155 10.0 2 -0.07292097061872482
1.4375789165496826 -2.1185131072998047 0.22399026155471802 6.0 10 -0.07291866093873978
1.4770551919937134 -2.1775054931640625 -0.4167414605617523 107.0 3 -0.07291635870933533
1.4248923063278198 -2.10139536857605 0.31174179911613464 4.0 11 -0.07291405647993088
1.471683144569397 -2.1704015731811523 -0.3219788372516632 94.0 4 -0.07291175425052643
1.428636908531189 -2.1077096462249756 0.4032880961894989 4.0 12 -0.07290944457054138
1.468509554862976 -2.167349338531494 -0.22904527187347412 1.0 5 -0.07290714234113693
1.4301478862762451 -2.111525774002075 0.4957217872142792 4.0 13 -0.07290484011173248
1.4321492910385132 -2.1152753829956055 -0.13387538492679596 9.0 6 -0.07290253788232803
1.4159315824508667 -2.0913219451904297 0.5830731391906738 4.0 14 -0.07290022820234299
1.4268016815185547 -2.1081695556640625 -0.044433824717998505 7.0 7 -0.07289792597293854
1.4289171695709229 -2.1120893955230713 0.6832823157310486 6.0 15 -0.07289562374353409
0.7952902317047119 -1.1786223649978638 -0.3809816539287567 6.0 0 -0.07287488877773285
1.4123061895370483 -2.093830108642578 0.04408477619290352 6.0 8 -0.0728725865483284
0.9641541242599487 -1.4299556016921997 -0.39816340804100037 6.0 1 -0.07287027686834335
1.4277158975601196 -2.1182701587677 0.13387538492679596 5.0 9 -0.0728679746389389
1.2157748937606812 -1.8038181066513062 -0.42283275723457336 7.0 2 -0.07286567240953445
1.4283190965652466 -2.1199636459350586 0.22364163398742676 4.0 10 -0.07286337018013
1.4676192998886108 -2.179114818572998 -0.41611573100090027 114.0 3 -0.07286106050014496
1.4123728275299072 -2.0978755950927734 0.310523122549057 3.0 11 -0.07285875827074051
1.4707480669021606 -2.1854066848754883 -0.3234412670135498 90.0 4 -0.07285645604133606
1.4146552085876465 -2.1028497219085693 0.40141090750694275 5.0 12 -0.07285415381193161
1.4121824502944946 -2.0999650955200195 0.4919055998325348 3.0 13 -0.07284954190254211
1.4206697940826416 -2.1133828163146973 -0.13345670700073242 9.0 6 -0.07284723967313766
1.4140576124191284 -2.104339361190796 0.5853226780891418 5.0 14 -0.07284493744373322
1.4127438068389893 -2.103177309036255 -0.04422440007328987 6.0 7 -0.07284262776374817
1.399997353553772 -2.0849876403808594 0.6729295253753662 6.0 15 -0.07284032553434372
0.7954709529876709 -1.1878118515014648 -0.38305220007896423 7.0 0 -0.07281959056854248
1.4049888849258423 -2.0987472534179688 0.04408477619290352 6.0 8 -0.07281728833913803
0.9526541233062744 -1.4235950708389282 -0.3954640030860901 6.0 1 -0.07281498610973358
1.418092131614685 -2.1199209690093994 0.1336660534143448 5.0 9 -0.07281267642974854
1.1952804327011108 -1.7868374586105347 -0.41787171363830566 6.0 2 -0.07281037420034409
1.4153729677200317 -2.1166555881500244 0.2227700799703598 6.0 10 -0.07280807197093964
1.4512218236923218 -2.171086311340332 -0.4136127531528473 114.0 3 -0.07280576974153519
1.4061442613601685 -2.1044435501098633 0.3107668459415436 4.0 11 -0.07280346006155014
1.4487770795822144 -2.169067621231079 -0.32027265429496765 91.0 4 -0.07280115783214569
1.4138875007629395 -2.1176319122314453 0.4032880961894989 5.0 12 -0.07279885560274124
1.4081132411956787 -2.109780788421631 0.4930504560470581 4.0 13 -0.07279424369335175
1.404416561126709 -2.1050374507904053 -0.13261932134628296 9.0 6 -0.0727919414639473
1.4088658094406128 -2.1125051975250244 0.5862225294113159 6.0 14 -0.07278963923454285
1.4053938388824463 -2.10809588432312 -0.04422440007328987 6.0 7 -0.0727873370051384
