# .PCD v0.7 - Point Cloud Data file format
VERSION 0.7
FIELDS x y z intensity ring time
SIZE 4 4 4 4 4 4
TYPE F F F F F F
COUNT 1 1 1 1 1 1
WIDTH 542
HEIGHT 1
VIEWPOINT 0 0 0 1 0 0 0
POINTS 542
DATA ascii
-1.1794313192367554 6.607935428619385 1.304751992225647 100.0 13 -0.08655185252428055
-0.32535362243652344 1.8246768712997437 -0.09713554382324219 9.0 6 -0.0865495428442955
-1.177310824394226 6.609373092651367 1.549912929534912 100.0 14 -0.08654724061489105
-0.32090795040130615 1.8033913373947144 -0.03197281062602997 8.0 7 -0.0865449383854866
-1.1732739210128784 6.600051403045654 1.7962043285369873 63.0 15 -0.08654263615608215
-0.31967633962631226 1.8111265897750854 -0.49279147386550903 90.0 0 -0.08652190119028091
-0.322241872549057 1.827525019645691 0.03239166736602783 1.0 8 -0.08651959151029587
-0.319805771112442 1.8155568838119507 -0.4256074130535126 89.0 1 -0.08651728928089142
-0.3156414330005646 1.7919156551361084 0.09535612165927887 72.0 9 -0.08651498705148697
-0.3167639970779419 1.8001322746276855 -0.3552863597869873 94.0 2 -0.08651268482208252
-1.1666120290756226 6.636504173278809 0.5895214676856995 90.0 10 -0.08651037514209747
-0.3191126585006714 1.8171954154968262 -0.2922196090221405 100.0 3 -0.08650807291269302
-1.1627752780914307 6.628244400024414 0.8262742161750793 95.0 11 -0.08650577068328857
-0.3166181147098541 1.8066918849945068 -0.22521455585956573 90.0 4 -0.08650346845388412
-1.1596840620040894 6.617409706115723 1.0640673637390137 83.0 12 -0.08650115877389908
-0.3150605261325836 1.7996509075164795 -0.15984363853931427 100.0 5 -0.08649885654449463
-1.1570359468460083 6.615879535675049 1.3055152893066406 100.0 13 -0.08649655431509018
-0.31966933608055115 1.829736590385437 -0.09734489023685455 7.0 6 -0.08649425208568573
-1.1538959741592407 6.611523151397705 1.5494630336761475 100.0 14 -0.08649194985628128
-0.3145824670791626 1.8024755716323853 -0.03193790465593338 7.0 7 -0.08648964017629623
-1.1493881940841675 6.592487812042236 1.7930984497070312 63.0 15 -0.08648733794689178
-0.3133527338504791 1.812231421470642 -0.49279147386550903 87.0 0 -0.08646660298109055
-0.31277307868003845 1.8088788986206055 0.032042618840932846 1.0 8 -0.0864643007516861
-0.3137829005718231 1.8166075944900513 -0.4256074130535126 85.0 1 -0.08646199107170105
-0.311082124710083 1.8028475046157837 0.09587948024272919 68.0 9 -0.0864596888422966
-0.31147927045822144 1.8070310354232788 -0.3564312160015106 99.0 2 -0.08645738661289215
-1.1420881748199463 6.632681369781494 0.5888242125511169 90.0 10 -0.0864550843834877
-0.3124147951602936 1.8143502473831177 -0.29159387946128845 100.0 3 -0.08645277470350266
-1.1404536962509155 6.630107402801514 0.8260304927825928 100.0 11 -0.0864504724740982
-0.3112978935241699 1.8116446733474731 -0.22570204734802246 94.0 4 -0.08644817024469376
-1.1369134187698364 6.623363494873047 1.0643802881240845 85.0 12 -0.0864458680152893
-0.30877700448036194 1.8007396459579468 -0.15984363853931427 100.0 5 -0.08644356578588486
-1.1344283819198608 6.615810394287109 1.304751992225647 100.0 13 -0.08644125610589981
-0.312251478433609 1.8229120969772339 -0.09692620486021042 5.0 6 -0.08643895387649536
-1.1329492330551147 6.6210761070251465 1.5508127212524414 100.0 14 -0.08643665164709091
-0.3066044747829437 1.793707013130188 -0.03176337853074074 7.0 7 -0.08643434941768646
-1.1250697374343872 6.588841915130615 1.7910279035568237 63.0 15 -0.08643203973770142
-0.30669528245925903 1.8094512224197388 -0.4917562007904053 89.0 0 -0.08641130477190018
-0.3071250319480896 1.813902735710144 0.032112427055835724 1.0 8 -0.08640900254249573
-0.3054894506931305 1.8061631917953491 -0.4229080080986023 92.0 1 -0.08640670031309128
-0.3071157932281494 1.817707896232605 0.09661218523979187 94.0 9 -0.08640439063310623
-0.30450350046157837 1.8022468090057373 -0.3552863597869873 94.0 2 -0.08640208840370178
-1.1207516193389893 6.640361309051514 0.5891727805137634 90.0 10 -0.08639978617429733
-0.3054223358631134 1.8115339279174805 -0.2909681499004364 100.0 3 -0.08639748394489288
-1.1156530380249023 6.624260425567627 0.8248117566108704 95.0 11 -0.08639518171548843
-0.30563125014305115 1.8166353702545166 -0.226189523935318 94.0 4 -0.08639287203550339
-1.1157492399215698 6.638980388641357 1.0662574768066406 85.0 12 -0.08639056980609894
-0.30281874537467957 1.8037714958190918 -0.1600179374217987 100.0 5 -0.08638826757669449
-1.1100260019302368 6.611985683441162 1.3032255172729492 100.0 13 -0.08638596534729004
-0.3029138147830963 1.8062630891799927 -0.09598415344953537 6.0 6 -0.08638365566730499
-1.1104756593704224 6.628833770751953 1.5517125129699707 100.0 14 -0.08638135343790054
-0.3023212254047394 1.8066003322601318 -0.03197281062602997 6.0 7 -0.0863790512084961
-1.1033390760421753 6.600350856781006 1.7930984497070312 63.0 15 -0.08637674897909164
-0.30195677280426025 1.8219982385635376 -0.49486202001571655 87.0 0 -0.08635600656270981
-0.30209875106811523 1.822854995727539 0.03225204721093178 1.0 8 -0.08635370433330536
-0.29918327927589417 1.8072184324264526 -0.4229080080986023 90.0 1 -0.08635140210390091
-0.297836571931839 1.8010343313217163 0.09567013382911682 100.0 9 -0.08634909987449646
-0.2991762161254883 1.8110986948013306 -0.35681283473968506 97.0 2 -0.08634679764509201
-1.0977017879486084 6.65228796005249 0.589870035648346 90.0 10 -0.08634448796510696
-0.2991023361682892 1.8145902156829834 -0.2912810146808624 100.0 3 -0.08634218573570251
-1.091233253479004 6.6202802658081055 0.8238368034362793 97.0 11 -0.08633988350629807
-0.2973526120185852 1.805938959121704 -0.2247270941734314 96.0 4 -0.08633758127689362
-1.0932106971740723 6.646732807159424 1.0668832063674927 88.0 12 -0.08633527159690857
-0.2965209484100342 1.8048174381256104 -0.1600179374217987 100.0 5 -0.08633296936750412
-1.0867396593093872 6.621821403503418 1.304370403289795 100.0 13 -0.08633066713809967
-0.29564395546913147 1.8034194707870483 -0.095774807035923 6.0 6 -0.08632836490869522
-1.0842841863632202 6.6213202476501465 1.5490130186080933 100.0 14 -0.08632605522871017
-0.2985987663269043 1.8234316110610962 -0.03225204721093178 4.0 7 -0.08632375299930573
-1.0809147357940674 6.607975006103516 1.7941336631774902 63.0 15 -0.08632145076990128
-0.2949761152267456 1.8192274570465088 -0.4938267767429352 89.0 0 -0.08630071580410004
-0.2954160273075104 1.823949933052063 0.03225204721093178 3.0 8 -0.08629841357469559
-0.2931794822216034 1.8121503591537476 -0.4238077998161316 90.0 1 -0.08629610389471054
-0.2905905544757843 1.7961483001708984 0.09535612165927887 100.0 9 -0.08629380166530609
-0.2915991544723511 1.8043795824050903 -0.3552863597869873 97.0 2 -0.08629149943590164
-1.0744757652282715 6.656078815460205 0.589870035648346 90.0 10 -0.08628919720649719
-0.29370930790901184 1.8214738368988037 -0.2922196090221405 100.0 3 -0.08628688752651215
-1.0675911903381348 6.62815523147583 0.8243243098258972 95.0 11 -0.0862845852971077
-0.29073190689086914 1.8070164918899536 -0.2247270941734314 90.0 4 -0.08628228306770325
-1.0674936771392822 6.634905815124512 1.0643802881240845 88.0 12 -0.0862799808382988
-0.2908509373664856 1.809775710105896 -0.16036656498908997 100.0 5 -0.08627767115831375
-1.0639280080795288 6.6275129318237305 1.304751992225647 100.0 13 -0.0862753689289093
-0.28998076915740967 1.8083844184875488 -0.09598415344953537 7.0 6 -0.08627306669950485
-1.0605467557907104 6.621216773986816 1.548113226890564 100.0 14 -0.0862707644701004
-0.2890688478946686 1.8047176599502563 -0.03190299868583679 2.0 7 -0.08626845479011536
-1.0578402280807495 6.611708164215088 1.7941336631774902 63.0 15 -0.08626615256071091
-0.2880192697048187 1.816429853439331 -0.49279147386550903 89.0 0 -0.08624541759490967
-0.2887391149997711 1.820969581604004 0.0321822389960289 2.0 8 -0.08624311536550522
-0.2871689200401306 1.813112497329712 -0.4238077998161316 90.0 1 -0.08624081313610077
-0.28650495409965515 1.8109604120254517 0.09608882665634155 100.0 9 -0.08623850345611572
-0.2843799293041229 1.7995688915252686 -0.354141503572464 99.0 2 -0.08623620122671127
-1.0506120920181274 6.655853271484375 0.5895214676856995 90.0 10 -0.08623389899730682
-0.2882838547229767 1.8263401985168457 -0.29284536838531494 100.0 3 -0.08623159676790237
-1.0468403100967407 6.63950252532959 0.8252992630004883 95.0 11 -0.08622928708791733
-0.2847375273704529 1.8079707622528076 -0.2247270941734314 94.0 4 -0.08622698485851288
-1.0430974960327148 6.630786895751953 1.0631288290023804 85.0 12 -0.08622468262910843
-0.28391286730766296 1.8068437576293945 -0.1600179374217987 100.0 5 -0.08622238039970398
-1.0431616306304932 6.638762474060059 1.3062784671783447 100.0 13 -0.08622007071971893
-0.2858399450778961 1.8211748600006104 -0.09661218523979187 7.0 6 -0.08621776849031448
-1.0397928953170776 6.632397651672363 1.549912929534912 100.0 14 -0.08621546626091003
-0.2799825966358185 1.7879352569580078 -0.031588856130838394 1.0 7 -0.08621316403150558
-1.032964825630188 6.603908061981201 1.7910279035568237 63.0 15 -0.08621086180210114
-0.2814021706581116 1.8135569095611572 -0.4917562007904053 87.0 0 -0.0861901193857193
-0.28054291009902954 1.8101099729537964 0.03197281062602997 3.0 8 -0.08618781715631485
-0.2820311188697815 1.8218070268630981 -0.4256074130535126 90.0 1 -0.0861855149269104
-0.28018131852149963 1.811949610710144 0.09608882665634155 100.0 9 -0.08618321269750595
-0.2796112298965454 1.8082627058029175 -0.35566797852516174 99.0 2 -0.0861809030175209
-1.0273163318634033 6.651424407958984 0.5888242125511169 90.0 10 -0.08617860078811646
-0.2807026207447052 1.819526195526123 -0.29159387946128845 100.0 3 -0.086176298558712
-1.0242669582366943 6.647039413452148 0.8257867693901062 95.0 11 -0.08617399632930756
-0.2790282666683197 1.8128777742385864 -0.22521455585956573 92.0 4 -0.08617168664932251
-1.0205470323562622 6.638291358947754 1.0637544393539429 85.0 12 -0.08616938441991806
-0.27670982480049133 1.7998980283737183 -0.15932069718837738 100.0 5 -0.08616708219051361
-1.0190924406051636 6.636541366577148 1.305133581161499 100.0 13 -0.08616477996110916
-0.2819029986858368 1.8379549980163574 -0.09744956344366074 4.0 6 -0.08616247773170471
-1.01663339138031 6.635987758636475 1.549912929534912 100.0 14 -0.08616016805171967
-0.27585840225219727 1.8027383089065552 -0.031833190470933914 1.0 7 -0.08615786582231522
-1.0099047422409058 6.607473850250244 1.7910279035568237 63.0 15 -0.08615556359291077
-0.2750694751739502 1.814528226852417 -0.4917562007904053 92.0 0 -0.08613482862710953
-0.27482274174690247 1.8150323629379272 0.032042618840932846 4.0 8 -0.08613251894712448
-0.2739212214946747 1.811219573020935 -0.4229080080986023 87.0 1 -0.08613021671772003
-0.2744508385658264 1.8168662786483765 0.09629816561937332 100.0 9 -0.08612791448831558
-0.27359023690223694 1.811168909072876 -0.3560495972633362 97.0 2 -0.08612561225891113
-1.0046913623809814 6.658909797668457 0.5891727805137634 90.0 10 -0.08612330257892609
-0.27317163348197937 1.812681794166565 -0.29034239053726196 100.0 3 -0.08612100034952164
-0.9992836117744446 6.638796806335449 0.8243243098258972 93.0 11 -0.08611869812011719
-0.2738802134990692 1.8216925859451294 -0.226189523935318 94.0 4 -0.08611639589071274
-0.9988337755203247 6.651581287384033 1.0653188228607178 89.0 12 -0.08611409366130829
-0.2713124454021454 1.806764006614685 -0.15984363853931427 100.0 5 -0.08611178398132324
-0.993880033493042 6.626467704772949 1.3024622201919556 100.0 13 -0.08610948175191879
-0.27016061544418335 1.8033736944198608 -0.09556546807289124 1.0 6 -0.08610717952251434
-0.9934646487236023 6.639495372772217 1.549912929534912 100.0 14 -0.0861048772931099
-0.26985907554626465 1.8056679964065552 -0.031868092715740204 1.0 7 -0.08610256761312485
-0.987409234046936 6.614779949188232 1.7920631170272827 63.0 15 -0.0861002653837204
-0.26930004358291626 1.819299340248108 -0.49279147386550903 90.0 0 -0.08607953041791916
-0.269654780626297 1.8238933086395264 0.0321822389960289 3.0 8 -0.08607722818851471
-0.267027348279953 1.8083090782165527 -0.4220081865787506 89.0 1 -0.08607491850852966
-0.26635900139808655 1.8059579133987427 0.09567013382911682 100.0 9 -0.08607261627912521
-0.26726678013801575 1.8121129274368286 -0.3560495972633362 97.0 2 -0.08607031404972076
-0.9820203185081482 6.666318893432617 0.5895214676856995 90.0 10 -0.08606801182031631
-0.267992228269577 1.821441650390625 -0.29159387946128845 100.0 3 -0.08606570959091187
-0.9761052131652832 6.642244338989258 0.8243243098258972 93.0 11 -0.08606339991092682
-0.2657895088195801 1.8108532428741455 -0.2247270941734314 96.0 4 -0.08606109768152237
-0.974461555480957 6.647210121154785 1.0640673637390137 85.0 12 -0.08605879545211792
-0.2664484977722168 1.8175567388534546 -0.16071519255638123 100.0 5 -0.08605649322271347
-0.9713135957717896 6.633781433105469 1.3032255172729492 100.0 13 -0.08605418354272842
-0.2632855176925659 1.8003534078598022 -0.09535612165927887 1.0 6 -0.08605188131332397
-0.969717264175415 6.639066219329834 1.5490130186080933 100.0 14 -0.08604957908391953
-0.26268884539604187 1.800662636756897 -0.03176337853074074 2.0 7 -0.08604727685451508
-0.9643115401268005 6.618186950683594 1.7920631170272827 63.0 15 -0.08604496717453003
-0.2640521824359894 1.8278764486312866 -0.49486202001571655 89.0 0 -0.08602423220872879
-0.2630005180835724 1.8228445053100586 0.03214733302593231 5.0 8 -0.08602192997932434
-0.2607147693634033 1.8092299699783325 -0.4220081865787506 89.0 1 -0.08601962774991989
-0.2591993510723114 1.8009461164474487 0.09535612165927887 100.0 9 -0.08601732552051544
-0.26010018587112427 1.8072052001953125 -0.35490477085113525 99.0 2 -0.0860150158405304
-0.9593096971511841 6.67365026473999 0.589870035648346 90.0 10 -0.08601271361112595
-0.26191455125808716 1.8243210315704346 -0.2919067442417145 100.0 3 -0.0860104113817215
-0.9534751176834106 6.649540901184082 0.8248117566108704 93.0 11 -0.08600810915231705
-0.25890353322029114 1.8078399896621704 -0.22423960268497467 96.0 4 -0.086005799472332
-0.952096164226532 6.656436443328857 1.065005898475647 88.0 12 -0.08600349724292755
-0.26010367274284363 1.8184754848480225 -0.16071519255638123 100.0 5 -0.0860011950135231
-0.9481497406959534 6.637132167816162 1.3032255172729492 100.0 13 -0.08599889278411865
-0.25784534215927124 1.8071931600570679 -0.09567013382911682 1.0 6 -0.0859965831041336
-0.9459914565086365 6.638552188873291 1.548113226890564 100.0 14 -0.08599428087472916
-0.2561195492744446 1.7995890378952026 -0.03172847628593445 1.0 7 -0.08599197864532471
-0.9417458176612854 6.625338077545166 1.7930984497070312 63.0 15 -0.08598967641592026
-0.25605329871177673 1.8173091411590576 -0.4917562007904053 90.0 0 -0.08596894145011902
-0.2571937143802643 1.8277117013931274 0.03221714124083519 6.0 8 -0.08596663177013397
-0.2549397647380829 1.8139886856079102 -0.4229080080986023 90.0 1 -0.08596432954072952
-0.25402218103408813 1.809751272201538 0.095774807035923 100.0 9 -0.08596202731132507
-0.2529720067977905 1.802269458770752 -0.35375988483428955 97.0 2 -0.08595972508192062
-0.9349034428596497 6.669065952301025 0.5891727805137634 93.0 10 -0.08595741540193558
-0.2533532381057739 1.8095741271972656 -0.2894037961959839 100.0 3 -0.08595511317253113
-0.9313560128211975 6.660693168640137 0.8257867693901062 95.0 11 -0.08595281094312668
-0.2539645731449127 1.8185628652572632 -0.2254583090543747 99.0 4 -0.08595050871372223
-0.9285804033279419 6.6577630043029785 1.0646930932998657 89.0 12 -0.08594819903373718
-0.25155216455459595 1.8035861253738403 -0.15932069718837738 100.0 5 -0.08594589680433273
-0.926599383354187 6.652068138122559 1.3055152893066406 100.0 13 -0.08594359457492828
-0.25401273369789124 1.8258860111236572 -0.09661218523979187 2.0 6 -0.08594129234552383
-0.923079252243042 6.643744468688965 1.5485631227493286 100.0 14 -0.08593898266553879
-0.24873636662960052 1.7925492525100708 -0.031588856130838394 2.0 7 -0.08593668043613434
-0.9170235991477966 6.617103099822998 1.7899925708770752 63.0 15 -0.08593437820672989
-0.24918286502361298 1.8143641948699951 -0.4907209575176239 89.0 0 -0.08591364324092865
-0.24619223177433014 1.7949187755584717 0.031623758375644684 19.0 8 -0.0859113410115242
-0.24913553893566132 1.8187289237976074 -0.4238077998161316 89.0 1 -0.08590903133153915
-0.24878664314746857 1.818542242050171 0.09619349241256714 100.0 9 -0.0859067291021347
-0.24747805297374725 1.8089770078659058 -0.35490477085113525 99.0 2 -0.08590442687273026
-0.9102680087089539 6.662418842315674 0.5883012413978577 96.0 10 -0.0859021246433258
-0.2457001507282257 1.8006610870361328 -0.28783944249153137 100.0 3 -0.08589981496334076
-0.9075686931610107 6.659968852996826 0.8252992630004883 95.0 11 -0.08589751273393631
-0.24707919359207153 1.8155043125152588 -0.22497083246707916 99.0 4 -0.08589521050453186
-0.9037399291992188 6.649219036102295 1.0628159046173096 84.0 12 -0.08589290827512741
-0.24632863700389862 1.8123501539230347 -0.1600179374217987 100.0 5 -0.08589059859514236
-0.9007344245910645 6.635807991027832 1.3016990423202515 100.0 13 -0.08588829636573792
-0.24656395614147186 1.8188450336456299 -0.09619349241256714 3.0 6 -0.08588599413633347
-0.9006651639938354 6.652719497680664 1.549912929534912 100.0 14 -0.08588369190692902
-0.24435357749462128 1.8072781562805176 -0.031833190470933914 4.0 7 -0.08588138967752457
-0.8939183354377747 6.620264053344727 1.7899925708770752 63.0 15 -0.08587907999753952
-0.24387219548225403 1.822882056236267 -0.49279147386550903 89.0 0 -0.08585834503173828
-0.24072012305259705 1.8017135858535767 0.03172847628593445 14.0 8 -0.08585604280233383
-0.24226951599121094 1.81572425365448 -0.4229080080986023 89.0 1 -0.08585374057292938
-0.24381086230278015 1.8272762298583984 0.09661218523979187 100.0 9 -0.08585143089294434
-0.24142086505889893 1.8117759227752686 -0.3552863597869873 94.0 2 -0.08584912866353989
-0.88779616355896 6.67147970199585 0.5888242125511169 90.0 10 -0.08584682643413544
-0.23941269516944885 1.8015077114105225 -0.28783944249153137 100.0 3 -0.08584452420473099
-0.8827467560768127 6.651289939880371 0.8238368034362793 97.0 11 -0.08584221452474594
-0.24152323603630066 1.8222594261169434 -0.22570204734802246 100.0 4 -0.08583991229534149
-0.8829812407493591 6.661971569061279 1.0643802881240845 88.0 12 -0.08583761006593704
-0.240000382065773 1.8131989240646362 -0.1600179374217987 100.0 5 -0.08583530783653259
-0.8780815601348877 6.64280366897583 1.3024622201919556 100.0 13 -0.08583300560712814
-0.23864558339118958 1.8078140020370483 -0.09556546807289124 4.0 6 -0.0858306959271431
-0.8779481649398804 6.659687042236328 1.5508127212524414 100.0 14 -0.08582839369773865
-0.23940488696098328 1.8160088062286377 -0.03197281062602997 6.0 7 -0.0858260914683342
-0.8724654316902161 6.6270222663879395 1.7910279035568237 63.0 15 -0.08582378923892975
-0.23800702393054962 1.8275535106658936 -0.4938267767429352 89.0 0 -0.08580304682254791
-0.23629392683506012 1.8143993616104126 0.03193790465593338 24.0 8 -0.08580074459314346
-0.23574474453926086 1.812652587890625 -0.4220081865787506 89.0 1 -0.08579844236373901
-0.23460091650485992 1.806329369544983 0.09546079486608505 100.0 9 -0.08579614013433456
-0.23585306107997894 1.8184481859207153 -0.3564312160015106 99.0 2 -0.08579383790493011
-0.8647570013999939 6.676514625549316 0.5889984965324402 87.0 10 -0.08579152822494507
-0.23343685269355774 1.8022918701171875 -0.28783944249153137 100.0 3 -0.08578922599554062
-0.8604289293289185 6.652212142944336 0.8235930800437927 93.0 11 -0.08578692376613617
-0.23446227610111237 1.8151752948760986 -0.2247270941734314 90.0 4 -0.08578462153673172
-0.8607302904129028 6.672849655151367 1.0656317472457886 88.0 12 -0.08578231185674667
-0.23468734323978424 1.8219300508499146 -0.16071519255638123 100.0 5 -0.08578000962734222
-0.8565481901168823 6.649573802947998 1.3032255172729492 100.0 13 -0.08577770739793777
-0.2336689829826355 1.8165191411972046 -0.09598415344953537 6.0 6 -0.08577540516853333
-0.8543674945831299 6.650964260101318 1.548113226890564 100.0 14 -0.08577309548854828
-0.23357276618480682 1.8208003044128418 -0.032042618840932846 7.0 7 -0.08577079325914383
-0.8498198390007019 6.633859634399414 1.7920631170272827 63.0 15 -0.08576849102973938
-0.2324310541152954 1.8321657180786133 -0.49486202001571655 89.0 0 -0.08574775606393814
-0.22995856404304504 1.8152133226394653 0.03193790465593338 34.0 8 -0.08574545383453369
-0.22941547632217407 1.8134645223617554 -0.4220081865787506 92.0 1 -0.08574314415454865
-0.2280442863702774 1.8051557540893555 0.09535612165927887 100.0 9 -0.0857408419251442
-0.22859077155590057 1.8094816207885742 -0.3545231223106384 97.0 2 -0.08573853969573975
-0.8433616757392883 6.685275554656982 0.5895214676856995 93.0 10 -0.0857362374663353
-0.22788535058498383 1.808975338935852 -0.28877806663513184 100.0 3 -0.08573392778635025
-0.8379478454589844 6.661083221435547 0.8243243098258972 99.0 11 -0.0857316255569458
-0.22762934863567352 1.8120434284210205 -0.22423960268497467 92.0 4 -0.08572932332754135
-0.8364503979682922 6.667973518371582 1.0643802881240845 88.0 12 -0.0857270210981369
-0.2286446988582611 1.8226982355117798 -0.16071519255638123 100.0 5 -0.08572471141815186
-0.8338210582733154 6.656418800354004 1.3039886951446533 100.0 13 -0.0857224091887474
-0.22806993126869202 1.823269248008728 -0.09629816561937332 7.0 6 -0.08572010695934296
-0.8316304683685303 6.657773017883301 1.5490130186080933 100.0 14 -0.08571780472993851
-0.22647340595722198 1.8156514167785645 -0.03193790465593338 7.0 7 -0.08571549504995346
-0.8266564011573792 6.636785984039307 1.7920631170272827 63.0 15 -0.08571319282054901
-0.225087970495224 1.8252966403961182 -0.49279147386550903 87.0 0 -0.08569245785474777
-0.22386567294597626 1.817989706993103 0.03197281062602997 71.0 8 -0.08569015562534332
-0.22355996072292328 1.8181227445602417 -0.4229080080986023 89.0 1 -0.08568785339593887
-0.2214978188276291 1.8039584159851074 0.09525144845247269 100.0 9 -0.08568554371595383
-0.22179409861564636 1.8063714504241943 -0.35375988483428955 97.0 2 -0.08568324148654938
-0.8195370435714722 6.684223175048828 0.5891727805137634 90.0 10 -0.08568093925714493
-0.22204996645450592 1.8136813640594482 -0.2894037961959839 100.0 3 -0.08567863702774048
-0.8146894574165344 6.663968086242676 0.8243243098258972 93.0 11 -0.08567632734775543
-0.22226446866989136 1.8207088708877563 -0.22521455585956573 96.0 4 -0.08567402511835098
-0.8117370009422302 6.659087181091309 1.0625029802322388 88.0 12 -0.08567172288894653
-0.2205936759710312 1.809640884399414 -0.15949499607086182 100.0 5 -0.08566942065954208
-0.8115278482437134 6.667084693908691 1.3055152893066406 100.0 13 -0.08566711097955704
-0.2219446450471878 1.826037049293518 -0.0964028462767601 9.0 6 -0.08566480875015259
-0.8086217641830444 6.662570476531982 1.5494630336761475 100.0 14 -0.08566250652074814
-0.21965256333351135 1.8124606609344482 -0.031868092715740204 7.0 7 -0.08566020429134369
-0.8030186891555786 6.635795593261719 1.7910279035568237 63.0 15 -0.08565789461135864
-0.2177974134683609 1.8183987140655518 -0.4907209575176239 89.0 0 -0.0856371596455574
-0.2165680080652237 1.810817837715149 0.031833190470933914 100.0 8 -0.08563485741615295
-0.21767382323741913 1.8227620124816895 -0.4238077998161316 92.0 1 -0.0856325551867485
-0.21614666283130646 1.8126533031463623 0.09567013382911682 100.0 9 -0.08563025295734406
-0.21641841530799866 1.8149322271347046 -0.3552863597869873 100.0 2 -0.08562794327735901
-0.7947845458984375 6.675172805786133 0.5881268978118896 90.0 10 -0.08562564104795456
-0.21478435397148132 1.8065991401672363 -0.2881523370742798 100.0 3 -0.08562333881855011
-0.792831540107727 6.678598403930664 0.8257867693901062 99.0 11 -0.08562103658914566
-0.21567437052726746 1.819502353668213 -0.22497083246707916 99.0 4 -0.08561872690916061
-0.7889501452445984 6.665803909301758 1.0631288290023804 88.0 12 -0.08561642467975616
-0.2138066589832306 1.8064427375793457 -0.15914638340473175 100.0 5 -0.08561412245035172
-0.7884854078292847 6.671825885772705 1.3058968782424927 100.0 13 -0.08561182022094727
-0.21720804274082184 1.8406850099563599 -0.09713554382324219 7.0 6 -0.08560951054096222
-0.7853583097457886 6.665352821350098 1.5494630336761475 100.0 14 -0.08560720831155777
-0.21379224956035614 1.8171881437301636 -0.03193790465593338 8.0 7 -0.08560490608215332
-0.7794011235237122 6.634720325469971 1.7899925708770752 63.0 15 -0.08560260385274887
-0.21189428865909576 1.8229856491088867 -0.4917562007904053 89.0 0 -0.08558186888694763
-0.20978419482707977 1.807590126991272 0.03176337853074074 100.0 8 -0.08557955920696259
-0.21041297912597656 1.815767526626587 -0.4220081865787506 90.0 1 -0.08557725697755814
-0.21119487285614014 1.8253008127212524 0.09629816561937332 100.0 9 -0.08557495474815369
-0.21030697226524353 1.817626953125 -0.35566797852516174 99.0 2 -0.08557265251874924
-0.7717059254646301 6.6798858642578125 0.5883012413978577 96.0 10 -0.08557034283876419
-0.2080245018005371 1.8034130334854126 -0.28752657771110535 100.0 3 -0.08556804060935974
-0.7676953077316284 6.665548801422119 0.8238368034362793 99.0 11 -0.08556573837995529
-0.21022845804691315 1.8281326293945312 -0.22594578564167023 99.0 4 -0.08556343615055084
-0.7661293148994446 6.672441482543945 1.0637544393539429 88.0 12 -0.0855611264705658
-0.20931826531887054 1.823013186454773 -0.1605408787727356 100.0 5 -0.08555882424116135
-0.7631773352622986 6.656983375549316 1.3024622201919556 100.0 13 -0.0855565220117569
-0.20782828330993652 1.8156360387802124 -0.095774807035923 6.0 6 -0.08555421978235245
-0.7631948590278625 6.677733421325684 1.5517125129699707 100.0 14 -0.085551917552948
-0.20744813978672028 1.8179233074188232 -0.03193790465593338 8.0 7 -0.08554960787296295
-0.7562351226806641 6.637401103973389 1.7899925708770752 63.0 15 -0.0855473056435585
-0.2063944935798645 1.8313931226730347 -0.4938267767429352 87.0 0 -0.08552657067775726
-0.20302730798721313 1.8043369054794312 0.03169357031583786 100.0 8 -0.08552426844835281
-0.2040729969739914 1.8164910078048706 -0.4220081865787506 92.0 1 -0.08552195876836777
-0.20304055511951447 1.8101485967636108 0.09546079486608505 100.0 9 -0.08551965653896332
-0.20439817011356354 1.8222519159317017 -0.3564312160015106 99.0 2 -0.08551735430955887
-0.7494974136352539 6.69243860244751 0.5891727805137634 93.0 10 -0.08551505208015442
-0.20238618552684784 1.810017704963684 -0.2884652018547058 100.0 3 -0.08551274240016937
-0.7439812421798706 6.664242744445801 0.8233493566513062 95.0 11 -0.08551044017076492
-0.20252765715122223 1.817017912864685 -0.22448335587978363 99.0 4 -0.08550813794136047
-0.7437056303024292 6.682928562164307 1.065005898475647 88.0 12 -0.08550583571195602
-0.20317335426807404 1.825713038444519 -0.16071519255638123 100.0 5 -0.08550353348255157
-0.7403673529624939 6.663509845733643 1.3032255172729492 100.0 13 -0.08550122380256653
-0.20215114951133728 1.822305679321289 -0.09608882665634155 7.0 6 -0.08549892157316208
-0.7379481196403503 6.6629252433776855 1.5476633310317993 100.0 14 -0.08549661934375763
-0.20219957828521729 1.828574299812317 -0.032112427055835724 8.0 7 -0.08549431711435318
-0.7343382239341736 6.6515212059021 1.7930984497070312 63.0 15 -0.08549200743436813
-0.20042015612125397 1.8359431028366089 -0.49486202001571655 89.0 0 -0.0854712724685669
-0.19802723824977875 1.8169622421264648 0.03190299868583679 100.0 8 -0.08546897023916245
-0.19836293160915375 1.8230043649673462 -0.42335790395736694 94.0 1 -0.085466668009758
-0.1967211216688156 1.810846209526062 0.09546079486608505 100.0 9 -0.08546436578035355
-0.19697631895542145 1.8131953477859497 -0.3545231223106384 94.0 2 -0.0854620561003685
-0.7265596985816956 6.698976039886475 0.5895214676856995 90.0 10 -0.08545975387096405
-0.19627897441387177 1.812677025794983 -0.28877806663513184 100.0 3 -0.0854574516415596
-0.7211422920227051 6.670746326446533 0.8238368034362793 99.0 11 -0.08545514941215515
-0.1963963657617569 1.8196874856948853 -0.2247270941734314 96.0 4 -0.0854528397321701
-0.7191018462181091 6.673700332641602 1.0631288290023804 88.0 12 -0.08545053750276566
-0.1965852677822113 1.824430227279663 -0.1605408787727356 100.0 5 -0.0854482352733612
-0.7179442048072815 6.673861503601074 1.304751992225647 100.0 13 -0.08544593304395676
-0.19749461114406586 1.8388869762420654 -0.09692620486021042 7.0 6 -0.08544362336397171
-0.7148916721343994 6.667398452758789 1.548113226890564 100.0 14 -0.08544132113456726
-0.19368737936019897 1.8093857765197754 -0.03176337853074074 8.0 7 -0.08543901890516281
-0.7115243673324585 6.657885551452637 1.7941336631774902 63.0 15 -0.08543671667575836
-0.19238629937171936 1.8212624788284302 -0.4907209575176239 89.0 0 -0.08541598170995712
-0.19252291321754456 1.8255971670150757 0.032042618840932846 93.0 8 -0.08541367202997208
-0.19261161983013153 1.82949960231781 -0.4247076213359833 89.0 1 -0.08541136980056763
-0.19102470576763153 1.8174808025360107 0.095774807035923 100.0 9 -0.08540906757116318
-0.19023497402668 1.8099671602249146 -0.35375988483428955 97.0 2 -0.08540676534175873
-0.702549159526825 6.695526599884033 0.5889984965324402 96.0 10 -0.08540445566177368
-0.19015739858150482 1.8153156042099 -0.28909093141555786 100.0 3 -0.08540215343236923
-0.6982637643814087 6.67717170715332 0.8243243098258972 99.0 11 -0.08539985120296478
-0.19004279375076294 1.8203619718551636 -0.2247270941734314 96.0 4 -0.08539754897356033
-0.6958065032958984 6.676169395446777 1.0631288290023804 88.0 12 -0.08539523929357529
-0.18980379402637482 1.8211417198181152 -0.16019225120544434 100.0 5 -0.08539293706417084
-0.6954545378684998 6.684137344360352 1.3062784671783447 100.0 13 -0.08539063483476639
-0.19272476434707642 1.8554577827453613 -0.09776357561349869 7.0 6 -0.08538833260536194
-0.6920202970504761 6.673728942871094 1.5490130186080933 100.0 14 -0.08538602292537689
-0.1883992850780487 1.8199961185455322 -0.03193790465593338 10.0 7 -0.08538372069597244
-0.6866892576217651 6.644956111907959 1.7899925708770752 63.0 15 -0.085381418466568
-0.1864214539527893 1.8257664442062378 -0.4917562007904053 90.0 0 -0.08536068350076675
-0.18513484299182892 1.8163111209869385 0.031868092715740204 64.0 8 -0.0853583812713623
-0.1862238049507141 1.8301607370376587 -0.4247076213359833 92.0 1 -0.08535607159137726
-0.1848815679550171 1.820123553276062 0.09587948024272919 100.0 9 -0.08535376936197281
-0.18431302905082703 1.8145263195037842 -0.3545231223106384 97.0 2 -0.08535146713256836
-0.6783673167228699 6.690009593963623 0.5883012413978577 96.0 10 -0.08534916490316391
-0.18501277267932892 1.8277604579925537 -0.2909681499004364 100.0 3 -0.08534685522317886
-0.6759510636329651 6.689443111419678 0.8255429863929749 100.0 11 -0.08534455299377441
-0.18368777632713318 1.821014165878296 -0.2247270941734314 92.0 4 -0.08534225076436996
-0.6728920936584473 6.682487964630127 1.0637544393539429 88.0 12 -0.08533994853496552
-0.18284635245800018 1.81584632396698 -0.15966932475566864 100.0 5 -0.08533763885498047
-0.6709416508674622 6.674804210662842 1.3039886951446533 100.0 13 -0.08533533662557602
-0.1890389323234558 1.8839411735534668 -0.09922898560762405 8.0 6 -0.08533303439617157
-0.668524444103241 6.674165725708008 1.5485631227493286 100.0 14 -0.08533073216676712
-0.1836363524198532 1.8365609645843506 -0.03221714124083519 17.0 7 -0.08532842993736267
-0.6634912490844727 6.647312641143799 1.7899925708770752 63.0 15 -0.08532612025737762
-0.1800467073917389 1.8264060020446777 -0.4917562007904053 89.0 0 -0.08608317375183105
-0.17879311740398407 1.816946268081665 0.031868092715740204 61.0 8 -0.0860808715224266
-0.1786915808916092 1.819163203239441 -0.4220081865787506 92.0 1 -0.08607856929302216
-0.17891719937324524 1.8247333765029907 0.09608882665634155 100.0 9 -0.08607625961303711
-0.17874471843242645 1.8229742050170898 -0.3560495972633362 100.0 2 -0.08607395738363266
-0.6555911898612976 6.6982855796813965 0.5888242125511169 93.0 10 -0.08607165515422821
-0.17805571854114532 1.8224971294403076 -0.29002952575683594 100.0 3 -0.08606935292482376
-0.6512491106987 6.677931785583496 0.8238368034362793 99.0 11 -0.08606704324483871
-0.1777143031358719 1.825595736503601 -0.22521455585956573 96.0 4 -0.08606474101543427
-0.6499452590942383 6.6887288093566895 1.0643802881240845 88.0 12 -0.08606243878602982
-0.1774705946445465 1.8263887166976929 -0.1605408787727356 100.0 5 -0.08606013655662537
-0.6465023756027222 6.665380954742432 1.3016990423202515 100.0 13 -0.08605782687664032
-0.18226861953735352 1.8826016187667847 -0.09912431240081787 10.0 6 -0.08605552464723587
-0.6461618542671204 6.6861572265625 1.5508127212524414 100.0 14 -0.08605322241783142
-0.17895378172397614 1.855104684829712 -0.032531287521123886 27.0 7 -0.08605092018842697
-0.6406523585319519 6.6534342765808105 1.7910279035568237 63.0 15 -0.08604861050844193
-0.17440102994441986 1.8347163200378418 -0.4938267767429352 89.0 0 -0.08602787554264069
-0.17245008051395416 1.8175592422485352 0.031868092715740204 61.0 8 -0.08602557331323624
-0.17197248339653015 1.8158957958221436 -0.4211083948612213 90.0 1 -0.08602327108383179
-0.17141836881637573 1.8134163618087769 0.09546079486608505 100.0 9 -0.08602096885442734
-0.1725645512342453 1.825541615486145 -0.3564312160015106 99.0 2 -0.08601865917444229
-0.6322072148323059 6.700532913208008 0.5888242125511169 93.0 10 -0.08601635694503784
-0.17021073400974274 1.807374119758606 -0.28752657771110535 100.0 3 -0.08601405471563339
-0.6279330849647522 6.680164337158203 0.8238368034362793 99.0 11 -0.08601175248622894
-0.1705993413925171 1.8182992935180664 -0.22423960268497467 94.0 4 -0.0860094428062439
-0.6276966333389282 6.702757358551025 1.0662574768066406 88.0 12 -0.08600714057683945
-0.17053644359111786 1.8210457563400269 -0.1600179374217987 100.0 5 -0.086004838347435
-0.6239609718322754 6.675415992736816 1.3032255172729492 100.0 13 -0.08600253611803055
-0.17254240810871124 1.8494197130203247 -0.09734489023685455 8.0 6 -0.0860002264380455
-0.6220943331718445 6.680610179901123 1.5490130186080933 100.0 14 -0.08599792420864105
-0.17099618911743164 1.8397891521453857 -0.03225204721093178 23.0 7 -0.0859956219792366
-0.6174250245094299 6.655629634857178 1.7910279035568237 63.0 15 -0.08599331974983215
-0.16799600422382355 1.8353137969970703 -0.4938267767429352 90.0 0 -0.08597258478403091
-0.16665075719356537 1.8241244554519653 0.03197281062602997 56.0 8 -0.08597027510404587
-0.16634012758731842 1.8242478370666504 -0.4229080080986023 90.0 1 -0.08596797287464142
-0.16504068672657013 1.8099968433380127 0.09525144845247269 100.0 9 -0.08596567064523697
-0.16547980904579163 1.818312168121338 -0.35490477085113525 99.0 2 -0.08596336841583252
-0.6097167134284973 6.712619781494141 0.5896957516670227 96.0 10 -0.08596105873584747
-0.16461369395256042 1.8158265352249146 -0.28877806663513184 100.0 3 -0.08595875650644302
-0.6049702763557434 6.686269760131836 0.8243243098258972 97.0 11 -0.08595645427703857
-0.16456906497478485 1.8188549280166626 -0.22423960268497467 94.0 4 -0.08595415204763412
-0.6033353805541992 6.6811933517456055 1.0625029802322388 84.0 12 -0.08595184236764908
-0.16525132954120636 1.833536148071289 -0.1610638052225113 100.0 5 -0.08594954013824463
-0.6018881797790527 6.691240310668945 1.3058968782424927 100.0 13 -0.08594723790884018
-0.16912204027175903 1.883828043937683 -0.09912431240081787 10.0 6 -0.08594493567943573
-0.5995900630950928 6.6787543296813965 1.548113226890564 100.0 14 -0.08594263345003128
-0.16667833924293518 1.860263466835022 -0.032601095736026764 31.0 7 -0.08594032377004623
-0.5960403680801392 6.665337562561035 1.7930984497070312 63.0 15 -0.08593802154064178
-0.1608901470899582 1.8243145942687988 -0.4907209575176239 90.0 0 -0.08591728657484055
-0.16165228188037872 1.8366190195083618 0.0321822389960289 52.0 8 -0.0859149843454361
-0.16029103100299835 1.8247894048690796 -0.4229080080986023 92.0 1 -0.08591267466545105
-0.15973791480064392 1.8184925317764282 0.09567013382911682 100.0 9 -0.0859103724360466
-0.1587628573179245 1.811028003692627 -0.3533782958984375 99.0 2 -0.08590807020664215
-0.5872780084609985 6.712620735168457 0.5895214676856995 90.0 10 -0.0859057679772377
-0.15893617272377014 1.820298194885254 -0.2894037961959839 100.0 3 -0.08590345829725266
-0.5834818482398987 6.6961493492126465 0.8252992630004883 99.0 11 -0.0859011560678482
-0.15888077020645142 1.8233460187911987 -0.2247270941734314 96.0 4 -0.08589885383844376
-0.5815169215202332 6.687093734741211 1.0631288290023804 85.0 12 -0.0858965516090393
-0.15762020647525787 1.8162096738815308 -0.15949499607086182 100.0 5 -0.08589424937963486
-0.5798634886741638 6.695155620574951 1.3062784671783447 100.0 13 -0.08589193969964981
-0.16201364994049072 1.87442946434021 -0.09860094636678696 11.0 6 -0.08588963747024536
-0.5776051878929138 6.682648181915283 1.5485631227493286 100.0 14 -0.08588733524084091
-0.15964967012405396 1.850844383239746 -0.03242656961083412 27.0 7 -0.08588503301143646
-0.5732694268226624 6.659578323364258 1.7910279035568237 63.0 15 -0.08588272333145142
-0.15483999252319336 1.8248380422592163 -0.4907209575176239 90.0 0 -0.08586198836565018
-0.15488643944263458 1.8291747570037842 0.032042618840932846 45.0 8 -0.08585968613624573
-0.15489475429058075 1.833078145980835 -0.4247076213359833 90.0 1 -0.08585738390684128
-0.15439565479755402 1.8309801816940308 0.09629816561937332 100.0 9 -0.08585507422685623
-0.15308667719364166 1.8154571056365967 -0.354141503572464 99.0 2 -0.08585277199745178
-0.5641809105873108 6.70460319519043 0.5886498689651489 96.0 10 -0.08585046976804733
-0.1520719677209854 1.8109729290008545 -0.28783944249153137 100.0 3 -0.08584816753864288
-0.5616062879562378 6.702003479003906 0.8257867693901062 99.0 11 -0.08584586530923843
-0.15284636616706848 1.8278459310531616 -0.22521455585956573 94.0 4 -0.08584355562925339
-0.5591580271720886 6.700893402099609 1.065005898475647 88.0 12 -0.08584125339984894
-0.15176261961460114 1.8187079429626465 -0.15966932475566864 100.0 5 -0.08583895117044449
-0.5570080876350403 6.689216136932373 1.304751992225647 100.0 13 -0.08583664894104004
-0.15712042152881622 1.890879511833191 -0.09943832457065582 13.0 6 -0.08583433926105499
-0.5550814867019653 6.694334030151367 1.5508127212524414 100.0 14 -0.08583203703165054
-0.1510448157787323 1.825482964515686 -0.03197281062602997 21.0 7 -0.0858297348022461
-0.5496999621391296 6.657688140869141 1.7899925708770752 63.0 15 -0.08582743257284164
-0.1487819105386734 1.8292183876037598 -0.4917562007904053 87.0 0 -0.08580669015645981
-0.14753025770187378 1.817745327949524 0.031833190470933914 41.0 8 -0.08580438792705536
-0.14755085110664368 1.8219534158706665 -0.4220081865787506 92.0 1 -0.08580208569765091
-0.14800290763378143 1.8315080404281616 0.09629816561937332 100.0 9 -0.08579978346824646
-0.14738067984580994 1.823807954788208 -0.35566797852516174 99.0 2 -0.08579748123884201
-0.5410956740379333 6.710504055023193 0.5889984965324402 96.0 10 -0.08579517155885696
-0.14669963717460632 1.823306918144226 -0.2897166609764099 100.0 3 -0.08579286932945251
-0.5369359254837036 6.688093662261963 0.8238368034362793 99.0 11 -0.08579056710004807
-0.14646543562412262 1.8283683061599731 -0.22521455585956573 94.0 4 -0.08578826487064362
-0.535762369632721 6.7028045654296875 1.065005898475647 88.0 12 -0.08578595519065857
-0.14573022723197937 1.823198676109314 -0.1600179374217987 100.0 5 -0.08578365296125412
-0.5327166318893433 6.679377555847168 1.3024622201919556 100.0 13 -0.08578135073184967
-0.15115322172641754 1.8993803262710571 -0.09985701739788055 15.0 6 -0.08577904850244522
-0.5323257446289062 6.704000949859619 1.5526123046875 100.0 14 -0.08577673882246017
-0.14593476057052612 1.8419466018676758 -0.03225204721093178 21.0 7 -0.08577443659305573
-0.5270705223083496 6.667269706726074 1.7920631170272827 63.0 15 -0.08577213436365128
-0.14269599318504333 1.8335785865783691 -0.49279147386550903 89.0 0 -0.08575139939785004
-0.14164818823337555 1.8242303133010864 0.03193790465593338 39.0 8 -0.08574909716844559
-0.1414915919303894 1.8263431787490845 -0.4229080080986023 92.0 1 -0.08574678748846054
-0.14083963632583618 1.8220568895339966 0.095774807035923 100.0 9 -0.08574448525905609
-0.14116518199443817 1.8262685537338257 -0.3560495972633362 100.0 2 -0.08574218302965164
-0.5181262493133545 6.718311786651611 0.5895214676856995 90.0 10 -0.08573988080024719
-0.1407892256975174 1.8297163248062134 -0.290655255317688 100.0 3 -0.08573757112026215
-0.5138921141624451 6.693885803222656 0.8243243098258972 99.0 11 -0.0857352688908577
-0.13977865874767303 1.8249098062515259 -0.2247270941734314 92.0 4 -0.08573296666145325
-0.5129622220993042 6.712512493133545 1.0662574768066406 88.0 12 -0.0857306644320488
-0.1404273957014084 1.8376024961471558 -0.16123811900615692 100.0 5 -0.08572835475206375
-0.5096979737281799 6.6851115226745605 1.3032255172729492 100.0 13 -0.0857260525226593
-0.14406725764274597 1.8939218521118164 -0.099542997777462 17.0 6 -0.08572375029325485
-0.508329451084137 6.69804573059082 1.5508127212524414 100.0 14 -0.0857214480638504
-0.14041055738925934 1.8544087409973145 -0.03246147558093071 26.0 7 -0.08571913838386536
-0.503792405128479 6.669069290161133 1.7920631170272827 63.0 15 -0.08571683615446091
-0.13686691224575043 1.8417717218399048 -0.49486202001571655 87.0 0 -0.08569610118865967
-0.13483642041683197 1.8187309503555298 0.031833190470933914 33.0 8 -0.08569379895925522
-0.13540345430374146 1.8307126760482788 -0.4238077998161316 92.0 1 -0.08569149672985077
-0.1337432563304901 1.8125782012939453 0.09525144845247269 100.0 9 -0.08568918704986572
-0.13421109318733215 1.8189185857772827 -0.3545231223106384 94.0 2 -0.08568688482046127
-0.49466997385025024 6.7200798988342285 0.5895214676856995 93.0 10 -0.08568458259105682
-0.13454653322696686 1.8321669101715088 -0.2909681499004364 100.0 3 -0.08568228036165237
-0.49081122875213623 6.6995978355407715 0.8248117566108704 97.0 11 -0.08567997068166733
-0.13340720534324646 1.825386643409729 -0.2247270941734314 90.0 4 -0.08567766845226288
-0.48867082595825195 6.702441215515137 1.0643802881240845 85.0 12 -0.08567536622285843
-0.1338684856891632 1.8360942602157593 -0.1610638052225113 100.0 5 -0.08567306399345398
-0.4872121810913086 6.698598384857178 1.3055152893066406 100.0 13 -0.08567075431346893
-0.13803298771381378 1.9023813009262085 -0.09996168315410614 19.0 6 -0.08566845208406448
-0.4843876361846924 6.692004203796387 1.5490130186080933 100.0 14 -0.08566614985466003
-0.1324959397315979 1.83494234085083 -0.032112427055835724 26.0 7 -0.08566384762525558
-0.4810633063316345 6.678494453430176 1.7941336631774902 63.0 15 -0.08566154539585114
-0.12961973249912262 1.8306759595870972 -0.4917562007904053 90.0 0 -0.0856408029794693
-0.1290500909090042 1.8271695375442505 0.03197281062602997 30.0 8 -0.08563850075006485
-0.12928567826747894 1.8350621461868286 -0.4247076213359833 90.0 1 -0.0856361985206604
-0.1284339874982834 1.8229732513427734 0.095774807035923 100.0 9 -0.08563389629125595
-0.12786231935024261 1.81937575340271 -0.3545231223106384 97.0 2 -0.0856315866112709
-0.4712109863758087 6.721765518188477 0.5895214676856995 90.0 10 -0.08562928438186646
-0.12842537462711334 1.83656644821167 -0.29159387946128845 100.0 3 -0.085626982152462
-0.4677031636238098 6.705231189727783 0.8252992630004883 93.0 11 -0.08562467992305756
-0.1270349770784378 1.8258411884307861 -0.2247270941734314 96.0 4 -0.08562237024307251
-0.46561750769615173 6.692201614379883 1.0625029802322388 85.0 12 -0.08562006801366806
-0.12663038074970245 1.82462477684021 -0.1600179374217987 100.0 5 -0.08561776578426361
-0.46382495760917664 6.700258255004883 1.3055152893066406 100.0 13 -0.08561546355485916
-0.1313920021057129 1.9028515815734863 -0.09996168315410614 19.0 6 -0.08561316132545471
-0.46129128336906433 6.697543144226074 1.549912929534912 100.0 14 -0.08561085164546967
-0.12654809653759003 1.8373668193817139 -0.03214733302593231 23.0 7 -0.08560854941606522
-0.4583825170993805 6.672344207763672 1.7920631170272827 63.0 15 -0.08560624718666077
-0.12296877056360245 1.8272625207901 -0.4907209575176239 92.0 0 -0.08558551222085953
-0.1223192885518074 1.8176114559173584 0.031798284500837326 30.0 8 -0.08558320254087448
-0.12319918721914291 1.8354809284210205 -0.4247076213359833 89.0 1 -0.08558090031147003
-0.12220364063978195 1.8254034519195557 0.09587948024272919 100.0 9 -0.08557859808206558
-0.12177184224128723 1.8237290382385254 -0.3552863597869873 97.0 2 -0.08557629585266113
-0.447213351726532 6.715417385101318 0.5888242125511169 93.0 10 -0.08557398617267609
-0.12207135558128357 1.8330403566360474 -0.2909681499004364 100.0 3 -0.08557168394327164
-0.4459896683692932 6.714667797088623 0.8262742161750793 97.0 11 -0.08556938171386719
-0.12150479853153229 1.8341753482818604 -0.22570204734802246 96.0 4 -0.08556707948446274
-0.4430341124534607 6.705612659454346 1.0643802881240845 88.0 12 -0.08556477725505829
-0.11973683536052704 1.8171032667160034 -0.15932069718837738 100.0 5 -0.08556246757507324
-0.4416080713272095 6.701759338378906 1.3055152893066406 100.0 13 -0.08556016534566879
-0.1266532987356186 1.9271924495697021 -0.10121775418519974 32.0 6 -0.08555786311626434
-0.4395868480205536 6.706814289093018 1.5517125129699707 100.0 14 -0.0855555608868599
-0.12104716897010803 1.8517653942108154 -0.03239166736602783 26.0 7 -0.08555325120687485
-0.43484216928482056 6.670047283172607 1.7910279035568237 63.0 15 -0.0855509489774704
-0.1171548068523407 1.8315160274505615 -0.4917562007904053 90.0 0 -0.08553021401166916
-0.11610071361064911 1.8200230598449707 0.031833190470933914 30.0 8 -0.08552791178226471
-0.11629778891801834 1.8281203508377075 -0.4229080080986023 89.0 1 -0.08552560210227966
-0.11570411175489426 1.823825478553772 0.095774807035923 100.0 9 -0.08552329987287521
-0.11572296917438507 1.8241227865219116 -0.3552863597869873 94.0 2 -0.08552099764347076
-0.4254463315010071 6.724817276000977 0.5895214676856995 90.0 10 -0.08551869541406631
-0.11542461067438126 1.829512119293213 -0.29034239053726196 100.0 3 -0.08551639318466187
-0.42204800248146057 6.708259582519531 0.8252992630004883 99.0 11 -0.08551408350467682
-0.11510110646486282 1.8345884084701538 -0.22570204734802246 94.0 4 -0.08551178127527237
-0.4201224744319916 6.715003490447998 1.0656317472457886 88.0 12 -0.08550947904586792
-0.11388900130987167 1.8254642486572266 -0.1600179374217987 100.0 5 -0.08550717681646347
-0.41772109270095825 6.695422172546387 1.3039886951446533 100.0 13 -0.08550486713647842
-0.1204209178686142 1.9355963468551636 -0.10163643956184387 36.0 6 -0.08550256490707397
-0.41641896963119507 6.712197780609131 1.5526123046875 100.0 14 -0.08550026267766953
-0.11433512717485428 1.8481848239898682 -0.032321859151124954 26.0 7 -0.08549796044826508
-0.41203072667121887 6.6792378425598145 1.7930984497070312 63.0 15 -0.08549565076828003
-0.11090660095214844 1.8396464586257935 -0.4938267767429352 89.0 0 -0.08547491580247879
-0.10986766219139099 1.8224132061004639 0.031868092715740204 30.0 8 -0.08547261357307434
-0.11014912277460098 1.8324055671691895 -0.4238077998161316 87.0 1 -0.08547031134366989
-0.10909759253263474 1.8202309608459473 0.09556546807289124 100.0 9 -0.08546800911426544
-0.10962244123220444 1.8343335390090942 -0.3571944534778595 99.0 2 -0.0854656994342804
-0.4007972776889801 6.7263312339782715 0.5895214676856995 90.0 10 -0.08546339720487595
-0.10906845331192017 1.8358386754989624 -0.2912810146808624 100.0 3 -0.0854610949754715
-0.39886289834976196 6.7136549949646 0.8257867693901062 97.0 11 -0.08545879274606705
-0.10822734981775284 1.8270524740219116 -0.2247270941734314 94.0 4 -0.085456483066082
