# .PCD v0.7 - Point Cloud Data file format
VERSION 0.7
FIELDS x y z intensity ring time
SIZE 4 4 4 4 4 4
TYPE F F F F F F
COUNT 1 1 1 1 1 1
WIDTH 546
HEIGHT 1
VIEWPOINT 0 0 0 1 0 0 0
POINTS 546
DATA ascii
-3.031299352645874 0.4146973490715027 0.05340436473488808 50.0 8 -0.05600978061556816
-2.5678446292877197 0.351750910282135 -0.598369836807251 74.0 1 -0.05600747838616371
-3.0571422576904297 0.41931989789009094 0.16171811521053314 33.0 9 -0.056005172431468964
-2.557732343673706 0.3508204519748688 -0.5018276572227478 82.0 2 -0.056002870202064514
-2.98250412940979 0.4096128046512604 0.2633846402168274 1.0 10 -0.056000567972660065
-2.547961473464966 0.35038644075393677 -0.407355397939682 79.0 3 -0.05599826201796532
-2.5407052040100098 0.3502922058105469 -0.3149104118347168 63.0 4 -0.05599365383386612
-2.7552452087402344 0.38036128878593445 -0.24333882331848145 9.0 5 -0.05598904564976692
-2.3958423137664795 0.3315979838371277 -0.1267576962709427 18.0 6 -0.055984437465667725
-2.992863893508911 0.41529381275177 -0.052741169929504395 69.0 7 -0.05597982928156853
-9.666854858398438 1.343105435371399 2.615107536315918 0.0 15 -0.05597752705216408
-2.5770061016082764 0.361257404088974 -0.6972585916519165 74.0 0 -0.05595679208636284
-3.0298333168029785 0.42527541518211365 0.05340436473488808 49.0 8 -0.05595448613166809
-2.570460557937622 0.3612547218799591 -0.5992696285247803 45.0 1 -0.05595218390226364
-3.05961537361145 0.430545449256897 0.1619274616241455 33.0 9 -0.05594987794756889
-2.5642683506011963 0.3608407974243164 -0.5033541321754456 82.0 2 -0.055947575718164444
-2.9810562133789062 0.42002055048942566 0.2633846402168274 1.0 10 -0.055945269763469696
-2.5408549308776855 0.3584505617618561 -0.40641677379608154 73.0 3 -0.05594296753406525
-2.5414326190948486 0.35943686962127686 -0.31515416502952576 60.0 4 -0.05593835934996605
-2.761791706085205 0.39109405875205994 -0.24403607845306396 9.0 5 -0.05593375116586685
-2.3907153606414795 0.3393976390361786 -0.12654836475849152 16.0 6 -0.055929142981767654
-9.70654296875 1.3797165155410767 2.2634575366973877 1.0 14 -0.055926837027072906
-3.0072338581085205 0.42799246311187744 -0.0530204102396965 76.0 7 -0.05592453479766846
-9.711833953857422 1.3839269876480103 2.628566265106201 0.0 15 -0.05592222884297371
-2.5757293701171875 0.37025007605552673 -0.6972585916519165 72.0 0 -0.05590149387717247
-3.0303094387054443 0.43613454699516296 0.053439266979694366 40.0 8 -0.05589919164776802
-3.0482099056243896 0.43979620933532715 0.1614041030406952 29.0 9 -0.05589458346366882
-2.570765972137451 0.37091049551963806 -0.5048806071281433 78.0 2 -0.055892277508974075
-2.995347023010254 0.43270349502563477 0.26477915048599243 1.0 10 -0.055889975279569626
-2.568913459777832 0.3715592324733734 -0.4111098051071167 86.0 3 -0.05588766932487488
-2.5421268939971924 0.3685908019542694 -0.31539788842201233 63.0 4 -0.05588306114077568
-9.80374813079834 1.4232227802276611 1.569037914276123 0.0 12 -0.05588075891137123
-2.7642831802368164 0.4017864465713501 -0.24438470602035522 9.0 5 -0.05587845295667648
-9.821051597595215 1.4274824857711792 1.9290790557861328 1.0 13 -0.055876150727272034
-2.3895158767700195 0.3477407693862915 -0.12654836475849152 15.0 6 -0.055873844772577286
-3.017594337463379 0.4402191936969757 -0.05322984233498573 74.0 7 -0.05586923658847809
-9.737529754638672 1.4222869873046875 2.6368486881256104 0.0 15 -0.05586693435907364
-2.5858218669891357 0.38138002157211304 -0.700364351272583 69.0 0 -0.0558461993932724
-3.036681890487671 0.44787687063217163 0.05357888713479042 42.0 8 -0.05584389343857765
-3.0466561317443848 0.4504338204860687 0.1614041030406952 28.0 9 -0.055839285254478455
-2.5616204738616943 0.37918105721473694 -0.5033541321754456 78.0 2 -0.055836983025074005
-2.983887195587158 0.4422180652618408 0.2639075815677643 2.0 10 -0.05583467707037926
-2.5519027709960938 0.3786529302597046 -0.4086068868637085 77.0 3 -0.05583237484097481
-2.550642490386963 0.37892085313796997 -0.31661656498908997 69.0 4 -0.05582776665687561
-9.85733699798584 1.4661518335342407 1.5784238576889038 0.0 12 -0.05582546070218086
-2.7628636360168457 0.4114339053630829 -0.24438470602035522 9.0 5 -0.05582315847277641
-9.815752983093262 1.4634714126586914 1.9290790557861328 1.0 13 -0.055820852518081665
-2.3921761512756348 0.3570856750011444 -0.1267576962709427 17.0 6 -0.055818550288677216
-3.0002174377441406 0.4483853578567505 -0.052950602024793625 74.0 7 -0.05581394210457802
-9.732505798339844 1.4562687873840332 2.6368486881256104 0.0 15 -0.05581163987517357
-2.578744411468506 0.3895377218723297 -0.698811411857605 63.0 0 -0.05579090118408203
-3.0330426692962646 0.4587041437625885 0.05354398116469383 35.0 8 -0.05578859895467758
-3.0490145683288574 0.46166473627090454 0.16161344945430756 29.0 9 -0.055783990770578384
-2.546694040298462 0.3860601782798767 -0.5006828308105469 35.0 2 -0.055781684815883636
-2.9764153957366943 0.4517342150211334 0.2633846402168274 1.0 10 -0.05577938258647919
-2.583765745162964 0.39260321855545044 -0.4139256477355957 82.0 3 -0.05577707663178444
-2.553161859512329 0.388864129781723 -0.3171040713787079 69.0 4 -0.05577246844768524
-9.852158546447754 1.5005515813827515 1.5784238576889038 0.0 12 -0.05577016621828079
-2.7495927810668945 0.41927358508110046 -0.24333882331848145 9.0 5 -0.05576786398887634
-2.3948636054992676 0.36603790521621704 -0.12696704268455505 16.0 6 -0.055763255804777145
-2.994680643081665 0.458250492811203 -0.05288079380989075 69.0 7 -0.05575864762067795
-9.727363586425781 1.490230679512024 2.6368486881256104 0.0 15 -0.0557563416659832
-3.029528856277466 0.46845415234565735 0.05350907891988754 31.0 8 -0.05573330074548721
-2.4630987644195557 0.3813081383705139 -0.57542484998703 1.0 1 -0.055730998516082764
-3.0592267513275146 0.4741396903991699 0.16224147379398346 28.0 9 -0.055728692561388016
-2.974820375442505 0.4621218740940094 0.2633846402168274 2.0 10 -0.05572408810257912
-2.5492663383483887 0.39601442217826843 -0.4086068868637085 77.0 3 -0.05572178214788437
-2.559703826904297 0.39855027198791504 -0.31807902455329895 67.0 4 -0.05571717396378517
-2.744175434112549 0.4282539188861847 -0.24299021065235138 9.0 5 -0.055712565779685974
-2.409423351287842 0.3764435052871704 -0.12780441343784332 15.0 6 -0.05570795759558678
-2.9950382709503174 0.4690098166465759 -0.05291569605469704 72.0 7 -0.05570334941148758
-9.722102165222168 1.524176836013794 2.6368486881256104 0.0 15 -0.05570104718208313
-2.4634509086608887 0.3892906904220581 -0.6682707667350769 1.0 0 -0.05568030849099159
-3.0219497680664062 0.47808894515037537 0.05340436473488808 27.0 8 -0.05567800626158714
-2.4617528915405273 0.38990309834480286 -0.57542484998703 1.0 1 -0.055675704032182693
-3.0614984035491943 0.4854411482810974 0.16245082020759583 27.0 9 -0.055673398077487946
-2.4800190925598145 0.39323991537094116 -0.4880894422531128 1.0 2 -0.055671095848083496
-2.989013910293579 0.4744825065135956 0.26477915048599243 1.0 10 -0.05566878989338875
-2.540064811706543 0.4036698639392853 -0.407355397939682 32.0 3 -0.0556664876639843
-2.566138505935669 0.408732533454895 -0.3190539479255676 67.0 4 -0.0556618794798851
-2.7387290000915527 0.43720218539237976 -0.24264158308506012 9.0 5 -0.055657271295785904
-2.394289016723633 0.38264593482017517 -0.12707172334194183 18.0 6 -0.05565266311168671
-3.00917911529541 0.48199182748794556 -0.053194932639598846 72.0 7 -0.05564805492758751
-9.716721534729004 1.558106541633606 2.6368486881256104 0.0 15 -0.05564574897289276
-2.442936897277832 0.39523178339004517 -0.6630944013595581 1.0 0 -0.05562501400709152
-3.0202622413635254 0.4886346459388733 0.05340436473488808 28.0 8 -0.05562271177768707
-2.4103610515594482 0.3903931975364685 -0.5637273788452148 3.0 1 -0.055620405822992325
-3.0617568492889404 0.49644458293914795 0.1625555008649826 24.0 9 -0.055618103593587875
-2.9872546195983887 0.48543471097946167 0.26477915048599243 1.0 10 -0.05561349540948868
-2.5607779026031494 0.4170488715171814 -0.3185664713382721 66.0 4 -0.05560658127069473
-2.745051383972168 0.4480433166027069 -0.24333882331848145 9.0 5 -0.055601973086595535
-2.3830151557922363 0.3898063004016876 -0.12654836475849152 16.0 6 -0.05559736490249634
-3.0094516277313232 0.49281686544418335 -0.05322984233498573 63.0 7 -0.05559275671839714
-2.4910976886749268 0.41195183992385864 -0.6765530109405518 1.0 0 -0.05556971952319145
-3.0302882194519043 0.5016608834266663 0.05361378937959671 25.0 8 -0.055567413568496704
-2.458899736404419 0.4075084626674652 -0.57542484998703 1.0 1 -0.055565111339092255
-3.0600054264068604 0.5071284770965576 0.1625555008649826 24.0 9 -0.05556280538439751
-2.4035441875457764 0.39876607060432434 -0.4735879600048065 1.0 2 -0.05556050315499306
-2.977680206298828 0.4945535361766815 0.2640818953514099 1.0 10 -0.05555819720029831
-2.4689090251922607 0.41049614548683167 -0.3964049816131592 1.0 3 -0.05555589497089386
-2.5513997077941895 0.42512673139572144 -0.3175915479660034 66.0 4 -0.05555128678679466
-2.745435953140259 0.457951158285141 -0.24351313710212708 8.0 5 -0.055546678602695465
-2.3973991870880127 0.4007565975189209 -0.1273857206106186 16.0 6 -0.05554207041859627
-3.001796245574951 0.5023287534713745 -0.05312512442469597 65.0 7 -0.05553746223449707
-2.4134504795074463 0.40777134895324707 -0.6558474898338318 1.0 0 -0.05551442131400108
-3.0286080837249756 0.5117070078849792 0.05361378937959671 25.0 8 -0.055512119084596634
-2.4575347900390625 0.4156602919101715 -0.57542484998703 1.0 1 -0.055509813129901886
-3.062154769897461 0.5184744596481323 0.16276483237743378 25.0 9 -0.055507510900497437
-2.402137517929077 0.4071536362171173 -0.4735879600048065 1.0 2 -0.05550520494580269
-2.968078374862671 0.5036107301712036 0.2633846402168274 2.0 10 -0.05550290271639824
-2.463639497756958 0.41801974177360535 -0.39577925205230713 1.0 3 -0.05550059676170349
-2.5617177486419678 0.4355818033218384 -0.3190539479255676 66.0 4 -0.055495988577604294
-2.737928628921509 0.46652713418006897 -0.24299021065235138 9.0 5 -0.055491380393505096
-2.401963472366333 0.4097120463848114 -0.12769974768161774 15.0 6 -0.0554867759346962
-3.0000245571136475 0.512803316116333 -0.05312512442469597 67.0 7 -0.055482167750597
-2.3930470943450928 0.41249093413352966 -0.650671124458313 1.0 0 -0.05545912683010101
-3.0287740230560303 0.5226150751113892 0.0536486990749836 24.0 8 -0.055456820875406265
-2.367734909057617 0.4089789092540741 -0.5547293424606323 2.0 1 -0.055454518646001816
-3.0681984424591064 0.5305214524269104 0.1631835252046585 21.0 9 -0.05545221269130707
-2.974245071411133 0.5148099064826965 0.2640818953514099 2.0 10 -0.05544760450720787
-2.568005084991455 0.4458789825439453 -0.3200289309024811 64.0 4 -0.055440694093704224
-2.722543239593506 0.473690927028656 -0.24177002906799316 8.0 5 -0.055436085909605026
-2.402486562728882 0.418436199426651 -0.12780441343784332 20.0 6 -0.05543147772550583
-3.0021560192108154 0.5239598751068115 -0.053194932639598846 60.0 7 -0.05542686954140663
-3.0229926109313965 0.532490611076355 0.05357888713479042 22.0 8 -0.055401526391506195
-2.3778076171875 0.4192717671394348 -0.557428777217865 2.0 1 -0.055399224162101746
-3.078129291534424 0.5433105826377869 0.1638115644454956 20.0 9 -0.055396918207407
-2.984109401702881 0.5277902483940125 0.2651277482509613 1.0 10 -0.0553923100233078
-2.578160524368286 0.45691943168640137 -0.3214913308620453 61.0 4 -0.05538539960980415
-2.72871994972229 0.4845850169658661 -0.2424672693014145 8.0 5 -0.055380791425704956
-2.4009368419647217 0.4272395372390747 -0.12780441343784332 18.0 6 -0.05537618324160576
-3.010152578353882 0.536189615726471 -0.05336945876479149 58.0 7 -0.05537157505750656
-2.435667037963867 0.4378070533275604 -0.6630944013595581 1.0 0 -0.055348534137010574
-3.022988796234131 0.5439209938049316 0.05361378937959671 21.0 8 -0.055346231907606125
-2.452970266342163 0.441800594329834 -0.57542484998703 1.0 1 -0.05534392595291138
-3.064323663711548 0.5524633526802063 0.1631835252046585 20.0 9 -0.05534162372350693
-2.39774227142334 0.43228617310523987 -0.4735879600048065 1.0 2 -0.05533931776881218
-2.970484972000122 0.5360798835754395 0.2640818953514099 1.0 10 -0.05533701553940773
-2.5608417987823486 0.4635372757911682 -0.31954145431518555 61.0 4 -0.055330101400613785
-2.7308461666107178 0.4952941834926605 -0.24281588196754456 8.0 5 -0.05532549321651459
-2.397465467453003 0.4352610111236572 -0.12769974768161774 18.0 6 -0.05532088503241539
-3.014069080352783 0.5482925176620483 -0.053474172949790955 55.0 7 -0.05531627684831619
-3.5693256855010986 0.6499434113502502 0.9721243977546692 1.0 15 -0.05531397461891174
-2.4188454151153564 0.4439408779144287 -0.6589533090591431 1.0 0 -0.055293239653110504
-3.025005340576172 0.5551919341087341 0.053683605045080185 17.0 8 -0.055290933698415756
-2.4015798568725586 0.44120535254478455 -0.5637273788452148 1.0 1 -0.05528863146901131
-3.06630539894104 0.5638783574104309 0.16339287161827087 21.0 9 -0.05528632551431656
-2.396141767501831 0.44107088446617126 -0.4735879600048065 1.0 2 -0.05528402328491211
-2.988093852996826 0.5505746603012085 0.2658250033855438 1.0 10 -0.05528171733021736
-3.529517412185669 0.6509721875190735 0.4406795799732208 1.0 11 -0.055277109146118164
-2.559208393096924 0.4724729061126709 -0.31954145431518555 58.0 4 -0.055274806916713715
-3.533384084701538 0.6529607176780701 0.5691086649894714 1.0 12 -0.05527250096201897
-2.7330188751220703 0.5055484771728516 -0.243164524435997 8.0 5 -0.05527019873261452
-3.5269176959991455 0.6530380845069885 0.6972161531448364 1.0 13 -0.05526789277791977
-2.397818088531494 0.4444092810153961 -0.12780441343784332 18.0 6 -0.05526559054851532
-3.5006167888641357 0.6494329571723938 0.8219712376594543 1.0 14 -0.05526328459382057
-3.5214502811431885 0.6539328098297119 0.9597010612487793 3.0 15 -0.055258676409721375
-2.387054681777954 0.4458625614643097 -0.650671124458313 1.0 0 -0.05524444580078125
-3.0310099124908447 0.5666903257369995 0.05382322147488594 13.0 8 -0.0552421435713768
-2.449906349182129 0.45848721265792847 -0.57542484998703 1.0 1 -0.05523983761668205
-3.0722708702087402 0.5755152702331543 0.1638115644454956 21.0 9 -0.0552375353872776
-2.3947441577911377 0.44859710335731506 -0.4735879600048065 1.0 2 -0.055235229432582855
-3.047055959701538 0.5713415741920471 0.2712286710739136 3.0 10 -0.055232927203178406
-3.5136828422546387 0.660107433795929 0.43897342681884766 2.0 11 -0.05522831901907921
-2.5576274394989014 0.48095703125 -0.31954145431518555 50.0 4 -0.05522601306438446
-3.511786699295044 0.6610195636749268 0.5659799575805664 2.0 12 -0.05522371083498001
-2.7177112102508545 0.5115516185760498 -0.2419443279504776 8.0 5 -0.05522140488028526
-3.47468638420105 0.654664933681488 0.687294065952301 2.0 13 -0.055219102650880814
-2.4042606353759766 0.45342016220092773 -0.12822310626506805 20.0 6 -0.055216796696186066
-3.4181325435638428 0.6452451348304749 0.8030753135681152 1.0 14 -0.055214494466781616
-3.061795949935913 0.579085111618042 0.8349502682685852 7.0 15 -0.05520988628268242
-2.408256769180298 0.45852822065353394 -0.6568827629089355 1.0 0 -0.05518915131688118
-3.0172274112701416 0.575020968914032 0.05361378937959671 12.0 8 -0.05518684536218643
-2.4482908248901367 0.4670368731021881 -0.57542484998703 1.0 1 -0.05518454313278198
-3.0780909061431885 0.5877337455749512 0.16423025727272034 19.0 9 -0.055182237178087234
-2.3931636810302734 0.45695310831069946 -0.4735879600048065 1.0 2 -0.055179934948682785
-3.015688419342041 0.5763640999794006 0.2686139941215515 3.0 10 -0.05517762899398804
-3.4684643745422363 0.6641544103622437 0.4336111545562744 2.0 11 -0.05517302080988884
-2.5598320960998535 0.49062931537628174 -0.3200289309024811 51.0 4 -0.05517071858048439
-3.0710179805755615 0.5891619920730591 0.49527156352996826 6.0 12 -0.05516841262578964
-2.7002553939819336 0.5180327296257019 -0.24054984748363495 7.0 5 -0.05516611039638519
-3.052069902420044 0.586078405380249 0.604101300239563 8.0 13 -0.055163804441690445
-2.41443133354187 0.4640718102455139 -0.12885113060474396 22.0 6 -0.055161502212285995
-3.046525716781616 0.586117148399353 0.7162442207336426 16.0 14 -0.05515919625759125
-3.0161263942718506 0.5813597440719604 0.8230445981025696 24.0 15 -0.05515458807349205
-2.3838837146759033 0.4625164866447449 -0.650671124458313 1.0 0 -0.05513385310769081
-3.0053868293762207 0.5836427807807922 0.053439266979694366 10.0 8 -0.05513155087828636
-2.446645736694336 0.4755796194076538 -0.57542484998703 1.0 1 -0.055129244923591614
-3.091809034347534 0.600986659526825 0.1650676131248474 19.0 9 -0.055126942694187164
-2.391554117202759 0.46530407667160034 -0.4735879600048065 1.0 2 -0.055124636739492416
-3.060593843460083 0.5960270166397095 0.27279746532440186 28.0 10 -0.05512233451008797
-3.0569703578948975 0.5964296460151672 0.38242605328559875 35.0 11 -0.05511772632598877
-2.569793462753296 0.5018453001976013 -0.3214913308620453 49.0 4 -0.05511542037129402
-3.067108631134033 0.5989640951156616 0.49495869874954224 48.0 12 -0.05511311814188957
-2.717984676361084 0.5312768220901489 -0.24229297041893005 8.0 5 -0.055110812187194824
-3.038444995880127 0.5944668650627136 0.6018115878105164 47.0 13 -0.055108509957790375
-2.4147567749023438 0.4728814363479614 -0.12895581126213074 23.0 6 -0.05510620400309563
-3.063584804534912 0.6004956960678101 0.7207432389259338 42.0 14 -0.05510390177369118
-2.735521078109741 0.5361917018890381 -0.048657309263944626 1.0 7 -0.05510159954428673
-3.019869089126587 0.5924743413925171 0.8245974779129028 35.0 15 -0.05509929358959198
-3.011281967163086 0.5951568484306335 0.05357888713479042 10.0 8 -0.05507625266909599
-3.0818557739257812 0.6102237701416016 0.16464893519878387 19.0 9 -0.055071644484996796
-2.4592442512512207 0.48738887906074524 -0.4873262047767639 1.0 2 -0.055069342255592346
-3.0604488849639893 0.6070953607559204 0.2729717791080475 23.0 10 -0.0550670363008976
-3.047187089920044 0.605017364025116 0.3814510703086853 53.0 11 -0.0550624281167984
-2.5603272914886475 0.5088160634040833 -0.3205164074897766 49.0 4 -0.05506012588739395
-3.061124563217163 0.6088953018188477 0.4943329691886902 41.0 12 -0.0550578236579895
-2.706343173980713 0.538815975189209 -0.2414214164018631 7.0 5 -0.055055517703294754
-3.0499353408813477 0.6072229743003845 0.6044829487800598 45.0 13 -0.055053215473890305
-2.4151341915130615 0.481276273727417 -0.12906047701835632 27.0 6 -0.05505090951919556
-3.029087781906128 0.604171633720398 0.7130948901176453 25.0 14 -0.05504860728979111
-2.702256917953491 0.5394734144210815 -0.04809883236885071 7.0 7 -0.05504630133509636
-3.010205030441284 0.6014986634254456 0.8225269913673401 30.0 15 -0.05504399910569191
-2.3806803226470947 0.47873181104660034 -0.650671124458313 1.0 0 -0.05502326041460037
-3.0189878940582275 0.6076375246047974 0.05375341325998306 9.0 8 -0.05502095818519592
-3.075791120529175 0.620188295841217 0.1644395887851715 19.0 9 -0.055016350001096725
-2.4152748584747314 0.4870048463344574 -0.47893062233924866 1.0 2 -0.05501404404640198
-3.0467007160186768 0.6148752570152283 0.2719258964061737 22.0 10 -0.05501174181699753
-3.0333824157714844 0.6132901310920715 0.3799886405467987 36.0 11 -0.05500713363289833
-2.562426805496216 0.518537700176239 -0.32100388407707214 46.0 4 -0.05500483140349388
-3.0318753719329834 0.6140870451927185 0.48995280265808105 36.0 12 -0.05500252544879913
-2.71420955657959 0.5502389669418335 -0.24229297041893005 7.0 5 -0.055000223219394684
-3.0343282222747803 0.6151351928710938 0.6018115878105164 38.0 13 -0.054997917264699936
-2.401695489883423 0.48732084035873413 -0.12843245267868042 24.0 6 -0.054995615035295486
-3.017411708831787 0.6128023266792297 0.7108453512191772 33.0 14 -0.05499330908060074
-2.708195686340332 0.5504961609840393 -0.04823845252394676 18.0 7 -0.05499100685119629
-3.011873245239258 0.6127721667289734 0.8235622644424438 35.0 15 -0.05498870089650154
-3.016848564147949 0.6181728839874268 0.05375341325998306 9.0 8 -0.054965659976005554
-2.4034388065338135 0.49291807413101196 -0.5664268136024475 1.0 1 -0.054963357746601105
-3.085346221923828 0.6333299875259399 0.1650676131248474 19.0 9 -0.054961055517196655
-3.050281286239624 0.6272425651550293 0.2724488377571106 49.0 10 -0.05495644733309746
-3.0370562076568604 0.6250747442245483 0.3807198405265808 50.0 11 -0.05495183914899826
-2.5722668170928955 0.5298822522163391 -0.32246631383895874 44.0 4 -0.05494953319430351
-3.037451982498169 0.6262621879577637 0.49120426177978516 36.0 12 -0.05494723096489906
-2.696662187576294 0.556488037109375 -0.2408984750509262 7.0 5 -0.054944925010204315
-3.0551254749298096 0.6310178637504578 0.6063910126686096 38.0 13 -0.054942622780799866
-2.411628246307373 0.4985462427139282 -0.12906047701835632 25.0 6 -0.05494031682610512
-3.0666699409484863 0.6345185041427612 0.7229927778244019 43.0 14 -0.05493801459670067
-3.0380916595458984 0.6291583180427551 0.8313267827033997 37.0 15 -0.05493340641260147
-3.0145626068115234 0.6292253732681274 0.05375341325998306 9.0 8 -0.054910365492105484
-3.094733953475952 0.6470875144004822 0.1656956523656845 19.0 9 -0.05490575730800629
-3.0558738708496094 0.6395180225372314 0.2731460928916931 24.0 10 -0.05490114912390709
-3.0813732147216797 0.6459779143333435 0.3865695893764496 48.0 11 -0.05489654093980789
-2.5819644927978516 0.5417518615722656 -0.32392874360084534 43.0 4 -0.05489423871040344
-3.096998929977417 0.6503822207450867 0.5012161135673523 45.0 12 -0.054891932755708694
-2.700552463531494 0.5671268701553345 -0.2414214164018631 7.0 5 -0.054889630526304245
-3.0894081592559814 0.6493511199951172 0.6136417388916016 46.0 13 -0.0548873245716095
-2.417691469192505 0.5086055397987366 -0.12947916984558105 24.0 6 -0.05488502234220505
-3.106388807296753 0.6540524959564209 0.7328906059265137 48.0 14 -0.0548827163875103
-3.0622291564941406 0.6458701491355896 0.8385737538337708 38.0 15 -0.0548781082034111
-3.0084357261657715 0.6389135718345642 0.053683605045080185 9.0 8 -0.054855071008205414
-3.100270986557007 0.6595479846000671 0.16611434519290924 20.0 9 -0.054850462824106216
-3.1003921031951904 0.6601393222808838 0.27732956409454346 45.0 10 -0.05484585464000702
-3.0965726375579834 0.6604560613632202 0.3887632191181183 55.0 11 -0.05484124645590782
-2.580057382583618 0.5507619380950928 -0.32392874360084534 43.0 4 -0.054838940501213074
-3.112095832824707 0.664903461933136 0.5040318965911865 53.0 12 -0.054836638271808624
-2.694659471511841 0.5757176280021667 -0.24107277393341064 6.0 5 -0.054834332317113876
-3.0948023796081543 0.6617727279663086 0.6151682734489441 46.0 13 -0.05483203008770943
-2.4041831493377686 0.5145344734191895 -0.12885113060474396 24.0 6 -0.05482972413301468
-3.085031747817993 0.6608103513717651 0.7283915877342224 40.0 14 -0.05482742190361023
-3.0599558353424072 0.6565561890602112 0.8385737538337708 38.0 15 -0.05482281371951103
-3.029642343521118 0.6544787883758545 0.05410246178507805 9.0 8 -0.054799772799015045
-3.0901412963867188 0.6686763763427734 0.1656956523656845 21.0 9 -0.05479516461491585
-3.103910446166992 0.672223687171936 0.27785250544548035 37.0 10 -0.05479055643081665
-3.0942482948303223 0.6712611317634583 0.3887632191181183 53.0 11 -0.05478594824671745
-2.570359468460083 0.5580799579620361 -0.3229537904262543 42.0 4 -0.054783646017313004
-3.1097559928894043 0.6757620573043823 0.5040318965911865 41.0 12 -0.054781340062618256
-2.6790049076080322 0.5821581482887268 -0.23985259234905243 7.0 5 -0.054779037833213806
-3.080962896347046 0.6700682640075684 0.6128785014152527 37.0 13 -0.05477673560380936
-2.400420665740967 0.5224987268447876 -0.12874646484851837 23.0 6 -0.05477442964911461
-3.08841872215271 0.6728188395500183 0.7297412753105164 42.0 14 -0.05477212741971016
-3.046320676803589 0.6647622585296631 0.8354679346084595 38.0 15 -0.05476751923561096
-3.019526958465576 0.6633333563804626 0.053962841629981995 9.0 8 -0.054744478315114975
-3.079986095428467 0.6777421236038208 0.16527697443962097 21.0 9 -0.05473987013101578
-3.107382297515869 0.684339165687561 0.27837544679641724 34.0 10 -0.05473526194691658
-3.089947462081909 0.6816312074661255 0.3885194957256317 46.0 11 -0.05473065376281738
-2.580026388168335 0.5696160197257996 -0.32441622018814087 41.0 4 -0.05472835153341293
-3.068801164627075 0.6780889630317688 0.49777454137802124 37.0 12 -0.054726045578718185
-2.6944656372070312 0.5953750014305115 -0.2414214164018631 7.0 5 -0.054723743349313736
-3.0651865005493164 0.6778520941734314 0.610207200050354 38.0 13 -0.05472143739461899
-2.408332586288452 0.5330321192741394 -0.1292698234319687 24.0 6 -0.05471913516521454
-3.049901247024536 0.6755878329277039 0.7211931347846985 41.0 14 -0.05471682921051979
-3.03643798828125 0.6737174391746521 0.833397388458252 40.0 15 -0.05471222102642059
-2.24371337890625 0.5007069706916809 -0.6159893274307251 2.0 0 -0.054691486060619354
-3.0191445350646973 0.6743053793907166 0.053997743874788284 8.0 8 -0.054689180105924606
-3.0913658142089844 0.6910018920898438 0.16600966453552246 22.0 9 -0.05468457192182541
-3.0719220638275146 0.6877816319465637 0.2754121422767639 37.0 10 -0.05467996746301651
-3.062368869781494 0.6867653131484985 0.38535091280937195 48.0 11 -0.05467535927891731
-2.574148654937744 0.5777491331100464 -0.32392874360084534 36.0 4 -0.054673053324222565
-3.054971218109131 0.6856662631034851 0.4958972930908203 37.0 12 -0.054670751094818115
-2.6884829998016357 0.6039035320281982 -0.24107277393341064 6.0 5 -0.05466844514012337
-3.0628018379211426 0.6885468363761902 0.610207200050354 41.0 13 -0.05466614291071892
-2.4161999225616455 0.5436276197433472 -0.129793182015419 23.0 6 -0.05466383695602417
-3.0532279014587402 0.6875149607658386 0.7225428223609924 40.0 14 -0.05466153472661972
-3.024763822555542 0.681659460067749 0.8308091163635254 41.0 15 -0.05465692654252052
-2.228764057159424 0.5055446624755859 -0.6123659014701843 1.0 0 -0.054636191576719284
-3.020792007446289 0.6851982474327087 0.05406755208969116 8.0 8 -0.054633885622024536
-3.088934898376465 0.7017886638641357 0.16600966453552246 23.0 9 -0.05462927743792534
-3.069502592086792 0.6985005736351013 0.2754121422767639 37.0 10 -0.05462466925382614
-2.590651035308838 0.5895323753356934 -0.4208087623119354 1.0 3 -0.05462236702442169
-3.062009811401367 0.6973575949668884 0.38559460639953613 47.0 11 -0.054620061069726944
-2.576089382171631 0.5871645212173462 -0.32441622018814087 36.0 4 -0.054617758840322495
-3.0621886253356934 0.698522686958313 0.4974616467952728 36.0 12 -0.05461545288562775
-2.664992094039917 0.6084066033363342 -0.2391553521156311 5.0 5 -0.0546131506562233
-3.062415599822998 0.6991367340087891 0.610588788986206 37.0 13 -0.05461084470152855
-2.410489797592163 0.5507473945617676 -0.12958383560180664 11.0 6 -0.0546085424721241
-3.0623295307159424 0.7002418041229248 0.7252422571182251 51.0 14 -0.05460623651742935
-2.619863986968994 0.5995473861694336 -0.046912070363759995 1.0 7 -0.0546039342880249
-3.0223660469055176 0.6922138333320618 0.8308091163635254 51.0 15 -0.054601628333330154
-2.3663852214813232 0.545018196105957 -0.650671124458313 1.0 0 -0.054580893367528915
-3.0183818340301514 0.6957387328147888 0.05406755208969116 8.0 8 -0.054578591138124466
-3.0961966514587402 0.7148132920265198 0.16653302311897278 25.0 9 -0.05457398295402527
-3.074934482574463 0.7104697823524475 0.27610939741134644 41.0 10 -0.05456937476992607
-2.569331645965576 0.594120979309082 -0.4176800549030304 7.0 3 -0.05456706881523132
-3.0711610317230225 0.7107272148132324 0.3870570659637451 57.0 11 -0.054564766585826874
-2.585627317428589 0.5988406538963318 -0.32587864995002747 37.0 4 -0.054562460631132126
-3.0712778568267822 0.7118837833404541 0.49933886528015137 47.0 12 -0.054560158401727676
-2.666733980178833 0.6186060309410095 -0.23950397968292236 5.0 5 -0.05455785244703293
-3.0523064136505127 0.7080478072166443 0.6090623736381531 45.0 13 -0.05455555021762848
-2.42606258392334 0.5632233023643494 -0.1305258870124817 13.0 6 -0.05455324426293373
-3.052273750305176 0.7091637849807739 0.7234426140785217 51.0 14 -0.05455094203352928
-3.025576114654541 0.7040732502937317 0.8323620557785034 53.0 15 -0.054546333849430084
-2.2703235149383545 0.5316630601882935 -0.6247891783714294 1.0 0 -0.054525598883628845
-3.0237233638763428 0.7080937623977661 0.054207175970077515 8.0 8 -0.0545232929289341
-3.0878491401672363 0.7242485284805298 0.16621901094913483 28.0 9 -0.0545186847448349
-2.4178009033203125 0.5675346851348877 -0.48274680972099304 1.0 2 -0.05451638251543045
-3.0800678730010986 0.7235578298568726 0.27680662274360657 49.0 10 -0.0545140765607357
-2.5863659381866455 0.608055591583252 -0.4208087623119354 33.0 3 -0.05451177433133125
-3.06093168258667 0.7196261286735535 0.38608211278915405 57.0 11 -0.054509468376636505
-2.5796568393707275 0.6069526672363281 -0.32539117336273193 36.0 4 -0.054507166147232056
-3.078388214111328 0.72486412525177 0.5009031891822815 48.0 12 -0.05450486019253731
-2.682011604309082 0.6320238709449768 -0.24107277393341064 2.0 5 -0.05450255796313286
-3.0573344230651855 0.7210322618484497 0.610588788986206 45.0 13 -0.05450025200843811
-2.4220378398895264 0.5716527104377747 -0.1304212212562561 25.0 6 -0.05449794977903366
-3.05155086517334 0.7207934260368347 0.7238925695419312 52.0 14 -0.05449564754962921
-3.0343801975250244 0.7172975540161133 0.8354679346084595 54.0 15 -0.054491039365530014
-2.208312749862671 0.5252793431282043 -0.6082248091697693 1.0 0 -0.05447030067443848
-3.0249979496002197 0.7200984358787537 0.05427698418498039 8.0 8 -0.05446799844503403
-3.0812885761260986 0.7346341609954834 0.16600966453552246 29.0 9 -0.05446339026093483
-3.0910894870758057 0.7375417947769165 0.278026819229126 45.0 10 -0.05445878207683563
-2.584228038787842 0.6170794367790222 -0.4208087623119354 9.0 3 -0.054456476122140884
-3.0659966468811035 0.7326857447624207 0.3870570659637451 56.0 11 -0.054454173892736435
-2.588998794555664 0.619174599647522 -0.32685360312461853 24.0 4 -0.05445186793804169
-3.0661051273345947 0.7338423728942871 0.49933886528015137 45.0 12 -0.05444956570863724
-2.687540054321289 0.643236517906189 -0.24177002906799316 1.0 5 -0.05444726347923279
-3.05861759185791 0.7326154112815857 0.6113520860671997 45.0 13 -0.05444495752453804
-2.4277963638305664 0.5819660425186157 -0.13083989918231964 30.0 6 -0.05444265529513359
-3.0509114265441895 0.7318949103355408 0.7243424654006958 55.0 14 -0.05444034934043884
-3.035487651824951 0.729316234588623 0.8365032076835632 55.0 15 -0.054435741156339645
-2.2139768600463867 0.5347996354103088 -0.610295295715332 1.0 0 -0.054415006190538406
-3.026353597640991 0.7315924167633057 0.05434679239988327 8.0 8 -0.05441270023584366
-3.0942347049713135 0.749146044254303 0.16684705018997192 31.0 9 -0.05440809205174446
-3.088496208190918 0.7483265995979309 0.278026819229126 47.0 10 -0.05440348759293556
-2.5974161624908447 0.6298203468322754 -0.423311710357666 36.0 3 -0.054401181638240814
-3.073065757751465 0.7457243800163269 0.38827574253082275 53.0 11 -0.054398879408836365
-2.5945379734039307 0.6300813555717468 -0.3278285562992096 10.0 4 -0.05439657345414162
-3.067363977432251 0.7454737424850464 0.4999645948410034 51.0 12 -0.05439427122473717
-2.662045955657959 0.6469677090644836 -0.239678293466568 4.0 5 -0.05439196527004242
-3.065579652786255 0.7456074953079224 0.6132601499557495 50.0 13 -0.05438966304063797
-2.425750255584717 0.590436577796936 -0.13083989918231964 29.0 6 -0.05438735708594322
-3.0559113025665283 0.7443857192993164 0.7261420488357544 55.0 14 -0.05438505485653877
-3.025416135787964 0.7380762696266174 0.8344326615333557 55.0 15 -0.054380446672439575
-3.0160131454467773 0.7402454018592834 0.054207175970077515 7.0 8 -0.05435740575194359
-3.0916008949279785 0.7599416971206665 0.16684705018997192 31.0 9 -0.05435279756784439
-3.080061435699463 0.757675290107727 0.2775038778781891 48.0 10 -0.054348189383745193
-2.5952017307281494 0.6388838887214661 -0.423311710357666 41.0 3 -0.054345887154340744
-3.0742990970611572 0.7573959231376648 0.3887632191181183 55.0 11 -0.054343581199645996
-2.590395212173462 0.6386590003967285 -0.327584832906723 33.0 4 -0.05434127897024155
-3.0743322372436523 0.758543074131012 0.5015289187431335 45.0 12 -0.0543389730155468
-2.653968095779419 0.6548248529434204 -0.2391553521156311 4.0 5 -0.05433667078614235
-3.061052083969116 0.7558332085609436 0.6128785014152527 42.0 13 -0.0543343648314476
-2.4411251544952393 0.6032126545906067 -0.1317819505929947 34.0 6 -0.05433206260204315
-3.058969497680664 0.7564519047737122 0.7274917960166931 60.0 14 -0.054329756647348404
-2.608888626098633 0.6456347107887268 -0.046912070363759995 1.0 7 -0.054327454417943954
-3.019071102142334 0.7477030158042908 0.833397388458252 56.0 15 -0.05432514846324921
-3.01729154586792 0.7517356276512146 0.05427698418498039 7.0 8 -0.05430211126804352
-3.094742774963379 0.7721794247627258 0.16716106235980988 33.0 9 -0.05429750308394432
-3.085129976272583 0.7703527808189392 0.2782011330127716 48.0 10 -0.05429289489984512
-2.5910394191741943 0.6474595665931702 -0.4229988753795624 42.0 3 -0.054290588945150375
-3.0639336109161377 0.7661963105201721 0.3877882957458496 53.0 11 -0.054288286715745926
-2.592001438140869 0.6486618518829346 -0.32807230949401855 33.0 4 -0.05428598076105118
-3.0793304443359375 0.7711895704269409 0.5027804374694824 53.0 12 -0.05428367853164673
-2.6593968868255615 0.6660211086273193 -0.23985259234905243 4.0 5 -0.05428137257695198
-3.05458664894104 0.7655584812164307 0.6121153235435486 42.0 13 -0.05427907034754753
-2.4254438877105713 0.6083295345306396 -0.131049245595932 37.0 6 -0.05427676439285278
-3.0733211040496826 0.7713948488235474 0.731540858745575 61.0 14 -0.054274462163448334
-3.027683973312378 0.7610635161399841 0.8365032076835632 55.0 15 -0.054269853979349136
-3.0224037170410156 0.7642242312431335 0.05441660061478615 8.0 8 -0.05424681305885315
-3.097836971282959 0.7844482660293579 0.16747507452964783 30.0 9 -0.05424220487475395
-3.0959415435791016 0.7845432758331299 0.27942129969596863 43.0 10 -0.054237596690654755
-2.6002519130706787 0.6594134569168091 -0.42487606406211853 42.0 3 -0.054235294461250305
-3.063164234161377 0.7773752212524414 0.38803204894065857 50.0 11 -0.05423298850655556
-2.5916452407836914 0.658194363117218 -0.3283160626888275 34.0 4 -0.05423068627715111
-3.0747053623199463 0.7814465165138245 0.5024675726890564 46.0 12 -0.05422838032245636
-2.6705727577209473 0.6787348985671997 -0.24107277393341064 4.0 5 -0.05422607809305191
-3.0614089965820312 0.7786360383033752 0.6140233874320984 48.0 13 -0.05422377213835716
-2.4310474395751953 0.6187628507614136 -0.13146793842315674 37.0 6 -0.05422146990895271
-3.059279441833496 0.7792313694953918 0.7288414835929871 57.0 14 -0.054219163954257965
-2.6043176651000977 0.663832426071167 -0.046912070363759995 1.0 7 -0.054216861724853516
-3.028752565383911 0.772582471370697 0.8375384211540222 54.0 15 -0.054214559495449066
-3.0352134704589844 0.7787455320358276 0.054695840924978256 7.0 8 -0.05419151857495308
-3.0912113189697266 0.7942622303962708 0.16726572811603546 30.0 9 -0.05418691039085388
-3.095113754272461 0.795841634273529 0.27959561347961426 41.0 10 -0.054182302206754684
-2.6017606258392334 0.6694706678390503 -0.4255017936229706 38.0 3 -0.054179996252059937
-3.0738885402679443 0.7915288209915161 0.38973820209503174 53.0 11 -0.05417769402265549
-2.589332103729248 0.667236328125 -0.3283160626888275 34.0 4 -0.05417538806796074
-3.07578444480896 0.7931610941886902 0.5030933022499084 51.0 12 -0.05417308583855629
-2.901629686355591 0.7482513189315796 -0.26216447353363037 8.0 5 -0.05417077988386154
-3.064375400543213 0.7907901406288147 0.6151682734489441 42.0 13 -0.05416847765445709
-2.43660831451416 0.6292420625686646 -0.13188663125038147 36.0 6 -0.05416617542505264
-3.0546538829803467 0.7894179224967957 0.7283915877342224 60.0 14 -0.054163869470357895
-3.035388469696045 0.7855695486068726 0.840126633644104 58.0 15 -0.0541592612862587
-3.051828622817993 0.7943729758262634 0.05504488945007324 7.0 8 -0.05413622036576271
-3.0962915420532227 0.8065226674079895 0.1676844209432602 27.0 9 -0.05413161218166351
-2.5779919624328613 0.6719970107078552 -0.5178556442260742 1.0 2 -0.054129309952259064
-3.0942444801330566 0.8071436882019043 0.2797699272632599 43.0 10 -0.054127003997564316
-2.6108758449554443 0.6815414428710938 -0.4273790121078491 38.0 3 -0.054124701768159866
-3.076869249343872 0.8037583827972412 0.39046943187713623 48.0 11 -0.05412239953875542
-2.602351427078247 0.68028724193573 -0.33026593923568726 34.0 4 -0.05412009358406067
-3.06931471824646 0.8023573160171509 0.5024675726890564 48.0 12 -0.05411779135465622
-3.006941556930542 0.7866127490997314 -0.2719258964061737 21.0 5 -0.05411548539996147
-3.0710926055908203 0.8039673566818237 0.6170763373374939 48.0 13 -0.05411318317055702
-2.4363291263580322 0.6382498145103455 -0.13199129700660706 33.0 6 -0.054110877215862274
-3.0613045692443848 0.8025476336479187 0.7306410670280457 61.0 14 -0.054108574986457825
-3.0427000522613525 0.7976702451705933 -0.05490526929497719 10.0 7 -0.05410626903176308
-3.027161121368408 0.7941604852676392 0.8385737538337708 55.0 15 -0.05410396680235863
-3.0182414054870605 0.7963268756866455 0.05448641628026962 7.0 8 -0.05408092588186264
-3.108905076980591 0.821408212184906 0.16852180659770966 12.0 9 -0.05407631769776344
-2.5984067916870117 0.6870138645172119 -0.5224350690841675 16.0 2 -0.054074015468358994
-3.089482307434082 0.8174294829368591 0.27959561347961426 39.0 10 -0.054071709513664246
-2.633427143096924 0.6967642903327942 -0.4314463138580322 21.0 3 -0.054069407284259796
-3.08953857421875 0.8180221319198608 0.39241933822631836 47.0 11 -0.05406710132956505
-3.008802652359009 0.7972074151039124 -0.3821823000907898 30.0 4 -0.0540647991001606
-3.0741331577301025 0.8150914907455444 0.5037190318107605 46.0 12 -0.05406249314546585
-3.01188063621521 0.7991481423377991 -0.2726231813430786 29.0 5 -0.0540601909160614
-3.0646145343780518 0.8131401538848877 0.616313099861145 52.0 13 -0.05405788496136665
-2.441920757293701 0.6483758091926575 -0.1324099898338318 33.0 6 -0.054055582731962204
-3.071810245513916 0.8161972165107727 0.733790397644043 63.0 14 -0.054053276777267456
-3.051492929458618 0.8113688826560974 -0.05511470139026642 39.0 7 -0.05405097454786301
-3.020636558532715 0.8037289381027222 0.8375384211540222 63.0 15 -0.05404866859316826
-3.023170232772827 0.8089244961738586 0.05462603271007538 7.0 8 -0.05402563139796257
-2.9723517894744873 0.7958826422691345 -0.7103955149650574 1.0 1 -0.05402332544326782
-2.9363861083984375 0.7862524390220642 0.15931066870689392 2.0 9 -0.05402102321386337
-3.0493438243865967 0.8170692920684814 -0.6136417388916016 14.0 2 -0.054018717259168625
-3.0983011722564697 0.8307662010192871 0.28064149618148804 37.0 10 -0.054016415029764175
-3.0774247646331787 0.8257442116737366 -0.5046576261520386 42.0 3 -0.05401410907506943
-3.0732436180114746 0.8251980543136597 0.3907131552696228 48.0 11 -0.05401180684566498
-3.075016975402832 0.8262496590614319 -0.3909568786621094 30.0 4 -0.05400950089097023
-3.0904903411865234 0.8304072618484497 0.5068477392196655 60.0 12 -0.05400719866156578
-3.0226821899414062 0.8127530217170715 -0.27384334802627563 29.0 5 -0.05400489270687103
-3.0617573261260986 0.8238327503204346 0.616313099861145 50.0 13 -0.05400259047746658
-2.4319281578063965 0.6548186540603638 -0.13199129700660706 33.0 6 -0.054000284522771835
-3.078350782394409 0.8294498920440674 0.7360398769378662 66.0 14 -0.053997982293367386
-3.0545778274536133 0.8230443596839905 -0.055219411849975586 29.0 7 -0.05399567633867264
-3.0403378009796143 0.8197766542434692 0.8437501192092896 69.0 15 -0.05399337410926819
-3.005031108856201 0.8147590756416321 0.05434679239988327 2.0 8 -0.0539703331887722
-3.0768983364105225 0.8348211050033569 -0.7360398769378662 13.0 1 -0.05396803095936775
-2.920131206512451 0.7928351163864136 0.15857796370983124 2.0 9 -0.053965725004673004
-3.084364652633667 0.8380035161972046 -0.6212741136550903 32.0 2 -0.053963422775268555
-3.0992274284362793 0.8426216840744019 0.2809901237487793 40.0 10 -0.05396111682057381
-3.072763681411743 0.8354266881942749 -0.5043447613716125 34.0 3 -0.05395881459116936
-3.0704903602600098 0.8353849649429321 0.3907131552696228 51.0 11 -0.05395650863647461
-3.060767889022827 0.8333134055137634 -0.3894944489002228 33.0 4 -0.05395420640707016
-3.079949378967285 0.8391124606132507 0.5055962204933167 56.0 12 -0.05395190045237541
-3.0448157787323 0.8301120400428772 -0.27610939741134644 18.0 5 -0.05394959822297096
-3.070373058319092 0.8370798230171204 0.6186028122901917 52.0 13 -0.053947292268276215
-2.429743528366089 0.6628797054290771 -0.13199129700660706 34.0 6 -0.053944990038871765
-3.0755834579467773 0.839652955532074 0.7360398769378662 66.0 14 -0.05394268408417702
-3.0536153316497803 0.8342289924621582 -0.055254317820072174 28.0 7 -0.05394038185477257
-3.0449116230010986 0.8324221968650818 0.8458206653594971 69.0 15 -0.05393807590007782
-2.917048692703247 0.8029416799545288 0.05281098559498787 2.0 8 -0.05390246957540512
-3.0868217945098877 0.8502519130706787 -0.7391892075538635 30.0 1 -0.05390016362071037
-2.9364612102508545 0.8088357448577881 0.15962468087673187 2.0 9 -0.05389786139130592
-3.073702096939087 0.8472152948379517 -0.6197476387023926 30.0 2 -0.053895555436611176
-3.0961179733276367 0.8539761304855347 0.2809901237487793 38.0 10 -0.053893253207206726
-3.0733416080474854 0.8482702374458313 -0.5049704909324646 34.0 3 -0.05389094725251198
-3.07682728767395 0.8498110771179199 0.39193183183670044 48.0 11 -0.05388864502310753
-3.065199136734009 0.847175121307373 -0.39046943187713623 21.0 4 -0.05388633906841278
-3.071141004562378 0.8488173484802246 0.5046576261520386 53.0 12 -0.05388403683900833
-3.0571155548095703 0.8455145359039307 -0.2775038778781891 9.0 5 -0.05388173088431358
-3.0747053623199463 0.8509577512741089 0.6201292872428894 55.0 13 -0.053879428654909134
-2.4348795413970947 0.6743366718292236 -0.1324099898338318 34.0 6 -0.053877122700214386
-3.0460455417633057 0.8441699147224426 0.7297412753105164 65.0 14 -0.053874820470809937
-3.031266689300537 0.8400741815567017 -0.05490526929497719 9.0 7 -0.05387251451611519
-3.045562982559204 0.8446093201637268 0.8468559384346008 69.0 15 -0.05387021228671074
-2.8099114894866943 0.7834845781326294 -0.7816335558891296 2.0 0 -0.0538494773209095
-2.897034168243408 0.807776927947998 0.05249683931469917 3.0 8 -0.05384717136621475
-3.0933704376220703 0.8631022572517395 -0.7414387464523315 31.0 1 -0.0538448691368103
-2.9220778942108154 0.8158584237098694 0.15899664163589478 2.0 9 -0.053842563182115555
-3.0366904735565186 0.8484309315681458 -0.6128785014152527 24.0 2 -0.053840260952711105
-3.0796866416931152 0.861022412776947 0.2797699272632599 36.0 10 -0.05383795499801636
-3.0648043155670166 0.8568615913391113 -0.5040318965911865 9.0 3 -0.05383565276861191
-3.070169448852539 0.8589392900466919 0.3914443552494049 33.0 11 -0.05383334681391716
-3.070019006729126 0.85947585105896 -0.3914443552494049 19.0 4 -0.05383104458451271
-3.0567467212677 0.8563346266746521 0.5027804374694824 45.0 12 -0.05382873862981796
-3.0330426692962646 0.8502649664878845 -0.27558645606040955 46.0 5 -0.05382643640041351
-3.058633804321289 0.8574389815330505 0.617457926273346 37.0 13 -0.053824130445718765
-2.4345526695251465 0.6829468011856079 -0.13251465559005737 36.0 6 -0.053821828216314316
-3.0338480472564697 0.8516329526901245 0.7274917960166931 43.0 14 -0.05381952226161957
-3.00713849067688 0.8447023630142212 -0.05452131852507591 3.0 7 -0.05381722003221512
-3.0351572036743164 0.8531442880630493 0.8447853922843933 58.0 15 -0.05381491407752037
-2.8314669132232666 0.7996224164962769 -0.7883628606796265 13.0 0 -0.05379417911171913
-2.903818368911743 0.8206028938293457 0.05267136171460152 3.0 8 -0.05379187688231468
-3.0959644317626953 0.8754857182502747 -0.7427884340286255 30.0 1 -0.053789570927619934
-2.9365081787109375 0.830948531627655 0.15993870794773102 2.0 9 -0.053787268698215485
-2.7769455909729004 0.7857968211174011 -0.5609784722328186 12.0 2 -0.05378496274352074
-3.086399793624878 0.8739446401596069 0.28064149618148804 40.0 10 -0.05378266051411629
-3.035187005996704 0.8600153923034668 -0.4996517598628998 7.0 3 -0.05378035455942154
-3.078611135482788 0.8729008436203003 0.3929068148136139 45.0 11 -0.05377805233001709
-3.0670006275177 0.8701863288879395 -0.3914443552494049 22.0 4 -0.05377574637532234
-3.0993452072143555 0.8799477815628052 0.5102892518043518 70.0 12 -0.05377344414591789
-3.0359561443328857 0.8619507551193237 -0.27610939741134644 29.0 5 -0.053771138191223145
-3.0688416957855225 0.8718669414520264 0.6201292872428894 52.0 13 -0.053768835961818695
-2.4398388862609863 0.6936250329017639 -0.1329333484172821 36.0 6 -0.05376653000712395
-3.0795905590057373 0.8760817646980286 0.7391892075538635 67.0 14 -0.0537642277777195
-2.990708589553833 0.8513615727424622 -0.05427698418498039 2.0 7 -0.05376192554831505
-3.019155502319336 0.8600283861160278 0.8411619663238525 60.0 15 -0.0537596195936203
-2.828658103942871 0.8095019459724426 -0.7883628606796265 24.0 0 -0.05373888462781906
-2.891324281692505 0.8279816508293152 0.05249683931469917 3.0 8 -0.05373657867312431
-3.0816493034362793 0.8830665946006775 -0.7400889992713928 23.0 1 -0.053734276443719864
-2.9451091289520264 0.8444962501525879 0.16056673228740692 2.0 9 -0.053731970489025116
-2.743990659713745 0.7868265509605408 -0.5548726320266724 10.0 2 -0.053729668259620667
-3.1024813652038574 0.8902080059051514 0.28238460421562195 41.0 10 -0.05372736230492592
-2.7359747886657715 0.7855616211891174 -0.4508441984653473 8.0 3 -0.05372506007552147
-3.0736374855041504 0.8830929398536682 0.39266306161880493 46.0 11 -0.05372275412082672
-3.07157564163208 0.8830808997154236 -0.39241933822631836 16.0 4 -0.05372045189142227
-3.0810678005218506 0.8863928914070129 0.5077863335609436 60.0 12 -0.05371814966201782
-3.02335524559021 0.8697896003723145 -0.2752378284931183 13.0 5 -0.053715843707323074
-3.0563466548919678 0.8798577189445496 0.6182212233543396 46.0 13 -0.053713541477918625
-2.435483455657959 0.7015845775604248 -0.13282866775989532 34.0 6 -0.05371123552322388
-3.057788610458374 0.8814294338226318 0.7346901893615723 56.0 14 -0.05370893329381943
-2.9665839672088623 0.8556990623474121 -0.05389302968978882 1.0 7 -0.05370662733912468
-3.0421197414398193 0.8780621886253357 0.8484088778495789 78.0 15 -0.05370432510972023
-2.820249080657959 0.8177570104598999 -0.7868099212646484 30.0 0 -0.05368358641862869
-2.91914439201355 0.84698486328125 0.05305531620979309 3.0 8 -0.05368128418922424
-2.880173444747925 0.8362225890159607 -0.6923993825912476 5.0 1 -0.053678978234529495
-2.942143440246582 0.8547715544700623 0.16056673228740692 2.0 9 -0.053676676005125046
-2.7186036109924316 0.789827287197113 -0.5502931475639343 12.0 2 -0.0536743700504303
-3.1050944328308105 0.9027008414268494 0.28290751576423645 43.0 10 -0.05367206782102585
-2.6857969760894775 0.7813127636909485 -0.4430224299430847 15.0 3 -0.0536697655916214
-3.0648181438446045 0.8921521902084351 0.39193183183670044 41.0 11 -0.05366745963692665
-2.71016788482666 0.7894285321235657 -0.34659644961357117 19.0 4 -0.0536651574075222
-3.083644390106201 0.8988000750541687 0.5087249279022217 57.0 12 -0.053662851452827454
-2.983957529067993 0.869744062423706 -0.2719258964061737 23.0 5 -0.053660549223423004
-3.072103977203369 0.8960180878639221 0.6220373511314392 60.0 13 -0.053658243268728256
-2.4311022758483887 0.7095221877098083 -0.13272398710250854 36.0 6 -0.05365594103932381
