# .PCD v0.7 - Point Cloud Data file format
VERSION 0.7
FIELDS x y z intensity ring time
SIZE 4 4 4 4 4 4
TYPE F F F F F F
COUNT 1 1 1 1 1 1
WIDTH 548
HEIGHT 1
VIEWPOINT 0 0 0 1 0 0 0
POINTS 548
DATA ascii
1.4563465118408203 -2.1174137592315674 0.49953794479370117 3.0 13 -0.033183980733156204
1.45064377784729 -2.109910488128662 -0.1341894119977951 9.0 6 -0.033181674778461456
1.4404311180114746 -2.0958402156829834 0.5871223211288452 6.0 14 -0.03317937254905701
1.446014165878296 -2.104750394821167 -0.04457344859838486 6.0 7 -0.03317706659436226
1.4414398670196533 -2.098877429962158 0.6822470426559448 6.0 15 -0.03317476436495781
0.8034990429878235 -1.173041582107544 -0.3809816539287567 6.0 0 -0.03315402939915657
1.4302787780761719 -2.088869333267212 0.04418949410319328 6.0 8 -0.03315172344446182
0.9873217940330505 -1.4424872398376465 -0.4035622179508209 6.0 1 -0.03314942121505737
1.4447247982025146 -2.1115481853485107 0.13408473134040833 5.0 9 -0.033147115260362625
1.2516189813613892 -1.8293129205703735 -0.4308467507362366 14.0 2 -0.033144813030958176
1.4442089796066284 -2.1115849018096924 0.2238159328699112 5.0 10 -0.03314250707626343
1.4827964305877686 -2.168816089630127 -0.41611573100090027 107.0 3 -0.03314020484685898
1.4437856674194336 -2.1125478744506836 0.3141791820526123 3.0 11 -0.03313789889216423
1.484849452972412 -2.1734468936920166 -0.32319754362106323 92.0 4 -0.03313559666275978
1.440441608428955 -2.1092350482940674 0.4045395851135254 4.0 12 -0.03313329070806503
1.4472291469573975 -2.1191742420196533 -0.2245132029056549 1.0 5 -0.033130988478660583
1.4423052072525024 -2.112755537033081 0.4972482919692993 3.0 13 -0.033128682523965836
1.444395661354065 -2.1166112422943115 -0.1342940777540207 9.0 6 -0.033126380294561386
1.4331066608428955 -2.100855588912964 0.5871223211288452 5.0 14 -0.03312407433986664
1.4296456575393677 -2.0965678691864014 -0.04429420828819275 6.0 7 -0.03312177211046219
1.4254000186920166 -2.091125726699829 0.6781059503555298 6.0 15 -0.03311946615576744
0.7993996143341064 -1.1758391857147217 -0.3809816539287567 7.0 0 -0.0330987311899662
1.422978401184082 -2.0938491821289062 0.04418949410319328 6.0 8 -0.03309642896056175
0.9713299870491028 -1.4298052787780762 -0.39906319975852966 6.0 1 -0.033094123005867004
1.4440776109695435 -2.1264922618865967 0.13471277058124542 5.0 9 -0.033091820776462555
1.243019938468933 -1.8304225206375122 -0.4300835132598877 11.0 2 -0.03308951482176781
1.4379487037658691 -2.1182620525360107 0.22399026155471802 4.0 10 -0.03308721259236336
1.4696708917617798 -2.1658060550689697 -0.41455137729644775 111.0 3 -0.03308490663766861
1.4286022186279297 -2.1060752868652344 0.31247302889823914 4.0 11 -0.03308260440826416
1.4683409929275513 -2.1654725074768066 -0.3212476074695587 88.0 4 -0.03308029845356941
1.4308536052703857 -2.1109800338745117 0.40391382575035095 4.0 12 -0.03307799622416496
1.4688878059387207 -2.16709303855896 -0.22904527187347412 1.0 5 -0.033075690269470215
1.4217065572738647 -2.098273515701294 0.49266883730888367 3.0 13 -0.033073388040065765
1.4269181489944458 -2.106757164001465 -0.13335202634334564 9.0 6 -0.03307108208537102
1.4279495477676392 -2.10907244682312 0.5880221128463745 5.0 14 -0.03306877985596657
1.4268016815185547 -2.1081695556640625 -0.044433824717998505 6.0 7 -0.03306647762656212
1.4245871305465698 -2.10568904876709 0.6812117695808411 6.0 15 -0.03306417167186737
0.7974513173103333 -1.1818251609802246 -0.3820169270038605 6.0 0 -0.03304343670606613
1.411188006401062 -2.092172384262085 0.04404987394809723 6.0 8 -0.033041130751371384
0.9597963690757751 -1.4234925508499146 -0.3963637948036194 6.0 1 -0.033038828521966934
1.4254833459854126 -2.114957809448242 0.1336660534143448 5.0 9 -0.033036522567272186
1.2278449535369873 -1.8217262029647827 -0.4270305633544922 9.0 2 -0.03303422033786774
1.434998631477356 -2.129877805709839 0.22468750178813934 4.0 10 -0.03303191438317299
1.462101936340332 -2.1709227561950684 -0.41455137729644775 111.0 3 -0.03302961215376854
1.4134814739227295 -2.099522352218628 0.3107668459415436 4.0 11 -0.03302730619907379
1.4552315473556519 -2.1623504161834717 -0.3200289309024811 91.0 4 -0.03302500396966934
1.423475980758667 -2.115961790084839 0.40391382575035095 5.0 12 -0.03302270174026489
1.4057085514068604 -2.0895509719848633 -0.22032971680164337 1.0 5 -0.033020395785570145
1.4176602363586426 -2.1081109046936035 0.493813693523407 4.0 13 -0.033018093556165695
1.4128698110580444 -2.1017796993255615 -0.13272398710250854 10.0 6 -0.03301578760147095
1.4097099304199219 -2.097869396209717 0.5835230946540833 6.0 14 -0.0330134853720665
1.4172037839889526 -2.1098172664642334 -0.04436401650309563 6.0 7 -0.03301117941737175
1.412920355796814 -2.104233503341675 0.6791411638259888 6.0 15 -0.0330088771879673
0.7954709529876709 -1.1878118515014648 -0.38305220007896423 6.0 0 -0.03298813849687576
1.4038764238357544 -2.097085475921631 0.04404987394809723 6.0 8 -0.032985836267471313
0.9613244533538818 -1.4365514516830444 -0.39906319975852966 6.0 1 -0.032983530312776566
1.4136500358581543 -2.1132805347442627 0.13324734568595886 5.0 9 -0.032981228083372116
1.2018299102783203 -1.7966283559799194 -0.4201614260673523 6.0 2 -0.03297892212867737
1.4253404140472412 -2.131561517715454 0.22433887422084808 6.0 10 -0.03297661989927292
1.4545150995254517 -2.176013231277466 -0.41455137729644775 111.0 3 -0.03297431766986847
1.3995271921157837 -2.0945403575897217 0.309304416179657 4.0 11 -0.03297201171517372
1.455392599105835 -2.1789722442626953 -0.32173508405685425 92.0 4 -0.03296970948576927
1.4029186964035034 -2.101203441619873 0.40015941858291626 6.0 12 -0.032967403531074524
1.4647862911224365 -2.1938650608062744 -0.23078840970993042 1.0 5 -0.032965101301670074
1.4102928638458252 -2.113046407699585 0.493813693523407 4.0 13 -0.03296279534697533
1.4088504314422607 -2.1116831302642822 -0.1330380141735077 10.0 6 -0.03296049311757088
1.400215744972229 -2.0995349884033203 0.582623302936554 5.0 14 -0.03295818716287613
1.4009569883346558 -2.101440668106079 -0.04408477619290352 6.0 7 -0.03295588493347168
1.4055665731430054 -2.1091527938842773 0.6791411638259888 6.0 15 -0.03295357897877693
0.7891812324523926 -1.187363624572754 -0.3820169270038605 7.0 0 -0.03293284401297569
1.396547794342041 -2.101973056793213 0.04404987394809723 6.0 8 -0.032930538058280945
0.9584603905677795 -1.4431451559066772 -0.39996302127838135 6.0 1 -0.032928235828876495
1.3996366262435913 -2.1082186698913574 0.13261932134628296 5.0 9 -0.032925933599472046
1.1890358924865723 -1.7909988164901733 -0.41787171363830566 6.0 2 -0.0329236276447773
1.4035688638687134 -2.114942789077759 0.22207282483577728 5.0 10 -0.03292132541537285
1.448002576828003 -2.1827235221862793 -0.41486427187919617 118.0 3 -0.0329190194606781
1.399886965751648 -2.1109933853149414 0.31101056933403015 4.0 11 -0.03291671723127365
1.4455841779708862 -2.180729866027832 -0.3212476074695587 92.0 4 -0.0329144112765789
1.3955756425857544 -2.1060876846313477 0.40015941858291626 5.0 12 -0.032912109047174454
1.4307063817977905 -2.159104108810425 -0.22660492360591888 1.0 5 -0.032909803092479706
1.396403431892395 -2.1081361770629883 0.49152401089668274 4.0 13 -0.032907500863075256
1.4014705419540405 -2.1165881156921387 -0.1330380141735077 10.0 6 -0.03290519490838051
1.392878532409668 -2.10440993309021 0.582623302936554 6.0 14 -0.03290289267897606
1.394716501235962 -2.107985734939575 -0.04411968216300011 7.0 7 -0.03290058672428131
1.3896701335906982 -2.1011557579040527 0.6750000715255737 7.0 15 -0.03289828449487686
0.7786494493484497 -1.1804354190826416 -0.3789111077785492 6.0 0 -0.03287754952907562
1.3870004415512085 -2.1034963130950928 0.04398006573319435 6.0 8 -0.032875243574380875
0.9512719511985779 -1.443227767944336 -0.39906319975852966 6.0 1 -0.032872941344976425
1.3922690153121948 -2.113091468811035 0.13261932134628296 5.0 9 -0.03287063539028168
1.1806164979934692 -1.791859745979309 -0.4171084761619568 6.0 2 -0.03286833316087723
1.3885066509246826 -2.1081817150115967 0.22085265815258026 6.0 10 -0.03286602720618248
1.4360295534133911 -2.1811649799346924 -0.4136127531528473 118.0 3 -0.03286372497677803
1.3892356157302856 -2.1108922958374023 0.31027936935424805 3.0 11 -0.03286141902208328
1.4401452541351318 -2.189079523086548 -0.32173508405685425 92.0 4 -0.03285911679267883
1.3990694284439087 -2.127450942993164 0.4032880961894989 5.0 12 -0.032856810837984085
1.3901145458221436 -2.114638328552246 0.4919055998325348 3.0 13 -0.03285220265388489
1.3918800354003906 -2.118129014968872 -0.13282866775989532 10.0 6 -0.03284990042448044
1.3876640796661377 -2.112516403198242 0.5835230946540833 5.0 14 -0.03284759446978569
1.3829593658447266 -2.1061553955078125 -0.04398006573319435 7.0 7 -0.03284529224038124
1.3802074193954468 -2.1027638912200928 0.67396479845047 6.0 15 -0.03284298628568649
0.7829888463020325 -1.1960766315460205 -0.38305220007896423 7.0 0 -0.032822251319885254
1.3730794191360474 -2.098285436630249 0.04377063736319542 6.0 8 -0.032819949090480804
0.941961407661438 -1.4400161504745483 -0.3972635865211487 6.0 1 -0.032817643135786057
1.3848845958709717 -2.11793851852417 0.13261932134628296 6.0 9 -0.03281534090638161
1.1711313724517822 -1.791040301322937 -0.41596361994743347 5.0 2 -0.03281303495168686
1.3865896463394165 -2.121354103088379 0.22172421216964722 5.0 10 -0.03281073272228241
1.4208436012268066 -2.174588680267334 -0.4114226996898651 111.0 3 -0.03280842676758766
1.373175024986267 -2.102433204650879 0.3083294630050659 3.0 11 -0.03280612453818321
1.430324673652649 -2.1907689571380615 -0.3212476074695587 97.0 4 -0.032803818583488464
1.3829976320266724 -2.1190879344940186 0.4007851481437683 6.0 12 -0.032801516354084015
1.3784338235855103 -2.112900733947754 0.4903791546821594 4.0 13 -0.03279690816998482
1.3746589422225952 -2.1079180240631104 -0.13188663125038147 10.0 6 -0.03279460221529007
1.3717678785324097 -2.1042873859405518 0.5799238681793213 6.0 14 -0.03279229998588562
1.3755989074707031 -2.1109700202941895 -0.04398006573319435 7.0 7 -0.03278999775648117
1.3707499504089355 -2.1043312549591064 0.6729295253753662 7.0 15 -0.03278769180178642
0.7745993137359619 -1.1923226118087769 -0.3809816539287567 6.0 0 -0.032766956835985184
1.3679248094558716 -2.106419801712036 0.0438404455780983 6.0 8 -0.032764650881290436
0.9263182282447815 -1.4269500970840454 -0.3927645683288574 6.0 1 -0.032762348651885986
1.366978645324707 -2.105767011642456 0.13157260417938232 6.0 9 -0.03276004269719124
1.1691471338272095 -1.801705241203308 -0.4174901247024536 6.0 2 -0.03275774046778679
1.3813447952270508 -2.1295247077941895 0.22207282483577728 6.0 10 -0.03275543451309204
1.4110950231552124 -2.176220178604126 -0.41079697012901306 111.0 3 -0.03275313228368759
1.3625885248184204 -2.1022162437438965 0.3075982630252838 4.0 11 -0.032750826328992844
1.4140335321426392 -2.182420492172241 -0.3192977011203766 97.0 4 -0.032748524099588394
1.3695182800292969 -2.113715648651123 0.39890795946121216 5.0 12 -0.032746218144893646
1.3678491115570068 -2.112755298614502 0.4892342984676361 4.0 13 -0.03274161368608475
1.3651221990585327 -2.1093502044677734 -0.1316772699356079 11.0 6 -0.03273930773139
1.3622971773147583 -2.105790853500366 0.579024076461792 6.0 14 -0.03273700550198555
1.3620741367340088 -2.1054461002349854 -0.04377063736319542 7.0 7 -0.0327346995472908
1.36061692237854 -2.103998899459839 0.671376645565033 7.0 15 -0.03273239731788635
0.7746196985244751 -1.2015137672424316 -0.38305220007896423 6.0 0 -0.032711658626794815
1.3500969409942627 -2.09413743019104 0.04349139705300331 6.0 8 -0.032709356397390366
0.9279152750968933 -1.4398423433303833 -0.3954640030860901 6.0 1 -0.03270705044269562
1.3596197366714478 -2.1105258464813232 0.13157260417938232 6.0 9 -0.03270474821329117
1.157536268234253 -1.7975223064422607 -0.4155820310115814 6.0 2 -0.03270244225859642
1.3566482067108154 -2.1075284481048584 0.2192838340997696 6.0 10 -0.03270014002919197
1.4060089588165283 -2.1842095851898193 -0.4114226996898651 111.0 3 -0.03269783407449722
1.3566839694976807 -2.1083922386169434 0.3078419864177704 3.0 11 -0.03269553184509277
1.404640555381775 -2.183758497238159 -0.31881022453308105 101.0 4 -0.032693229615688324
1.3557215929031372 -2.108513832092285 0.39703071117401123 6.0 12 -0.032690923660993576
1.3597739934921265 -2.1156280040740967 0.4888526499271393 4.0 13 -0.03268631547689438
1.3581198453903198 -2.113865375518799 -0.1316772699356079 11.0 6 -0.03268401324748993
1.356359839439392 -2.111936569213867 0.5794739723205566 6.0 14 -0.03268170729279518
1.3503949642181396 -2.103456497192383 -0.04363101348280907 7.0 7 -0.03267940506339073
1.3574379682540894 -2.115239143371582 0.6734471917152405 7.0 15 -0.032677099108695984
0.7664656043052673 -1.1975674629211426 -0.3809816539287567 7.0 0 -0.032656364142894745
1.3514000177383423 -2.1123130321502686 0.04377063736319542 6.0 8 -0.0326540581882
0.9249834418296814 -1.4463560581207275 -0.3963637948036194 6.0 1 -0.03265175595879555
1.3522443771362305 -2.1152589321136475 0.13157260417938232 6.0 9 -0.0326494500041008
1.149454116821289 -1.7980425357818604 -0.41481876373291016 6.0 2 -0.03264714777469635
1.3582348823547363 -2.1254467964172363 0.22067832946777344 6.0 10 -0.0326448455452919
1.3994394540786743 -2.1907689571380615 -0.41173556447029114 114.0 3 -0.03264253959059715
1.3461109399795532 -2.108096122741699 0.3071107864379883 4.0 11 -0.0326402373611927
1.3927372694015503 -2.181955099105835 -0.31783527135849 99.0 4 -0.032637931406497955
1.3483531475067139 -2.1132333278656006 0.39703071117401123 5.0 12 -0.032635629177093506
1.3534365892410278 -2.1220169067382812 0.4892342984676361 4.0 13 -0.03263102099299431
1.351806640625 -2.1202774047851562 -0.1317819505929947 10.0 6 -0.03262871503829956
1.3521214723587036 -2.1215879917144775 0.5808236598968506 5.0 14 -0.03262641280889511
1.3365979194641113 -2.098038673400879 -0.04342158883810043 7.0 7 -0.03262410685420036
1.3438198566436768 -2.110187530517578 0.6703413724899292 7.0 15 -0.032621804624795914
0.7600002288818359 -1.1971067190170288 -0.37994638085365295 7.0 0 -0.032601069658994675
1.3375879526138306 -2.1068880558013916 0.04356120526790619 7.0 8 -0.03259876370429993
0.9199290871620178 -1.4495760202407837 -0.3963637948036194 6.0 1 -0.03259646147489548
1.3427127599716187 -2.116593360900879 0.13136327266693115 6.0 9 -0.03259415552020073
1.1470615863800049 -1.8088754415512085 -0.4163452684879303 6.0 2 -0.03259185329079628
1.3387022018432617 -2.1118998527526855 0.2187609225511551 6.0 10 -0.03258954733610153
1.3850566148757935 -2.1858716011047363 -0.4098583459854126 118.0 3 -0.03258724510669708
1.337681531906128 -2.11110520362854 0.3068670332431793 4.0 11 -0.032584939152002335
1.3851121664047241 -2.1868033409118652 -0.31783527135849 101.0 4 -0.032582636922597885
1.33674156665802 -2.1112513542175293 0.39577925205230713 5.0 12 -0.03258033096790314
1.3372526168823242 -2.1136903762817383 0.4861813485622406 5.0 13 -0.03257572278380394
1.3408236503601074 -2.1201536655426025 -0.13146793842315674 11.0 6 -0.03257342055439949
1.340171217918396 -2.119940996170044 0.579024076461792 6.0 14 -0.03257111459970474
1.3367462158203125 -2.11452317237854 -0.043665919452905655 8.0 7 -0.03256881237030029
1.3261258602142334 -2.098534345626831 0.6651650071144104 7.0 15 -0.032566506415605545
0.7475790977478027 -1.186676025390625 -0.3758052587509155 7.0 0 -0.032545771449804306
1.3192007541656494 -2.0948550701141357 0.0432121567428112 7.0 8 -0.03254346922039986
0.9083809852600098 -1.4430428743362427 -0.3936643898487091 6.0 1 -0.03254116326570511
1.337073564529419 -2.1248810291290283 0.13157260417938232 6.0 9 -0.03253886103630066
1.1428319215774536 -1.8161916732788086 -0.4171084761619568 6.0 2 -0.03253655508160591
1.3376868963241577 -2.1266791820526123 0.21980677545070648 6.0 10 -0.03253425285220146
1.3742635250091553 -2.185676336288452 -0.40891972184181213 118.0 3 -0.032531946897506714
1.32887864112854 -2.1143131256103516 0.30662328004837036 5.0 11 -0.032529644668102264
1.3770877122879028 -2.1918654441833496 -0.31783527135849 99.0 4 -0.032527338713407516
1.3247920274734497 -2.109445095062256 0.39452776312828064 5.0 12 -0.03252503648400307
1.321515440940857 -2.105043411254883 0.4831283986568451 5.0 13 -0.03252042829990387
1.3302297592163086 -2.119745969772339 -0.1311539113521576 12.0 6 -0.03251812234520912
1.331727385520935 -2.122955083847046 0.5785741209983826 6.0 14 -0.03251582011580467
1.3194260597229004 -2.104160785675049 -0.043351780623197556 7.0 7 -0.032513514161109924
1.316373586654663 -2.100106954574585 0.6641297340393066 7.0 15 -0.032511211931705475
0.7536724209785461 -1.2056596279144287 -0.3809816539287567 7.0 0 -0.032490476965904236
1.317178726196289 -2.107926607131958 0.043386682868003845 6.0 8 -0.03248817101120949
0.8992087244987488 -1.4395936727523804 -0.3918647766113281 6.0 1 -0.03248586878180504
1.3275325298309326 -2.1261470317840576 0.13136327266693115 6.0 9 -0.03248356282711029
1.1281667947769165 -1.806847333908081 -0.4140555262565613 6.0 2 -0.03248126059770584
1.326035499572754 -2.124574661254883 0.21910953521728516 6.0 10 -0.03247895464301109
1.3561699390411377 -2.1737005710601807 -0.4057910442352295 103.0 3 -0.032476652413606644
1.312036156654358 -2.1037795543670654 0.30442965030670166 3.0 11 -0.032474346458911896
1.363127589225769 -2.186551570892334 -0.3163728415966034 101.0 4 -0.032472044229507446
1.3195101022720337 -2.1174097061157227 0.3951534926891327 6.0 12 -0.0324697382748127
1.3183115720748901 -2.11630916595459 0.48465490341186523 5.0 13 -0.0324651300907135
1.3228224515914917 -2.1243765354156494 -0.1311539113521576 12.0 6 -0.03246282786130905
1.3243086338043213 -2.1275908946990967 0.5785741209983826 6.0 14 -0.0324605256319046
1.3184114694595337 -2.118940830230713 -0.04356120526790619 7.0 7 -0.032458219677209854
1.31515634059906 -2.1145317554473877 0.6672354936599731 7.0 15 -0.032455917447805405
0.7453860640525818 -1.201716423034668 -0.3789111077785492 8.0 0 -0.03243517875671387
1.3077055215835571 -2.109112501144409 0.04331687465310097 7.0 8 -0.03243287652730942
0.8962312340736389 -1.4460365772247314 -0.3927645683288574 6.0 1 -0.03243057057261467
1.3057441711425781 -2.1067707538604736 0.1298978626728058 6.0 9 -0.03242826834321022
1.1218528747558594 -1.8107744455337524 -0.4140555262565613 6.0 2 -0.03242596238851547
1.3123170137405396 -2.1190273761749268 0.21806366741657257 6.0 10 -0.03242366015911102
1.354812502861023 -2.1884987354278564 -0.40766826272010803 111.0 3 -0.032421354204416275
1.3099075555801392 -2.1167869567871094 0.3056483268737793 4.0 11 -0.032419051975011826
1.3513094186782837 -2.1845436096191406 -0.31539788842201233 101.0 4 -0.03241674602031708
1.309363842010498 -2.1167337894439697 0.394214928150177 6.0 12 -0.03241444379091263
1.308851957321167 -2.117558002471924 0.4838916063308716 5.0 13 -0.03240983560681343
1.3091003894805908 -2.118786334991455 -0.1305258870124817 11.0 6 -0.03240753337740898
1.3066338300704956 -2.1156206130981445 0.5740751028060913 6.0 14 -0.03240522742271423
1.3008695840835571 -2.1062874794006348 -0.0432121567428112 8.0 7 -0.032402925193309784
1.3081371784210205 -2.1188812255859375 0.6672354936599731 7.0 15 -0.032400619238615036
0.7472621202468872 -1.2141822576522827 -0.3820169270038605 8.0 0 -0.0323798842728138
1.302800178527832 -2.1168434619903564 0.043386682868003845 7.0 8 -0.03237757831811905
0.8955157399177551 -1.4556397199630737 -0.3945641815662384 6.0 1 -0.0323752760887146
1.3046596050262451 -2.12152361869812 0.1305258870124817 6.0 9 -0.03237297013401985
1.1175814867019653 -1.8180245161056519 -0.41481876373291016 7.0 2 -0.0323706679046154
1.3028260469436646 -2.1202003955841064 0.2177150398492813 6.0 10 -0.03236836567521095
1.3485816717147827 -2.19466233253479 -0.40798112750053406 118.0 3 -0.032366059720516205
1.3008027076721191 -2.1177361011505127 0.30516088008880615 5.0 11 -0.032363757491111755
1.3419803380966187 -2.185629367828369 -0.3149104118347168 103.0 4 -0.03236145153641701
1.3030003309249878 -2.1229748725891113 0.39452776312828064 6.0 12 -0.03235914930701256
1.30592942237854 -2.128580331802368 0.4854181110858917 5.0 13 -0.03235454112291336
1.303110957145691 -2.1248183250427246 -0.13063055276870728 11.0 6 -0.03235223516821861
1.2975742816925049 -2.116619110107422 0.573175311088562 6.0 14 -0.03234993293881416
1.2872402667999268 -2.100585699081421 -0.04300273209810257 7.0 7 -0.032347626984119415
1.2886236906051636 -2.1036665439605713 0.6610238552093506 7.0 15 -0.032345324754714966
0.7331607341766357 -1.2001677751541138 -0.3768405616283417 8.0 0 -0.03232458606362343
1.2870657444000244 -2.107724666595459 0.04310744255781174 7.0 8 -0.03232228383421898
0.8944903612136841 -1.4654102325439453 -0.3963637948036194 6.0 1 -0.03231998160481453
1.2910045385360718 -2.115835189819336 0.1298978626728058 6.0 9 -0.03231767565011978
1.1074563264846802 -1.815016746520996 -0.4132923185825348 6.0 2 -0.03231537342071533
1.2854137420654297 -2.107499361038208 0.2159719318151474 6.0 10 -0.032313067466020584
1.3357714414596558 -2.1909232139587402 -0.40641677379608154 111.0 3 -0.032310765236616135
1.2913362979888916 -2.1188735961914062 0.30467337369918823 5.0 11 -0.03230845928192139
1.3343429565429688 -2.190300464630127 -0.3149104118347168 101.0 4 -0.03230615705251694
1.288389801979065 -2.1157002449035645 0.3923376798629761 6.0 12 -0.03230385109782219
1.2923661470413208 -2.1230640411376953 0.4831283986568451 4.0 13 -0.03229924291372299
1.2925713062286377 -2.1242356300354004 -0.13031654059886932 11.0 6 -0.03229694068431854
1.2962541580200195 -2.1311254501342773 0.5758747458457947 6.0 14 -0.032294634729623795
1.2809392213821411 -2.1067745685577393 -0.04303763434290886 8.0 7 -0.032292332500219345
1.2802693843841553 -2.1065011024475098 0.6605061888694763 6.0 15 -0.0322900265455246
0.732972264289856 -1.209328055381775 -0.3789111077785492 8.0 0 -0.03226929157972336
1.279700517654419 -2.1122045516967773 0.04310744255781174 6.0 8 -0.03226698935031891
0.8752365708351135 -1.4451873302459717 -0.39006516337394714 6.0 1 -0.03226468339562416
1.2877483367919922 -2.1271626949310303 0.13031654059886932 6.0 9 -0.03226238116621971
1.0990806818008423 -1.8155126571655273 -0.4125290811061859 6.0 2 -0.03226007521152496
1.2924904823303223 -2.1358373165130615 0.21841228008270264 6.0 10 -0.032257772982120514
1.3189138174057007 -2.180360794067383 -0.4036009609699249 100.0 3 -0.032255467027425766
1.2818777561187744 -2.1199707984924316 0.3041858971118927 5.0 11 -0.032253164798021317
1.3287429809570312 -2.1983425617218018 -0.31539788842201233 99.0 4 -0.03225085884332657
1.287126064300537 -2.130329132080078 0.394214928150177 6.0 12 -0.03224855661392212
1.2768276929855347 -2.1141180992126465 0.4800754487514496 5.0 13 -0.03224394842982292
1.284116506576538 -2.1270246505737305 -0.13021187484264374 11.0 6 -0.032241642475128174
1.2827657461166382 -2.1256263256073 0.573175311088562 6.0 14 -0.032239340245723724
1.2735772132873535 -2.1112332344055176 -0.04303763434290886 8.0 7 -0.032237034291028976
1.2699155807495117 -2.1059939861297607 0.6589533090591431 7.0 15 -0.03223473206162453
0.7287464141845703 -1.2118793725967407 -0.3789111077785492 8.0 0 -0.03221399709582329
1.2702593803405762 -2.1132311820983887 0.04303763434290886 7.0 8 -0.03221169114112854
0.8641645312309265 -1.4382113218307495 -0.38736575841903687 6.0 1 -0.03220938891172409
1.2803152799606323 -2.1316449642181396 0.13031654059886932 6.0 9 -0.03220708295702934
1.0927366018295288 -1.8193382024765015 -0.4125290811061859 6.0 2 -0.03220478072762489
1.2768224477767944 -2.1266705989837646 0.2170177847146988 6.0 10 -0.032202474772930145
1.3173936605453491 -2.1951138973236084 -0.4054781496524811 114.0 3 -0.032200172543525696
1.2724277973175049 -2.121027946472168 0.30369842052459717 5.0 11 -0.03219786658883095
1.3128941059112549 -2.189347982406616 -0.3134479522705078 103.0 4 -0.0321955643594265
1.278666377067566 -2.133114814758301 0.3939020335674286 5.0 12 -0.03219325840473175
1.2694404125213623 -2.1185619831085205 0.4800754487514496 4.0 13 -0.03218865022063255
1.2695000171661377 -2.1195003986358643 -0.12947916984558105 12.0 6 -0.032186347991228104
1.276339054107666 -2.131763219833374 0.5736252665519714 6.0 14 -0.032184042036533356
1.272361397743225 -2.1259610652923584 -0.04324706271290779 8.0 7 -0.032181739807128906
1.268507480621338 -2.120360851287842 0.6620591282844543 7.0 15 -0.03217943757772446
0.7284707427024841 -1.2210519313812256 -0.3809816539287567 8.0 0 -0.03215869888663292
1.2628753185272217 -2.117652177810669 0.04303763434290886 7.0 8 -0.03215639665722847
0.8651261329650879 -1.451262354850769 -0.39006516337394714 6.0 1 -0.03215409070253372
1.2605979442596436 -2.1155123710632324 0.12906047701835632 6.0 9 -0.03215178847312927
1.0843690633773804 -1.8197683095932007 -0.41176581382751465 6.0 2 -0.032149482518434525
1.2704110145568848 -2.132826328277588 0.21719209849834442 6.0 10 -0.032147180289030075
1.3087128400802612 -2.1980020999908447 -0.40516531467437744 111.0 3 -0.03214487433433533
1.2589244842529297 -2.1152217388153076 0.30223599076271057 4.0 11 -0.03214257210493088
1.3011839389801025 -2.187093496322632 -0.31247302889823914 99.0 4 -0.03214026615023613
1.2621251344680786 -2.1222846508026123 0.3910861909389496 6.0 12 -0.03213796392083168
1.2660503387451172 -2.129730463027954 0.4816019535064697 5.0 13 -0.03213335573673248
1.2620939016342163 -2.1239187717437744 -0.12947916984558105 11.0 6 -0.03213105350732803
1.2639142274856567 -2.1278281211853027 0.5713757276535034 6.0 14 -0.032128747552633286
1.2547236680984497 -2.1131951808929443 -0.042898017913103104 8.0 7 -0.032126445323228836
1.2561683654785156 -2.116469383239746 0.6594709753990173 6.0 15 -0.03212413936853409
0.7163323760032654 -1.21028733253479 -0.3768405616283417 8.0 0 -0.03210340440273285
1.2534390687942505 -2.118605375289917 0.04296782612800598 7.0 8 -0.0321010984480381
0.8620389699935913 -1.4576280117034912 -0.39096495509147644 6.0 1 -0.03209879621863365
1.2613368034362793 -2.1336543560028076 0.1298978626728058 6.0 9 -0.032096490263938904
1.0780102014541626 -1.8235423564910889 -0.41176581382751465 6.0 2 -0.032094188034534454
1.2578903436660767 -2.128671646118164 0.21632054448127747 6.0 10 -0.032091882079839706
1.2990230321884155 -2.199155330657959 -0.4045395851135254 104.0 3 -0.03208957985043526
1.255570650100708 -2.1264407634735107 0.30321094393730164 4.0 11 -0.03208727762103081
1.2955597639083862 -2.1950409412384033 -0.31296050548553467 103.0 4 -0.03208497166633606
1.2466793060302734 -2.1130666732788086 0.3885832726955414 6.0 12 -0.03208266943693161
1.25262451171875 -2.123990535736084 0.4793122112751007 5.0 13 -0.03207806125283241
1.257714867591858 -2.1334729194641113 -0.129793182015419 11.0 6 -0.032075755298137665
1.2525215148925781 -2.1255111694335938 0.5695760846138 6.0 14 -0.032073453068733215
1.2392200231552124 -2.1037778854370117 -0.042618777602910995 8.0 7 -0.03207114711403847
1.2477924823760986 -2.1191768646240234 0.6589533090591431 7.0 15 -0.03206884488463402
0.7140595316886902 -1.2161122560501099 -0.37787580490112305 8.0 0 -0.03204810619354248
1.2419872283935547 -2.116069793701172 0.042828209698200226 7.0 8 -0.03204580396413803
0.8589178323745728 -1.4639899730682373 -0.3918647766113281 6.0 1 -0.03204350173473358
1.2518608570098877 -2.1345982551574707 0.12968851625919342 6.0 9 -0.032041195780038834
1.0696521997451782 -1.8239070177078247 -0.41100257635116577 6.0 2 -0.032038893550634384
1.2464218139648438 -2.126174211502075 0.21562331914901733 6.0 10 -0.032036587595939636
1.2883427143096924 -2.19856333732605 -0.4036009609699249 114.0 3 -0.03203428536653519
1.2481404542922974 -2.130810499191284 0.30321094393730164 4.0 11 -0.03203197941184044
1.2888927459716797 -2.201263189315796 -0.31320425868034363 106.0 4 -0.03202967718243599
1.237299919128418 -2.1139957904815674 0.38795751333236694 6.0 12 -0.03202737122774124
1.247185468673706 -2.1317391395568848 0.4800754487514496 4.0 13 -0.032022763043642044
1.2492519617080688 -2.1361262798309326 -0.12968851625919342 10.0 6 -0.032020460814237595
1.2490284442901611 -2.1365997791290283 0.5713757276535034 6.0 14 -0.03201815485954285
1.23388671875 -2.111544132232666 -0.04268858581781387 8.0 7 -0.0320158526301384
1.23649001121521 -2.116847038269043 0.6568827629089355 7.0 15 -0.03201354667544365
0.7098101377487183 -1.2185972929000854 -0.37787580490112305 8.0 0 -0.03199281170964241
1.234593391418457 -2.120392084121704 0.042828209698200226 7.0 8 -0.03199050948023796
0.8459601998329163 -1.453505277633667 -0.38826555013656616 6.0 1 -0.03198820352554321
1.2403844594955444 -2.132049798965454 0.1292698234319687 6.0 9 -0.03198590129613876
1.0672281980514526 -1.8344179391860962 -0.4125290811061859 6.0 2 -0.031983595341444016
1.2349858283996582 -2.1236226558685303 0.21492604911327362 6.0 10 -0.031981293112039566
1.2737109661102295 -2.1910927295684814 -0.40141090750694275 111.0 3 -0.03197898715734482
1.2367054224014282 -2.128288745880127 0.30223599076271057 5.0 11 -0.03197668492794037
1.280203938484192 -2.2040321826934814 -0.31296050548553467 101.0 4 -0.03197437897324562
1.233880877494812 -2.1251351833343506 0.38920900225639343 6.0 12 -0.03197207674384117
1.227911114692688 -2.115703582763672 0.4754960536956787 4.0 13 -0.031967468559741974
1.2317653894424438 -2.1231980323791504 -0.12864179909229279 11.0 6 -0.031965162605047226
1.2435178756713867 -2.1443183422088623 0.5722755193710327 6.0 14 -0.031962860375642776
1.2345314025878906 -2.12967848777771 -0.04296782612800598 9.0 7 -0.03196055442094803
1.227156162261963 -2.117807388305664 0.6558474898338318 7.0 15 -0.03195825219154358
0.7036190032958984 -1.2177222967147827 -0.3768405616283417 8.0 0 -0.03193751722574234
1.2251838445663452 -2.121225118637085 0.04275839403271675 7.0 8 -0.03193521127104759
0.8389326333999634 -1.4530740976333618 -0.38736575841903687 6.0 1 -0.03193290904164314
1.2289413213729858 -2.1294472217559814 0.12885113060474396 6.0 9 -0.031930603086948395
1.0568927526474 -1.8313301801681519 -0.41100257635116577 6.0 2 -0.031928300857543945
1.2315478324890137 -2.134824275970459 0.21562331914901733 6.0 10 -0.0319259949028492
1.2640812397003174 -2.1921029090881348 -0.4007851481437683 111.0 3 -0.03192369267344475
1.2253034114837646 -2.125713586807251 0.3012610375881195 4.0 11 -0.03192138671875
1.2665563821792603 -2.1981678009033203 -0.31149807572364807 103.0 4 -0.03191908448934555
1.2284269332885742 -2.132852792739868 0.3898347318172455 6.0 12 -0.0319167785346508
1.226395845413208 -2.130185842514038 0.47778576612472534 5.0 13 -0.031912170350551605
1.2223541736602783 -2.1240227222442627 -0.12843245267868042 11.0 6 -0.031909868121147156
1.2272796630859375 -2.1334433555603027 0.5682263970375061 6.0 14 -0.03190756216645241
1.2250964641571045 -2.130507707595825 -0.042898017913103104 8.0 7 -0.03190525993704796
1.217831015586853 -2.1187283992767334 0.654812216758728 7.0 15 -0.03190295398235321
0.7014991044998169 -1.223400592803955 -0.37787580490112305 8.0 0 -0.031882524490356445
1.220131754875183 -2.128746747970581 0.042828209698200226 7.0 8 -0.031880222260951996
0.8341096043586731 -1.4558480978012085 -0.38736575841903687 6.0 1 -0.03187791630625725
1.2179030179977417 -2.1265780925750732 0.12843245267868042 6.0 9 -0.0318756140768528
1.046911597251892 -1.8280104398727417 -0.4094761312007904 6.0 2 -0.03187330812215805
1.223471999168396 -2.13716721534729 0.2154489904642105 6.0 10 -0.0318710058927536
1.2577862739562988 -2.1979968547821045 -0.40109801292419434 114.0 3 -0.03186869993805885
1.2162761688232422 -2.12631893157959 0.300773561000824 5.0 11 -0.031866397708654404
1.252362608909607 -2.1902925968170166 -0.3097918927669525 106.0 4 -0.031864091753959656
1.215466022491455 -2.126624584197998 0.38795751333236694 6.0 12 -0.031861789524555206
1.2173770666122437 -2.130831480026245 0.4770224988460541 5.0 13 -0.03185718134045601
1.2172846794128418 -2.131533145904541 -0.12864179909229279 11.0 6 -0.03185487538576126
1.2153677940368652 -2.1290392875671387 0.5659768581390381 6.0 14 -0.03185257315635681
1.2051408290863037 -2.1119799613952637 -0.04244425520300865 9.0 7 -0.031850267201662064
1.2107983827590942 -2.122755289077759 0.654812216758728 7.0 15 -0.031847964972257614
0.6914937496185303 -1.215766429901123 -0.37476998567581177 8.0 0 -0.031827230006456375
1.2087401151657104 -2.1260390281677246 0.04268858581781387 7.0 8 -0.03182492405176163
0.8299854397773743 -1.4604449272155762 -0.3878156542778015 7.0 1 -0.03182262182235718
1.2124453783035278 -2.1342897415161133 0.12864179909229279 6.0 9 -0.03182031586766243
1.0347057580947876 -1.8214112520217896 -0.4071864187717438 6.0 2 -0.03181801363825798
1.2150205373764038 -2.1396923065185547 0.21527467668056488 6.0 10 -0.03181570768356323
1.2540065050125122 -2.2092456817626953 -0.40234947204589844 107.0 3 -0.03181340545415878
1.2108057737350464 -2.134004592895508 0.3012610375881195 6.0 11 -0.031811099499464035
1.2476475238800049 -2.1998307704925537 -0.310523122549057 103.0 4 -0.031808797270059586
1.2012159824371338 -2.1188251972198486 0.3857674300670624 6.0 12 -0.03180649131536484
1.20993173122406 -2.135067939758301 0.4770224988460541 6.0 13 -0.03180188313126564
1.2127900123596191 -2.1409828662872314 -0.12895581126213074 11.0 6 -0.03179958090186119
1.2088887691497803 -2.1349644660949707 0.5664268136024475 6.0 14 -0.03179727494716644
1.1997311115264893 -2.1196541786193848 -0.04251406341791153 9.0 7 -0.03179497271776199
1.203381061553955 -2.1269686222076416 0.654812216758728 7.0 15 -0.031792666763067245
0.6853471994400024 -1.2148077487945557 -0.3737347424030304 8.0 0 -0.031771931797266006
1.1973824501037598 -2.1232783794403076 0.04254896938800812 7.0 8 -0.03176962956786156
0.8287101984024048 -1.4701237678527832 -0.3896152675151825 7.0 1 -0.03176732361316681
1.2069487571716309 -2.14198899269104 0.12885113060474396 6.0 9 -0.03176502138376236
1.0321966409683228 -1.8318538665771484 -0.40871289372444153 7.0 2 -0.03176271542906761
1.199722170829773 -2.130032777786255 0.21388019621372223 6.0 10 -0.03176041319966316
1.2365959882736206 -2.196396589279175 -0.3992207944393158 114.0 3 -0.031758107244968414
1.207243800163269 -2.1451377868652344 0.30223599076271057 5.0 11 -0.031755805015563965
1.2399609088897705 -2.2041726112365723 -0.310523122549057 103.0 4 -0.03175349906086922
1.1909078359603882 -2.117840051651001 0.3848288059234619 6.0 12 -0.03175119683146477
1.1928516626358032 -2.122164011001587 0.4732063114643097 5.0 13 -0.03174658864736557
1.203352689743042 -2.1417205333709717 -0.12874646484851837 12.0 6 -0.03174428269267082
1.201429009437561 -2.1391713619232178 0.5664268136024475 6.0 14 -0.03174198046326637
1.1893880367279053 -2.118597984313965 -0.042409345507621765 9.0 7 -0.03173967823386192
1.1874405145645142 -2.1159937381744385 0.6501534581184387 6.0 15 -0.031737372279167175
0.682989239692688 -1.220564365386963 -0.37476998567581177 8.0 0 -0.031716637313365936
1.1880111694335938 -2.1239540576934814 0.04247915744781494 7.0 8 -0.03171433135867119
0.819769561290741 -1.4662036895751953 -0.3878156542778015 7.0 1 -0.03171202912926674
1.2033618688583374 -2.153162717819214 0.1292698234319687 6.0 9 -0.03170972317457199
1.0238802433013916 -1.8320180177688599 -0.40794962644577026 6.0 2 -0.03170742094516754
1.192279577255249 -2.1342077255249023 0.21388019621372223 6.0 10 -0.031705114990472794
1.2269952297210693 -2.1972501277923584 -0.39859506487846375 114.0 3 -0.031702812761068344
1.190073013305664 -2.132005453109741 0.2997986078262329 6.0 11 -0.031700506806373596
1.2283904552459717 -2.2015535831451416 -0.30954816937446594 101.0 4 -0.03169820457696915
1.1854324340820312 -2.125434637069702 0.38545459508895874 6.0 12 -0.0316959023475647
1.1854368448257446 -2.126314878463745 0.4732063114643097 5.0 13 -0.0316912941634655
1.1910080909729004 -2.1371848583221436 -0.12822310626506805 12.0 6 -0.03168898820877075
1.1930062770843506 -2.1416494846343994 0.5659768581390381 6.0 14 -0.0316866859793663
1.1810126304626465 -2.120990037918091 -0.042374443262815475 9.0 7 -0.031684380024671555
1.1819262504577637 -2.123502016067505 0.6511887311935425 7.0 15 -0.031682077795267105
0.680599570274353 -1.2263191938400269 -0.3758052587509155 8.0 0 -0.03166133910417557
1.182530164718628 -2.1315855979919434 0.04254896938800812 7.0 8 -0.03165903687477112
0.8099212050437927 -1.4605350494384766 -0.3855661451816559 6.0 1 -0.03165673092007637
1.1880923509597778 -2.1433756351470947 0.12843245267868042 6.0 9 -0.03165442869067192
1.0212863683700562 -1.8424495458602905 -0.4094761312007904 7.0 2 -0.03165212273597717
1.1877193450927734 -2.1435842514038086 0.21440312266349792 6.0 10 -0.03164982050657272
1.2164466381072998 -2.196335792541504 -0.3976564407348633 111.0 3 -0.031647518277168274
1.1768547296524048 -2.1257264614105225 0.2983361780643463 5.0 11 -0.031645212322473526
1.217814564704895 -2.200617551803589 -0.30881693959236145 106.0 4 -0.03164291009306908
1.1780059337615967 -2.1295595169067383 0.38545459508895874 6.0 12 -0.03164060413837433
1.178957462310791 -2.132158041000366 0.4735879600048065 6.0 13 -0.03163599595427513
1.180642008781433 -2.136085033416748 -0.1279090791940689 12.0 6 -0.03163369372487068
1.1808114051818848 -2.137272357940674 0.5637273788452148 6.0 14 -0.031631387770175934
1.1765021085739136 -2.1303508281707764 -0.04247915744781494 9.0 7 -0.031629085540771484
1.177307367324829 -2.132688283920288 0.6527416706085205 7.0 15 -0.031626779586076736
0.6800409555435181 -1.2354570627212524 -0.37787580490112305 8.0 0 -0.0316060446202755
1.1731542348861694 -2.1321961879730225 0.04247915744781494 7.0 8 -0.03160373866558075
0.8066961765289307 -1.4667683839797974 -0.3864659368991852 6.0 1 -0.0316014364361763
1.1748303174972534 -2.1370081901550293 0.12780441343784332 6.0 9 -0.03159913420677185
1.0205236673355103 -1.8563255071640015 -0.41176581382751465 7.0 2 -0.0315968282520771
1.1773511171340942 -2.142479181289673 0.21388019621372223 6.0 10 -0.03159452602267265
1.2125771045684814 -2.207494020462036 -0.39890795946121216 104.0 3 -0.031592220067977905
1.1713380813598633 -2.1333014965057373 0.29882365465164185 6.0 11 -0.031589917838573456
1.208215594291687 -2.2013745307922363 -0.3083294630050659 106.0 4 -0.03158761188387871
1.170565128326416 -2.1336586475372314 0.38545459508895874 6.0 12 -0.03158530965447426
1.1705635786056519 -2.1345388889312744 0.4732063114643097 5.0 13 -0.03158070147037506
1.1722185611724854 -2.138442039489746 -0.12780441343784332 12.0 6 -0.03157839551568031
1.1714707612991333 -2.137963056564331 0.5628275871276855 6.0 14 -0.031576093286275864
1.1613738536834717 -2.1204140186309814 -0.04219992086291313 9.0 7 -0.031573787331581116
1.1698557138442993 -2.1367850303649902 0.6527416706085205 7.0 15 -0.031571485102176666
0.668319046497345 -1.2242581844329834 -0.3737347424030304 8.0 0 -0.03155075013637543
1.1657042503356934 -2.1362783908843994 0.04247915744781494 8.0 8 -0.03154844418168068
0.7997050285339355 -1.466153860092163 -0.3855661451816559 7.0 1 -0.03154614195227623
1.1731001138687134 -2.1516177654266357 0.12843245267868042 6.0 9 -0.03154383599758148
1.0046396255493164 -1.842639446258545 -0.40794962644577026 6.0 2 -0.03154153376817703
1.167004942893982 -2.1413276195526123 0.21335725486278534 6.0 10 -0.031539227813482285
1.2048640251159668 -2.2117133140563965 -0.39890795946121216 111.0 3 -0.031536925584077835
1.1657832860946655 -2.1408638954162598 0.2993111312389374 5.0 11 -0.03153461962938309
1.1986256837844849 -2.2020912170410156 -0.3078419864177704 106.0 4 -0.03153231739997864
1.155557632446289 -2.123850107192993 0.38295161724090576 6.0 12 -0.03153001144528389
1.1612293720245361 -2.135162591934204 0.4724431037902832 5.0 13 -0.03152540326118469
1.165700912475586 -2.144275188446045 -0.1279090791940689 12.0 6 -0.03152310103178024
1.1602789163589478 -2.13519024848938 0.561028003692627 6.0 14 -0.031520795077085495
1.1568284034729004 -2.1297264099121094 -0.0423046313226223 9.0 7 -0.031518492847681046
1.1550153493881226 -2.1272737979888916 0.6486005187034607 7.0 15 -0.0315161868929863
0.667720377445221 -1.2333791255950928 -0.3758052587509155 9.0 0 -0.03149545192718506
1.1544336080551147 -2.1332995891571045 0.04233953729271889 7.0 8 -0.03149314969778061
0.7955094575881958 -1.4706504344940186 -0.38601604104042053 7.0 1 -0.03149084374308586
1.1617825031280518 -2.148671865463257 0.1280137598514557 6.0 9 -0.03148854151368141
0.9963339567184448 -1.8426810503005981 -0.4071864187717438 7.0 2 -0.031486235558986664
1.154786467552185 -2.136624336242676 0.21248570084571838 6.0 10 -0.031483933329582214
1.192441701889038 -2.2072160243988037 -0.39734360575675964 114.0 3 -0.031481627374887466
1.1639626026153564 -2.155400514602661 0.300773561000824 5.0 11 -0.03147932514548302
1.1918745040893555 -2.2080087661743164 -0.30808573961257935 107.0 4 -0.03147701919078827
1.1500130891799927 -2.131347894668579 0.3835773468017578 6.0 12 -0.03147471696138382
1.1537694931030273 -2.1392030715942383 0.4724431037902832 5.0 13 -0.03147010877728462
1.1591566801071167 -2.1500895023345947 -0.1280137598514557 12.0 6 -0.031467802822589874
1.1528185606002808 -2.1392276287078857 0.561028003692627 6.0 14 -0.031465500593185425
1.1427490711212158 -2.1214280128479004 -0.04206030070781708 9.0 7 -0.031463198363780975
1.141171932220459 -2.1193857192993164 0.6449770927429199 7.0 15 -0.03146089240908623
0.6597559452056885 -1.2288941144943237 -0.3737347424030304 8.0 0 -0.03144015744328499
1.145088791847229 -2.1337924003601074 0.04226972907781601 7.0 8 -0.03143785148859024
0.7876076102256775 -1.4682663679122925 -0.3846663236618042 6.0 1 -0.03143554925918579
1.1542750597000122 -2.152714252471924 0.1280137598514557 6.0 9 -0.03143324330449104
0.9898956418037415 -1.8461477756500244 -0.4071864187717438 6.0 2 -0.031430941075086594
1.148262619972229 -2.142397880554199 0.21265999972820282 6.0 10 -0.031428635120391846
1.1781996488571167 -2.19917631149292 -0.3951534926891327 104.0 3 -0.031426332890987396
1.1470602750778198 -2.141950845718384 0.2983361780643463 5.0 11 -0.03142402693629265
1.183223009109497 -2.2104055881500244 -0.3078419864177704 106.0 4 -0.0314217247068882
1.142566204071045 -2.1353492736816406 0.3835773468017578 6.0 12 -0.03141941875219345
1.1407396793365479 -2.1328303813934326 0.47015342116355896 6.0 13 -0.03141481429338455
1.1478776931762695 -2.1470773220062256 -0.12759508192539215 12.0 6 -0.031412508338689804
1.1490182876586914 -2.150113105773926 0.5628275871276855 6.0 14 -0.031410206109285355
1.1400477886199951 -2.134222984313965 -0.04223482310771942 9.0 7 -0.03140790015459061
1.1401362419128418 -2.1352851390838623 0.6486005187034607 7.0 15 -0.03140559792518616
0.6590936779975891 -1.2380105257034302 -0.3758052587509155 9.0 0 -0.03138485923409462
1.1301180124282837 -2.1236541271209717 0.0419904924929142 8.0 8 -0.03138255700469017
0.7797320485115051 -1.4658453464508057 -0.38331663608551025 7.0 1 -0.03138025104999542
1.143940806388855 -2.1514394283294678 0.12769974768161774 7.0 9 -0.03137794882059097
0.9889758229255676 -1.8599927425384521 -0.4094761312007904 6.0 2 -0.031375642865896225
1.1426472663879395 -2.149911880493164 0.21300862729549408 6.0 10 -0.031373340636491776
1.1732962131500244 -2.2085089683532715 -0.39609211683273315 107.0 3 -0.03137103468179703
1.1395764350891113 -2.145941734313965 0.2983361780643463 6.0 11 -0.03136873245239258
1.171777367591858 -2.2075088024139404 -0.3068670332431793 106.0 4 -0.03136643022298813
1.1406605243682861 -2.149794340133667 0.38545459508895874 6.0 12 -0.03136412426829338
1.129608154296875 -2.129861831665039 0.4686269164085388 5.0 13 -0.03135951608419418
1.1366338729858398 -2.144012451171875 -0.12717638909816742 12.0 6 -0.031357213854789734
1.126906394958496 -2.1265602111816406 0.5556291341781616 6.0 14 -0.031354907900094986
1.1344630718231201 -2.1417236328125 -0.0423046313226223 9.0 7 -0.031352605670690536
1.1326757669448853 -2.139252185821533 0.6486005187034607 7.0 15 -0.03135029971599579
0.6565719246864319 -1.243720531463623 -0.3768405616283417 8.0 0 -0.03132956475019455
1.1301641464233398 -2.1417346000671387 0.04226972907781601 8.0 8 -0.0313272587954998
0.7764288187026978 -1.4720054864883423 -0.38421642780303955 7.0 1 -0.03132495656609535
1.1312092542648315 -2.1446218490600586 0.12707172334194183 7.0 9 -0.031322650611400604
0.9751520156860352 -1.84954035282135 -0.4064231812953949 6.0 2 -0.031320348381996155
1.136993646621704 -2.1574127674102783 0.21335725486278534 6.0 10 -0.031318046152591705
1.1646595001220703 -2.210843324661255 -0.39577925205230713 104.0 3 -0.03131574019789696
1.126529574394226 -2.1393678188323975 0.2968737483024597 6.0 11 -0.03131343796849251
1.1616756916046143 -2.206112861633301 -0.30613580346107483 103.0 4 -0.03131113201379776
1.1243246793746948 -2.13608455657959 0.3823258578777313 6.0 12 -0.03130882978439331
1.1258221864700317 -2.140742063522339 0.47015342116355896 5.0 13 -0.03130422160029411
1.1244962215423584 -2.139127731323242 -0.1266530305147171 12.0 6 -0.031301915645599365
1.1216617822647095 -2.1337356567382812 0.5565289855003357 6.0 14 -0.031299613416194916
1.1208434104919434 -2.133082628250122 -0.04206030070781708 9.0 7 -0.03129730746150017
1.1237788200378418 -2.139575719833374 0.6475652456283569 7.0 15 -0.03129500523209572
0.6434819102287292 -1.2287770509719849 -0.3716641664505005 8.0 0 -0.03127427026629448
1.1230556964874268 -2.14547061920166 0.04226972907781601 8.0 8 -0.03127196431159973
0.7751571536064148 -1.4814788103103638 -0.38601604104042053 7.0 1 -0.03126966208219528
1.1268692016601562 -2.153670072555542 0.1273857206106186 6.0 9 -0.031267356127500534
0.9726526737213135 -1.8597224950790405 -0.40794962644577026 6.0 2 -0.031265053898096085
1.1242945194244385 -2.1505770683288574 0.21231138706207275 6.0 10 -0.03126274794340134
1.1545768976211548 -2.2094411849975586 -0.39484065771102905 107.0 3 -0.03126044571399689
1.1212669610977173 -2.1466104984283447 0.29736122488975525 6.0 11 -0.03125813975930214
1.1561915874481201 -2.2134721279144287 -0.30662328004837036 101.0 4 -0.03125583752989769
1.1154063940048218 -2.136298894882202 0.3817001283168793 7.0 12 -0.03125353157520294
1.1214410066604614 -2.1496856212615967 0.4712982177734375 6.0 13 -0.031248925253748894
1.1192435026168823 -2.1463866233825684 -0.12686236202716827 13.0 6 -0.031246621161699295
1.1181840896606445 -2.144355058670044 0.5583285689353943 6.0 14 -0.031244317069649696
1.107293963432312 -2.124375104904175 -0.04181596636772156 9.0 7 -0.031242012977600098
1.1113216876983643 -2.1330111026763916 0.6444594264030457 7.0 15 -0.0312397088855505
0.6411846280097961 -1.2343329191207886 -0.37269943952560425 8.0 0 -0.03121897205710411
1.1104059219360352 -2.1385345458984375 0.04206030070781708 8.0 8 -0.031216667965054512
0.7756263613700867 -1.494418978691101 -0.3887154459953308 7.0 1 -0.031214363873004913
1.1193444728851318 -2.157590389251709 0.1273857206106186 6.0 9 -0.031212059780955315
0.9628641605377197 -1.8559670448303223 -0.4064231812953949 6.0 2 -0.031209755688905716
1.1153223514556885 -2.150756359100342 0.2119627594947815 6.0 10 -0.031207451596856117
1.1454259157180786 -2.209750175476074 -0.394214928150177 107.0 3 -0.031205149367451668
1.115968942642212 -2.153841972351074 0.2978487014770508 6.0 11 -0.03120284527540207
1.1493710279464722 -2.219257354736328 -0.3068670332431793 106.0 4 -0.03120054118335247
1.1061261892318726 -2.136671304702759 0.3810743987560272 6.0 12 -0.03119823709130287
1.1106970310211182 -2.1464180946350098 0.46977177262306213 6.0 13 -0.031193628907203674
1.1148724555969238 -2.1554083824157715 -0.12717638909816742 13.0 6 -0.031191324815154076
1.107112169265747 -2.1413209438323975 0.5565289855003357 6.0 14 -0.031189020723104477
