# .PCD v0.7 - Point Cloud Data file format
VERSION 0.7
FIELDS x y z intensity ring time
SIZE 4 4 4 4 4 4
TYPE F F F F F F
COUNT 1 1 1 1 1 1
WIDTH 547
HEIGHT 1
VIEWPOINT 0 0 0 1 0 0 0
POINTS 547
DATA ascii
-2.7357966899871826 0.29430437088012695 0.04802902415394783 3.0 8 -0.06679905951023102
-2.561408042907715 0.27599605917930603 -0.594770610332489 10.0 1 -0.06679675728082657
-3.030219554901123 0.32704630494117737 0.15972934663295746 2.0 9 -0.06679444760084152
-2.5277349948883057 0.272814005613327 -0.4941953420639038 11.0 2 -0.06679214537143707
-2.521620035171509 0.27259984612464905 0.22189851105213165 1.0 10 -0.06678984314203262
-2.541282892227173 0.2751736044883728 -0.40485242009162903 12.0 3 -0.06678754091262817
-2.516188859939575 0.27334558963775635 -0.3107668459415436 13.0 4 -0.06678292900323868
-2.5293519496917725 0.275221586227417 -0.22259576618671417 12.0 5 -0.06677832454442978
-2.452047824859619 0.2676766812801361 -0.1292698234319687 28.0 6 -0.06677371263504028
-9.695658683776855 1.0601321458816528 2.251760244369507 1.0 14 -0.06677141040563583
-2.51259183883667 0.2751733958721161 -0.04411968216300011 18.0 7 -0.06676910817623138
-9.628548622131348 1.0561976432800293 2.595437526702881 0.0 15 -0.06676679849624634
-2.519136667251587 0.2794507145881653 -0.6791411638259888 9.0 0 -0.0667460635304451
-2.6194796562194824 0.2910440266132355 0.04600454494357109 4.0 8 -0.06674376130104065
-2.513946294784546 0.2797626256942749 -0.5839729905128479 11.0 1 -0.0667414590716362
-3.0072250366210938 0.3351888656616211 0.15857796370983124 2.0 9 -0.06673915684223175
-2.4935972690582275 0.2779392898082733 -0.48770785331726074 12.0 2 -0.0667368471622467
-2.4493701457977295 0.273441880941391 0.21562331914901733 1.0 10 -0.06673454493284225
-2.503007173538208 0.2798720896244049 -0.39890795946121216 12.0 3 -0.0667322427034378
-2.4876012802124023 0.27902868390083313 -0.30735450983047485 12.0 4 -0.06672763079404831
-2.4808084964752197 0.27914419770240784 -0.21841228008270264 14.0 5 -0.06672302633523941
-2.443159818649292 0.2753390967845917 -0.12885113060474396 23.0 6 -0.06671841442584991
-9.7422456741333 1.0996553897857666 2.2634575366973877 1.0 14 -0.06671611219644547
-2.461940050125122 0.27832645177841187 -0.04324706271290779 15.0 7 -0.06671380996704102
-9.651677131652832 1.0928442478179932 2.602684497833252 0.0 15 -0.06671150773763657
-2.479710102081299 0.28428077697753906 -0.6687884330749512 10.0 0 -0.06669077277183533
-2.578714370727539 0.29563087224960327 0.04530644789338112 3.0 8 -0.06668846309185028
-2.4781060218811035 0.28453561663627625 -0.5758747458457947 11.0 1 -0.06668616086244583
-3.0060367584228516 0.34568336606025696 0.15857796370983124 2.0 9 -0.06668385863304138
-2.4516043663024902 0.28235915303230286 -0.47969385981559753 12.0 2 -0.06668155640363693
-2.39689040184021 0.2764820158481598 0.21109120547771454 1.0 10 -0.06667924672365189
-2.450943946838379 0.28314998745918274 -0.39077335596084595 13.0 3 -0.06667694449424744
-2.4511172771453857 0.2836034893989563 -0.30296722054481506 12.0 4 -0.06667234003543854
-2.440236806869507 0.28320837020874023 -0.21492604911327362 13.0 5 -0.06666772812604904
-9.272845268249512 1.077823281288147 1.8145935535430908 1.0 13 -0.06666542589664459
-2.4302310943603516 0.28290683031082153 -0.12822310626506805 19.0 6 -0.06666312366724014
-9.738149642944336 1.1353552341461182 2.2634575366973877 1.0 14 -0.0666608214378357
-2.427187204360962 0.28298184275627136 -0.042653679847717285 15.0 7 -0.06665851175785065
-9.628615379333496 1.1242856979370117 2.597507953643799 0.0 15 -0.0666562095284462
-2.4326586723327637 0.28749337792396545 -0.6563650965690613 10.0 0 -0.06663547456264496
-2.4167604446411133 0.2860422134399414 0.04247915744781494 1.0 8 -0.06663317233324051
-2.43447208404541 0.2885693311691284 -0.5659768581390381 10.0 1 -0.06663086265325546
-2.4058327674865723 0.28517457842826843 0.12696704268455505 3.0 9 -0.06662856042385101
-2.4213602542877197 0.2874436676502228 -0.47396957874298096 12.0 2 -0.06662625819444656
-2.3662335872650146 0.2813182771205902 0.20847654342651367 2.0 10 -0.06662395596504211
-2.4087488651275635 0.2867991626262665 -0.38420307636260986 12.0 3 -0.06662164628505707
-2.4185242652893066 0.2888198494911194 -0.2990674078464508 13.0 4 -0.06661704182624817
-2.3976895809173584 0.28675562143325806 -0.21126550436019897 11.0 5 -0.06661243736743927
-2.3915507793426514 0.28686878085136414 -0.12623433768749237 21.0 6 -0.06660782545804977
-9.73412799835205 1.1693387031555176 2.2634575366973877 1.0 14 -0.06660552322864532
-2.3944180011749268 0.28763601183891296 -0.042095206677913666 16.0 7 -0.06660322099924088
-9.65532112121582 1.1615835428237915 2.605790376663208 0.0 15 -0.06660091131925583
-2.408627986907959 0.2931821644306183 -0.6501534581184387 22.0 0 -0.06658017635345459
-2.344337224960327 0.2853565812110901 0.04122258722782135 23.0 8 -0.06657787412405014
-2.392879009246826 0.2916889786720276 -0.5565289855003357 27.0 1 -0.06657557189464569
-2.367154121398926 0.2889724373817444 0.12497827410697937 66.0 9 -0.06657326966524124
-2.4008548259735107 0.2935117185115814 -0.47015342116355896 31.0 2 -0.0665709599852562
-2.351393938064575 0.2878814935684204 0.20725634694099426 40.0 10 -0.06656865775585175
-2.401902198791504 0.2940652370452881 -0.3832644820213318 36.0 3 -0.0665663555264473
-2.3761768341064453 0.29175809025764465 -0.2939488887786865 45.0 4 -0.0665617436170578
-2.386786460876465 0.29390591382980347 -0.21039395034313202 66.0 5 -0.0665571391582489
-2.372746229171753 0.2925979793071747 -0.12529228627681732 84.0 6 -0.0665525272488594
-9.730196952819824 1.2016122341156006 2.2634575366973877 1.0 14 -0.06655022501945496
-2.369584321975708 0.29304778575897217 -0.041676346212625504 66.0 7 -0.0665479227900505
-9.670378684997559 1.1976544857025146 2.610966682434082 0.0 15 -0.06654562056064606
-2.413393497467041 0.30188673734664917 -0.6517063975334167 30.0 0 -0.06652488559484482
-2.3572161197662354 0.29527804255485535 0.04146691784262657 73.0 8 -0.06652257591485977
-2.4092483520507812 0.30222296714782715 -0.5605780482292175 41.0 1 -0.06652027368545532
-2.356274366378784 0.295577734708786 0.12445490807294846 70.0 9 -0.06651797145605087
-2.384284734725952 0.2995135486125946 -0.46710047125816345 54.0 2 -0.06651566922664642
-2.3583335876464844 0.29667219519615173 0.20795360207557678 100.0 10 -0.06651335954666138
-2.3989014625549316 0.3022008240222931 -0.38295161724090576 60.0 3 -0.06651105731725693
-2.3633272647857666 0.2985574007034302 -0.2924864590167999 52.0 4 -0.06650645285844803
-2.37789249420166 0.30081906914711 -0.2096967101097107 70.0 5 -0.06650184094905853
-2.389542818069458 0.3031403720378876 -0.12623433768749237 92.0 6 -0.06649723649024963
-2.3725674152374268 0.3014075756072998 -0.04174615815281868 100.0 7 -0.06649262458086014
-9.697016716003418 1.2336171865463257 2.619248867034912 0.0 15 -0.06649032235145569
-2.4544780254364014 0.3157322406768799 -0.6630944013595581 43.0 0 -0.06646958738565445
-2.3562240600585938 0.3030933141708374 0.04146691784262657 70.0 8 -0.06646728515625
-2.4720144271850586 0.31842660903930664 -0.57542484998703 50.0 1 -0.06646497547626495
-2.3671135902404785 0.3053334355354309 0.12508295476436615 27.0 9 -0.0664626732468605
-2.4572134017944336 0.3173919916152954 -0.4816019535064697 67.0 2 -0.06646037101745605
-2.3572838306427 0.3049026131629944 0.20795360207557678 54.0 10 -0.0664580687880516
-2.4468624591827393 0.3164891302585602 -0.39077335596084595 68.0 3 -0.06645575910806656
-2.460754156112671 0.3191593289375305 -0.30467337369918823 63.0 4 -0.06645115464925766
-2.396585464477539 0.3116866648197174 -0.2114398330450058 33.0 5 -0.06644654273986816
-2.378621816635132 0.30977317690849304 -0.12571097910404205 36.0 6 -0.06644193828105927
-2.8235926628112793 0.3687256872653961 -0.049704451113939285 52.0 7 -0.06643733382225037
-9.727130889892578 1.2719651460647583 2.628566265106201 0.0 15 -0.06643502414226532
-2.56821346282959 0.3399353325366974 -0.6941527128219604 67.0 0 -0.06640338897705078
-3.0270626544952393 0.4012080729007721 0.05329965054988861 46.0 8 -0.06640108674764633
-2.5712273120880127 0.34124815464019775 -0.5988197326660156 74.0 1 -0.06639878451824188
-3.041123390197754 0.40361180901527405 0.1607760637998581 37.0 9 -0.06639647483825684
-2.5611257553100586 0.34036171436309814 -0.5022093057632446 85.0 2 -0.06639417260885239
-2.555281162261963 0.3404932916164398 -0.4082939922809601 82.0 3 -0.06638956815004349
-2.551988363265991 0.34096112847328186 -0.31612908840179443 53.0 4 -0.06638495624065399
-2.7291672229766846 0.365118145942688 -0.2408984750509262 10.0 5 -0.06638035178184509
-2.411066770553589 0.32341814041137695 -0.12749040126800537 20.0 6 -0.0663757398724556
-9.716853141784668 1.3051354885101318 2.2634575366973877 1.0 14 -0.06637343764305115
-2.988701820373535 0.40143251419067383 -0.05263645574450493 72.0 7 -0.0663711354136467
-9.699429512023926 1.3045185804367065 2.622354745864868 0.0 15 -0.06636882573366165
-2.5804107189178467 0.35071930289268494 -0.6977761387825012 73.0 0 -0.06634809076786041
-3.015808343887329 0.4098968207836151 0.05312512442469597 45.0 8 -0.06634578853845596
-2.560426950454712 0.3484588861465454 -0.5965702533721924 72.0 1 -0.06634348630905151
-3.053549289703369 0.4161119759082794 0.16150878369808197 33.0 9 -0.06634118407964706
-2.563812494277954 0.3498305380344391 -0.5029725432395935 89.0 2 -0.06633887439966202
-2.9827892780303955 0.40753063559532166 0.2633846402168274 2.0 10 -0.06633657217025757
-2.5482664108276367 0.3481629192829132 -0.407355397939682 81.0 3 -0.06633426994085312
-25.147157669067383 3.440260648727417 3.116442918777466 2.0 11 -0.06633196771144867
-2.5390431880950928 0.34780561923980713 -0.31466665863990784 60.0 4 -0.06632965803146362
-2.7673532962799072 0.38006433844566345 -0.24438470602035522 9.0 5 -0.06632505357265472
-2.3921735286712646 0.328963041305542 -0.12654836475849152 22.0 6 -0.06632044166326523
-2.9971871376037598 0.4132283329963684 -0.05281098559498787 69.0 7 -0.06631583720445633
-9.694816589355469 1.33836829662323 2.622354745864868 0.0 15 -0.06631353497505188
-2.5773203372955322 0.35900795459747314 -0.6972585916519165 72.0 0 -0.06629280000925064
-3.0341641902923584 0.4231845438480377 0.053474172949790955 45.0 8 -0.0662904903292656
-2.557264804840088 0.35712486505508423 -0.596120297908783 63.0 1 -0.06628818809986115
-3.0481221675872803 0.4262152314186096 0.1612994372844696 33.0 9 -0.0662858858704567
-2.564582347869873 0.3586024343967438 -0.5033541321754456 78.0 2 -0.06628358364105225
-2.989314079284668 0.4185248613357544 0.2640818953514099 2.0 10 -0.0662812739610672
-2.5431227684020996 0.3565075099468231 -0.40672966837882996 75.0 3 -0.06627897173166275
-25.13499641418457 3.528014659881592 3.116442918777466 2.0 11 -0.0662766695022583
-2.5397794246673584 0.3569427728652954 -0.3149104118347168 63.0 4 -0.06627436727285385
-2.766077995300293 0.38923919200897217 -0.24438470602035522 9.0 5 -0.06626975536346436
-2.3830997943878174 0.33619529008865356 -0.12612967193126678 20.0 6 -0.06626515090465546
-3.0036463737487793 0.4248081147670746 -0.052950602024793625 74.0 7 -0.06626053899526596
-9.724514961242676 1.3770769834518433 2.6316721439361572 0.0 15 -0.06625823676586151
-2.5837013721466064 0.3690951466560364 -0.6993290781974792 72.0 0 -0.06623750180006027
-3.030688762664795 0.433490127325058 0.053439266979694366 40.0 8 -0.06623519957065582
-3.042661666870117 0.4362856447696686 0.16109009087085724 31.0 9 -0.06623058766126633
-2.5574851036071777 0.3667164742946625 -0.5022093057632446 86.0 2 -0.06622828543186188
-2.9957234859466553 0.4300895631313324 0.26477915048599243 3.0 10 -0.06622598320245743
-2.5711922645568848 0.3695978820323944 -0.4114226996898651 82.0 3 -0.06622367352247238
-2.536553144454956 0.36552298069000244 -0.31466665863990784 60.0 4 -0.06621906906366348
-9.718960762023926 1.4022531509399414 1.5552716255187988 0.0 12 -0.06621676683425903
-2.7568142414093018 0.39775359630584717 -0.2436874657869339 9.0 5 -0.06621446460485458
-9.822293281555176 1.4189143180847168 1.9290790557861328 1.0 13 -0.06621215492486954
-2.3977251052856445 0.3467991352081299 -0.12696704268455505 22.0 6 -0.06620985269546509
-2.994229316711426 0.434142529964447 -0.05281098559498787 69.0 7 -0.06620524823665619
-9.738767623901367 1.4137893915176392 2.6368486881256104 0.0 15 -0.06620293855667114
-2.574751138687134 0.3769928812980652 -0.6972585916519165 69.0 0 -0.0661822035908699
-3.035092830657959 0.44493603706359863 0.05354398116469383 36.0 8 -0.06617990136146545
-3.0470478534698486 0.44777584075927734 0.1614041030406952 29.0 9 -0.06617528945207596
-2.554246664047241 0.3753567636013031 -0.5018276572227478 78.0 2 -0.06617298722267151
-2.9784348011016846 0.4382231533527374 0.2633846402168274 2.0 10 -0.06617068499326706
-2.564023494720459 0.37770718336105347 -0.41048407554626465 79.0 3 -0.06616838276386261
-2.539189577102661 0.3749544620513916 -0.31515416502952576 60.0 4 -0.06616377085447311
-9.760906219482422 1.4431041479110718 1.562780499458313 0.0 12 -0.06616146862506866
-2.751466989517212 0.4067915081977844 -0.24333882331848145 9.0 5 -0.06615916639566422
-2.400451421737671 0.35575172305107117 -0.12717638909816742 19.0 6 -0.06615455448627472
-2.9966516494750977 0.4451795220375061 -0.05288079380989075 69.0 7 -0.06614995002746582
-9.733773231506348 1.4477733373641968 2.6368486881256104 0.0 15 -0.06614764779806137
-2.5657777786254883 0.38483142852783203 -0.6951879858970642 69.0 0 -0.06612690538167953
-3.0216565132141113 0.45374616980552673 0.0533345565199852 36.0 8 -0.06612460315227509
-3.057316541671753 0.46019235253334045 0.1620321422815323 28.0 9 -0.06611999869346619
-2.5587453842163086 0.3851465880870819 -0.5029725432395935 64.0 2 -0.06611769646406174
-2.9847676753997803 0.4498049020767212 0.2640818953514099 4.0 10 -0.06611538678407669
-2.5509700775146484 0.3848874568939209 -0.4086068868637085 75.0 3 -0.06611308455467224
-2.5417909622192383 0.3844093680381775 -0.3156416416168213 58.0 4 -0.06610848009586334
-9.853464126586914 1.491956353187561 1.5784238576889038 0.0 12 -0.0661061704158783
-2.738210916519165 0.4146045744419098 -0.24229297041893005 9.0 5 -0.06610386818647385
-2.3972203731536865 0.3638290464878082 -0.12707172334194183 18.0 6 -0.06609926372766495
-3.0010104179382324 0.4565386474132538 -0.05298550799489021 72.0 7 -0.06609465181827545
-9.728660583496094 1.4817419052124023 2.6368486881256104 0.0 15 -0.066092349588871
-3.0180776119232178 0.46398720145225525 0.05329965054988861 31.0 8 -0.06606931239366531
-3.0556914806365967 0.47086164355278015 0.1620321422815323 28.0 9 -0.06606470048427582
-2.991055727005005 0.46143609285354614 0.26477915048599243 4.0 10 -0.06606009602546692
-2.5652284622192383 0.3962012529373169 -0.4111098051071167 86.0 3 -0.06605778634548187
-2.5541653633117676 0.39540600776672363 -0.31734779477119446 63.0 4 -0.06605318188667297
-9.848196029663086 1.526340126991272 1.5784238576889038 0.0 12 -0.06605087965726852
-2.740684747695923 0.42476987838745117 -0.24264158308506012 9.0 5 -0.06604856997728348
-2.390015125274658 0.3712756037712097 -0.1267576962709427 19.0 6 -0.06604396551847458
-3.009277582168579 0.4685496985912323 -0.05316003039479256 74.0 7 -0.06603935360908508
-9.723427772521973 1.5156948566436768 2.6368486881256104 0.0 15 -0.06603705137968063
-2.521043062210083 0.3961372673511505 -0.6837999820709229 1.0 0 -0.0660163164138794
-3.0302672386169434 0.4766947627067566 0.05354398116469383 26.0 8 -0.06601401418447495
-3.0540292263031006 0.4815252423286438 0.1620321422815323 27.0 9 -0.06600940227508545
-2.4532113075256348 0.3867949843406677 -0.48274680972099304 1.0 2 -0.066007100045681
-2.9913947582244873 0.47218477725982666 0.26495346426963806 3.0 10 -0.06600479781627655
-2.546269655227661 0.40237823128700256 -0.4082939922809601 49.0 3 -0.0660024955868721
-2.542966604232788 0.40276607871055603 -0.31612908840179443 58.0 4 -0.0659978836774826
-2.747056484222412 0.4355821907520294 -0.24333882331848145 9.0 5 -0.0659932792186737
-2.390676736831665 0.37992894649505615 -0.12686236202716827 18.0 6 -0.06598866730928421
-3.0135481357574463 0.47999557852745056 -0.05326474457979202 72.0 7 -0.06598406285047531
-2.435720443725586 0.3914467990398407 -0.6610238552093506 1.0 0 -0.06596101820468903
-3.0226619243621826 0.48631659150123596 0.053439266979694366 29.0 8 -0.06595871597528458
-2.4145491123199463 0.3889095187187195 -0.5646272301673889 1.0 1 -0.06595641374588013
-3.0523300170898438 0.492182195186615 0.1620321422815323 27.0 9 -0.06595411151647568
-2.977926731109619 0.48071882128715515 0.2639075815677643 2.0 10 -0.06594949960708618
-2.5415449142456055 0.41164031624794006 -0.31612908840179443 58.0 4 -0.06594258546829224
-2.7435526847839355 0.44484975934028625 -0.243164524435997 9.0 5 -0.06593798100948334
-2.3932790756225586 0.38891249895095825 -0.12707172334194183 18.0 6 -0.06593337655067444
-3.009880781173706 0.49018988013267517 -0.05322984233498573 69.0 7 -0.06592876464128494
-3.0347583293914795 0.4991365373134613 0.053683605045080185 25.0 8 -0.06590341776609421
-2.432405471801758 0.400501012802124 -0.5691262483596802 1.0 1 -0.06590111553668976
-3.0565054416656494 0.5038091540336609 0.16234615445137024 25.0 9 -0.06589881330728531
-2.9840939044952393 0.4924083948135376 0.2646048367023468 3.0 10 -0.06589420139789581
-2.4693377017974854 0.4079100489616394 -0.3964049816131592 1.0 3 -0.06589189916849136
-2.5440094470977783 0.42115795612335205 -0.31661656498908997 60.0 4 -0.06588729470968246
-2.73608660697937 0.45344603061676025 -0.24264158308506012 9.0 5 -0.06588268280029297
-2.397817611694336 0.3982459604740143 -0.1273857206106186 18.0 6 -0.06587807834148407
-2.99828839302063 0.4990517795085907 -0.05305531620979309 67.0 7 -0.06587346643209457
-2.3948240280151367 0.40204545855522156 -0.650671124458313 1.0 0 -0.06585042923688889
-3.013277292251587 0.5064119696617126 0.0533345565199852 25.0 8 -0.06584812700748444
-2.4578967094421387 0.41351625323295593 -0.57542484998703 1.0 1 -0.06584581732749939
-3.0666351318359375 0.5159304141998291 0.16297417879104614 24.0 9 -0.06584351509809494
-2.4257946014404297 0.4085507392883301 -0.4781673550605774 1.0 2 -0.06584121286869049
-2.9823570251464844 0.5028212070465088 0.2646048367023468 2.0 10 -0.06583891063928604
-2.4834814071655273 0.41915783286094666 -0.39890795946121216 1.0 3 -0.06583660840988159
-2.5503532886505127 0.43135932087898254 -0.3175915479660034 55.0 4 -0.0658319965004921
-2.7246646881103516 0.46133169531822205 -0.24177002906799316 8.0 5 -0.0658273920416832
-2.4003512859344482 0.4072812795639038 -0.12759508192539215 18.0 6 -0.0658227801322937
-3.0123887062072754 0.5116707682609558 -0.0533345565199852 72.0 7 -0.0658181756734848
-2.431487560272217 0.4169318974018097 -0.6610238552093506 1.0 0 -0.06579513102769852
-3.023406744003296 0.5184293985366821 0.05354398116469383 21.0 8 -0.06579282879829407
-2.375844717025757 0.4078175127506256 -0.5565289855003357 1.0 1 -0.06579052656888962
-3.074657440185547 0.5283230543136597 0.16349753737449646 23.0 9 -0.06578822433948517
-2.9825470447540283 0.5135666131973267 0.26477915048599243 2.0 10 -0.06578361243009567
-2.552821159362793 0.44048941135406494 -0.31807902455329895 58.0 4 -0.06577669829130173
-2.7230377197265625 0.47083979845046997 -0.24177002906799316 8.0 5 -0.06577209383249283
-2.3950512409210205 0.41455766558647156 -0.1273857206106186 18.0 6 -0.06576748192310333
-3.004673480987549 0.5211576819419861 -0.05322984233498573 63.0 7 -0.06576287746429443
-3.019609212875366 0.5286352038383484 0.05350907891988754 20.0 8 -0.0657375305891037
-2.347533702850342 0.4113995134830475 -0.5502303242683411 1.0 1 -0.06573522835969925
-3.0688602924346924 0.5383615493774414 0.1632881909608841 22.0 9 -0.0657329261302948
-2.9847521781921387 0.524143636226654 0.2651277482509613 3.0 10 -0.0657283142209053
-2.543447971343994 0.448020339012146 -0.3171040713787079 57.0 4 -0.06572140753269196
-2.733149766921997 0.4824194014072418 -0.24281588196754456 8.0 5 -0.06571679562330246
-2.3857226371765137 0.4215254783630371 -0.12696704268455505 18.0 6 -0.06571219116449356
-3.012681245803833 0.5333852171897888 -0.05340436473488808 60.0 7 -0.06570757925510406
-3.023650884628296 0.5402275323867798 0.05361378937959671 18.0 8 -0.06568223983049393
-2.392122745513916 0.4278249144554138 -0.561028003692627 1.0 1 -0.06567993015050888
-3.0610644817352295 0.548014760017395 0.16297417879104614 22.0 9 -0.06567762792110443
-3.0024218559265137 0.5385977625846863 0.2668708562850952 2.0 10 -0.06567302346229553
-2.5418684482574463 0.4568966031074524 -0.3171040713787079 55.0 4 -0.06566610932350159
-2.719684600830078 0.4898380637168884 -0.24177002906799316 8.0 5 -0.06566149741411209
-2.4038166999816895 0.4338138997554779 -0.1280137598514557 20.0 6 -0.06565689295530319
-2.9970264434814453 0.5414098501205444 -0.05316003039479256 57.0 7 -0.0656522884964943
-3.604335308074951 0.6517701148986816 0.9814419150352478 1.0 15 -0.06564997881650925
-2.388977289199829 0.4354429244995117 -0.650671124458313 1.0 0 -0.06562924385070801
-3.025585174560547 0.5520240664482117 0.053683605045080185 13.0 8 -0.06562694162130356
-2.4135427474975586 0.4407910108566284 -0.5664268136024475 1.0 1 -0.06562463939189911
-3.062964677810669 0.5599488019943237 0.1631835252046585 22.0 9 -0.06562232971191406
-2.396678924560547 0.4381433129310608 -0.4735879600048065 1.0 2 -0.06562002748250961
-2.9828848838806152 0.5458472371101379 0.26530206203460693 3.0 10 -0.06561772525310516
-2.544081926345825 0.46692606806755066 -0.3175915479660034 54.0 4 -0.06561081111431122
-3.522408962249756 0.6471180319786072 0.5672314167022705 1.0 12 -0.06560850888490677
-2.7257962226867676 0.5007686614990234 -0.2424672693014145 8.0 5 -0.06560620665550232
-3.585639238357544 0.6593812704086304 0.7086646556854248 1.0 13 -0.06560390442609787
-2.4160373210906982 0.4447331726551056 -0.12874646484851837 23.0 6 -0.06560159474611282
-3.5742337703704834 0.6585745811462402 0.8390675187110901 1.0 14 -0.06559929251670837
-3.002887725830078 0.5538424253463745 -0.05329965054988861 14.0 7 -0.06559699028730392
-3.5373308658599854 0.6530507802963257 0.9638421535491943 3.0 15 -0.06559468805789948
-3.009877920150757 0.5600215196609497 0.053439266979694366 12.0 8 -0.06557164341211319
-2.450305461883545 0.4563492238521576 -0.57542484998703 1.0 1 -0.06556934118270874
-3.0766987800598145 0.5735654830932617 0.16402089595794678 21.0 9 -0.06556703895330429
-2.395134687423706 0.44650667905807495 -0.4735879600048065 1.0 2 -0.06556473672389984
-3.0025060176849365 0.560276448726654 0.26721951365470886 4.0 10 -0.0655624270439148
-3.475231885910034 0.649743914604187 0.43409866094589233 2.0 11 -0.0655578225851059
-2.5541436672210693 0.4779947102069855 -0.3190539479255676 51.0 4 -0.06555552035570145
-3.494887351989746 0.6546822190284729 0.5631641149520874 2.0 12 -0.0655532106757164
-2.7201149463653564 0.5095474123954773 -0.24211864173412323 8.0 5 -0.06555090844631195
-3.4771859645843506 0.6519935727119446 0.6876756548881531 2.0 13 -0.0655486062169075
-2.4203593730926514 0.4542694091796875 -0.12906047701835632 22.0 6 -0.06554630398750305
-3.5106256008148193 0.6595331430435181 0.8246706128120422 1.0 14 -0.065543994307518
-3.2502529621124268 0.6117913126945496 0.886196494102478 5.0 15 -0.0655393898487091
-2.416248321533203 0.45786529779434204 -0.6589533090591431 1.0 0 -0.06551865488290787
-3.0020110607147217 0.5694059729576111 0.0533345565199852 12.0 8 -0.06551635265350342
-2.448697566986084 0.4648996889591217 -0.57542484998703 1.0 1 -0.06551404297351837
-3.0826289653778076 0.5852553248405457 0.1644395887851715 21.0 9 -0.06551174074411392
-2.393561601638794 0.45486462116241455 -0.4735879600048065 1.0 2 -0.06550943851470947
-3.0122756958007812 0.5729869604110718 0.26826536655426025 4.0 10 -0.06550713628530502
-3.5119426250457764 0.6693034172058105 0.43897342681884766 2.0 11 -0.06550252437591553
-2.5641589164733887 0.4891399145126343 -0.3205164074897766 51.0 4 -0.06550022214651108
-3.1182026863098145 0.5948294997215271 0.5027804374694824 2.0 12 -0.06549791991710663
-2.7065775394439697 0.5167966485023499 -0.24107277393341064 8.0 5 -0.06549561023712158
-3.068006753921509 0.5863633155822754 0.6071542501449585 3.0 13 -0.06549330800771713
-2.4069888591766357 0.4604642987251282 -0.12843245267868042 25.0 6 -0.06549100577831268
-3.048949956893921 0.5838242173194885 0.7166941165924072 6.0 14 -0.06548870354890823
-3.030014753341675 0.5807467103004456 0.8266680836677551 21.0 15 -0.06548409163951874
-2.384286642074585 0.46043553948402405 -0.650671124458313 1.0 0 -0.0654633566737175
-3.0099234580993652 0.5812538266181946 0.05350907891988754 11.0 8 -0.06546105444431305
-2.4471423625946045 0.4730173945426941 -0.57542484998703 1.0 1 -0.0654587522149086
-3.0805671215057373 0.5960122346878052 0.1644395887851715 21.0 9 -0.06545644253492355
-2.3919594287872314 0.4632164239883423 -0.4735879600048065 1.0 2 -0.0654541403055191
-3.033729076385498 0.5880488753318787 0.2703571021556854 13.0 10 -0.06545183807611465
-3.0575931072235107 0.5932282209396362 0.38242605328559875 31.0 11 -0.06544722616672516
-2.5547285079956055 0.4961254596710205 -0.31954145431518555 50.0 4 -0.06544492393732071
-3.0695693492889404 0.5966637134552002 0.49527156352996826 46.0 12 -0.06544262170791626
-2.70280122756958 0.5258607864379883 -0.2408984750509262 8.0 5 -0.06544031947851181
-3.04677414894104 0.5927846431732178 0.6033380627632141 47.0 13 -0.06543800979852676
-2.4015276432037354 0.467678964138031 -0.12822310626506805 24.0 6 -0.06543570756912231
-3.0508224964141846 0.5946775674819946 0.7175939083099365 43.0 14 -0.06543340533971786
-3.024176836013794 0.5905801653862 0.8256327509880066 35.0 15 -0.06542879343032837
-3.0157241821289062 0.5933009386062622 0.0536486990749836 10.0 8 -0.06540575623512268
-3.070629596710205 0.6052162051200867 0.16402089595794678 19.0 9 -0.06540115177631378
-2.3904101848602295 0.47114598751068115 -0.4735879600048065 1.0 2 -0.06539884209632874
-3.0552186965942383 0.6027326583862305 0.2724488377571106 24.0 10 -0.06539653986692429
-3.059398651123047 0.6046667695045471 0.3829135298728943 48.0 11 -0.06539193540811539
-2.556875467300415 0.5058112144470215 -0.3200289309024811 50.0 4 -0.06538962572813034
-3.053903818130493 0.6046891212463379 0.4930815100669861 45.0 12 -0.06538732349872589
-2.7244961261749268 0.5394646525382996 -0.24299021065235138 7.0 5 -0.06538502126932144
-3.056241750717163 0.6057056784629822 0.6056278347969055 48.0 13 -0.06538271903991699
-2.403798818588257 0.4768369495868683 -0.12843245267868042 28.0 6 -0.06538040935993195
-3.0334367752075195 0.6022872924804688 0.7139947414398193 31.0 14 -0.0653781071305275
-2.6831130981445312 0.5332173705101013 -0.04774978384375572 3.0 7 -0.06537580490112305
-3.018307685852051 0.6003785133361816 0.8245974779129028 30.0 15 -0.0653735026717186
-2.3810973167419434 0.4766542315483093 -0.650671124458313 1.0 0 -0.06535276770591736
-3.0234382152557373 0.605789303779602 0.05382322147488594 9.0 8 -0.06535045802593231
-3.0841639041900635 0.61907559633255 0.16485828161239624 20.0 9 -0.06534585356712341
-2.4118492603302 0.48412376642227173 -0.4781673550605774 1.0 2 -0.06534355133771896
-3.0550496578216553 0.6137869954109192 0.2726231813430786 25.0 10 -0.06534124165773392
-3.047538995742798 0.6133840680122375 0.38169482350349426 33.0 11 -0.06533663719892502
-2.562878370285034 0.5163015127182007 -0.32100388407707214 47.0 4 -0.06533433496952057
-3.036283016204834 0.6122220754623413 0.4905785322189331 31.0 12 -0.06533202528953552
-2.687440872192383 0.5418831706047058 -0.23985259234905243 7.0 5 -0.06532972306013107
-3.048335313796997 0.6152051091194153 0.6044829487800598 36.0 13 -0.06532742083072662
-2.4060351848602295 0.48601579666137695 -0.12864179909229279 24.0 6 -0.06532511860132217
-3.0217654705047607 0.6109414100646973 0.7117451429367065 30.0 14 -0.06532281637191772
-2.7008352279663086 0.5465462803840637 -0.04809883236885071 34.0 7 -0.06532050669193268
-3.004833221435547 0.6086098551750183 0.8214917182922363 35.0 15 -0.06531820446252823
-3.013468027114868 0.6147399544715881 0.053683605045080185 9.0 8 -0.06529516726732254
-2.4420549869537354 0.4986170530319214 -0.57542484998703 1.0 1 -0.0652928575873375
-3.08589768409729 0.6306381821632385 0.1650676131248474 19.0 9 -0.06529055535793304
-3.043128490447998 0.6224503517150879 0.2717515826225281 49.0 10 -0.06528595089912415
-3.0492684841156006 0.6248159408569336 0.3821823000907898 50.0 11 -0.06528133898973465
-2.5688390731811523 0.5268398523330688 -0.3219788372516632 45.0 4 -0.0652790367603302
-3.0341274738311768 0.6228163242340088 0.4905785322189331 36.0 12 -0.06527673453092575
-2.7049527168273926 0.555739164352417 -0.24159571528434753 8.0 5 -0.0652744323015213
-3.0403995513916016 0.6246575713157654 0.6033380627632141 38.0 13 -0.06527212262153625
-2.4199745655059814 0.497629851102829 -0.12947916984558105 24.0 6 -0.0652698203921318
-3.0367932319641113 0.6250206232070923 0.7157943248748779 31.0 14 -0.06526751816272736
-3.025395154953003 0.6237762570381165 0.8277033567428589 35.0 15 -0.06526290625333786
-3.00738787651062 0.6244421601295471 0.05361378937959671 9.0 8 -0.06523986905813217
-3.095409870147705 0.6438465714454651 0.1656956523656845 19.0 9 -0.06523526459932327
-3.0544803142547607 0.6364448070526123 0.2729717791080475 27.0 10 -0.06523065268993378
-3.060671806335449 0.6382929682731628 0.38388845324516296 42.0 11 -0.06522604823112488
-2.578643798828125 0.5382366180419922 -0.3234412670135498 45.0 4 -0.06522373855113983
-3.088010311126709 0.6451191902160645 0.4996517598628998 40.0 12 -0.06522143632173538
-2.6932454109191895 0.563139021396637 -0.24072414636611938 7.0 5 -0.06521913409233093
-3.0746009349823 0.6434371471405029 0.610588788986206 42.0 13 -0.06521683186292648
-2.4024956226348877 0.5032205581665039 -0.12864179909229279 23.0 6 -0.06521452218294144
-3.105051040649414 0.6509417295455933 0.7324406504631042 46.0 14 -0.06521221995353699
-3.0553410053253174 0.6410764455795288 0.8365032076835632 38.0 15 -0.06520761549472809
-3.0129048824310303 0.6371162533760071 0.05375341325998306 9.0 8 -0.0651845708489418
-3.0852138996124268 0.6535312533378601 0.16527697443962097 20.0 9 -0.0651799663901329
-3.093170166015625 0.6557814478874207 0.2766323387622833 36.0 10 -0.06517535448074341
-3.091322422027588 0.6565165519714355 0.38803204894065857 52.0 11 -0.06517075002193451
-2.572770118713379 0.5468594431877136 -0.3229537904262543 42.0 4 -0.06516844779253006
-3.1068785190582275 0.66095370054245 0.5030933022499084 47.0 12 -0.06516613811254501
-2.698958396911621 0.5746656060218811 -0.2414214164018631 7.0 5 -0.06516383588314056
-3.08961820602417 0.6578453183174133 0.6140233874320984 50.0 13 -0.06516153365373611
-2.394864082336426 0.5103549957275391 -0.12832777202129364 23.0 6 -0.06515923142433167
-3.077983856201172 0.6564913392066956 0.7265920042991638 40.0 14 -0.06515692174434662
-3.0643060207366943 0.654693067073822 0.8396090269088745 37.0 15 -0.06515231728553772
-3.0184824466705322 0.6493108868598938 0.05389302968978882 9.0 8 -0.06512928009033203
-3.0790090560913086 0.6634545922279358 0.1650676131248474 19.0 9 -0.06512466818094254
-3.098536491394043 0.6687949299812317 0.27732956409454346 36.0 10 -0.06512006372213364
-3.1025941371917725 0.670238196849823 0.38973820209503174 52.0 11 -0.06511545181274414
-2.574726104736328 0.556675136089325 -0.3234412670135498 42.0 4 -0.06511314958333969
-3.0987603664398193 0.6705414652824402 0.5021546483039856 43.0 12 -0.06511084735393524
-2.6891467571258545 0.5823970437049866 -0.24072414636611938 7.0 5 -0.0651085376739502
-3.092942237854004 0.6704127192497253 0.6151682734489441 42.0 13 -0.06510623544454575
-2.408592462539673 0.522516131401062 -0.1291651576757431 23.0 6 -0.0651039332151413
-3.090791702270508 0.6710768938064575 0.730191171169281 45.0 14 -0.06510163098573685
-3.0582263469696045 0.6645644307136536 0.8385737538337708 37.0 15 -0.06509701907634735
-3.0241267681121826 0.6610251069068909 0.05403264984488487 9.0 8 -0.06504496186971664
-3.088498115539551 0.6762245297431946 0.1656956523656845 21.0 9 -0.06504034996032715
-3.0964200496673584 0.6785260438919067 0.27732956409454346 34.0 10 -0.06503574550151825
-3.108110189437866 0.6822248101234436 0.3907131552696228 51.0 11 -0.06503113359212875
-2.5786824226379395 0.5664880871772766 -0.3241724669933319 40.0 4 -0.0650288313627243
-3.0733680725097656 0.6757235527038574 0.4984002709388733 33.0 12 -0.06502652913331985
-2.675628662109375 0.5882748961448669 -0.239678293466568 5.0 5 -0.0650242269039154
-3.0793163776397705 0.677594780921936 0.6128785014152527 36.0 13 -0.06502191722393036
-2.4127907752990723 0.531369149684906 -0.12947916984558105 23.0 6 -0.06501961499452591
-3.056316375732422 0.673652172088623 0.7225428223609924 40.0 14 -0.06501731276512146
-3.0258231163024902 0.6680386066436768 0.8302915096282959 38.0 15 -0.06501270085573196
-2.2385787963867188 0.4971003830432892 -0.6144364476203918 1.0 0 -0.06499196588993073
-3.008136510848999 0.6685405373573303 0.05378831923007965 8.0 8 -0.06498966366052628
-3.0919675827026367 0.6883041262626648 0.16600966453552246 22.0 9 -0.06498505920171738
-3.068751335144043 0.6836980581283569 0.27506351470947266 37.0 10 -0.06498044729232788
-3.0727734565734863 0.6857199668884277 0.3865695893764496 48.0 11 -0.06497584283351898
-2.572814702987671 0.5746206045150757 -0.3236849904060364 40.0 4 -0.06497353315353394
-3.061351776123047 0.6842929720878601 0.4968359172344208 36.0 12 -0.06497123092412949
-2.679392099380493 0.5989148616790771 -0.2402012199163437 7.0 5 -0.06496892869472504
-3.065437078475952 0.6857678890228271 0.610588788986206 42.0 13 -0.06496662646532059
-2.420665979385376 0.5419700145721436 -0.13000252842903137 23.0 6 -0.06496431678533554
-3.0577492713928223 0.6851688623428345 0.7234426140785217 40.0 14 -0.06496201455593109
-3.021587610244751 0.6781736016273499 0.8297739028930664 41.0 15 -0.06495741009712219
-2.2255234718322754 0.5023598670959473 -0.6113306283950806 2.0 0 -0.06493667513132095
-3.0213887691497803 0.6825620532035828 0.05406755208969116 8.0 8 -0.06493436545133591
-3.0992860794067383 0.701296865940094 0.16653302311897278 24.0 9 -0.06492976099252701
-3.0721755027770996 0.6957260370254517 0.27558645606040955 34.0 10 -0.06492514908313751
-2.606576681137085 0.5907639861106873 -0.423311710357666 1.0 3 -0.06492284685373306
-3.0587456226348877 0.6938071846961975 0.385107159614563 47.0 11 -0.06492054462432861
-2.5824084281921387 0.5862347483634949 -0.32514744997024536 40.0 4 -0.06491824239492416
-3.064723014831543 0.6962879300117493 0.49777454137802124 33.0 12 -0.06491593271493912
-2.6714565753936768 0.606939971446991 -0.239678293466568 4.0 5 -0.06491363048553467
-3.049623966217041 0.6934171915054321 0.6079174876213074 38.0 13 -0.06491132825613022
-2.409022331237793 0.5482006669044495 -0.12947916984558105 18.0 6 -0.06490902602672577
-3.062939405441284 0.6975693106651306 0.7252422571182251 42.0 14 -0.06490672379732132
-3.0248525142669678 0.6900058388710022 0.8313267827033997 44.0 15 -0.06490211188793182
-2.3668596744537354 0.5429530739784241 -0.650671124458313 1.0 0 -0.06488137692213058
-3.022886276245117 0.6939988136291504 0.05413736775517464 8.0 8 -0.06487907469272614
-3.0870869159698486 0.709873378276825 0.16600966453552246 27.0 9 -0.06487446278333664
-3.0716700553894043 0.7068918943405151 0.2757607400417328 40.0 10 -0.06486985832452774
-2.5813989639282227 0.59453946352005 -0.4195573031902313 1.0 3 -0.0648675486445427
-3.065976858139038 0.7067094445228577 0.3863258361816406 56.0 11 -0.06486524641513824
-2.5668060779571533 0.592121422290802 -0.3234412670135498 39.0 4 -0.0648629441857338
-3.0718977451324463 0.7092034816741943 0.49933886528015137 47.0 12 -0.06486064195632935
-2.680969476699829 0.6189505457878113 -0.24072414636611938 5.0 5 -0.0648583397269249
-3.0548362731933594 0.7058260440826416 0.6094439625740051 48.0 13 -0.06485603004693985
-2.4070942401885986 0.556605875492096 -0.12947916984558105 8.0 6 -0.0648537278175354
-3.0585873126983643 0.7078174352645874 0.7247923612594604 58.0 14 -0.06485142558813095
-3.033717393875122 0.7031777501106262 0.8344326615333557 53.0 15 -0.06484681367874146
-3.0243399143218994 0.7054550051689148 0.054207175970077515 8.0 8 -0.06482377648353577
-3.080700635910034 0.7197355628013611 0.1658003330230713 28.0 9 -0.06481916457414627
-3.073064088821411 0.718517005443573 0.27610939741134644 40.0 10 -0.06481456011533737
-2.592771530151367 0.606697142124176 -0.4217473566532135 32.0 3 -0.06481225788593292
-3.067357301712036 0.7183120250701904 0.38681334257125854 60.0 11 -0.06480995565652847
-2.5782527923583984 0.6042490601539612 -0.32514744997024536 33.0 4 -0.06480764597654343
-3.063633918762207 0.7185689210891724 0.4984002709388733 48.0 12 -0.06480534374713898
-2.686441659927368 0.6305932402610779 -0.2414214164018631 3.0 5 -0.06480304151773453
-3.061910629272461 0.7187277674674988 0.6113520860671997 45.0 13 -0.06480073928833008
-2.422635078430176 0.5691161751747131 -0.1304212212562561 25.0 6 -0.06479842960834503
-3.0542008876800537 0.7180436849594116 0.7243424654006958 57.0 14 -0.06479612737894058
-3.0462875366210938 0.7173054218292236 0.8385737538337708 53.0 15 -0.06479152292013168
-2.223808526992798 0.5269159078598022 -0.6123659014701843 1.0 0 -0.06477078050374985
-3.0218589305877686 0.7160084247589111 0.054207175970077515 8.0 8 -0.0647684782743454
-3.085942506790161 0.7323295474052429 0.16621901094913483 28.0 9 -0.0647638738155365
-3.066532850265503 0.7288541793823242 0.2757607400417328 38.0 10 -0.064759261906147
-2.5905306339263916 0.6161954998970032 -0.4217473566532135 20.0 3 -0.06475695967674255
-3.0744872093200684 0.7313116192817688 0.38803204894065857 55.0 11 -0.0647546574473381
-2.5799899101257324 0.6141646504402161 -0.3256349265575409 29.0 4 -0.06475235521793365
-3.0630290508270264 0.7297158241271973 0.4987131357192993 51.0 12 -0.06475004553794861
-2.6435248851776123 0.6302634477615356 -0.23776087164878845 1.0 5 -0.06474774330854416
-3.066894054412842 0.7317686676979065 0.6128785014152527 42.0 13 -0.06474544107913971
-2.4360742568969727 0.5817022919654846 -0.13125859200954437 33.0 6 -0.06474313884973526
-3.0458624362945557 0.7278743386268616 0.7229927778244019 50.0 14 -0.06474082916975021
-3.0212185382843018 0.7225425243377686 0.8323620557785034 56.0 15 -0.06473622471094131
-2.206929922103882 0.5310590863227844 -0.6082248091697693 2.0 0 -0.06471548974514008
-3.0269906520843506 0.7289512753486633 0.05434679239988327 7.0 8 -0.06471318751573563
-3.087120771408081 0.7445717453956604 0.1664283573627472 28.0 9 -0.06470857560634613
-3.0717172622680664 0.7414239645004272 0.2764580249786377 37.0 10 -0.06470397114753723
-2.5902841091156006 0.6256989240646362 -0.4220602512359619 29.0 3 -0.06470166146755219
-3.0814340114593506 0.744907557964325 0.3892507255077362 55.0 11 -0.06469935923814774
-2.6105220317840576 0.6315513253211975 -0.3297784626483917 7.0 4 -0.06469705700874329
-3.071852922439575 0.7437272071838379 0.5005903244018555 47.0 12 -0.06469475477933884
-2.6684186458587646 0.6460515856742859 -0.2402012199163437 3.0 5 -0.06469244509935379
-3.060504913330078 0.7415444254875183 0.6121153235435486 46.0 13 -0.06469014286994934
-2.428205966949463 0.5887902975082397 -0.13094457983970642 30.0 6 -0.06468784064054489
-3.0641345977783203 0.7435570359230042 0.727941632270813 57.0 14 -0.06468553841114044
-3.026059150695801 0.7354352474212646 0.8344326615333557 56.0 15 -0.06468092650175095
-3.020542860031128 0.7385631799697876 0.05427698418498039 7.0 8 -0.06465788930654526
-3.100022554397583 0.7591438293457031 0.16726572811603546 31.0 9 -0.06465327739715576
-3.0729806423187256 0.7530902624130249 0.27680662274360657 41.0 10 -0.06464867293834686
-2.591921329498291 0.6356773972511292 -0.42268598079681396 41.0 3 -0.06464637070894241
-3.0749588012695312 0.7547129392623901 0.3887632191181183 55.0 11 -0.06464406102895737
-2.5948069095611572 0.6373460292816162 -0.32807230949401855 30.0 4 -0.06464175879955292
-3.076911449432373 0.7563309073448181 0.5018418431282043 47.0 12 -0.06463945657014847
-2.6603431701660156 0.653934895992279 -0.239678293466568 4.0 5 -0.06463715434074402
-3.050272226333618 0.7503473162651062 0.610588788986206 46.0 13 -0.06463484466075897
-2.426135778427124 0.5972633957862854 -0.13094457983970642 34.0 6 -0.06463254243135452
-3.06530499458313 0.7551800608634949 0.7288414835929871 55.0 14 -0.06463024020195007
-2.6094512939453125 0.6433572769165039 -0.046912070363759995 1.0 7 -0.06462793797254562
-3.0234735012054443 0.745994508266449 0.8344326615333557 56.0 15 -0.06462563574314117
-3.0295915603637695 0.7519928812980652 0.05448641628026962 8.0 8 -0.06460259109735489
-3.091672897338867 0.7679753303527832 0.1669517159461975 33.0 9 -0.06459798663854599
-3.089667558670044 0.7686223387718201 0.2785497307777405 38.0 10 -0.0645933747291565
-2.597353935241699 0.6466299295425415 -0.42393743991851807 41.0 3 -0.06459107249975204
-3.06074857711792 0.76256263256073 0.3873008191585541 52.0 11 -0.0645887702703476
-2.5867881774902344 0.64495849609375 -0.32734107971191406 37.0 4 -0.06458646059036255
-3.0820531845092773 0.7684418559074402 0.5030933022499084 51.0 12 -0.0645841583609581
-2.677375316619873 0.6680406928062439 -0.2414214164018631 4.0 5 -0.06458185613155365
-3.0609679222106934 0.7643195986747742 0.6132601499557495 41.0 13 -0.0645795539021492
-2.425973892211914 0.6062122583389282 -0.131049245595932 36.0 6 -0.06457725167274475
-3.0531976222991943 0.763511598110199 0.7265920042991638 56.0 14 -0.0645749419927597
-3.0284793376922607 0.7578926682472229 0.8365032076835632 55.0 15 -0.0645703375339508
-3.030959367752075 0.7630109190940857 0.0545562244951725 8.0 8 -0.06454729288816452
-3.087036609649658 0.7782745361328125 0.16684705018997192 30.0 9 -0.06454268842935562
-3.086965799331665 0.7794026732444763 0.2785497307777405 38.0 10 -0.06453807651996613
-2.5990259647369385 0.6562067270278931 -0.4245631992816925 41.0 3 -0.06453577429056168
-3.0735998153686523 0.7765986919403076 0.3892507255077362 53.0 11 -0.06453347206115723
-2.588484287261963 0.6545063853263855 -0.3278285562992096 34.0 4 -0.06453116983175278
-3.0793519020080566 0.7791956067085266 0.5030933022499084 47.0 12 -0.06452886760234833
-2.6557130813598633 0.6724916696548462 -0.239678293466568 4.0 5 -0.06452655792236328
-3.0641262531280518 0.7759118676185608 0.6144050359725952 46.0 13 -0.06452425569295883
-2.431694269180298 0.616216242313385 -0.13146793842315674 37.0 6 -0.06452195346355438
-3.052537679672241 0.7741113305091858 0.7270418405532837 51.0 14 -0.06451965123414993
-2.605011463165283 0.6611043810844421 -0.046912070363759995 1.0 7 -0.06451734155416489
-3.0333046913146973 0.770361602306366 0.8385737538337708 55.0 15 -0.06451503932476044
-3.036027193069458 0.7755668759346008 0.054695840924978256 7.0 8 -0.06449200212955475
-3.0959110260009766 0.7920149564743042 0.16747507452964783 29.0 9 -0.06448739022016525
-3.076643943786621 0.7876587510108948 0.27785250544548035 37.0 10 -0.06448278576135635
-2.6024601459503174 0.6667459011077881 -0.4255017936229706 38.0 3 -0.0644804835319519
-3.07663893699646 0.7888010740280151 0.3899819254875183 50.0 11 -0.06447817385196686
-2.59002947807312 0.6645245552062988 -0.3283160626888275 34.0 4 -0.06447587162256241
-3.072786569595337 0.7889573574066162 0.5024675726890564 47.0 12 -0.06447356939315796
-2.7556240558624268 0.7080357670783997 -0.24891680479049683 7.0 5 -0.06447126716375351
-3.072808027267456 0.7895336747169495 0.6166946887969971 46.0 13 -0.06446895748376846
-2.433397054672241 0.625695526599884 -0.1316772699356079 36.0 6 -0.06446665525436401
-3.057366132736206 0.7867045402526855 0.7288414835929871 57.0 14 -0.06446435302495956
-3.026855707168579 0.7799803614616394 0.8375384211540222 56.0 15 -0.06445974111557007
-3.03330135345459 0.7861599326133728 0.054695840924978256 7.0 8 -0.06443670392036438
-3.100860118865967 0.8048247694969177 0.16789376735687256 28.0 9 -0.06443209946155548
-2.5937788486480713 0.6736955642700195 -0.520908534526825 1.0 2 -0.06442978978157043
-3.0775930881500244 0.7999317049980164 0.2782011330127716 38.0 10 -0.06442748755216599
-2.594263792037964 0.6747881174087524 -0.4245631992816925 37.0 3 -0.06442518532276154
-3.08923602104187 0.8035342693328857 0.39193183183670044 50.0 11 -0.06442288309335709
-2.6069047451019287 0.6785619258880615 -0.3307534456253052 37.0 4 -0.06442057341337204
-3.075748920440674 0.8011717200279236 0.5034061670303345 53.0 12 -0.06441827118396759
-2.9844913482666016 0.7779579162597656 -0.2698341906070709 15.0 5 -0.06441596895456314
-3.0641942024230957 0.7993049621582031 0.6155498623847961 48.0 13 -0.06441366672515869
-2.436885118484497 0.63612300157547 -0.13199129700660706 33.0 6 -0.06441135704517365
-3.063889503479004 0.8003677725791931 0.7310910224914551 60.0 14 -0.0644090548157692
-3.047264814376831 0.7960249781608582 -0.054975081235170364 6.0 7 -0.06440675258636475
-3.0222458839416504 0.7900528311729431 0.8370208144187927 60.0 15 -0.0644044503569603
-3.0265321731567383 0.7962540984153748 0.05462603271007538 7.0 8 -0.06438140571117401
-3.1096205711364746 0.8186950087547302 0.16852180659770966 20.0 9 -0.06437680125236511
-2.5990054607391357 0.6847456097602844 -0.5224350690841675 19.0 2 -0.06437449902296066
-3.0824878215789795 0.8127014636993408 0.27889835834503174 37.0 10 -0.06437218934297562
-2.601442575454712 0.6863595247268677 -0.426127552986145 28.0 3 -0.06436988711357117
-3.084351062774658 0.8143441081047058 0.39168810844421387 51.0 11 -0.06436758488416672
-2.8347084522247314 0.7489622831344604 -0.3600020706653595 25.0 4 -0.06436528265476227
-3.0786631107330322 0.813417911529541 0.5043447613716125 48.0 12 -0.06436297297477722
-3.0202815532684326 0.7985567450523376 -0.27332040667533875 27.0 5 -0.06436067074537277
-3.059487819671631 0.8094934225082397 0.6151682734489441 45.0 13 -0.06435836851596832
-2.419203996658325 0.6405365467071533 -0.1311539113521576 33.0 6 -0.06435606628656387
-3.0648443698883057 0.8120561242103577 0.7319908142089844 60.0 14 -0.06435375660657883
-3.0521998405456543 0.8087058067321777 -0.05511470139026642 36.0 7 -0.06435145437717438
-3.0400102138519287 0.8060439229011536 0.8427148461341858 69.0 15 -0.06434915214776993
-3.0277392864227295 0.8073165416717529 0.054695840924978256 7.0 8 -0.06432611495256424
-2.9759418964385986 0.7951744794845581 -0.5987586975097656 6.0 2 -0.0643192008137703
-3.0988800525665283 0.8286038637161255 0.28064149618148804 37.0 10 -0.06431689858436584
-3.0514273643493652 0.815915584564209 -0.5002774596214294 36.0 3 -0.0643145889043808
-3.0720455646514893 0.8220022916793823 0.39046943187713623 48.0 11 -0.06431228667497635
-3.048891305923462 0.8163769841194153 -0.38754454255104065 31.0 4 -0.0643099844455719
-3.0853450298309326 0.8267158269882202 0.5059091448783875 52.0 12 -0.06430768221616745
-3.0309464931488037 0.8127059936523438 -0.27454057335853577 28.0 5 -0.0643053725361824
-3.0624754428863525 0.8211600184440613 0.616313099861145 48.0 13 -0.06430307030677795
-2.428640842437744 0.6516605019569397 -0.1317819505929947 34.0 6 -0.0643007680773735
-3.058370590209961 0.8212044835090637 0.7310910224914551 60.0 14 -0.06429846584796906
-3.0609452724456787 0.8224685788154602 -0.05532412603497505 30.0 7 -0.0642961636185646
-3.044640302658081 0.8186572194099426 0.8447853922843933 67.0 15 -0.06429385393857956
-3.0268332958221436 0.8184024691581726 0.054730746895074844 3.0 8 -0.06427081674337387
-3.0793616771698 0.8331819176673889 -0.7364898324012756 7.0 1 -0.06426851451396942
-2.9206840991973877 0.7907956838607788 0.15857796370983124 2.0 9 -0.06426620483398438
