# .PCD v0.7 - Point Cloud Data file format
VERSION 0.7
FIELDS x y z intensity ring time
SIZE 4 4 4 4 4 4
TYPE F F F F F F
COUNT 1 1 1 1 1 1
WIDTH 541
HEIGHT 1
VIEWPOINT 0 0 0 1 0 0 0
POINTS 541
DATA ascii
0.6976897716522217 -2.16396164894104 0.03968677297234535 22.0 8 -0.04656551405787468
0.4894863963127136 -1.519104242324829 -0.36846986413002014 7.0 1 -0.04656320810317993
0.7126147747039795 -2.2128984928131104 0.12183811515569687 14.0 9 -0.04656090587377548
0.6017886996269226 -1.8687477111816406 -0.3816179931163788 7.0 2 -0.046558599919080734
0.7074401378631592 -2.1981444358825684 0.20202700793743134 11.0 10 -0.046556297689676285
0.7221887111663818 -2.245314359664917 -0.37356552481651306 100.0 3 -0.04655399173498154
0.7052996158599854 -2.1941192150115967 0.28298062086105347 10.0 11 -0.04655168950557709
0.7279888987541199 -2.2660605907440186 -0.29224270582199097 100.0 4 -0.04654938355088234
0.7077280282974243 -2.2043144702911377 0.3666824400424957 9.0 12 -0.04654708132147789
0.6918969750404358 -2.1550064086914062 -0.19801783561706543 71.0 5 -0.04654477536678314
0.7078011631965637 -2.205864667892456 0.45030924677848816 8.0 13 -0.04654247313737869
0.7050313949584961 -2.1985526084899902 -0.121000736951828 29.0 6 -0.046540167182683945
0.7059674859046936 -2.2027924060821533 0.5340338349342346 7.0 14 -0.046537864953279495
0.700243353843689 -2.1862454414367676 -0.04007072374224663 51.0 7 -0.04653555899858475
0.7020314931869507 -2.193145990371704 0.6170246005058289 8.0 15 -0.0465332567691803
0.4013058543205261 -1.2589741945266724 -0.3540644645690918 10.0 0 -0.04651252180337906
0.6931664347648621 -2.175910711288452 0.039861299097537994 24.0 8 -0.04651021584868431
0.4806337058544159 -1.5096620321273804 -0.3657704293727875 7.0 1 -0.04650791361927986
0.7000412940979004 -2.2001466751098633 0.121000736951828 15.0 9 -0.046505607664585114
0.6006191968917847 -1.8876746892929077 -0.3850525915622711 6.0 2 -0.046503305435180664
0.7009703516960144 -2.204397678375244 0.2023756206035614 12.0 10 -0.046500999480485916
0.7137486338615417 -2.245939016342163 -0.3732526898384094 100.0 3 -0.04649869725108147
0.6952328085899353 -2.188999891281128 0.2820056974887848 9.0 11 -0.04649639129638672
0.717071533203125 -2.259127616882324 -0.29102399945259094 100.0 4 -0.04649408906698227
0.7012237310409546 -2.2105371952056885 0.3673081696033478 9.0 12 -0.04649178311228752
0.6831654906272888 -2.1536102294921875 -0.19766922295093536 55.0 5 -0.04648948088288307
0.6971304416656494 -2.198964834213257 0.44840118288993835 8.0 13 -0.046487174928188324
0.696749746799469 -2.199096441268921 -0.12089607119560242 35.0 6 -0.046484872698783875
0.6947440505027771 -2.194096565246582 0.5313344597816467 8.0 14 -0.04648256674408913
0.6926078796386719 -2.188676357269287 -0.04007072374224663 49.0 7 -0.04648026451468468
0.6955369710922241 -2.1992666721343994 0.6180598735809326 8.0 15 -0.04647795855998993
0.3969087302684784 -1.2603673934936523 -0.3540644645690918 9.0 0 -0.04646873474121094
0.6873680949211121 -2.184039354324341 0.03996601328253746 25.0 8 -0.04646643251180649
0.4753608703613281 -1.5113306045532227 -0.3657704293727875 7.0 1 -0.04646412655711174
0.6903444528579712 -2.1948351860046387 0.12058205902576447 16.0 9 -0.04646182432770729
0.5904940962791443 -1.8785220384597778 -0.3827628493309021 7.0 2 -0.04645951837301254
0.6908828616142273 -2.199227809906006 0.20167838037014008 12.0 10 -0.04645721614360809
0.7070875763893127 -2.2521860599517822 -0.3738784193992615 100.0 3 -0.046454910188913345
0.6887760162353516 -2.1952016353607178 0.28249314427375793 9.0 11 -0.046452607959508896
0.7073997855186462 -2.255934715270996 -0.29029279947280884 100.0 4 -0.04645030200481415
0.69034343957901 -2.2015411853790283 0.3654309809207916 9.0 12 -0.0464479997754097
0.6810058951377869 -2.1730926036834717 -0.19923801720142365 75.0 5 -0.04644569382071495
0.6888635158538818 -2.1995110511779785 0.44801953434944153 8.0 13 -0.0464433915913105
0.6890694499015808 -2.2015151977539062 -0.12089607119560242 35.0 6 -0.04644108563661575
0.6882448196411133 -2.200227975845337 0.532234251499176 7.0 14 -0.046438783407211304
0.6811671853065491 -2.1776018142700195 -0.03982638940215111 52.0 7 -0.046436477452516556
0.6882399916648865 -2.201561212539673 0.6180598735809326 8.0 15 -0.046434175223112106
0.3913590908050537 -1.2580559253692627 -0.35302919149398804 8.0 0 -0.04641344025731087
0.681309700012207 -2.1901259422302246 0.04003582149744034 26.0 8 -0.04641113430261612
0.4703466296195984 -1.512898564338684 -0.3657704293727875 7.0 1 -0.04640883207321167
0.6832716464996338 -2.199138641357422 0.12068671733140945 17.0 9 -0.04640652611851692
0.5781112909317017 -1.861822485923767 -0.3789466917514801 5.0 2 -0.04640422388911247
0.6820207238197327 -2.1978204250335693 0.20132976770401 12.0 10 -0.046401917934417725
0.7007859945297241 -2.2582919597625732 -0.3745041489601135 100.0 3 -0.046399615705013275
0.6832568645477295 -2.2031614780426025 0.2832243740558624 10.0 11 -0.04639730975031853
0.7005023956298828 -2.2601637840270996 -0.2905365228652954 100.0 4 -0.04639500752091408
0.6779783964157104 -2.1888420581817627 0.36292800307273865 9.0 12 -0.04639270156621933
0.6651682257652283 -2.148810625076294 -0.1967976689338684 80.0 5 -0.04639039933681488
0.68388831615448 -2.2092854976654053 0.44954603910446167 8.0 13 -0.04638809338212013
0.6817649006843567 -2.2037880420684814 -0.12089607119560242 35.0 6 -0.04638579115271568
0.6809446811676025 -2.202498197555542 0.532234251499176 7.0 14 -0.046383485198020935
0.6747423410415649 -2.1837873458862305 -0.039896201342344284 62.0 7 -0.046381182968616486
0.6759911179542542 -2.1891837120056152 0.6139188408851624 8.0 15 -0.04637887701392174
0.38604968786239624 -1.2556535005569458 -0.3519938886165619 8.0 0 -0.0463581420481205
0.6683745384216309 -2.1752870082855225 0.03972167521715164 31.0 8 -0.04635583981871605
0.46620678901672363 -1.5182571411132812 -0.36667025089263916 7.0 1 -0.0463535338640213
0.6759751439094543 -2.201392412185669 0.12068671733140945 18.0 9 -0.04635123163461685
0.5742381811141968 -1.8712366819381714 -0.38047316670417786 6.0 2 -0.046348925679922104
0.6735604405403137 -2.1962602138519287 0.20098112523555756 12.0 10 -0.046346623450517654
0.6917412877082825 -2.2569468021392822 -0.3738784193992615 100.0 3 -0.046344317495822906
0.673818051815033 -2.1998391151428223 0.28249314427375793 9.0 11 -0.04634201526641846
0.693770706653595 -2.2663915157318115 -0.29102399945259094 100.0 4 -0.04633970931172371
0.6730291247367859 -2.1986336708068848 0.36417946219444275 9.0 12 -0.04633740708231926
0.6574558615684509 -2.149099111557007 -0.19662334024906158 60.0 5 -0.04633510112762451
0.6761720180511475 -2.2116594314575195 0.44954603910446167 8.0 13 -0.04633279889822006
0.6729006767272949 -2.20233416557312 -0.12068671733140945 43.0 6 -0.046330492943525314
0.6749598979949951 -2.2104530334472656 0.53358393907547 7.0 14 -0.046328190714120865
0.6680811643600464 -2.1879255771636963 -0.03993110731244087 58.0 7 -0.046325888484716415
0.6687277555465698 -2.191413402557373 0.6139188408851624 8.0 15 -0.04632358253002167
0.38615432381629944 -1.2717816829681396 -0.3561350107192993 8.0 0 -0.04630284756422043
0.6599953770637512 -2.1736648082733154 0.039651867002248764 30.0 8 -0.04630054160952568
0.45890623331069946 -1.5123355388641357 -0.3648706376552582 7.0 1 -0.04629823938012123
0.6706054210662842 -2.211383819580078 0.12110541760921478 20.0 9 -0.04629593342542648
0.5671331286430359 -1.8713510036468506 -0.3800915479660034 6.0 2 -0.046293631196022034
0.6658899784088135 -2.1985979080200195 0.20098112523555756 13.0 10 -0.046291325241327286
0.6831079721450806 -2.2554473876953125 -0.3732526898384094 100.0 3 -0.046289023011922836
0.665944516658783 -2.2001612186431885 0.28224945068359375 10.0 11 -0.04628671705722809
0.6856765151023865 -2.266780138015747 -0.29078027606010437 100.0 4 -0.04628441482782364
0.6699232459068298 -2.2160964012145996 0.3666824400424957 9.0 12 -0.04628211259841919
0.6534075736999512 -2.1628246307373047 -0.19766922295093536 71.0 5 -0.04627980664372444
0.6625890731811523 -2.19321608543396 0.44534823298454285 8.0 13 -0.04627750441431999
0.6615530848503113 -2.191169261932373 -0.11995401978492737 42.0 6 -0.046275198459625244
0.6676260232925415 -2.212679147720337 0.53358393907547 7.0 14 -0.046272896230220795
0.6627485752105713 -2.197902202606201 -0.04007072374224663 72.0 7 -0.04627059027552605
0.6610743999481201 -2.1937341690063477 0.6139188408851624 8.0 15 -0.0462682880461216
0.37971436977386475 -1.2656538486480713 -0.3540644645690918 9.0 0 -0.04624754935503006
0.6535525918006897 -2.179785966873169 0.03972167521715164 30.0 8 -0.04624524712562561
0.4513869881629944 -1.506461262702942 -0.3630710244178772 7.0 1 -0.04624294117093086
0.6582984328269958 -2.1984047889709473 0.12026803940534592 19.0 9 -0.04624063894152641
0.5600347518920898 -1.8714383840560913 -0.379709929227829 6.0 2 -0.046238332986831665
0.663165271282196 -2.216064214706421 0.2023756206035614 13.0 10 -0.046236030757427216
0.6746649146080017 -2.255925416946411 -0.372939795255661 100.0 3 -0.046233728528022766
0.6537125706672668 -2.1872568130493164 0.28029951453208923 10.0 11 -0.04623142257332802
0.6749194264411926 -2.2596492767333984 -0.28956159949302673 100.0 4 -0.04622912034392357
0.6593586206436157 -2.2089571952819824 0.3651180863380432 9.0 12 -0.04622681438922882
0.6441448926925659 -2.1593644618988037 -0.19714628159999847 77.0 5 -0.04622451215982437
0.6595936417579651 -2.2125627994537354 0.4487827718257904 8.0 13 -0.04622220620512962
0.6546580791473389 -2.1974074840545654 -0.12016335874795914 46.0 6 -0.046219903975725174
0.6571161150932312 -2.205658197402954 0.5313344597816467 7.0 14 -0.046217598021030426
0.6482253074645996 -2.177203893661499 -0.039651867002248764 72.0 7 -0.04621529579162598
0.656718373298645 -2.2071380615234375 0.6170246005058289 8.0 15 -0.04621298983693123
0.3756212890148163 -1.2688894271850586 -0.35458213090896606 11.0 0 -0.04619225487112999
0.6449915766716003 -2.1802494525909424 0.03968677297234535 36.0 8 -0.04618994891643524
0.4469674527645111 -1.5118430852890015 -0.3639708161354065 7.0 1 -0.04618764668703079
0.6508025527000427 -2.2027180194854736 0.1203727126121521 21.0 9 -0.04618534445762634
0.5503920316696167 -1.86406409740448 -0.3778018355369568 6.0 2 -0.046183038502931595
0.6550385355949402 -2.218480110168457 0.2023756206035614 13.0 10 -0.046180736273527145
0.6686282157897949 -2.2659616470336914 -0.3741912841796875 100.0 3 -0.0461784303188324
0.6490602493286133 -2.2010622024536133 0.28176194429397583 11.0 11 -0.04617612808942795
0.6666325926780701 -2.2621076107025146 -0.28956159949302673 100.0 4 -0.0461738221347332
0.6501418948173523 -2.2075693607330322 0.36449235677719116 9.0 12 -0.04617151990532875
0.6356635689735413 -2.159799575805664 -0.19697196781635284 65.0 5 -0.046169213950634
0.650371789932251 -2.211198568344116 0.44801953434944153 8.0 13 -0.04616691172122955
0.6477264761924744 -2.203624725341797 -0.1203727126121521 46.0 6 -0.046164605766534805
0.6457304358482361 -2.196833848953247 0.5286350250244141 8.0 14 -0.046162303537130356
0.6391138434410095 -2.1757278442382812 -0.039582058787345886 84.0 7 -0.04615999758243561
0.6486243009567261 -2.2095301151275635 0.6170246005058289 8.0 15 -0.04615769535303116
0.3633861541748047 -1.2442959547042847 -0.34733515977859497 21.0 0 -0.04613696038722992
0.6397976875305176 -2.192196846008301 0.039861299097537994 39.0 8 -0.04613465443253517
0.441423237323761 -1.5134711265563965 -0.3639708161354065 7.0 1 -0.04613235220313072
0.6408726572990417 -2.1973068714141846 0.11995401978492737 20.0 9 -0.046130046248435974
0.5449805855751038 -1.8697435855865479 -0.37856507301330566 6.0 2 -0.046127744019031525
0.6413307189941406 -2.2017369270324707 0.2006325125694275 14.0 10 -0.04612543806433678
0.6619748473167419 -2.2740867137908936 -0.3751298785209656 100.0 3 -0.04612313583493233
0.6420978307723999 -2.2072386741638184 0.28224945068359375 11.0 11 -0.04612082988023758
0.6583369970321655 -2.264535903930664 -0.28956159949302673 100.0 4 -0.04611852765083313
0.6413288116455078 -2.206031560897827 0.3638666272163391 9.0 12 -0.04611622169613838
0.6258972883224487 -2.1543521881103516 -0.19627472758293152 88.0 5 -0.04611391946673393
0.6437442898750305 -2.217226028442383 0.4487827718257904 8.0 13 -0.046111613512039185
0.6405867338180542 -2.2077903747558594 -0.12047737836837769 47.0 6 -0.046109311282634735
0.6431010365486145 -2.217902183532715 0.5331340432167053 7.0 14 -0.04610700532793999
0.6326289772987366 -2.18178653717041 -0.039651867002248764 98.0 7 -0.04610470309853554
0.6398324966430664 -2.2080695629119873 0.6159893274307251 8.0 15 -0.04610239714384079
0.35850557684898376 -1.243700623512268 -0.3468175232410431 37.0 0 -0.04608166217803955
0.6292012333869934 -2.1827776432037354 0.039651867002248764 41.0 8 -0.0460793599486351
0.44071733951568604 -1.5299073457717896 -0.36757004261016846 7.0 1 -0.04607705399394035
0.6343039870262146 -2.203368902206421 0.12016335874795914 21.0 9 -0.046074751764535904
0.5395363569259644 -1.8754078149795532 -0.37932828068733215 6.0 2 -0.046072445809841156
0.6308889985084534 -2.1943881511688232 0.19976095855236053 15.0 10 -0.04607014358043671
0.6500635147094727 -2.2610819339752197 -0.3726269602775574 100.0 3 -0.04606783762574196
0.6353229284286499 -2.211263656616211 0.28249314427375793 11.0 11 -0.04606553539633751
0.6519197225570679 -2.2705225944519043 -0.29004907608032227 100.0 4 -0.04606322944164276
0.6330798268318176 -2.2063581943511963 0.3635537326335907 10.0 12 -0.04606092721223831
0.6183733344078064 -2.1565239429473877 -0.19627472758293152 94.0 5 -0.046058621257543564
0.634223461151123 -2.2117998600006104 0.44725629687309265 8.0 13 -0.046056319028139114
0.6327115893363953 -2.2079825401306152 -0.1203727126121521 51.0 6 -0.046054013073444366
0.6325238347053528 -2.2087819576263428 0.5304346084594727 8.0 14 -0.04605171084403992
0.627210259437561 -2.191671848297119 -0.03979148715734482 100.0 7 -0.04604940861463547
0.6289334893226624 -2.1991453170776367 0.6128835082054138 8.0 15 -0.04604710265994072
0.3575529158115387 -1.2560309171676636 -0.34992337226867676 37.0 0 -0.04602636769413948
0.6182949542999268 -2.1734201908111572 0.03944243863224983 44.0 8 -0.04602406173944473
0.428979754447937 -1.50894296169281 -0.3621712327003479 7.0 1 -0.04602175951004028
0.6297246217727661 -2.2150661945343018 0.12068671733140945 23.0 9 -0.046019453555345535
0.5322409868240356 -1.8734098672866821 -0.37856507301330566 6.0 2 -0.046017151325941086
0.6252410411834717 -2.2022182941436768 0.20028388500213623 14.0 10 -0.04601484537124634
0.6405494809150696 -2.257636070251465 -0.3716883361339569 100.0 3 -0.04601254314184189
0.6238096952438354 -2.200099229812622 0.28078699111938477 10.0 11 -0.04601023718714714
0.6450724601745605 -2.276604175567627 -0.2905365228652954 100.0 4 -0.04600793495774269
0.6284523010253906 -2.2179479598999023 0.3651180863380432 10.0 12 -0.04600562900304794
0.6112188696861267 -2.158562660217285 -0.19627472758293152 91.0 5 -0.046003326773643494
0.6243607997894287 -2.206444025039673 0.4457298517227173 8.0 13 -0.046001024544239044
0.6222833395004272 -2.200568199157715 -0.11984935402870178 47.0 6 -0.045998718589544296
0.6258698105812073 -2.2147271633148193 0.5313344597816467 8.0 14 -0.04599641636013985
0.6210264563560486 -2.1975882053375244 -0.039861299097537994 100.0 7 -0.0459941104054451
0.6216375827789307 -2.201218843460083 0.6128835082054138 8.0 15 -0.04599180817604065
0.3589131236076355 -1.2777299880981445 -0.35561737418174744 24.0 0 -0.04597106948494911
0.6132473945617676 -2.183159351348877 0.039582058787345886 47.0 8 -0.04596876725554466
0.4218668043613434 -1.5028523206710815 -0.3603716194629669 7.0 1 -0.045966461300849915
0.617133378982544 -2.1999435424804688 0.1197446808218956 24.0 9 -0.045964159071445465
0.5246385931968689 -1.8714754581451416 -0.3778018355369568 6.0 2 -0.04596185311675072
0.6180877089500427 -2.206305742263794 0.20045821368694305 16.0 10 -0.04595955088734627
0.6341250538825989 -2.263552188873291 -0.37231406569480896 100.0 3 -0.04595724493265152
0.6149048805236816 -2.196420907974243 0.2800557613372803 12.0 11 -0.04595494270324707
0.6353802680969238 -2.2710840702056885 -0.28956159949302673 100.0 4 -0.04595264047384262
0.6228340864181519 -2.2277376651763916 0.3663695454597473 9.0 12 -0.04595033451914787
0.6026078462600708 -2.1568453311920166 -0.19592611491680145 91.0 5 -0.04594803228974342
0.6175687313079834 -2.210393190383911 0.44611144065856934 8.0 13 -0.045945726335048676
0.6139081716537476 -2.1987721920013428 -0.11964000016450882 53.0 6 -0.045943424105644226
0.6153798699378967 -2.2055280208587646 0.5286350250244141 8.0 14 -0.04594111815094948
0.6138886213302612 -2.2016687393188477 -0.039896201342344284 100.0 7 -0.04593881592154503
0.6160242557525635 -2.2108192443847656 0.6149541139602661 8.0 15 -0.04593650996685028
0.35777154564857483 -1.2900826930999756 -0.3587231934070587 18.0 0 -0.04591577500104904
0.6050888895988464 -2.1833598613739014 0.0395471528172493 49.0 8 -0.045913469046354294
0.4166184067726135 -1.504315733909607 -0.3603716194629669 7.0 1 -0.045911166816949844
0.6094505786895752 -2.2020843029022217 0.1197446808218956 25.0 9 -0.045908860862255096
0.5105746388435364 -1.8448230028152466 -0.3720775544643402 6.0 2 -0.04590655863285065
0.6102367639541626 -2.206423044204712 0.20028388500213623 16.0 10 -0.0459042564034462
0.628851056098938 -2.2752718925476074 -0.3738784193992615 100.0 3 -0.04590195044875145
0.6067058444023132 -2.1966402530670166 0.2798120379447937 10.0 11 -0.045899648219347
0.6226953268051147 -2.256066083908081 -0.28736793994903564 100.0 4 -0.04589734226465225
0.6098012924194336 -2.210855722427368 0.3632408678531647 9.0 12 -0.0458950400352478
0.5996900796890259 -2.174197196960449 -0.1973206102848053 91.0 5 -0.045892734080553055
0.612979531288147 -2.223891496658325 0.44840118288993835 8.0 13 -0.045890431851148605
0.608881413936615 -2.210529327392578 -0.12016335874795914 60.0 6 -0.04588812589645386
0.6066427230834961 -2.2039051055908203 0.5277352333068848 8.0 14 -0.04588582366704941
0.5993050932884216 -2.1787331104278564 -0.03944243863224983 100.0 7 -0.04588351771235466
0.6088152527809143 -2.2148187160491943 0.6154717206954956 9.0 15 -0.04588121548295021
0.3486783802509308 -1.2745531797409058 -0.3540644645690918 18.0 0 -0.04586048051714897
0.5995733737945557 -2.193174123764038 0.03968677297234535 50.0 8 -0.045858174562454224
0.41341888904571533 -1.5132803916931152 -0.3621712327003479 8.0 1 -0.045855872333049774
0.6017603278160095 -2.2041983604431152 0.1197446808218956 26.0 9 -0.045853566378355026
0.5072344541549683 -1.8579578399658203 -0.37436726689338684 5.0 2 -0.04585126414895058
0.602006733417511 -2.206617593765259 0.2001095712184906 19.0 10 -0.04584895819425583
0.6193462014198303 -2.271735429763794 -0.372939795255661 100.0 3 -0.04584665596485138
0.6026871204376221 -2.2121520042419434 0.28151822090148926 11.0 11 -0.04584435001015663
0.6195096373558044 -2.2754645347595215 -0.28956159949302673 100.0 4 -0.04584204778075218
0.6010432839393616 -2.2091586589813232 0.3626151382923126 11.0 12 -0.045839741826057434
0.5868667960166931 -2.1570522785186768 -0.1955774873495102 85.0 5 -0.045837439596652985
0.6062430739402771 -2.229806423187256 0.44916439056396484 8.0 13 -0.04583513364195824
0.5985432267189026 -2.2030043601989746 -0.11964000016450882 59.0 6 -0.04583283141255379
0.6040522456169128 -2.224815607070923 0.532234251499176 8.0 14 -0.04583052545785904
0.5927432775497437 -2.1846718788146973 -0.03951225057244301 100.0 7 -0.04582822322845459
0.596530556678772 -2.2001497745513916 0.6108129620552063 8.0 15 -0.04582591727375984
0.34422704577445984 -1.2757625579833984 -0.3540644645690918 17.0 0 -0.0458051823079586
0.588269829750061 -2.1817383766174316 0.03944243863224983 54.0 8 -0.04580288007855415
0.4091481566429138 -1.5184773206710815 -0.3630710244178772 8.0 1 -0.045800574123859406
0.5966587066650391 -2.215928316116333 0.12026803940534592 30.0 9 -0.045798271894454956
0.49870383739471436 -1.852134108543396 -0.3728407919406891 6.0 2 -0.04579596593976021
0.5937830805778503 -2.2067816257476807 0.19993527233600616 16.0 10 -0.04579366371035576
0.6093611121177673 -2.2662532329559326 -0.3716883361339569 100.0 3 -0.04579135775566101
0.593931257724762 -2.2104079723358154 0.28103071451187134 11.0 11 -0.04578905552625656
0.6115629076957703 -2.2776129245758057 -0.28956159949302673 100.0 4 -0.04578674957156181
0.5943523049354553 -2.2150588035583496 0.3632408678531647 10.0 12 -0.045784447342157364
0.5783011317253113 -2.155238628387451 -0.19522884488105774 85.0 5 -0.045782141387462616
0.5964219570159912 -2.2243239879608154 0.4476379454135895 8.0 13 -0.045779839158058167
0.5908495783805847 -2.205080270767212 -0.11964000016450882 57.0 6 -0.04577753320336342
0.591241717338562 -2.2080864906311035 0.5277352333068848 8.0 14 -0.04577523097395897
0.586147665977478 -2.1905908584594727 -0.039582058787345886 100.0 7 -0.04577292501926422
0.5888471603393555 -2.202218770980835 0.6108129620552063 8.0 15 -0.04577062278985977
0.3412620723247528 -1.2825571298599243 -0.35561737418174744 12.0 0 -0.04574988782405853
0.5785951614379883 -2.176048755645752 0.03930281847715378 52.0 8 -0.045747581869363785
0.3948374092578888 -1.4859952926635742 -0.354972779750824 8.0 1 -0.045745279639959335
0.5884076356887817 -2.21606707572937 0.12016335874795914 26.0 9 -0.04574297368526459
0.4912281334400177 -1.85006844997406 -0.3720775544643402 5.0 2 -0.04574067145586014
0.5855653285980225 -2.2069151401519775 0.19976095855236053 21.0 10 -0.04573836550116539
0.5994212627410889 -2.2607288360595703 -0.3704368472099304 100.0 3 -0.04573606327176094
0.5831615924835205 -2.2009546756744385 0.27956831455230713 12.0 11 -0.04573375731706619
0.6046252250671387 -2.283571720123291 -0.29004907608032227 100.0 4 -0.04573145508766174
0.5886374711990356 -2.224759101867676 0.36449235677719116 11.0 12 -0.045729149132966995
0.5717934370040894 -2.1610968112945557 -0.1955774873495102 88.0 5 -0.045726846903562546
0.5846395492553711 -2.2112081050872803 0.44458499550819397 9.0 13 -0.0457245409488678
0.5805977582931519 -2.197474241256714 -0.1191166415810585 64.0 6 -0.04572223871946335
0.5865154266357422 -2.2214417457580566 0.5304346084594727 8.0 14 -0.0457199364900589
0.5805379748344421 -2.200357675552368 -0.03972167521715164 100.0 7 -0.04571763053536415
0.5791862607002258 -2.1967885494232178 0.6087424159049988 8.0 15 -0.0457153283059597
0.33531248569488525 -1.2781345844268799 -0.3540644645690918 10.0 0 -0.045694589614868164
0.5720099210739136 -2.1819236278533936 0.039372626692056656 54.0 8 -0.045692287385463715
0.3807585835456848 -1.4534322023391724 -0.34687453508377075 12.0 1 -0.04568998143076897
0.5766220688819885 -2.202650547027588 0.11932599544525146 25.0 9 -0.04568767920136452
0.48824751377105713 -1.865066647529602 -0.3747488856315613 6.0 2 -0.04568537324666977
0.5788666009902954 -2.2128005027770996 0.2001095712184906 20.0 10 -0.04568307101726532
0.5920259952545166 -2.264718532562256 -0.37074974179267883 100.0 3 -0.04568076506257057
0.5764786601066589 -2.206817865371704 0.2800557613372803 14.0 11 -0.04567846283316612
0.593641996383667 -2.274143934249878 -0.2885866165161133 100.0 4 -0.045676156878471375
0.5808682441711426 -2.226799964904785 0.36449235677719116 11.0 12 -0.045673854649066925
0.5648738145828247 -2.1670339107513428 -0.19592611491680145 88.0 5 -0.045671552419662476
0.5759267210960388 -2.2094361782073975 0.4438217580318451 8.0 13 -0.04566924646496773
0.5739304423332214 -2.2033534049987793 -0.11932599544525146 62.0 6 -0.04566694423556328
0.5767943263053894 -2.2159318923950195 0.5286350250244141 8.0 14 -0.04566463828086853
0.5683233141899109 -2.184953212738037 -0.03940753638744354 100.0 7 -0.04566233605146408
0.5744303464889526 -2.210015296936035 0.6118482351303101 8.0 15 -0.04566003009676933
0.3296588659286499 -1.2756142616271973 -0.35302919149398804 9.0 0 -0.045639295130968094
0.5648907423019409 -2.1858432292938232 0.03940753638744354 56.0 8 -0.045636989176273346
0.370810329914093 -1.4358839988708496 -0.3423755168914795 20.0 1 -0.045634686946868896
0.5699279308319092 -2.208517551422119 0.11953534185886383 27.0 9 -0.04563238099217415
0.4750353693962097 -1.8421299457550049 -0.3697878420352936 6.0 2 -0.0456300787627697
0.5722441077232361 -2.2206952571868896 0.2006325125694275 20.0 10 -0.04562777653336525
0.5847066044807434 -2.2706992626190186 -0.3713754713535309 100.0 3 -0.0456254705786705
0.5677818059921265 -2.2049720287323 0.27956831455230713 14.0 11 -0.04562316834926605
0.5847107172012329 -2.27235746383667 -0.28809913992881775 100.0 4 -0.045620862394571304
0.5691559910774231 -2.2135090827941895 0.36198940873146057 10.0 12 -0.045618560165166855
0.5592894554138184 -2.176711082458496 -0.19662334024906158 91.0 5 -0.04561625421047211
0.5707544684410095 -2.2229413986206055 0.44611144065856934 8.0 13 -0.04561395198106766
0.5638654232025146 -2.1977035999298096 -0.11890730261802673 69.0 6 -0.04561164602637291
0.5677006840705872 -2.2142558097839355 0.5277352333068848 8.0 14 -0.04560934379696846
0.5601964592933655 -2.1849865913391113 -0.039372626692056656 100.0 7 -0.04560703784227371
0.5700688362121582 -2.225106716156006 0.6154717206954956 9.0 15 -0.04560473561286926
0.32520410418510437 -1.2767571210861206 -0.35302919149398804 9.0 0 -0.045583996921777725
0.5578615069389343 -2.191774606704712 0.03947734460234642 56.0 8 -0.045581694692373276
0.3703485131263733 -1.4561195373535156 -0.34687453508377075 22.0 1 -0.045579392462968826
0.5603537559509277 -2.204784393310547 0.11922132223844528 30.0 9 -0.04557708650827408
0.4690859913825989 -1.845679521560669 -0.370169460773468 7.0 2 -0.04557478427886963
0.5615460276603699 -2.211092948913574 0.1995866596698761 20.0 10 -0.04557247832417488
0.5777487754821777 -2.2765555381774902 -0.37200120091438293 100.0 3 -0.04557017609477043
0.5606722235679626 -2.2108867168426514 0.2800557613372803 13.0 11 -0.045567870140075684
0.5783286690711975 -2.282182455062866 -0.2890741229057312 100.0 4 -0.045565567910671234
0.5620092749595642 -2.219409704208374 0.3626151382923126 11.0 12 -0.045563261955976486
0.5467970371246338 -2.1593356132507324 -0.19488023221492767 88.0 5 -0.04556095972657204
0.5639545917510986 -2.228726625442505 0.4468746781349182 8.0 13 -0.04555865377187729
0.5576595664024353 -2.2054672241210938 -0.11922132223844528 68.0 6 -0.04555635154247284
0.5580583810806274 -2.2086663246154785 0.5259355902671814 8.0 14 -0.04555404558777809
0.5502259731292725 -2.179269790649414 -0.0392330102622509 100.0 7 -0.04555174335837364
0.5586013793945312 -2.214069128036499 0.6118482351303101 8.0 15 -0.045549437403678894
0.31792354583740234 -1.2666422128677368 -0.34992337226867676 9.0 0 -0.045528702437877655
0.5472887754440308 -2.1820709705352783 0.03926791250705719 56.0 8 -0.045526400208473206
0.3747384250164032 -1.495208978652954 -0.35587257146835327 18.0 1 -0.04552409425377846
0.5536245107650757 -2.210601568222046 0.11943066120147705 30.0 9 -0.04552179202437401
0.4645482301712036 -1.8549233675003052 -0.37169593572616577 6.0 2 -0.04551948606967926
0.5538246631622314 -2.2130396366119385 0.1995866596698761 22.0 10 -0.04551718384027481
0.5683606863021851 -2.2728097438812256 -0.37106260657310486 100.0 3 -0.04551487788558006
0.5539138317108154 -2.216682195663452 0.2805432379245758 14.0 11 -0.04551257565617561
0.5684353709220886 -2.2764832973480225 -0.28809913992881775 100.0 4 -0.045510269701480865
0.5523457527160645 -2.2136917114257812 0.3613636791706085 11.0 12 -0.045507967472076416
0.5402207970619202 -2.16509747505188 -0.19522884488105774 94.0 5 -0.04550566151738167
0.5514218807220459 -2.211632251739502 0.44305849075317383 9.0 13 -0.04550335928797722
0.5504407286643982 -2.209338665008545 -0.11932599544525146 69.0 6 -0.04550105333328247
0.5531699657440186 -2.221947193145752 0.5286350250244141 8.0 14 -0.04549875110387802
0.5445467233657837 -2.188939332962036 -0.039372626692056656 100.0 7 -0.04549644514918327
0.5480728149414062 -2.204756736755371 0.6087424159049988 8.0 15 -0.045494142919778824
0.3144277036190033 -1.27149498462677 -0.3509586453437805 8.0 0 -0.045473407953977585
0.5377499461174011 -2.1762027740478516 0.039128296077251434 59.0 8 -0.04547110199928284
0.37325409054756165 -1.511643409729004 -0.35947179794311523 12.0 1 -0.04546879976987839
0.5477271676063538 -2.218242645263672 0.1197446808218956 33.0 9 -0.04546649381518364
0.4576002061367035 -1.8546278476715088 -0.37131431698799133 6.0 2 -0.04546419158577919
0.5475267767906189 -2.2207627296447754 0.2001095712184906 23.0 10 -0.04546188563108444
0.5590062141418457 -2.2690258026123047 -0.3701240122318268 100.0 3 -0.04545958340167999
0.5442749261856079 -2.2108919620513916 0.27956831455230713 14.0 11 -0.045457277446985245
0.5614335536956787 -2.28230881690979 -0.2885866165161133 100.0 4 -0.045454975217580795
0.5473610758781433 -2.225102186203003 0.36292800307273865 11.0 12 -0.04545266926288605
0.5326600670814514 -2.1669700145721436 -0.19522884488105774 91.0 5 -0.0454503670334816
0.5446353554725647 -2.2173569202423096 0.4438217580318451 9.0 13 -0.04544806107878685
0.5417728424072266 -2.207367181777954 -0.1191166415810585 69.0 6 -0.0454457588493824
0.5472671985626221 -2.2314350605010986 0.5304346084594727 8.0 14 -0.04544345289468765
0.5377612113952637 -2.1926753520965576 -0.03940753638744354 100.0 7 -0.0454411506652832
0.5435180068016052 -2.217820167541504 0.6118482351303101 8.0 15 -0.045438848435878754
0.310901939868927 -1.2763385772705078 -0.3519938886165619 9.0 0 -0.045418109744787216
0.5305303335189819 -2.177973985671997 0.039128296077251434 61.0 8 -0.04541580751538277
0.3682391941547394 -1.5128728151321411 -0.35947179794311523 11.0 1 -0.04541350156068802
0.5385645627975464 -2.2143189907073975 0.11943066120147705 35.0 9 -0.04541119933128357
0.45205098390579224 -1.8600291013717651 -0.3720775544643402 5.0 2 -0.04540889337658882
0.5393015742301941 -2.220724582672119 0.19993527233600616 22.0 10 -0.04540659114718437
0.5524110198020935 -2.2747061252593994 -0.37074974179267883 100.0 3 -0.045404285192489624
0.5350676774978638 -2.204967975616455 0.2785933315753937 14.0 11 -0.045401982963085175
0.5529266595840454 -2.280299663543701 -0.28809913992881775 100.0 4 -0.04539967700839043
0.5405212640762329 -2.2308390140533447 0.3635537326335907 11.0 12 -0.04539737477898598
0.5269680619239807 -2.1765620708465576 -0.19592611491680145 98.0 5 -0.04539506882429123
0.5400510430335999 -2.2305994033813477 0.44611144065856934 9.0 13 -0.04539276659488678
0.5316320657730103 -2.1975040435791016 -0.1184886172413826 71.0 6 -0.04539046436548233
0.5362014174461365 -2.2180840969085693 0.5268353819847107 8.0 14 -0.04538815841078758
0.5286956429481506 -2.1887075901031494 -0.03930281847715378 100.0 7 -0.04538585618138313
0.534866213798523 -2.2159481048583984 0.6108129620552063 9.0 15 -0.045383550226688385
0.307569682598114 -1.2811195850372314 -0.35302919149398804 9.0 0 -0.045362815260887146
0.5252569317817688 -2.18953537940979 0.03930281847715378 64.0 8 -0.0453605093061924
0.36341041326522827 -1.516044020652771 -0.3599216938018799 8.0 1 -0.04535820707678795
0.5288910269737244 -2.2063815593719482 0.11890730261802673 33.0 9 -0.0453559011220932
0.440392404794693 -1.8386070728302002 -0.36749815940856934 6.0 2 -0.04535359889268875
0.5333256721496582 -2.228313684463501 0.20045821368694305 23.0 10 -0.045351292937994
0.5440081357955933 -2.2746989727020264 -0.3704368472099304 100.0 3 -0.045348990708589554
0.5273675918579102 -2.206822395324707 0.2785933315753937 14.0 11 -0.045346688479185104
0.5440414547920227 -2.2783546447753906 -0.2876116633415222 100.0 4 -0.045344382524490356
0.531285285949707 -2.2249338626861572 0.3623022735118866 12.0 12 -0.04534208029508591
0.5192849040031433 -2.1763596534729004 -0.19575178623199463 93.0 5 -0.04533977434039116
0.5304402112960815 -2.224832057952881 0.44458499550819397 9.0 13 -0.04533747211098671
0.524884045124054 -2.2032320499420166 -0.11869796365499496 71.0 6 -0.04533516615629196
0.5284555554389954 -2.219942331314087 0.5268353819847107 9.0 14 -0.04533286392688751
0.5200453400611877 -2.184612512588501 -0.03919810429215431 100.0 7 -0.045330557972192764
0.5279621481895447 -2.2195892333984375 0.6113306283950806 9.0 15 -0.045328255742788315
0.2995404303073883 -1.267145037651062 -0.3488880693912506 9.0 0 -0.04530751705169678
0.5184532403945923 -2.193211317062378 0.039337724447250366 70.0 8 -0.04530521482229233
0.3574850559234619 -1.513447642326355 -0.3590219020843506 8.0 1 -0.04530291259288788
0.5207269787788391 -2.206270456314087 0.11880263686180115 36.0 9 -0.04530060663819313
0.43261998891830444 -1.8344006538391113 -0.36635327339172363 6.0 2 -0.04529830440878868
0.5228023529052734 -2.2185256481170654 0.19941233098506927 23.0 10 -0.04529599845409393
0.5378212332725525 -2.2822587490081787 -0.3713754713535309 100.0 3 -0.045293696224689484
0.5205015540122986 -2.210491418838501 0.27883708477020264 16.0 11 -0.045291390269994736
0.5364833474159241 -2.2801461219787598 -0.2876116633415222 100.0 4 -0.045289088040590286
0.5217074155807495 -2.219082832336426 0.3610507845878601 13.0 12 -0.04528678208589554
0.5098621845245361 -2.170400619506836 -0.1950545459985733 95.0 5 -0.04528447985649109
0.5248552560806274 -2.2342238426208496 0.44611144065856934 9.0 13 -0.04528217390179634
0.5212262272834778 -2.2205159664154053 -0.11953534185886383 80.0 6 -0.04527987167239189
0.5210912227630615 -2.221682548522949 0.5268353819847107 8.0 14 -0.045277565717697144
0.5119601488113403 -2.1844680309295654 -0.03916320204734802 100.0 7 -0.045275263488292694
0.5162466764450073 -2.2044897079467773 0.6066718697547913 8.0 15 -0.045272957533597946
0.2962131202220917 -1.2718944549560547 -0.34992337226867676 9.0 0 -0.04525222256779671
0.5103410482406616 -2.1930599212646484 0.03930281847715378 68.0 8 -0.04524992033839226
0.35396549105644226 -1.5222787857055664 -0.36082151532173157 8.0 1 -0.04524761438369751
0.5156700611114502 -2.217711925506592 0.11932599544525146 40.0 9 -0.04524531215429306
0.4265344440937042 -1.8358250856399536 -0.36635327339172363 6.0 2 -0.04524300619959831
0.5140907764434814 -2.2144250869750977 0.19888940453529358 25.0 10 -0.04524070397019386
0.5276194214820862 -2.274500846862793 -0.36981111764907837 100.0 3 -0.045238398015499115
0.5154719352722168 -2.223897695541382 0.28029951453208923 16.0 11 -0.045236095786094666
0.5285208225250244 -2.2820048332214355 -0.2876116633415222 100.0 4 -0.04523378983139992
0.5147913694381714 -2.2227251529693604 0.3613636791706085 12.0 12 -0.04523148760199547
0.4999667704105377 -2.160433053970337 -0.19400867819786072 98.0 5 -0.04522918164730072
0.5152841806411743 -2.22839093208313 0.44458499550819397 9.0 13 -0.04522687941789627
0.5098751783370972 -2.206753969192505 -0.11869796365499496 74.0 6 -0.04522457346320152
0.5137709975242615 -2.22538685798645 0.5272852778434753 9.0 14 -0.04522227123379707
0.5060628056526184 -2.1919987201690674 -0.03926791250705719 100.0 7 -0.045219965279102325
0.5089336633682251 -2.2061893939971924 0.6066718697547913 8.0 15 -0.045217663049697876
0.29090845584869385 -1.2691545486450195 -0.3488880693912506 10.0 0 -0.04519692808389664
0.5012789368629456 -2.186943769454956 0.03916320204734802 66.0 8 -0.04519462212920189
0.3445647060871124 -1.504448652267456 -0.3563224971294403 7.0 1 -0.04519231989979744
0.5097074508666992 -2.2272863388061523 0.1197446808218956 40.0 9 -0.04519001394510269
0.4192485511302948 -1.8334749937057495 -0.36559006571769714 6.0 2 -0.04518771171569824
0.5072453618049622 -2.220090627670288 0.19923801720142365 25.0 10 -0.045185405761003494
0.5191939473152161 -2.2723867893218994 -0.3691853880882263 100.0 3 -0.045183103531599045
0.5063269734382629 -2.217853546142578 0.27932456135749817 16.0 11 -0.0451807975769043
0.5218333005905151 -2.2876155376434326 -0.28809913992881775 100.0 4 -0.04517849534749985
0.508346438407898 -2.2302865982055664 0.3623022735118866 11.0 12 -0.0451761893928051
0.4933074414730072 -2.1660501956939697 -0.19435729086399078 100.0 5 -0.04517388716340065
0.5035320520401001 -2.2109451293945312 0.4407688081264496 9.0 13 -0.0451715812087059
0.5047702789306641 -2.218169689178467 -0.11922132223844528 85.0 6 -0.04516927897930145
0.506820797920227 -2.2289786338806152 0.5277352333068848 8.0 14 -0.045166973024606705
0.49796536564826965 -2.1918020248413086 -0.0392330102622509 100.0 7 -0.045164670795202255
0.5020845532417297 -2.2117204666137695 0.607707142829895 8.0 15 -0.04516236484050751
0.2868818938732147 -1.274031639099121 -0.34992337226867676 9.0 0 -0.045122623443603516
0.49249565601348877 -2.1889383792877197 0.03916320204734802 71.0 8 -0.045120321214199066
0.3368130028247833 -1.498214602470398 -0.3545228838920593 7.0 1 -0.04511801525950432
0.49852314591407776 -2.2175350189208984 0.1191166415810585 43.0 9 -0.04511571303009987
0.4040301740169525 -1.7986763715744019 -0.3583393096923828 7.0 2 -0.04511340707540512
0.4987170994281769 -2.2220218181610107 0.19923801720142365 24.0 10 -0.04511110484600067
0.5105000734329224 -2.2763798236846924 -0.36949828267097473 100.0 3 -0.04510879889130592
0.4943818747997284 -2.2063088417053223 0.2776183784008026 16.0 11 -0.045106496661901474
0.511309802532196 -2.2818543910980225 -0.2871242165565491 100.0 4 -0.045104190707206726
0.4980526268482208 -2.2245113849639893 0.3610507845878601 12.0 12 -0.04510188847780228
0.4858567416667938 -2.1718170642852783 -0.19470593333244324 100.0 5 -0.04509958252310753
0.4963655471801758 -2.2206127643585205 0.44229528307914734 9.0 13 -0.04509728029370308
0.4910730719566345 -2.1987366676330566 -0.11806992441415787 78.0 6 -0.04509497433900833
0.4982583820819855 -2.230908155441284 0.5277352333068848 8.0 14 -0.04509267210960388
0.4899812936782837 -2.1956496238708496 -0.03926791250705719 100.0 7 -0.045090366154909134
0.49653154611587524 -2.2268311977386475 0.6113306283950806 9.0 15 -0.045088063925504684
0.28265541791915894 -1.2749760150909424 -0.34992337226867676 9.0 0 -0.045067328959703445
0.48696422576904297 -2.198369026184082 0.03930281847715378 71.0 8 -0.0450650230050087
0.33352747559547424 -1.5069339275360107 -0.3563224971294403 8.0 1 -0.04506272077560425
0.48814570903778076 -2.2055253982543945 0.11838394403457642 43.0 9 -0.0450604148209095
0.40230247378349304 -1.8191757202148438 -0.3621554970741272 10.0 2 -0.04505811259150505
0.4934951663017273 -2.233391046524048 0.2001095712184906 28.0 10 -0.0450558066368103
0.502096951007843 -2.274202346801758 -0.3688724935054779 99.0 3 -0.04505350440740585
0.4870626926422119 -2.2079360485076904 0.2776183784008026 16.0 11 -0.045051198452711105
0.5028847455978394 -2.279660224914551 -0.28663671016693115 100.0 4 -0.045048896223306656
0.4898226261138916 -2.222292423248291 0.36042505502700806 13.0 12 -0.04504659026861191
0.480366051197052 -2.181199550628662 -0.19540317356586456 100.0 5 -0.04504428803920746
0.49068692326545715 -2.2299160957336426 0.4438217580318451 9.0 13 -0.04504198208451271
0.48377901315689087 -2.2003531455993652 -0.11806992441415787 80.0 6 -0.04503967985510826
0.4879283308982849 -2.2192251682281494 0.5245858430862427 9.0 14 -0.04503737390041351
0.47883591055870056 -2.1796841621398926 -0.03895376995205879 100.0 7 -0.045035071671009064
0.48914456367492676 -2.2284653186798096 0.6113306283950806 9.0 15 -0.045032765716314316
0.2776022255420685 -1.272131323814392 -0.3488880693912506 10.0 0 -0.04501203075051308
0.479671448469162 -2.199971914291382 0.03930281847715378 76.0 8 -0.04500972852110863
0.3268691897392273 -1.5004154443740845 -0.3545228838920593 8.0 1 -0.04500742256641388
0.48129352927207947 -2.2111191749572754 0.11859328299760818 44.0 9 -0.04500512033700943
0.39761874079704285 -1.8282426595687866 -0.36368197202682495 9.0 2 -0.04500281438231468
0.4818522334098816 -2.2155463695526123 0.1983664631843567 28.0 10 -0.04500051215291023
0.49287474155426025 -2.2681336402893066 -0.3676210343837738 51.0 3 -0.044998206198215485
0.48268643021583557 -2.223118305206299 0.27932456135749817 16.0 11 -0.044995903968811035
0.49660754203796387 -2.2891616821289062 -0.2876116633415222 100.0 4 -0.04499359801411629
0.48248106241226196 -2.225919246673584 0.3607378900051117 12.0 12 -0.04499129578471184
0.46937549114227295 -2.1672849655151367 -0.19400867819786072 100.0 5 -0.04498898983001709
0.48373037576675415 -2.235452890396118 0.44458499550819397 10.0 13 -0.04498668760061264
0.4756735563278198 -2.200076103210449 -0.11796525865793228 84.0 6 -0.04498438164591789
0.48141446709632874 -2.2266290187835693 0.5259355902671814 8.0 14 -0.04498207941651344
0.4716466963291168 -2.1832971572875977 -0.03898867964744568 100.0 7 -0.044979777187108994
0.47973230481147766 -2.2226054668426514 0.6092600226402283 9.0 15 -0.044977471232414246
0.2705078721046448 -1.2618067264556885 -0.34578225016593933 9.0 0 -0.04495673626661301
0.46909207105636597 -2.1899826526641846 0.039093390107154846 81.0 8 -0.04495443031191826
0.32381463050842285 -1.513036847114563 -0.3572222888469696 7.0 1 -0.04495212808251381
0.4736037850379944 -2.2148215770721436 0.11869796365499496 47.0 9 -0.04494982212781906
0.3929663896560669 -1.8392871618270874 -0.36559006571769714 8.0 2 -0.04494751989841461
0.4728962779045105 -2.2134006023406982 0.19801783561706543 28.0 10 -0.044945213943719864
0.47754767537117004 -2.2370834350585938 -0.3623022735118866 40.0 3 -0.044942911714315414
0.47660547494888306 -2.2345798015594482 0.2805432379245758 17.0 11 -0.044940605759620667
0.4882136881351471 -2.290966510772705 -0.2876116633415222 100.0 4 -0.04493830353021622
0.47473078966140747 -2.229604959487915 0.3610507845878601 13.0 12 -0.04493600130081177
0.46142905950546265 -2.1689906120300293 -0.19400867819786072 100.0 5 -0.04493369534611702
0.47390100359916687 -2.22952938079834 0.44305849075317383 9.0 13 -0.04493139311671257
0.46926623582839966 -2.2096195220947266 -0.11838394403457642 82.0 6 -0.04492908716201782
0.4740598499774933 -2.2321908473968506 0.5268353819847107 9.0 14 -0.04492678493261337
0.46488675475120544 -2.1908793449401855 -0.039093390107154846 100.0 7 -0.044924478977918625
0.46957945823669434 -2.2148995399475098 0.6066718697547913 9.0 15 -0.044922176748514175
0.2658812999725342 -1.2627897262573242 -0.34578225016593933 10.0 0 -0.04490143805742264
0.45941558480262756 -2.1838600635528564 0.03895376995205879 79.0 8 -0.04489913582801819
0.3166636526584625 -1.5065852403640747 -0.3554226756095886 7.0 1 -0.04489682987332344
0.4667142629623413 -2.2224063873291016 0.11901197582483292 50.0 9 -0.04489452764391899
0.38492947816848755 -1.8329623937606812 -0.3640635907649994 6.0 2 -0.04489222168922424
0.4660077393054962 -2.2209689617156982 0.19854077696800232 29.0 10 -0.044889919459819794
0.47096630930900574 -2.2465522289276123 -0.3635537326335907 53.0 3 -0.044887617230415344
0.4655633866786957 -2.2227113246917725 0.27883708477020264 17.0 11 -0.044885311275720596
0.48062700033187866 -2.296626329421997 -0.28809913992881775 100.0 4 -0.04488300904631615
0.4677685499191284 -2.2371304035186768 0.36198940873146057 15.0 12 -0.0448807030916214
0.4530394673347473 -2.1666877269744873 -0.19366006553173065 100.0 5 -0.04487840086221695
0.4641083776950836 -2.2215609550476074 0.44115039706230164 10.0 13 -0.0448760949075222
0.45991799235343933 -2.2034237384796143 -0.11796525865793228 86.0 6 -0.04487379267811775
0.46627286076545715 -2.23582124710083 0.5272852778434753 9.0 14 -0.044871486723423004
0.4572615623474121 -2.194526195526123 -0.039128296077251434 100.0 7 -0.044869184494018555
0.4614585041999817 -2.2166056632995605 0.6066718697547913 9.0 15 -0.04486687853932381
0.2622546851634979 -1.2674936056137085 -0.3468175232410431 9.0 0 -0.04484614357352257
0.45178964734077454 -2.185450315475464 0.03895376995205879 86.0 8 -0.04484383761882782
0.307460755109787 -1.4885969161987305 -0.35092365741729736 7.0 1 -0.04484153538942337
0.457339346408844 -2.2161977291107178 0.11859328299760818 49.0 9 -0.04483923316001892
0.37813228368759155 -1.8323721885681152 -0.36368197202682495 5.0 2 -0.04483692720532417
0.4590568244457245 -2.226484775543213 0.19888940453529358 31.0 10 -0.044834624975919724
0.4623242914676666 -2.2443127632141113 -0.36292800307273865 49.0 3 -0.044832319021224976
0.45500075817108154 -2.210712432861328 0.27713093161582947 19.0 11 -0.044830016791820526
0.4710080325603485 -2.290512800216675 -0.2871242165565491 100.0 4 -0.04482771083712578
0.46075162291526794 -2.242619514465332 0.3626151382923126 14.0 12 -0.04482540860772133
0.4474782645702362 -2.178014039993286 -0.1945316195487976 100.0 5 -0.04482310265302658
0.45635083317756653 -2.2231674194335938 0.44115039706230164 10.0 13 -0.04482080042362213
0.4522237479686737 -2.2050156593322754 -0.11796525865793228 94.0 6 -0.04481849446892738
0.45690101385116577 -2.2297990322113037 0.5254856944084167 9.0 14 -0.044816192239522934
0.4508013427257538 -2.201986312866211 -0.0392330102622509 100.0 7 -0.044813886284828186
0.45604103803634644 -2.2295591831207275 0.6097776889801025 9.0 15 -0.04481158405542374
0.2570591866970062 -1.2646150588989258 -0.34578225016593933 9.0 0 -0.0447908490896225
0.44495415687561035 -2.1909334659576416 0.03902358189225197 89.0 8 -0.04478854313492775
0.3038129210472107 -1.4973002672195435 -0.35272327065467834 8.0 1 -0.0447862409055233
0.44760459661483765 -2.2059578895568848 0.11796525865793228 51.0 9 -0.04478393495082855
0.37017327547073364 -1.8259844779968262 -0.3621554970741272 5.0 2 -0.0447816327214241
0.4520733654499054 -2.2319788932800293 0.19923801720142365 32.0 10 -0.044779326766729355
0.45487937331199646 -2.2478489875793457 -0.3632408678531647 49.0 3 -0.044777024537324905
0.44885435700416565 -2.2200701236724854 0.27810585498809814 17.0 11 -0.04477471858263016
0.46262291073799133 -2.288170337677002 -0.28663671016693115 100.0 4 -0.04477241635322571
0.45213887095451355 -2.23832631111145 0.36167651414871216 16.0 12 -0.04477011039853096
0.4414496421813965 -2.1873745918273926 -0.19522884488105774 100.0 5 -0.04476780816912651
0.44897574186325073 -2.2266714572906494 0.44153204560279846 10.0 13 -0.04476550221443176
0.4457072615623474 -2.2124545574188232 -0.11827926337718964 100.0 6 -0.04476319998502731
0.44796472787857056 -2.223660469055176 0.5236860513687134 9.0 14 -0.044760894030332565
0.43994611501693726 -2.1858255863189697 -0.038918863981962204 100.0 7 -0.044758591800928116
0.4478832483291626 -2.22727108001709 0.6087424159049988 9.0 15 -0.04475628584623337
0.25210702419281006 -1.261671781539917 -0.34474697709083557 9.0 0 -0.04473555088043213
0.43925222754478455 -2.2002410888671875 0.03916320204734802 100.0 8 -0.04473324865102768
0.29884594678878784 -1.4982995986938477 -0.35272327065467834 8.0 1 -0.04473094269633293
0.4430215358734131 -2.2211408615112305 0.11869796365499496 53.0 9 -0.04472864046692848
0.3629651367664337 -1.8214257955551147 -0.3610106408596039 6.0 2 -0.044726334512233734
0.44311314821243286 -2.225649833679199 0.19854077696800232 31.0 10 -0.044724032282829285
0.4520471692085266 -2.2725942134857178 -0.36699530482292175 100.0 3 -0.04472172632813454
0.4422639310359955 -2.225440263748169 0.2785933315753937 19.0 11 -0.04471942409873009
0.45503270626068115 -2.289691925048828 -0.28663671016693115 100.0 4 -0.04471711814403534
0.4424058496952057 -2.2281882762908936 0.359799325466156 16.0 12 -0.04471481591463089
0.4318675398826599 -2.177100896835327 -0.19418299198150635 100.0 5 -0.04471250995993614
0.44426092505455017 -2.241628646850586 0.44420334696769714 10.0 13 -0.04471020773053169
0.43914416432380676 -2.217839002609253 -0.1184886172413826 100.0 6 -0.044707901775836945
0.4421026110649109 -2.2327802181243896 0.5254856944084167 9.0 14 -0.044705599546432495
