# .PCD v0.7 - Point Cloud Data file format
VERSION 0.7
FIELDS x y z intensity ring time
SIZE 4 4 4 4 4 4
TYPE F F F F F F
COUNT 1 1 1 1 1 1
WIDTH 533
HEIGHT 1
VIEWPOINT 0 0 0 1 0 0 0
POINTS 533
DATA ascii
-1.5233519077301025 -0.1948758214712143 -0.026806894689798355 40.0 7 -0.04321925714612007
-2.8974132537841797 -0.37013885378837585 0.7826688289642334 5.0 15 -0.04321695491671562
-1.613792896270752 -0.20386940240859985 -0.4358513057231903 21.0 0 -0.04319621995091438
-1.5097687244415283 -0.190728098154068 0.026562562212347984 41.0 8 -0.043193913996219635
-1.6163361072540283 -0.20390410721302032 -0.37611818313598633 26.0 1 -0.043191611766815186
-1.539700984954834 -0.19396381080150604 0.0813300833106041 17.0 9 -0.04318930581212044
-1.5972797870635986 -0.20093372464179993 -0.3129267692565918 30.0 2 -0.04318700358271599
-1.5162460803985596 -0.1904710978269577 0.13369689881801605 49.0 10 -0.04318469762802124
-1.5914978981018066 -0.19992423057556152 -0.2540495991706848 35.0 3 -0.04318239539861679
-1.5146652460098267 -0.190004363656044 0.1874350756406784 46.0 11 -0.04318008944392204
-1.5777287483215332 -0.1976352035999298 -0.19523471593856812 21.0 4 -0.04317778721451759
-2.9421119689941406 -0.3680240213871002 0.4696163237094879 3.0 12 -0.043175481259822845
-1.5460342168807983 -0.19311724603176117 -0.1363115906715393 32.0 5 -0.043173179030418396
-2.9299652576446533 -0.3659859895706177 0.5739535093307495 15.0 13 -0.04317087307572365
-1.5637198686599731 -0.19504885375499725 -0.0825861468911171 25.0 6 -0.0431685708463192
-2.9200336933135986 -0.3637096583843231 0.6793522238731384 1.0 14 -0.04316626489162445
-1.5260072946548462 -0.18980355560779572 -0.026841802522540092 37.0 7 -0.04316396266222
-2.8871846199035645 -0.35859471559524536 0.7795630097389221 4.0 15 -0.04316165670752525
-1.6221295595169067 -0.19946011900901794 -0.43792182207107544 19.0 0 -0.043140921741724014
-1.510425329208374 -0.18545681238174438 0.026562562212347984 32.0 8 -0.043138619512319565
-1.607366681098938 -0.19707535207271576 -0.3738686740398407 21.0 1 -0.04313631355762482
-1.5443336963653564 -0.18907345831394196 0.08153942972421646 12.0 9 -0.04313401132822037
-1.6018346548080444 -0.19611333310604095 -0.3136900067329407 25.0 2 -0.04313170537352562
-1.5208247900009155 -0.18592548370361328 0.1340455263853073 49.0 10 -0.04312940314412117
-1.586303472518921 -0.19364987313747406 -0.25311097502708435 30.0 3 -0.04312709718942642
-1.5113781690597534 -0.18423523008823395 0.18694758415222168 46.0 11 -0.04312479496002197
-1.580379605293274 -0.19236651062965393 -0.1954784393310547 17.0 4 -0.043122489005327225
-2.9257304668426514 -0.3556074798107147 0.4668005108833313 2.0 12 -0.043120186775922775
-1.5565550327301025 -0.18919126689434052 -0.13718314468860626 30.0 5 -0.04311788082122803
-2.921480178833008 -0.35457277297973633 0.5720453858375549 10.0 13 -0.04311557859182358
-1.554477334022522 -0.18838775157928467 -0.08206278830766678 27.0 6 -0.04311327263712883
-2.940631866455078 -0.35585567355155945 0.6838512420654297 1.0 14 -0.04311097040772438
-1.5405572652816772 -0.18615518510341644 -0.027086134999990463 30.0 7 -0.04310866817831993
-2.9114341735839844 -0.351291298866272 0.7857747077941895 4.0 15 -0.04310636222362518
-1.628570556640625 -0.19448339939117432 -0.43947476148605347 17.0 0 -0.043085627257823944
-1.5150346755981445 -0.18065716326236725 0.02663237228989601 32.0 8 -0.043083321303129196
-1.606109857559204 -0.19123296439647675 -0.37341877818107605 20.0 1 -0.04308101907372475
-1.5449843406677246 -0.1836811751127243 0.08153942972421646 10.0 9 -0.04307871311903
-1.6064085960388184 -0.1909838169813156 -0.31445324420928955 22.0 2 -0.04307641088962555
-1.5293784141540527 -0.18155549466609955 0.13474278151988983 39.0 10 -0.0430741049349308
-1.598739743232727 -0.18950657546520233 -0.2549882233142853 26.0 3 -0.04307180270552635
-1.5100407600402832 -0.17872504889965057 0.1867038458585739 43.0 11 -0.043069496750831604
-1.5810414552688599 -0.18684911727905273 -0.1954784393310547 15.0 4 -0.043067194521427155
-2.9465715885162354 -0.34770745038986206 0.46992918848991394 2.0 12 -0.043064892292022705
-1.571056604385376 -0.18539109826087952 -0.13840331137180328 23.0 5 -0.04306258633732796
-2.9226999282836914 -0.3443726599216461 0.5720453858375549 9.0 13 -0.04306028410792351
-1.5610764026641846 -0.18366055190563202 -0.08237680792808533 22.0 6 -0.04305797815322876
-2.9302432537078857 -0.3442245423793793 0.681151807308197 1.0 14 -0.04305567592382431
-1.5451699495315552 -0.18124239146709442 -0.02715594507753849 29.0 7 -0.04305336996912956
-2.901130199432373 -0.33977794647216797 0.7826688289642334 6.0 15 -0.04305106773972511
-1.6330775022506714 -0.18924255669116974 -0.44051000475883484 12.0 0 -0.043030329048633575
-1.519628882408142 -0.1758272498846054 0.02670218236744404 26.0 8 -0.043028026819229126
-1.6222546100616455 -0.18741415441036224 -0.377018004655838 18.0 1 -0.04302572086453438
-1.5376795530319214 -0.17737190425395966 0.08112073689699173 7.0 9 -0.04302341863512993
-1.5992963314056396 -0.1841965913772583 -0.3129267692565918 19.0 2 -0.04302111268043518
-1.5300029516220093 -0.17621582746505737 0.13474278151988983 39.0 10 -0.04301881045103073
-1.5993915796279907 -0.1839243471622467 -0.2549882233142853 22.0 3 -0.04301650822162628
-1.5086833238601685 -0.17322680354118347 0.18646010756492615 31.0 11 -0.043014202266931534
-1.5777394771575928 -0.18087686598300934 -0.19499096274375916 14.0 4 -0.043011900037527084
-2.9144036769866943 -0.33360010385513306 0.46461039781570435 1.0 12 -0.043009594082832336
-1.5697461366653442 -0.17940500378608704 -0.13822901248931885 16.0 5 -0.04300729185342789
-2.9297943115234375 -0.33432653546333313 0.5731902718544006 8.0 13 -0.04300498589873314
-1.565707802772522 -0.17838984727859497 -0.0825861468911171 18.0 6 -0.04300268366932869
-2.9546616077423096 -0.3366411328315735 0.6865506172180176 1.0 14 -0.04300037771463394
-1.5438063144683838 -0.17562156915664673 -0.027121039107441902 23.0 7 -0.04299807548522949
-2.9234132766723633 -0.3320479094982147 0.7883628606796265 4.0 15 -0.042995769530534744
-1.6452791690826416 -0.1845477819442749 -0.4436158537864685 12.0 0 -0.042975034564733505
-1.5381485223770142 -0.1722593456506729 0.027016324922442436 28.0 8 -0.04297272861003876
-1.6326138973236084 -0.18255013227462769 -0.37926751375198364 13.0 1 -0.04297042638063431
-1.5462591648101807 -0.17262119054794312 0.08153942972421646 7.0 9 -0.04296812415122986
-1.6058140993118286 -0.17898565530776978 -0.3140716254711151 15.0 2 -0.04296581819653511
-1.5405391454696655 -0.1717100441455841 0.1356143355369568 30.0 10 -0.04296351596713066
-1.6079078912734985 -0.17893531918525696 -0.2562396824359894 20.0 3 -0.04296121001243591
-1.5152268409729004 -0.16835328936576843 0.18719132244586945 26.0 11 -0.042958907783031464
-1.59614896774292 -0.17706234753131866 -0.19718460738658905 11.0 4 -0.042956601828336716
-2.9077534675598145 -0.3220468759536743 0.46335893869400024 1.0 12 -0.042954299598932266
-1.574353814125061 -0.17408832907676697 -0.1385776251554489 17.0 5 -0.04295199364423752
-2.9427084922790527 -0.32487788796424866 0.5754799246788025 6.0 13 -0.04294969141483307
-1.5703214406967163 -0.17308802902698517 -0.08279548585414886 10.0 6 -0.04294738546013832
-2.94425368309021 -0.32452911138534546 0.6838512420654297 1.0 14 -0.04294508323073387
-1.5424518585205078 -0.16974326968193054 -0.027086134999990463 18.0 7 -0.042942777276039124
-2.9169294834136963 -0.3204861581325531 0.7862922549247742 4.0 15 -0.042940475046634674
-1.6440237760543823 -0.17830795049667358 -0.443098247051239 9.0 0 -0.042919740080833435
-1.5387696027755737 -0.16662055253982544 0.027016324922442436 22.0 8 -0.04291743412613869
-1.6352094411849976 -0.17677411437034607 -0.3797174096107483 12.0 1 -0.04291513189673424
-1.5547950267791748 -0.16808092594146729 0.0819581151008606 7.0 9 -0.04291282594203949
-1.6142367124557495 -0.17422224581241608 -0.31559810042381287 13.0 2 -0.04291052371263504
-1.5332343578338623 -0.1652090698480606 0.13491709530353546 30.0 10 -0.04290821775794029
-1.6006968021392822 -0.17219531536102295 -0.2549882233142853 16.0 3 -0.04290591552853584
-1.5237287282943726 -0.16364681720733643 0.1881662756204605 26.0 11 -0.042903609573841095
-1.5947834253311157 -0.17127802968025208 -0.19694086909294128 9.0 4 -0.042901307344436646
-2.926537036895752 -0.31379029154777527 0.46617478132247925 1.0 12 -0.0428990013897419
-1.569008708000183 -0.16795550286769867 -0.13805469870567322 12.0 5 -0.04289669916033745
-2.9321117401123047 -0.3133528530597687 0.5731902718544006 6.0 13 -0.0428943932056427
-1.5768741369247437 -0.16824078559875488 -0.08310950547456741 8.0 6 -0.04289209097623825
-2.9569947719573975 -0.31548944115638733 0.6865506172180176 1.0 14 -0.0428897850215435
-1.5490003824234009 -0.16499345004558563 -0.02719084918498993 14.0 7 -0.04288748279213905
-2.9276351928710938 -0.31132423877716064 0.788880467414856 3.0 15 -0.042885176837444305
-1.6484487056732178 -0.17325899004936218 -0.4441334903240204 8.0 0 -0.042864441871643066
-1.5214146375656128 -0.15963873267173767 0.02670218236744404 15.0 8 -0.04286213964223862
-1.6377246379852295 -0.1715543270111084 -0.38016730546951294 9.0 1 -0.04285983368754387
-1.571234941482544 -0.16458941996097565 0.08279548585414886 6.0 9 -0.04285753145813942
-1.6323790550231934 -0.17070597410202026 -0.3190326392650604 12.0 2 -0.04285522550344467
-1.5456634759902954 -0.16136497259140015 0.13596294820308685 26.0 10 -0.04285292327404022
-1.6091179847717285 -0.16770526766777039 -0.2562396824359894 15.0 3 -0.042850617319345474
-1.5203142166137695 -0.15818214416503906 0.18767879903316498 21.0 11 -0.042848315089941025
-1.6012660264968872 -0.16660481691360474 -0.19767209887504578 7.0 4 -0.04284600913524628
-2.9236316680908203 -0.30367550253868103 0.4655490219593048 1.0 12 -0.04284370690584183
-1.5873929262161255 -0.16460096836090088 -0.1396235078573227 10.0 5 -0.04284140095114708
-2.927276372909546 -0.30302131175994873 0.5720453858375549 3.0 13 -0.04283909872174263
-1.5734500885009766 -0.16260045766830444 -0.08290016651153564 7.0 6 -0.04283679276704788
-2.9580249786376953 -0.30568253993988037 0.6865506172180176 1.0 14 -0.04283449053764343
-1.5555064678192139 -0.16047142446041107 -0.027295565232634544 9.0 7 -0.04283218830823898
-2.9401819705963135 -0.3028014898300171 0.791986346244812 3.0 15 -0.042829882353544235
-1.6682332754135132 -0.16974712908267975 -0.4493098855018616 7.0 0 -0.042809147387742996
-1.5239253044128418 -0.15479469299316406 0.026737086474895477 11.0 8 -0.04280684143304825
-1.6421623229980469 -0.16651561856269836 -0.3810671269893646 8.0 1 -0.0428045392036438
-1.5678257942199707 -0.158701092004776 0.0825861468911171 4.0 9 -0.04280223324894905
-1.6349183320999146 -0.16520418226718903 -0.31941425800323486 11.0 2 -0.0427999310195446
-1.5580838918685913 -0.15744026005268097 0.13700881600379944 21.0 10 -0.042797625064849854
-1.6076997518539429 -0.16217076778411865 -0.25592681765556335 11.0 3 -0.042795322835445404
-1.526755690574646 -0.15373630821704865 0.18841002881526947 17.0 11 -0.042793016880750656
-1.6018377542495728 -0.16101430356502533 -0.19767209887504578 7.0 4 -0.04279071465134621
-2.979707956314087 -0.2989904284477234 0.47430935502052307 1.0 12 -0.04278840869665146
-1.5958876609802246 -0.15985354781150818 -0.14032074809074402 9.0 5 -0.04278610646724701
-2.9244093894958496 -0.292410671710968 0.571282148361206 2.0 13 -0.04278380423784256
-1.5700331926345825 -0.1567099541425705 -0.08269082009792328 6.0 6 -0.04278149828314781
-2.9745867252349854 -0.2969028353691101 0.6901498436927795 1.0 14 -0.04277919605374336
-1.5540672540664673 -0.1548427939414978 -0.027260659262537956 7.0 7 -0.042776890099048615
-2.9489104747772217 -0.29330119490623474 0.7940568327903748 3.0 15 -0.042774587869644165
-1.67268967628479 -0.16400901973247528 -0.45034515857696533 6.0 0 -0.04275384917855263
-1.5503548383712769 -0.1517404168844223 0.02719084918498993 8.0 8 -0.04275154694914818
-1.6543986797332764 -0.16163216531276703 -0.3837665319442749 7.0 1 -0.04274924099445343
-1.5763483047485352 -0.15372905135154724 0.08300483226776123 1.0 9 -0.04274693876504898
-1.6296509504318237 -0.15864013135433197 -0.31826943159103394 8.0 2 -0.04274463281035423
-1.5586504936218262 -0.15172851085662842 0.13700881600379944 13.0 10 -0.04274233058094978
-1.6181138753890991 -0.15723197162151337 -0.2574911415576935 10.0 3 -0.042740024626255035
-1.5312604904174805 -0.14852268993854523 0.188897505402565 14.0 11 -0.042737722396850586
-1.602417230606079 -0.1551421582698822 -0.19767209887504578 6.0 4 -0.042735420167446136
-2.9807839393615723 -0.28806719183921814 0.47430935502052307 1.0 12 -0.04273311421275139
-1.6162947416305542 -0.15591630339622498 -0.14206385612487793 8.0 5 -0.04273081198334694
-2.9371864795684814 -0.28281915187835693 0.5735718607902527 2.0 13 -0.04272850602865219
-1.5865018367767334 -0.15248344838619232 -0.08352819085121155 5.0 6 -0.04272620379924774
-2.9756548404693604 -0.2859991192817688 0.6901498436927795 1.0 14 -0.042723897844552994
-1.5645769834518433 -0.15010061860084534 -0.0274351816624403 6.0 7 -0.042721595615148544
-2.969196319580078 -0.28433242440223694 0.7992331981658936 4.0 15 -0.042719289660453796
-1.6809725761413574 -0.15860262513160706 -0.45241570472717285 5.0 0 -0.04269855469465256
-1.5568732023239136 -0.146619513630867 0.027295565232634544 7.0 8 -0.04269624873995781
-1.6569199562072754 -0.15575015544891357 -0.38421642780303955 5.0 1 -0.04269394651055336
-1.5848292112350464 -0.14897362887859344 0.08342352509498596 1.0 9 -0.04269164055585861
-1.6399680376052856 -0.15386754274368286 -0.32017752528190613 7.0 2 -0.04268933832645416
-1.5651473999023438 -0.1465720385313034 0.13753175735473633 10.0 10 -0.04268703609704971
-1.6206462383270264 -0.15148405730724335 -0.2578040361404419 8.0 3 -0.042684730142354965
-1.5456303358078003 -0.14420011639595032 0.19060367345809937 11.0 11 -0.042682427912950516
-1.6306202411651611 -0.15212927758693695 -0.2010844349861145 6.0 4 -0.04268012195825577
-2.981771230697632 -0.2776604890823364 0.47430935502052307 1.0 12 -0.04267781972885132
-1.6029422283172607 -0.1489827036857605 -0.14084367454051971 7.0 5 -0.04267551377415657
-2.949885129928589 -0.27365273237228394 0.5758615732192993 1.0 13 -0.04267321154475212
-1.592990756034851 -0.14749696850776672 -0.0838422104716301 4.0 6 -0.04267090559005737
-2.976634979248047 -0.2756103277206421 0.6901498436927795 1.0 14 -0.042668603360652924
-1.5650914907455444 -0.14463825523853302 -0.0274351816624403 6.0 7 -0.042666297405958176
-2.93554425239563 -0.2707722783088684 0.7899157404899597 3.0 15 -0.042663995176553726
-1.6853373050689697 -0.15337757766246796 -0.4534509778022766 3.0 0 -0.04264326021075249
-1.5414187908172607 -0.14000874757766724 0.027016324922442436 5.0 8 -0.04264095425605774
-1.6768351793289185 -0.1520141214132309 -0.3887154459953308 3.0 1 -0.04263865202665329
-1.5833255052566528 -0.14353695511817932 0.08331885188817978 1.0 9 -0.04263634607195854
-1.6404693126678467 -0.1484283059835434 -0.32017752528190613 5.0 2 -0.04263404384255409
-1.56165611743927 -0.14102257788181305 0.13718314468860626 9.0 10 -0.042631737887859344
-1.6152373552322388 -0.1455773413181305 -0.25686541199684143 6.0 3 -0.042629435658454895
-1.5342371463775635 -0.13800670206546783 0.18914122879505157 8.0 11 -0.04262712970376015
-1.6172758340835571 -0.14547614753246307 -0.19937825202941895 2.0 4 -0.0426248274743557
-2.998415470123291 -0.2691839933395386 0.47681230306625366 1.0 12 -0.04262252151966095
-1.6073962450027466 -0.14402227103710175 -0.14119230210781097 6.0 5 -0.0426202192902565
-2.9507763385772705 -0.26386892795562744 0.5758615732192993 1.0 13 -0.04261791333556175
-1.5914816856384277 -0.14203599095344543 -0.08373753726482391 1.0 6 -0.0426156111061573
-2.9775328636169434 -0.2657378017902374 0.6901498436927795 1.0 14 -0.042613305151462555
-1.5516198873519897 -0.13820548355579376 -0.02719084918498993 3.0 7 -0.042611002922058105
-2.9383504390716553 -0.26120710372924805 0.790433406829834 6.0 15 -0.04260869696736336
-1.6993077993392944 -0.14896923303604126 -0.45707443356513977 3.0 0 -0.04258796200156212
-1.5478508472442627 -0.13541924953460693 0.027121039107441902 4.0 8 -0.04258565977215767
-1.6773300170898438 -0.1464526355266571 -0.3887154459953308 2.0 1 -0.04258335381746292
-1.5997345447540283 -0.13939622044563293 0.08415622264146805 0.0 9 -0.04258105158805847
-1.6605361700057983 -0.1444019079208374 -0.3239936828613281 3.0 2 -0.042578745633363724
-1.5720397233963013 -0.1367061585187912 0.13805469870567322 7.0 10 -0.042576443403959274
-1.6098072528839111 -0.1397077739238739 -0.25592681765556335 5.0 3 -0.042574137449264526
-1.530730962753296 -0.1325756013393402 0.18865376710891724 6.0 11 -0.04257183521986008
-1.6296402215957642 -0.14085550606250763 -0.20084069669246674 2.0 4 -0.04256952926516533
-2.9993367195129395 -0.25871655344963074 0.47681230306625366 1.0 12 -0.04256722703576088
-1.6039191484451294 -0.13806834816932678 -0.14084367454051971 3.0 5 -0.04256492108106613
-2.9516794681549072 -0.2535671293735504 0.5758615732192993 1.0 13 -0.04256261885166168
-1.5959477424621582 -0.13682135939598083 -0.08394688367843628 0.0 6 -0.042560312896966934
-2.9784421920776367 -0.2553432881832123 0.6901498436927795 1.0 14 -0.042558010667562485
-1.5660396814346313 -0.13398166000843048 -0.0274351816624403 2.0 7 -0.04255570471286774
-2.9584927558898926 -0.2525920867919922 0.7956097722053528 6.0 15 -0.04255340248346329
-1.6940672397613525 -0.14225497841835022 -0.4555215537548065 2.0 0 -0.04253266751766205
-1.5802202224731445 -0.1324172466993332 0.02767951786518097 2.0 8 -0.0425303615629673
-1.6739717721939087 -0.13997872173786163 -0.3878156542778015 2.0 1 -0.04252805933356285
-1.5882927179336548 -0.1325354278087616 0.08352819085121155 0.0 9 -0.0425257533788681
-1.6708366870880127 -0.13912969827651978 -0.3259017765522003 4.0 2 -0.042523451149463654
-1.5725301504135132 -0.13094377517700195 0.13805469870567322 7.0 10 -0.042521145194768906
-1.6418061256408691 -0.13642343878746033 -0.26093271374702454 5.0 3 -0.042518842965364456
-1.5391199588775635 -0.12762078642845154 0.1896287202835083 5.0 11 -0.04251653701066971
-1.6162970066070557 -0.13373614847660065 -0.19913452863693237 1.0 4 -0.04251423478126526
-2.9805781841278076 -0.2460954785346985 0.473683625459671 1.0 12 -0.04251192882657051
-1.6044143438339233 -0.13218912482261658 -0.14084367454051971 2.0 5 -0.04250962659716606
-2.9682421684265137 -0.24403385818004608 0.5789145231246948 1.0 13 -0.042507320642471313
-1.5944479703903198 -0.1308072954416275 -0.0838422104716301 0.0 6 -0.042505018413066864
-2.979357957839966 -0.2444242686033249 0.6901498436927795 1.0 14 -0.042502716183662415
-1.56851327419281 -0.128404438495636 -0.027470089495182037 1.0 7 -0.04250041022896767
-2.945920467376709 -0.24064593017101288 0.791986346244812 7.0 15 -0.04249810799956322
-1.715759515762329 -0.13774508237838745 -0.4612155556678772 0.0 0 -0.04247736930847168
-1.5727216005325317 -0.12598581612110138 0.027539897710084915 1.0 8 -0.04247506707906723
-1.7133244276046753 -0.1369481384754181 -0.39681369066238403 1.0 1 -0.04247276112437248
-1.5847638845443726 -0.12667213380336761 0.08331885188817978 0.0 9 -0.04247045889496803
-1.6693551540374756 -0.13314001262187958 -0.3255201578140259 2.0 2 -0.042468152940273285
-1.5690271854400635 -0.1248631402850151 0.13770607113838196 4.0 10 -0.042465850710868835
-1.640325903892517 -0.1302490085363388 -0.2606198489665985 2.0 3 -0.04246354475617409
-1.5435351133346558 -0.1222919449210167 0.19011619687080383 5.0 11 -0.04246124252676964
-1.6127963066101074 -0.12777940928936005 -0.19864705204963684 1.0 4 -0.04245893657207489
-2.9696035385131836 -0.23475639522075653 0.4718063771724701 1.0 12 -0.04245663434267044
-1.6147969961166382 -0.127371147274971 -0.14171522855758667 2.0 5 -0.04245433211326599
-2.9416751861572266 -0.23151467740535736 0.5735718607902527 1.0 13 -0.04245202615857124
-1.630735158920288 -0.12805558741092682 -0.0857263058423996 0.0 6 -0.042449723929166794
-2.9801931381225586 -0.23402351140975952 0.6901498436927795 1.0 14 -0.042447417974472046
-1.5629712343215942 -0.12245988100767136 -0.027365373447537422 1.0 7 -0.042445115745067596
-2.9486684799194336 -0.23051175475120544 0.7925038933753967 6.0 15 -0.04244280979037285
-1.708502173423767 -0.13146215677261353 -0.4591450095176697 0.0 0 -0.04242207482457161
-1.5950628519058228 -0.12245345860719681 0.02792385034263134 0.0 8 -0.04241976886987686
-1.7137690782546997 -0.13126572966575623 -0.39681369066238403 0.0 1 -0.04241746664047241
-1.589158058166504 -0.12172117084264755 0.08352819085121155 0.0 9 -0.042415160685777664
-1.6697874069213867 -0.12760384380817413 -0.3255201578140259 0.0 2 -0.042412858456373215
-1.563472867012024 -0.11920490860939026 0.13718314468860626 3.0 10 -0.042410556226968765
-1.6624153852462769 -0.1264568418264389 -0.26406142115592957 1.0 3 -0.04240825027227402
-1.565705418586731 -0.11882509291172028 0.19279730319976807 2.0 11 -0.04240594804286957
-1.6646755933761597 -0.12633617222309113 -0.20498424768447876 0.0 4 -0.04240364208817482
-2.964456558227539 -0.22446000576019287 0.4708678126335144 2.0 12 -0.04240133985877037
-1.6072636842727661 -0.12141521275043488 -0.14101798832416534 1.0 5 -0.04239903390407562
-2.9620039463043213 -0.22323380410671234 0.5773880481719971 1.0 13 -0.04239673167467117
-1.643100619316101 -0.12354560941457748 -0.0863543376326561 0.0 6 -0.042394425719976425
-3.000385284423828 -0.22560057044029236 0.6946488618850708 1.0 14 -0.042392123490571976
-1.5434277057647705 -0.11578027904033661 -0.027016324922442436 0.0 7 -0.04238981753587723
-2.941710948944092 -0.2201555371284485 0.790433406829834 8.0 15 -0.04238751530647278
-1.7089288234710693 -0.12579578161239624 -0.4591450095176697 0.0 0 -0.04236677661538124
-1.5874829292297363 -0.11657749116420746 0.027784232050180435 0.0 8 -0.04236447438597679
-1.7219691276550293 -0.12615139782428741 -0.398613303899765 0.0 1 -0.04236217215657234
-1.6413638591766357 -0.1199582889676094 0.08624966442584991 0.0 9 -0.042359866201877594
-1.678033471107483 -0.1226382702589035 -0.32704663276672363 0.0 2 -0.042357563972473145
-1.5797563791275024 -0.11517856270074844 0.1385776251554489 2.0 10 -0.0423552580177784
-1.6569149494171143 -0.120513416826725 -0.2631227970123291 1.0 3 -0.04235295578837395
-1.5660908222198486 -0.1136326864361763 0.19279730319976807 1.0 11 -0.0423506498336792
-1.6492671966552734 -0.1193784549832344 -0.20303435623645782 0.0 4 -0.04234834760427475
-2.9691624641418457 -0.2143951952457428 0.47149354219436646 3.0 12 -0.04234604164958
-1.6036831140518188 -0.11579761654138565 -0.14066936075687408 0.0 5 -0.04234373942017555
-2.941187858581543 -0.21185924112796783 0.5731902718544006 2.0 13 -0.042341433465480804
-1.6435012817382812 -0.11809615045785904 -0.0863543376326561 0.0 6 -0.042339131236076355
-2.9817168712615967 -0.2137325257062912 0.6901498436927795 1.0 14 -0.04233682528138161
-1.6036607027053833 -0.11467032879590988 -0.028063468635082245 0.0 7 -0.04233452305197716
-2.9559500217437744 -0.21084848046302795 0.7940568327903748 10.0 15 -0.04233221709728241
-1.709357500076294 -0.11983009427785873 -0.4591450095176697 0.0 0 -0.04231148213148117
-1.5998492240905762 -0.1118723452091217 0.027993660420179367 0.0 8 -0.04230917990207672
-1.706846833229065 -0.11905501782894135 -0.39501407742500305 0.0 1 -0.04230687394738197
-1.7015458345413208 -0.11838725954294205 0.08938982337713242 0.0 9 -0.042304571717977524
-1.682368516921997 -0.11705297231674194 -0.3278098702430725 0.0 2 -0.042302265763282776
-1.582136631011963 -0.10980138927698135 0.13875193893909454 1.0 10 -0.042299963533878326
-1.6612669229507446 -0.11500176787376404 -0.26374855637550354 0.0 3 -0.04229765757918358
-1.582321047782898 -0.109259232878685 0.1947472244501114 1.0 11 -0.04229535534977913
-1.6853209733963013 -0.11607585102319717 -0.20742163062095642 0.0 4 -0.04229304939508438
-2.973834276199341 -0.20430026948451996 0.4721192717552185 3.0 12 -0.04229074716567993
-1.631905436515808 -0.11211072653532028 -0.14310972392559052 0.0 5 -0.042288441210985184
-2.9419093132019043 -0.20159120857715607 0.5731902718544006 2.0 13 -0.042286138981580734
-1.68375563621521 -0.11508233845233917 -0.08844777196645737 0.0 6 -0.042283833026885986
-2.9630026817321777 -0.2019975483417511 0.6856508255004883 2.0 14 -0.04228153079748154
-1.6439530849456787 -0.11178500205278397 -0.028761567547917366 0.0 7 -0.04227922484278679
-2.9585955142974854 -0.2006596475839615 0.794574499130249 10.0 15 -0.04227692261338234
-1.7791582345962524 -0.11848337948322296 -0.47777998447418213 0.0 0 -0.0422561876475811
-1.6042205095291138 -0.10655215382575989 0.028063468635082245 0.0 8 -0.04225388169288635
-1.7461415529251099 -0.11567287147045135 -0.40401214361190796 0.0 1 -0.0422515794634819
-1.6421613693237305 -0.10849647223949432 0.08624966442584991 0.0 9 -0.042249273508787155
-1.6866848468780518 -0.11143811047077179 -0.3285731077194214 0.0 2 -0.042246971279382706
-1.5924506187438965 -0.1049329936504364 0.1396235078573227 1.0 10 -0.04224466532468796
-1.6616582870483398 -0.10920251160860062 -0.26374855637550354 0.0 3 -0.04224236309528351
-1.5727885961532593 -0.10308603942394257 0.19352853298187256 0.0 11 -0.04224005714058876
-1.6936393976211548 -0.11071017384529114 -0.20839658379554749 0.0 4 -0.04223775491118431
-2.9686155319213867 -0.1935335099697113 0.47118064761161804 5.0 12 -0.04223544895648956
-1.7158093452453613 -0.11155794560909271 -0.1504308134317398 0.0 5 -0.042233146727085114
-2.926922082901001 -0.19030170142650604 0.5701373219490051 2.0 13 -0.042230840772390366
-1.6841471195220947 -0.10920418053865433 -0.08844777196645737 0.0 6 -0.042228538542985916
-2.9598004817962646 -0.19140119850635529 0.684751033782959 2.0 14 -0.04222623258829117
-1.6842440366744995 -0.10862013697624207 -0.02945966273546219 0.0 7 -0.04222393035888672
-2.951566457748413 -0.18983493745326996 0.7925038933753967 11.0 15 -0.04222162812948227
-1.7757245302200317 -0.11171943694353104 -0.47674471139907837 0.0 0 -0.04220088943839073
-1.6524806022644043 -0.10396556556224823 0.02890118584036827 0.0 8 -0.04219858720898628
-1.7543144226074219 -0.11006462574005127 -0.40581172704696655 0.0 1 -0.042196281254291534
-1.6106362342834473 -0.10076814144849777 0.08457491546869278 0.0 9 -0.042193979024887085
-1.7066763639450073 -0.10647820681333542 -0.33238929510116577 0.0 2 -0.04219167307019234
-1.6047557592391968 -0.09983792901039124 0.14066936075687408 0.0 10 -0.04218937084078789
-1.6857062578201294 -0.10457883030176163 -0.26750296354293823 0.0 3 -0.04218706488609314
-1.6088019609451294 -0.09980779886245728 0.19791583716869354 0.0 11 -0.04218476265668869
-2.9613866806030273 -0.18268263339996338 0.46992918848991394 8.0 12 -0.04218015447258949
-1.7161883115768433 -0.10556792467832565 -0.1504308134317398 0.0 5 -0.042177848517894745
-2.9452359676361084 -0.1806551218032837 0.5735718607902527 3.0 13 -0.042175546288490295
-1.684536099433899 -0.10303071141242981 -0.08844777196645737 0.0 6 -0.042173244059085846
-2.941030979156494 -0.1793660819530487 0.6802520155906677 3.0 14 -0.0421709381043911
-1.6846131086349487 -0.1027403175830841 -0.02945966273546219 0.0 7 -0.04216863587498665
-2.9560678005218506 -0.17976605892181396 0.7935392260551453 11.0 15 -0.0421663299202919
-1.7491053342819214 -0.10391626507043839 -0.46949777007102966 0.0 0 -0.04214559495449066
-1.7526603937149048 -0.10382010787725449 0.030646424740552902 0.0 8 -0.042143288999795914
-1.626928448677063 -0.0960877388715744 0.08541228622198105 0.0 9 -0.042138680815696716
-1.6011165380477905 -0.09400208294391632 0.14032074809074402 0.0 10 -0.04213407263159752
-1.6939491033554077 -0.09915607422590256 -0.2687544524669647 0.0 3 -0.04213177040219307
-1.6487913131713867 -0.0962236151099205 0.20279060304164886 0.0 11 -0.04212946817278862
-1.765730857849121 -0.10273901373147964 -0.21717119216918945 0.0 4 -0.04212716221809387
-2.956090211868286 -0.17200003564357758 0.46899059414863586 9.0 12 -0.04212485998868942
-1.7165462970733643 -0.09957703202962875 -0.1504308134317398 0.0 5 -0.042122554033994675
-2.9517288208007812 -0.17071251571178436 0.5747166872024536 3.0 13 -0.042120251804590225
-1.6848853826522827 -0.09714990854263306 -0.08844777196645737 0.0 6 -0.04211794584989548
-2.941638946533203 -0.16909949481487274 0.6802520155906677 5.0 14 -0.04211564362049103
-2.939318895339966 -0.1684507578611374 0.788880467414856 12.0 15 -0.04211103543639183
-1.7687458992004395 -0.09888803958892822 -0.47467416524887085 0.0 0 -0.04209029674530029
-1.681118369102478 -0.09398891031742096 0.02938985452055931 0.0 8 -0.042087994515895844
-1.6192772388458252 -0.08996488898992538 0.08499360084533691 0.0 9 -0.042083386331796646
-1.6133710145950317 -0.08907188475131989 0.1413666158914566 0.0 10 -0.04207877814769745
-1.6784895658493042 -0.09266698360443115 -0.26625147461891174 0.0 3 -0.042076475918293
-1.641173005104065 -0.09031950682401657 0.2018156498670578 0.0 11 -0.04207416996359825
-2.9586451053619385 -0.16178880631923676 0.4693034589290619 8.0 12 -0.042069561779499054
-2.946397304534912 -0.16060329973697662 0.5735718607902527 3.0 13 -0.04206495359539986
-1.685198426246643 -0.09156203269958496 -0.08844777196645737 0.0 6 -0.04206265136599541
-2.9519128799438477 -0.15986986458301544 0.6825015544891357 8.0 14 -0.04206034541130066
-1.6852892637252808 -0.0909770056605339 -0.02945966273546219 0.0 7 -0.04205804318189621
-2.959179639816284 -0.15922752022743225 0.7940568327903748 12.0 15 -0.04205573722720146
-1.7960726022720337 -0.09444266557693481 -0.48192107677459717 0.0 0 -0.04203500226140022
-1.653478741645813 -0.08665530383586884 0.02890118584036827 0.0 8 -0.04203270003199577
-1.6036102771759033 -0.08376117050647736 0.08415622264146805 0.0 9 -0.042028091847896576
-1.6534518003463745 -0.08578584343194962 0.14485284686088562 0.0 10 -0.04202348366379738
-1.653373122215271 -0.08520272374153137 0.2032780796289444 0.0 11 -0.04201887547969818
-2.9729747772216797 -0.15268579125404358 0.47149354219436646 11.0 12 -0.042014267295598984
-2.968508005142212 -0.1514168232679367 0.5777696371078491 7.0 13 -0.042009659111499786
-1.6855076551437378 -0.08567898720502853 -0.08844777196645737 0.0 6 -0.04200735315680504
-2.962184190750122 -0.15005837380886078 0.684751033782959 8.0 14 -0.04200505092740059
-2.9924912452697754 -0.15106935799121857 0.8028567433357239 14.0 15 -0.04200044274330139
-1.777096152305603 -0.08722550421953201 -0.47674471139907837 0.0 0 -0.04197970777750015
-1.6257948875427246 -0.07979916036128998 0.02841251716017723 0.0 8 -0.041977401822805405
-1.6158623695373535 -0.07874628156423569 0.08478426188230515 0.0 9 -0.04197279363870621
-1.6736418008804321 -0.08097650855779648 0.14659595489501953 0.0 10 -0.04196818545460701
-3.0129518508911133 -0.1441957652568817 0.4777509272098541 12.0 12 -0.041958969086408615
-3.012136220932007 -0.14362984895706177 0.5861652493476868 7.0 13 -0.04195436090230942
-1.685782551765442 -0.08008909970521927 -0.08844777196645737 0.0 6 -0.04195205867290497
-3.009383201599121 -0.14244580268859863 0.6955487132072449 13.0 14 -0.04194975271821022
-1.6858694553375244 -0.07950346916913986 -0.02945966273546219 0.0 7 -0.04194745048880577
-3.0065083503723145 -0.14125727117061615 0.8064801692962646 19.0 15 -0.04194514453411102
-1.6939960718154907 -0.07692397385835648 0.029599281027913094 0.0 8 -0.04192741960287094
-1.6021734476089478 -0.07219395041465759 0.08405155688524246 1.0 9 -0.041922811418771744
-1.7137219905853271 -0.07692064344882965 0.15008218586444855 0.0 10 -0.041918203234672546
-1.5825351476669312 -0.07047882676124573 0.19450348615646362 0.0 11 -0.04191359505057335
-3.0272741317749023 -0.13376139104366302 0.4799409806728363 13.0 12 -0.04190898686647415
-3.0204877853393555 -0.1329340934753418 0.5876917243003845 10.0 13 -0.041904378682374954
-1.6860648393630981 -0.07391023635864258 -0.08844777196645737 0.0 6 -0.041902072727680206
-3.005991220474243 -0.13124410808086395 0.6946488618850708 15.0 14 -0.04189977049827576
-1.6861494779586792 -0.0733242928981781 -0.02945966273546219 0.0 7 -0.04189746454358101
-3.003145933151245 -0.13007040321826935 0.8054448962211609 19.0 15 -0.04189516231417656
-1.8471468687057495 -0.077741339802742 -0.49537965655326843 0.0 0 -0.04187442734837532
-1.666283130645752 -0.06983837485313416 0.029110614210367203 0.0 8 -0.04187212139368057
-1.6103978157043457 -0.06693259626626968 0.0844702422618866 1.0 9 -0.041867513209581375
-1.6819425821304321 -0.06902408599853516 0.20669043064117432 0.0 11 -0.04185829684138298
-3.023775339126587 -0.12303344160318375 0.47931525111198425 15.0 12 -0.04185368865728378
-3.028780221939087 -0.12270762771368027 0.5892181992530823 10.0 13 -0.041849080473184586
-1.6863125562667847 -0.06802387535572052 -0.08844777196645737 0.0 6 -0.041846778243780136
-3.025902509689331 -0.12153315544128418 0.6991478800773621 16.0 14 -0.04184447228908539
-1.6863951683044434 -0.0674380362033844 -0.02945966273546219 0.0 7 -0.04184217005968094
-3.0016512870788574 -0.1195090189576149 0.8049272894859314 15.0 15 -0.04183986410498619
-1.7508862018585205 -0.06756866723299026 -0.46949777007102966 0.0 0 -0.04181912913918495
-1.61855947971344 -0.062178753316402435 0.028272898867726326 0.0 8 -0.0418168269097805
-1.6265881061553955 -0.06191898509860039 0.08530762046575546 2.0 9 -0.041812218725681305
-1.682173252105713 -0.06315294653177261 0.20669043064117432 0.0 11 -0.04180300235748291
-3.0281341075897217 -0.11262449622154236 0.4799409806728363 13.0 12 -0.04179839417338371
-3.01153302192688 -0.11148074269294739 0.5857836604118347 8.0 13 -0.041793785989284515
-1.6785560846328735 -0.06184333935379982 -0.08802908658981323 0.0 6 -0.04179148003458977
-3.030203342437744 -0.11111278086900711 0.7000477313995361 10.0 14 -0.04178917780518532
-1.6866203546524048 -0.06155095621943474 -0.02945966273546219 0.0 7 -0.04178687557578087
-3.0174949169158936 -0.10959212481975555 0.8090683817863464 2.0 15 -0.04178456962108612
-1.626760482788086 -0.05680765211582184 0.02841251716017723 1.0 8 -0.041761528700590134
-1.6427627801895142 -0.056792765855789185 0.08614499121904373 5.0 9 -0.041756920516490936
-1.7144335508346558 -0.058970559388399124 0.15008218586444855 0.0 10 -0.04175231233239174
-1.6149293184280396 -0.05498361960053444 0.19840329885482788 0.0 11 -0.04174770414829254
-1.7677035331726074 -0.05987627059221268 -0.21717119216918945 0.0 4 -0.04174540191888809
-3.0344316959381104 -0.10225315392017365 0.48087960481643677 1.0 12 -0.04174309968948364
-3.058995246887207 -0.10254641622304916 0.5949424505233765 1.0 13 -0.041738491505384445
-1.6508156061172485 -0.055051710456609726 -0.08656367659568787 0.0 6 -0.0417361855506897
-3.0500495433807373 -0.10118073970079422 0.7045467495918274 1.0 14 -0.04173388332128525
-1.686824917793274 -0.05566313490271568 -0.02945966273546219 0.0 7 -0.0417315773665905
-3.0255820751190186 -0.09931185841560364 0.811138927936554 2.0 15 -0.04172927513718605
-1.797656536102295 -0.056807540357112885 -0.48192107677459717 0.0 0 -0.04170853644609451
-1.6449371576309204 -0.05169450119137764 0.02872665971517563 1.0 8 -0.041706234216690063
-1.7802793979644775 -0.055636823177337646 -0.4112105369567871 0.0 1 -0.041703928261995316
-1.6409547328948975 -0.050995633006095886 0.08604031801223755 6.0 9 -0.041701626032590866
-1.7146289348602295 -0.05298566073179245 0.15008218586444855 0.0 10 -0.04169701784849167
-1.623048186302185 -0.04958857223391533 0.19937825202941895 0.0 11 -0.04169240966439247
-1.7440917491912842 -0.05298211798071861 -0.21424633264541626 0.0 4 -0.04169010743498802
-3.0367448329925537 -0.09172066301107407 0.4811924695968628 1.0 12 -0.041687801480293274
-3.078958511352539 -0.09245710074901581 0.5987586975097656 1.0 13 -0.04168319329619408
-1.643012285232544 -0.04905050992965698 -0.08614499121904373 0.0 6 -0.04168089106678963
-3.0270094871520996 -0.0898396298289299 0.6991478800773621 1.0 14 -0.04167858511209488
-1.6590253114700317 -0.0489489808678627 -0.028970995917916298 0.0 7 -0.04167628288269043
-3.0259103775024414 -0.08874991536140442 0.811138927936554 3.0 15 -0.04167397692799568
-1.8480613231658936 -0.05162127688527107 -0.49537965655326843 0.0 0 -0.04165324196219444
-1.6531033515930176 -0.04617558419704437 0.028866279870271683 2.0 8 -0.041650936007499695
-1.8077346086502075 -0.05017911270260811 -0.41750916838645935 0.0 1 -0.041648633778095245
-1.6311402320861816 -0.044991929084062576 0.08551695942878723 7.0 9 -0.041646331548690796
-1.846728801727295 -0.05061643198132515 -0.3591025471687317 0.0 2 -0.04164402559399605
-1.6749786138534546 -0.045616038143634796 0.14659595489501953 0.0 10 -0.0416417233645916
-1.639086365699768 -0.04435229301452637 0.20132817327976227 0.0 11 -0.0416371151804924
-1.7283909320831299 -0.04646734893321991 -0.21229641139507294 0.0 4 -0.04163480922579765
-3.037046432495117 -0.08111907541751862 0.4811924695968628 1.0 12 -0.041632506996393204
-3.0753512382507324 -0.0810687392950058 0.597995400428772 1.0 13 -0.041627898812294006
-1.665143370628357 -0.0436033196747303 -0.08729638159275055 0.0 6 -0.04162559285759926
-3.015630006790161 -0.07844040542840958 0.6964485049247742 1.0 14 -0.04162329062819481
-1.655187964439392 -0.04305356368422508 -0.02890118584036827 0.0 7 -0.04162098467350006
-3.022339344024658 -0.07808782160282135 0.8101036548614502 3.0 15 -0.04161868244409561
-1.7980170249938965 -0.04394278675317764 -0.48192107677459717 0.0 0 -0.04159794747829437
-1.645264983177185 -0.03992189094424248 0.02872665971517563 3.0 8 -0.041595641523599625
-1.7767356634140015 -0.042802151292562485 -0.4103107452392578 0.0 1 -0.041593339294195175
-1.6352876424789429 -0.039109066128730774 0.0857263058423996 9.0 9 -0.04159103333950043
-1.7762372493743896 -0.042479973286390305 -0.3453643023967743 0.0 2 -0.04158873111009598
-1.6352910995483398 -0.038823194801807404 0.14310972392559052 0.0 10 -0.04158642515540123
-1.7556226253509521 -0.04137382283806801 -0.27814051508903503 0.0 3 -0.04158412292599678
-1.6471760272979736 -0.038530491292476654 0.20230312645435333 0.0 11 -0.04158181697130203
-1.728549599647522 -0.04013172537088394 -0.21229641139507294 1.0 4 -0.04157951474189758
-3.027449369430542 -0.06976034492254257 0.47962814569473267 1.0 12 -0.041577208787202835
-1.7189759016036987 -0.039609700441360474 -0.1504308134317398 0.0 5 -0.041574906557798386
-3.0834667682647705 -0.07051198929548264 0.5995218753814697 1.0 13 -0.04157260060310364
-1.6752691268920898 -0.03801713138818741 -0.08781974762678146 2.0 6 -0.04157029837369919
-3.03926420211792 -0.0684405118227005 0.7018473148345947 1.0 14 -0.04156799241900444
-1.623347520828247 -0.03627195954322815 -0.028342708945274353 0.0 7 -0.04156569018959999
-3.0071542263031006 -0.06666655838489532 0.8059625029563904 3.0 15 -0.04156338423490524
-1.751805305480957 -0.036694809794425964 -0.46949777007102966 0.0 0 -0.041542649269104004
-1.6373974084854126 -0.03401282802224159 0.028587043285369873 5.0 8 -0.041540347039699554
-1.7807707786560059 -0.03668013587594032 -0.4112105369567871 0.0 1 -0.041538041085004807
-1.645398497581482 -0.033604077994823456 0.08624966442584991 12.0 9 -0.04153573885560036
-1.7685233354568481 -0.03611866757273674 -0.34383782744407654 0.0 2 -0.04153343290090561
-1.6274486780166626 -0.03295373544096947 0.1424124836921692 0.0 10 -0.04153113067150116
-1.7320564985275269 -0.03476950153708458 -0.27438607811927795 0.0 3 -0.04152882471680641
-1.6334075927734375 -0.032503642141819 0.20059694349765778 1.0 11 -0.04152652248740196
-1.7386027574539185 -0.034293822944164276 -0.21351510286331177 2.0 4 -0.041524216532707214
-3.0493991374969482 -0.05961679667234421 0.48306965827941895 1.0 12 -0.041521914303302765
-1.7191036939620972 -0.033609066158533096 -0.1504308134317398 0.0 5 -0.04151960834860802
-3.0483620166778564 -0.05906358361244202 0.5926527976989746 1.0 13 -0.04151730611920357
-1.6713978052139282 -0.03209278732538223 -0.0876103937625885 3.0 6 -0.04151500016450882
-3.020000696182251 -0.05746028572320938 0.6973482966423035 1.0 14 -0.04151269793510437
-1.6474565267562866 -0.03105744905769825 -0.028761567547917366 1.0 7 -0.04151039570569992
-3.007368564605713 -0.05616985633969307 0.8059625029563904 3.0 15 -0.04150808975100517
-1.782827615737915 -0.031119463965296745 -0.47777998447418213 0.0 0 -0.041487354785203934
-1.6475032567977905 -0.028469746932387352 0.028761567547917366 6.0 8 -0.041485048830509186
-1.7964756488800049 -0.03073045425117016 -0.4148097634315491 0.0 1 -0.041482746601104736
-1.661476492881775 -0.02842116355895996 0.08708703517913818 18.0 9 -0.04148044064640999
-1.78041672706604 -0.030144937336444855 -0.34612753987312317 0.0 2 -0.04147813841700554
-1.6315380334854126 -0.02733939327299595 0.14276111125946045 0.0 10 -0.04147583246231079
-1.740067720413208 -0.028853826224803925 -0.27563756704330444 0.0 3 -0.04147353023290634
-1.6335111856460571 -0.02680213190615177 0.20059694349765778 1.0 11 -0.041471224278211594
-1.7267979383468628 -0.028332753106951714 -0.21205268800258636 2.0 4 -0.041468922048807144
-3.0555055141448975 -0.04960036277770996 0.4840082824230194 1.0 12 -0.041466616094112396
-1.7192103862762451 -0.027607610449194908 -0.1504308134317398 0.0 5 -0.04146431386470795
-3.0406973361968994 -0.04829837381839752 0.5911262631416321 1.0 13 -0.0414620116353035
-1.6814846992492676 -0.026415137574076653 -0.08813375979661942 5.0 6 -0.04145970568060875
-3.0435566902160645 -0.04781248793005943 0.702747106552124 2.0 14 -0.0414574034512043
-1.659546971321106 -0.025780413299798965 -0.028970995917916298 2.0 7 -0.04145509749650955
-3.0191280841827393 -0.04637466371059418 0.8090683817863464 4.0 15 -0.0414527952671051
-1.7713310718536377 -0.025043295696377754 -0.47467416524887085 0.0 0 -0.041432056576013565
-1.6495879888534546 -0.02303413115441799 0.028796471655368805 8.0 8 -0.041429754346609116
-1.7809792757034302 -0.024557940661907196 -0.4112105369567871 1.0 1 -0.04142744839191437
-1.6475821733474731 -0.022718526422977448 0.0863543376326561 20.0 9 -0.04142514616250992
-1.7490975856781006 -0.02381301112473011 -0.34002164006233215 0.0 2 -0.04142284020781517
-1.6375962495803833 -0.02200913056731224 0.14328403770923615 1.0 10 -0.04142053797841072
-1.7322529554367065 -0.02297893539071083 -0.27438607811927795 0.0 3 -0.04141823202371597
-1.6177117824554443 -0.021177131682634354 0.19864705204963684 1.0 11 -0.04141592979431152
-1.7308522462844849 -0.022658230736851692 -0.2125401496887207 5.0 4 -0.041413627564907074
-3.0378761291503906 -0.03923794627189636 0.4811924695968628 2.0 12 -0.041411321610212326
-1.743199348449707 -0.022211307659745216 -0.15252254903316498 0.0 5 -0.04140901938080788
-3.060471773147583 -0.03846137970685959 0.5949424505233765 1.0 13 -0.04140671342611313
-1.685557246208191 -0.020888423547148705 -0.08834310621023178 7.0 6 -0.04140441119670868
-3.018366813659668 -0.037405386567115784 0.6968984007835388 2.0 14 -0.04140210524201393
-1.6636223793029785 -0.020325813442468643 -0.029040804132819176 3.0 7 -0.04139980301260948
-3.015401840209961 -0.036315977573394775 0.8080331087112427 5.0 15 -0.041397497057914734
-1.7598140239715576 -0.019044138491153717 -0.47156834602355957 0.0 0 -0.041376762092113495
-1.6556540727615356 -0.017627576366066933 0.02890118584036827 9.0 8 -0.04137445613741875
-1.7810509204864502 -0.018651796504855156 -0.4112105369567871 2.0 1 -0.0413721539080143
-1.6476514339447021 -0.01696760021150112 0.0863543376326561 26.0 9 -0.04136984795331955
-1.7609456777572632 -0.018134310841560364 -0.3423113524913788 0.0 2 -0.0413675457239151
-1.6615676879882812 -0.016820503398776054 0.14537577331066132 2.0 10 -0.04136524349451065
-1.7283692359924316 -0.01719508320093155 -0.2737603485584259 0.0 3 -0.0413629375398159
-1.6376230716705322 -0.01600644364953041 0.2010844349861145 2.0 11 -0.04136063531041145
-1.7209957838058472 -0.016520965844392776 -0.21132145822048187 6.0 4 -0.041358329355716705
-3.0300934314727783 -0.02855898253619671 0.4799409806728363 2.0 12 -0.041356027126312256
-1.7472480535507202 -0.016468016430735588 -0.15287116169929504 0.0 5 -0.04135372117161751
-3.0330984592437744 -0.028057914227247238 0.5895998477935791 1.0 13 -0.04135141894221306
-1.6936060190200806 -0.015371238812804222 -0.08876179158687592 9.0 6 -0.04134911298751831
-3.041862964630127 -0.02707716077566147 0.7022972702980042 2.0 14 -0.04134681075811386
-1.669682264328003 -0.014571265317499638 -0.02914551831781864 5.0 7 -0.04134450480341911
-3.0271008014678955 -0.0258890800178051 0.811138927936554 6.0 15 -0.041342202574014664
-1.7598696947097778 -0.012900657020509243 -0.47156834602355957 0.0 0 -0.041321467608213425
-1.6637039184570312 -0.011905348859727383 0.029040804132819176 12.0 8 -0.04131916165351868
-1.7811051607131958 -0.01243502926081419 -0.4112105369567871 2.0 1 -0.04131685942411423
-1.6536922454833984 -0.011256465688347816 0.08666835725307465 27.0 9 -0.04131455346941948
-1.7256606817245483 -0.011746345087885857 -0.3354422450065613 0.0 2 -0.04131225124001503
-1.629738688468933 -0.010808978229761124 0.14258678257465363 2.0 10 -0.04130994528532028
-1.7481720447540283 -0.011289776302874088 -0.27688902616500854 1.0 3 -0.04130764305591583
-1.6515642404556274 -0.01037723757326603 0.20279060304164886 5.0 11 -0.041305337101221085
-1.7329533100128174 -0.010586177930235863 -0.21278388798236847 8.0 4 -0.041303034871816635
-3.0361006259918213 -0.018017614260315895 0.48087960481643677 2.0 12 -0.04130072891712189
-1.7114325761795044 -0.010156425647437572 -0.1497335582971573 1.0 5 -0.04129842668771744
-3.056736469268799 -0.017605861648917198 0.5941792130470276 2.0 13 -0.04129612073302269
-1.7176159620285034 -0.009593167342245579 -0.09001784771680832 11.0 6 -0.04129381850361824
-3.032195568084717 -0.016406109556555748 0.7000477313995361 2.0 14 -0.04129151254892349
-1.6477266550064087 -0.008627676405012608 -0.028761567547917366 6.0 7 -0.04128921031951904
-3.0155820846557617 -0.015263617038726807 0.8080331087112427 6.0 15 -0.041286904364824295
-1.7618358135223389 -0.006764855235815048 -0.47208595275878906 1.0 0 -0.041266169399023056
-1.6557366847991943 -0.006068897899240255 0.02890118584036827 15.0 8 -0.04126386716961861
-1.8162147998809814 -0.006339703220874071 -0.41930878162384033 3.0 1 -0.04126156121492386
-1.6657049655914307 -0.005523625295609236 0.08729638159275055 35.0 9 -0.04125925898551941
-1.7413971424102783 -0.005774626974016428 -0.3384951651096344 2.0 2 -0.04125695303082466
-1.6397284269332886 -0.005151703488081694 0.14345835149288177 5.0 10 -0.04125465080142021
-1.7402993440628052 -0.005163538735359907 -0.27563756704330444 1.0 3 -0.041252344846725464
-1.6635010242462158 -0.004645354114472866 0.20425304770469666 7.0 11 -0.041250042617321014
-1.7508453130722046 -0.004584118723869324 -0.21497753262519836 9.0 4 -0.041247736662626266
-3.055898904800415 -0.007466995622962713 0.4840082824230194 3.0 12 -0.04124543443322182
-1.733373761177063 -0.004235445521771908 -0.15165099501609802 2.0 5 -0.04124312847852707
-3.0292937755584717 -0.0068733044900000095 0.5888366103172302 2.0 13 -0.04124082624912262
-1.7236307859420776 -0.00361042283475399 -0.09033186733722687 12.0 6 -0.04123852029442787
-3.0322344303131104 -0.00582158612087369 0.7000477313995361 2.0 14 -0.04123621806502342
-1.6837410926818848 -0.002938762539997697 -0.02938985452055931 8.0 7 -0.041233912110328674
-3.0117528438568115 -0.004731741733849049 0.8069977760314941 6.0 15 -0.041231609880924225
-1.802417516708374 -0.0006293966434895992 -0.4829563498497009 4.0 0 -0.041210874915122986
-1.6537481546401978 -0.00028886579093523324 0.028866279870271683 18.0 8 -0.04120856896042824
-1.8045334815979004 1.5775732720157976e-07 -0.41660937666893005 6.0 1 -0.04120626673102379
