# .PCD v0.7 - Point Cloud Data file format
VERSION 0.7
FIELDS x y z intensity ring time
SIZE 4 4 4 4 4 4
TYPE F F F F F F
COUNT 1 1 1 1 1 1
WIDTH 536
HEIGHT 1
VIEWPOINT 0 0 0 1 0 0 0
POINTS 536
DATA ascii
3.6322133541107178 0.1078031063079834 0.9736772775650024 120.0 15 -0.05068717151880264
2.13576340675354 0.0607764795422554 -0.5725077390670776 32.0 0 -0.050666436553001404
1.787013292312622 0.05054013058543205 0.03120490349829197 100.0 8 -0.050664130598306656
2.2187390327453613 0.06236368045210838 -0.5124385356903076 71.0 1 -0.050661828368902206
1.8207812309265137 0.05117799714207649 0.09546079486608505 86.0 9 -0.05065952241420746
2.2117252349853516 0.06177918612957001 -0.4300835132598877 74.0 2 -0.05065722018480301
1.8322924375534058 0.050860628485679626 0.16036656498908997 100.0 10 -0.05065491423010826
1.7850615978240967 0.04923782870173454 -0.2828335464000702 100.0 3 -0.05065261200070381
1.7938498258590698 0.049166928976774216 -0.2203397899866104 94.0 4 -0.050648003816604614
3.6234729290008545 0.0986815020442009 0.5741145610809326 100.0 12 -0.050645701587200165
1.7845277786254883 0.04828808456659317 -0.15618307888507843 96.0 5 -0.05064339563250542
3.6287460327148438 0.09755759686231613 0.7056117057800293 100.0 13 -0.05064109340310097
1.80487859249115 0.048208318650722504 -0.09462341666221619 88.0 6 -0.05063878744840622
3.664273500442505 0.0978727713227272 0.8462659120559692 94.0 14 -0.05063648521900177
1.8170835971832275 0.04821697622537613 -0.03172847628593445 100.0 7 -0.05063417926430702
3.6402759552001953 0.09596028923988342 0.97574782371521 117.0 15 -0.05063187703490257
2.13981556892395 0.05379122495651245 -0.5735430121421814 45.0 0 -0.050611138343811035
1.7911691665649414 0.0447140634059906 0.031274713575839996 100.0 8 -0.050608836114406586
2.1975040435791016 0.05447389930486679 -0.5074896216392517 54.0 1 -0.050606533885002136
1.8209409713745117 0.04513928294181824 0.09546079486608505 78.0 9 -0.05060422793030739
2.2099552154541016 0.05439663305878639 -0.42970186471939087 89.0 2 -0.05060192570090294
1.8304593563079834 0.04473506659269333 0.16019225120544434 95.0 10 -0.05059961974620819
1.789164662361145 0.043414272367954254 -0.28345927596092224 100.0 3 -0.05059731751680374
3.591974973678589 0.08653240650892258 0.44116705656051636 11.0 11 -0.050595011562108994
1.786064863204956 0.04302716627717018 -0.21936483681201935 94.0 4 -0.050592709332704544
3.627729892730713 0.08675854653120041 0.5747402906417847 100.0 12 -0.050590403378009796
1.7926454544067383 0.04255961999297142 -0.15688033401966095 98.0 5 -0.05058810114860535
3.6349380016326904 0.08566319942474365 0.706756591796875 96.0 13 -0.0505857951939106
1.8070251941680908 0.04226906970143318 -0.09472808986902237 100.0 6 -0.05058349296450615
3.652888774871826 0.08544663339853287 0.8435665369033813 100.0 14 -0.0505811870098114
1.7892452478408813 0.04154159128665924 -0.031239807605743408 88.0 7 -0.05057888478040695
3.6482994556427 0.08406691253185272 0.9778183698654175 117.0 15 -0.050576578825712204
2.120668411254883 0.046273019164800644 -0.5683666467666626 40.0 0 -0.050555843859910965
1.7933067083358765 0.038817718625068665 0.031309615820646286 94.0 8 -0.050553541630506516
2.1567583084106445 0.04630734771490097 -0.49804162979125977 57.0 1 -0.05055123567581177
1.8130933046340942 0.03892858326435089 0.09504210948944092 80.0 9 -0.05054893344640732
2.1983463764190674 0.04681643843650818 -0.42741215229034424 86.0 2 -0.05054662749171257
1.836573600769043 0.038792259991168976 0.16071519255638123 100.0 10 -0.05054432526230812
1.785348892211914 0.03739771619439125 -0.2828335464000702 100.0 3 -0.05054201930761337
3.602165699005127 0.07482565194368362 0.442385733127594 9.0 11 -0.05053971707820892
1.7861977815628052 0.03710362687706947 -0.21936483681201935 96.0 4 -0.050537411123514175
3.6240477561950684 0.07464917749166489 0.5741145610809326 100.0 12 -0.050535108894109726
1.7927767038345337 0.03661426529288292 -0.15688033401966095 100.0 5 -0.05053280293941498
3.6391279697418213 0.07368732243776321 0.7075197696685791 92.0 13 -0.05053050071001053
1.8071553707122803 0.036276888102293015 -0.09472808986902237 93.0 6 -0.05052819475531578
3.6512036323547363 0.07329436391592026 0.8431165814399719 97.0 14 -0.05052589252591133
1.803368330001831 0.0358860120177269 -0.03148414194583893 98.0 7 -0.05052358657121658
3.652420997619629 0.07204344123601913 0.9788536429405212 117.0 15 -0.050521284341812134
2.1072895526885986 0.03899063542485237 -0.5647432208061218 42.0 0 -0.050500549376010895
1.8014230728149414 0.03301676735281944 0.03144923597574234 100.0 8 -0.05049824342131615
2.154951810836792 0.039120085537433624 -0.4975917637348175 78.0 1 -0.0504959411919117
1.8212002515792847 0.033061303198337555 0.09546079486608505 76.0 9 -0.05049363523721695
2.1965267658233643 0.03949135169386864 -0.4270305633544922 78.0 2 -0.0504913330078125
1.8366920948028564 0.03270123898983002 0.16071519255638123 100.0 10 -0.05048902705311775
1.7973135709762573 0.03168635815382004 -0.28471076488494873 100.0 3 -0.0504867248237133
3.6162877082824707 0.06312326341867447 0.44409194588661194 8.0 11 -0.050484418869018555
1.7902806997299194 0.03124982677400112 -0.21985231339931488 96.0 4 -0.050482116639614105
3.612424850463867 0.06242520734667778 0.5722373723983765 100.0 12 -0.05047981068491936
1.7849199771881104 0.03053305111825466 -0.15618307888507843 96.0 5 -0.05047750845551491
3.6452412605285645 0.06171957030892372 0.7086646556854248 100.0 13 -0.05047520250082016
1.8152536153793335 0.03041815757751465 -0.0951467752456665 93.0 6 -0.05047290027141571
3.6553235054016113 0.061252158135175705 0.8440163731575012 97.0 14 -0.05047059431672096
1.799478530883789 0.02983967773616314 -0.03141433000564575 100.0 7 -0.05046829208731651
3.641050338745117 0.05974175035953522 0.97574782371521 120.0 15 -0.050465986132621765
2.0958285331726074 0.031094279140233994 -0.5616373419761658 37.0 0 -0.050447940826416016
1.7935340404510498 0.026296276599168777 0.031309615820646286 97.0 8 -0.050445638597011566
2.162874698638916 0.031334925442934036 -0.4993913471698761 68.0 1 -0.05044333264231682
1.8233108520507812 0.02609630487859249 0.09556546807289124 81.0 9 -0.05044103041291237
2.2123613357543945 0.03166462481021881 -0.4300835132598877 68.0 2 -0.05043872445821762
1.824846625328064 0.025799745693802834 0.15966932475566864 98.0 10 -0.05043642222881317
1.7895169258117676 0.024988733232021332 -0.28345927596092224 100.0 3 -0.05043411627411842
3.610539674758911 0.04978545010089874 0.44336071610450745 9.0 11 -0.050431814044713974
1.794357180595398 0.024429038166999817 -0.2203397899866104 96.0 4 -0.050429508090019226
3.6205387115478516 0.048661086708307266 0.5734888315200806 100.0 12 -0.05042720586061478
1.7830275297164917 0.023964406922459602 -0.156008780002594 100.0 5 -0.05042489990592003
3.643479585647583 0.04833170399069786 0.708283007144928 96.0 13 -0.05042259767651558
1.8153530359268188 0.02376425266265869 -0.0951467752456665 96.0 6 -0.05042029172182083
3.6652746200561523 0.04734300076961517 0.8462659120559692 94.0 14 -0.05041798949241638
1.8075779676437378 0.023031441494822502 -0.031553950160741806 100.0 7 -0.050415683537721634
3.645116090774536 0.045808371156454086 0.9767830967903137 117.0 15 -0.050413381308317184
2.0939927101135254 0.023756811395287514 -0.5611197352409363 35.0 0 -0.050392646342515945
1.7896157503128052 0.01999122090637684 0.031239807605743408 97.0 8 -0.0503903403878212
2.1707656383514404 0.02387002669274807 -0.5011910200119019 64.0 1 -0.05038803815841675
1.825387954711914 0.019753599539399147 0.09567013382911682 74.0 9 -0.050385732203722
2.234052896499634 0.02417600341141224 -0.43428128957748413 100.0 2 -0.05038342997431755
1.8269176483154297 0.019451279193162918 0.15984363853931427 95.0 10 -0.0503811240196228
1.7856427431106567 0.01870015449821949 -0.2828335464000702 100.0 3 -0.05037882179021835
3.5967965126037598 0.037039682269096375 0.4416545331478119 9.0 11 -0.050376515835523605
1.7984014749526978 0.018205981701612473 -0.22082726657390594 92.0 4 -0.050374213606119156
3.632538318634033 0.036139700561761856 0.5753660202026367 100.0 12 -0.05037190765142441
1.7890772819519043 0.017799321562051773 -0.15653172135353088 98.0 5 -0.05036960542201996
3.631847381591797 0.03549892455339432 0.7059933543205261 93.0 13 -0.05036729946732521
1.8014447689056396 0.017293520271778107 -0.09441407769918442 85.0 6 -0.05036499723792076
3.6693150997161865 0.034584272652864456 0.8471657633781433 100.0 14 -0.05036269128322601
1.7996488809585571 0.016647208482027054 -0.03141433000564575 91.0 7 -0.050360389053821564
3.645253896713257 0.03308502584695816 0.9767830967903137 120.0 15 -0.050358083099126816
2.0882673263549805 0.016402188688516617 -0.5595667958259583 33.0 0 -0.05033734813332558
1.797673225402832 0.013805121183395386 0.03137942776083946 92.0 8 -0.05033504590392113
2.164989471435547 0.016249075531959534 -0.49984127283096313 74.0 1 -0.05033273994922638
1.8114653825759888 0.013279582373797894 0.09493743628263474 59.0 9 -0.05033043771982193
2.2380499839782715 0.016406811773777008 -0.4350445568561554 100.0 2 -0.05032813176512718
1.8309589624404907 0.013102054595947266 0.16019225120544434 92.0 10 -0.05032582953572273
2.0918729305267334 0.01460401713848114 -0.33132821321487427 100.0 3 -0.050323523581027985
3.604844093322754 0.024539103731513023 0.44262948632240295 9.0 11 -0.050321221351623535
2.0962114334106445 0.013902598060667515 -0.25738805532455444 86.0 4 -0.05031891539692879
3.6326422691345215 0.023458588868379593 0.5753660202026367 100.0 12 -0.05031661316752434
1.8967151641845703 0.012248456478118896 -0.16594453155994415 91.0 5 -0.05031430721282959
3.63783860206604 0.02285896986722946 0.707138180732727 99.0 13 -0.05031200498342514
1.8474302291870117 0.011285326443612576 -0.09682153165340424 60.0 6 -0.05030969902873039
3.659669876098633 0.021716969087719917 0.8449162244796753 97.0 14 -0.05030739679932594
1.8116940259933472 0.010435505770146847 -0.031623758375644684 62.0 7 -0.050305094569921494
3.6530745029449463 0.020402701571583748 0.9788536429405212 117.0 15 -0.050302788615226746
2.0921754837036133 0.009128977544605732 -0.560602068901062 37.0 0 -0.05028205364942551
3.6014201641082764 0.015087575651705265 0.06286356598138809 76.0 8 -0.05027974769473076
2.170879364013672 0.008714644238352776 -0.5011910200119019 79.0 1 -0.05027744546532631
3.6030287742614746 0.013834959827363491 0.18882815539836884 78.0 9 -0.05027513951063156
2.232203960418701 0.008571247570216656 -0.4338997006416321 100.0 2 -0.05027283728122711
1.8489251136779785 0.006777726113796234 0.1617610603570938 34.0 10 -0.050270531326532364
2.2459897994995117 0.00784022081643343 -0.3557320237159729 86.0 3 -0.050268229097127914
3.6247589588165283 0.012020569294691086 0.4450668692588806 9.0 11 -0.050265923142433167
2.249098300933838 0.007067100144922733 -0.276155948638916 100.0 4 -0.05026362091302872
3.628751277923584 0.010767200030386448 0.5747402906417847 100.0 12 -0.05026131868362427
2.281275987625122 0.006768982391804457 -0.1995866596698761 60.0 5 -0.05025901272892952
3.6496758460998535 0.010192330926656723 0.7094278931617737 99.0 13 -0.05025671049952507
1.9213567972183228 0.0050294725224375725 -0.10069439560174942 49.0 6 -0.05025440454483032
3.655825614929199 0.008933451026678085 0.8440163731575012 97.0 14 -0.05025210231542587
1.8897074460983276 0.004287929739803076 -0.03298505023121834 15.0 7 -0.050249796360731125
3.6647145748138428 0.007674267515540123 0.9819594621658325 115.0 15 -0.050247494131326675
2.0825355052948 0.0018178747268393636 -0.558013916015625 40.0 0 -0.05022675544023514
3.5974514484405518 0.0025124303065240383 0.06279376149177551 84.0 8 -0.05022445321083069
2.182588815689087 0.0011423503747209907 -0.5038903951644897 81.0 1 -0.05022214725613594
3.6150386333465576 0.0012629021657630801 0.18945617973804474 88.0 9 -0.05021984502673149
2.2165141105651855 0.0007743321475572884 -0.4308467507362366 100.0 2 -0.05021753907203674
3.6201717853546143 0.0006328943418338895 0.31672394275665283 32.0 10 -0.050215236842632294
2.2499542236328125 -0.0 -0.35635775327682495 71.0 3 -0.050212934613227844
3.6247787475585938 -0.0006326432339847088 0.4450668692588806 11.0 11 -0.050210628658533096
2.2669754028320312 -0.0007913237786851823 -0.2783496081829071 81.0 4 -0.05020832642912865
3.6248159408569336 -0.0018979493761435151 0.5741145610809326 100.0 12 -0.0502060204744339
2.2812857627868652 -0.00119447847828269 -0.1995866596698761 45.0 5 -0.05020371824502945
3.655578851699829 -0.0025520757772028446 0.7105727195739746 96.0 13 -0.0502014122903347
1.9253571033477783 -0.0016801912570372224 -0.10090373456478119 48.0 6 -0.05019911006093025
3.6577835083007812 -0.003830422880128026 0.8444663286209106 94.0 14 -0.050196804106235504
1.9137071371078491 -0.002338035497814417 -0.0334039069712162 1.0 7 -0.050194501876831055
3.653127908706665 -0.005100731737911701 0.9788536429405212 115.0 15 -0.05019219592213631
2.0786654949188232 -0.0054419455118477345 -0.5569786429405212 40.0 0 -0.05017146095633507
3.5974385738372803 -0.010045968927443027 0.06279376149177551 81.0 8 -0.05016915500164032
2.1923229694366455 -0.006504772696644068 -0.506139874458313 72.0 1 -0.05016685277223587
3.6190154552459717 -0.011369509622454643 0.1896655261516571 88.0 9 -0.05016455054283142
2.210613489151001 -0.0069448696449398994 -0.42970186471939087 78.0 2 -0.05016224458813667
3.620151996612549 -0.012004922144114971 0.31672394275665283 38.0 10 -0.050159942358732224
2.2499406337738037 -0.007853805087506771 -0.35635775327682495 69.0 3 -0.050157636404037476
3.630709409713745 -0.013307305052876472 0.4457980990409851 15.0 11 -0.050155334174633026
2.262988805770874 -0.008689295500516891 -0.2778621315956116 78.0 4 -0.05015302821993828
3.6287381649017334 -0.014566765166819096 0.5747402906417847 100.0 12 -0.05015072599053383
2.2334508895874023 -0.008965693414211273 -0.19540317356586456 30.0 5 -0.05014842003583908
3.649657964706421 -0.015287740156054497 0.7094278931617737 99.0 13 -0.05014611780643463
1.9353256225585938 -0.00844450481235981 -0.1014270931482315 44.0 6 -0.05014381185173988
3.673337459564209 -0.016669191420078278 0.8480655550956726 94.0 14 -0.050141509622335434
3.601411819458008 -0.016971377655863762 -0.06286356598138809 73.0 7 -0.050139203667640686
3.653087854385376 -0.01785249635577202 0.9788536429405212 115.0 15 -0.05013690143823624
2.0767016410827637 -0.012686006724834442 -0.556460976600647 39.0 0 -0.050116166472435
3.6033802032470703 -0.022641001269221306 0.06289847195148468 26.0 8 -0.05011386051774025
2.18644118309021 -0.014119616709649563 -0.5047902464866638 66.0 1 -0.0501115582883358
3.6269426345825195 -0.024055149406194687 0.19008421897888184 85.0 9 -0.05010925233364105
2.2203917503356934 -0.014726412482559681 -0.43160995841026306 68.0 2 -0.0501069501042366
3.6260647773742676 -0.024682221934199333 0.3172468841075897 42.0 10 -0.050104644149541855
2.2419981956481934 -0.015652352944016457 -0.35510629415512085 78.0 3 -0.050102341920137405
3.6127755641937256 -0.025852922350168228 0.443604439496994 26.0 11 -0.05010003596544266
2.2669146060943604 -0.016617650166153908 -0.2783496081829071 73.0 4 -0.05009773373603821
3.632615804672241 -0.027262985706329346 0.5753660202026367 100.0 12 -0.05009542778134346
1.9783843755722046 -0.01519319973886013 -0.17309129238128662 22.0 5 -0.05009312555193901
3.645656108856201 -0.027997178956866264 0.7086646556854248 99.0 13 -0.05009081959724426
1.9272956848144531 -0.015137254260480404 -0.10100840777158737 44.0 6 -0.05008851736783981
3.677154302597046 -0.029522716999053955 0.8489653468132019 100.0 14 -0.050086211413145065
3.623326301574707 -0.02972298301756382 -0.06324751675128937 100.0 7 -0.050083909183740616
3.653003215789795 -0.03060404397547245 0.9788536429405212 115.0 15 -0.05008160322904587
2.080504894256592 -0.020335178822278976 -0.5574962496757507 37.0 0 -0.05006086826324463
2.1746866703033447 -0.02163531444966793 -0.5020908117294312 58.0 1 -0.05005626007914543
3.6348249912261963 -0.03679626062512398 0.19050289690494537 18.0 9 -0.05005395784974098
2.210507392883301 -0.02276337519288063 -0.42970186471939087 62.0 2 -0.050051651895046234
3.6259500980377197 -0.03797224536538124 0.3172468841075897 42.0 10 -0.050049349665641785
2.235999822616577 -0.02380649372935295 -0.3541676700115204 74.0 3 -0.05004704371094704
3.6146483421325684 -0.038484837859869 0.443848192691803 33.0 11 -0.05004474148154259
2.246993064880371 -0.02431575395166874 -0.27591222524642944 80.0 4 -0.05004243552684784
3.6443498134613037 -0.04007333517074585 0.5772432088851929 100.0 12 -0.05004013329744339
1.9384740591049194 -0.02165386453270912 -0.1696050763130188 35.0 5 -0.05003782734274864
3.6494550704956055 -0.041403528302907944 0.7094278931617737 99.0 13 -0.05003552511334419
1.9292242527008057 -0.022224048152565956 -0.10111307352781296 43.0 6 -0.050033219158649445
3.667278289794922 -0.042886026203632355 0.8467158079147339 97.0 14 -0.050030916929244995
3.611203193664551 -0.0422302708029747 -0.06303809583187103 100.0 7 -0.050028614699840546
3.6606011390686035 -0.04344693198800087 0.9809242486953735 117.0 15 -0.0500263087451458
2.080421209335327 -0.027597371488809586 -0.5574962496757507 28.0 0 -0.05000557377934456
2.3174376487731934 -0.031146002933382988 0.0404546782374382 2.0 8 -0.05000326782464981
2.182386875152588 -0.029711905866861343 -0.5038903951644897 60.0 1 -0.05000096559524536
2.1966729164123535 -0.030289866030216217 -0.4270305633544922 61.0 2 -0.049996357411146164
3.6297800540924072 -0.05068457871675491 0.31759554147720337 45.0 10 -0.049994051456451416
2.2398533821105957 -0.03166728839278221 -0.35479339957237244 71.0 3 -0.04999174922704697
3.6164681911468506 -0.05176134034991264 0.44409194588661194 35.0 11 -0.04998944327235222
2.2449095249176025 -0.032130662351846695 -0.2756684720516205 91.0 4 -0.04998714104294777
3.64023756980896 -0.05273701623082161 0.5766174793243408 100.0 12 -0.04998483508825302
1.9324101209640503 -0.02833264134824276 -0.1690821349620819 45.0 5 -0.04998253285884857
3.664992570877075 -0.05437524989247322 0.7124808430671692 99.0 13 -0.04998023062944412
1.933129072189331 -0.029018118977546692 -0.10132241994142532 43.0 6 -0.049977924674749374
3.6651673316955566 -0.05501767247915268 0.8462659120559692 100.0 14 -0.049975622445344925
3.599036931991577 -0.054653286933898926 -0.0628286600112915 93.0 7 -0.04997331649065018
3.6720170974731445 -0.05640256777405739 0.9840300679206848 115.0 15 -0.04997101426124573
2.0667972564697266 -0.03427193686366081 -0.5538727641105652 13.0 0 -0.04995027557015419
2.3153226375579834 -0.038797229528427124 0.04041977599263191 2.0 8 -0.04994797334074974
2.176431179046631 -0.03684983402490616 -0.5025407075881958 57.0 1 -0.04994566738605499
2.324476480484009 -0.03935643285512924 0.12183811515569687 2.0 9 -0.04994336515665054
2.1847825050354004 -0.0373726561665535 -0.42474085092544556 61.0 2 -0.049941059201955795
3.6335761547088623 -0.0627899318933487 0.31794413924217224 46.0 10 -0.049938756972551346
2.2377610206604004 -0.03906026482582092 -0.3544805347919464 78.0 3 -0.0499364510178566
3.6361243724823 -0.0641036108136177 0.4465293288230896 38.0 11 -0.04993414878845215
2.2467753887176514 -0.0396098718047142 -0.27591222524642944 85.0 4 -0.0499318465590477
3.6321425437927246 -0.06466753035783768 0.5753660202026367 100.0 12 -0.04992954060435295
1.9223451614379883 -0.034561511129140854 -0.16821058094501495 52.0 5 -0.0499272383749485
3.6628291606903076 -0.06649286299943924 0.7120991945266724 96.0 13 -0.049924932420253754
1.9450037479400635 -0.03564804419875145 -0.10195045173168182 42.0 6 -0.049922630190849304
3.6708099842071533 -0.06727863848209381 0.8476155996322632 97.0 14 -0.049920324236154556
3.5988357067108154 -0.06658781319856644 -0.0628286600112915 42.0 7 -0.04991802200675011
3.6602208614349365 -0.06836264580488205 0.9809242486953735 115.0 15 -0.04991571605205536
2.0628092288970947 -0.041048623621463776 -0.5528374910354614 9.0 0 -0.04989498108625412
2.291189432144165 -0.045993298292160034 0.04000091552734375 3.0 8 -0.04989267513155937
2.168503522872925 -0.04390912503004074 -0.5007410645484924 57.0 1 -0.04989037290215492
2.3183343410491943 -0.0473477840423584 0.12152409553527832 3.0 9 -0.049888066947460175
2.1846466064453125 -0.04461745545268059 -0.42474085092544556 66.0 2 -0.049885764718055725
3.6273720264434814 -0.07471586763858795 0.31742119789123535 50.0 10 -0.049883462488651276
2.2139198780059814 -0.04598843678832054 -0.35072609782218933 71.0 3 -0.04988115653395653
3.6319222450256348 -0.07607792317867279 0.4460418224334717 46.0 11 -0.04987885430455208
2.2466235160827637 -0.04745233431458473 -0.27591222524642944 71.0 4 -0.04987654834985733
3.63979434967041 -0.0775139182806015 0.5766174793243408 100.0 12 -0.04987424612045288
1.9242048263549805 -0.04131431132555008 -0.16838489472866058 59.0 5 -0.04987194016575813
3.6547374725341797 -0.07847031205892563 0.7105727195739746 93.0 13 -0.049869637936353683
1.9488685131072998 -0.04218415915966034 -0.10215979814529419 34.0 6 -0.049867331981658936
3.6744492053985596 -0.08017677068710327 0.8485153913497925 91.0 14 -0.049865029752254486
2.321084976196289 -0.051051557064056396 -0.04052448645234108 7.0 7 -0.04986272379755974
3.656096935272217 -0.08105315268039703 0.9798889756202698 117.0 15 -0.04986042156815529
2.0703701972961426 -0.048790980130434036 -0.554908037185669 10.0 0 -0.04983968660235405
2.2870168685913086 -0.05389653891324997 0.03993110731244087 9.0 8 -0.0498373806476593
2.150803327560425 -0.05106208473443985 -0.4966919720172882 60.0 1 -0.04983507841825485
2.314161777496338 -0.05534449219703674 0.12131475657224655 4.0 9 -0.049832772463560104
2.1805431842803955 -0.052529726177453995 -0.4239776134490967 66.0 2 -0.049830470234155655
3.629065752029419 -0.08805868029594421 0.31759554147720337 43.0 10 -0.04982816427946091
2.2236104011535645 -0.05434386804699898 -0.35229045152664185 71.0 3 -0.04982586205005646
3.6276657581329346 -0.08865824341773987 0.44555434584617615 55.0 11 -0.04982355609536171
2.2523977756500244 -0.055440761148929596 -0.27664345502853394 63.0 4 -0.04982125386595726
3.651350259780884 -0.09051240980625153 0.5784947276115417 100.0 12 -0.04981894791126251
1.926040768623352 -0.048080507665872574 -0.1685592085123062 62.0 5 -0.04981664568185806
3.6485373973846436 -0.09171705693006516 0.7094278931617737 100.0 13 -0.049814339727163315
1.9387177228927612 -0.04907413572072983 -0.10163643956184387 16.0 6 -0.049812037497758865
3.6780271530151367 -0.09374306350946426 0.8494152426719666 97.0 14 -0.04980973154306412
2.302901268005371 -0.05869479104876518 -0.04021034389734268 15.0 7 -0.04980742931365967
3.6635167598724365 -0.09401305019855499 0.9819594621658325 115.0 15 -0.04980512335896492
2.0643937587738037 -0.05586085096001625 -0.5533550977706909 13.0 0 -0.04978438839316368
2.28080677986145 -0.06211518496274948 0.03982638940215111 22.0 8 -0.04978208616375923
2.140861749649048 -0.05867787078022957 -0.4944424629211426 67.0 1 -0.049779780209064484
2.3059685230255127 -0.06320320069789886 0.12089607119560242 2.0 9 -0.049777477979660034
2.1783838272094727 -0.06008678302168846 -0.42359596490859985 75.0 2 -0.049775172024965286
3.6386940479278564 -0.10100236535072327 0.31846708059310913 47.0 10 -0.04977286979556084
2.2293310165405273 -0.06227084994316101 -0.3532290756702423 78.0 3 -0.04977056384086609
3.6312849521636963 -0.10206525027751923 0.4460418224334717 64.0 11 -0.04976826161146164
2.236304998397827 -0.06324689090251923 -0.2746935188770294 56.0 4 -0.04976595565676689
3.6510119438171387 -0.1032574474811554 0.5784947276115417 100.0 12 -0.04976365342736244
1.9298441410064697 -0.05491669848561287 -0.16890782117843628 62.0 5 -0.049761347472667694
3.6580073833465576 -0.10473321378231049 0.7113359570503235 93.0 13 -0.049759045243263245
1.9525095224380493 -0.056243784725666046 -0.10236913710832596 11.0 6 -0.0497567392885685
3.6718337535858154 -0.10641185194253922 0.8480655550956726 88.0 14 -0.04975443705916405
2.278696298599243 -0.06603793054819107 -0.03979148715734482 57.0 7 -0.0497521311044693
3.6708905696868896 -0.10702574253082275 0.9840300679206848 115.0 15 -0.04974982887506485
2.062255382537842 -0.06300760060548782 -0.5528374910354614 21.0 0 -0.04972909390926361
2.2765908241271973 -0.06955614686012268 0.03975658118724823 23.0 8 -0.04972678795456886
2.146498680114746 -0.06595645099878311 -0.49579212069511414 66.0 1 -0.04972448572516441
2.2638111114501953 -0.06995665282011032 0.11869796365499496 2.0 9 -0.049722179770469666
2.1761984825134277 -0.06762941926717758 -0.4232143759727478 78.0 2 -0.049719877541065216
3.638319492340088 -0.1137031614780426 0.31846708059310913 48.0 10 -0.04971757158637047
2.203444719314575 -0.06886108964681625 -0.3491617739200592 77.0 3 -0.04971526935696602
3.6289422512054443 -0.11404410749673843 0.4457980990409851 67.0 11 -0.04971296340227127
2.2043373584747314 -0.06965920329093933 -0.27079370617866516 50.0 4 -0.04971066117286682
3.6506290435791016 -0.11600122600793839 0.5784947276115417 100.0 12 -0.04970835521817207
1.9336235523223877 -0.06178002431988716 -0.16925644874572754 62.0 5 -0.049706052988767624
3.6654887199401855 -0.11711379140615463 0.7128624320030212 96.0 13 -0.049703747034072876
3.66756534576416 -0.11846167594194412 0.8471657633781433 100.0 14 -0.04969914257526398
2.2864463329315186 -0.07425127923488617 -0.03993110731244087 67.0 7 -0.04969683662056923
3.6782174110412598 -0.1200910434126854 0.9861006140708923 113.0 15 -0.04969453439116478
2.0639655590057373 -0.06991132348775864 -0.5533550977706909 28.0 0 -0.04967379570007324
2.2663414478302 -0.07716227322816849 0.039582058787345886 29.0 8 -0.04967149347066879
2.154045820236206 -0.07371532917022705 -0.4975917637348175 63.0 1 -0.049669187515974045
2.2655627727508545 -0.07753163576126099 0.11880263686180115 2.0 9 -0.049666885286569595
2.168113946914673 -0.07457561790943146 -0.42168790102005005 78.0 2 -0.04966457933187485
3.6359310150146484 -0.12569880485534668 0.3182927668094635 46.0 10 -0.0496622771024704
2.226881265640259 -0.07737527042627335 -0.3529161810874939 95.0 3 -0.04965997114777565
3.6483612060546875 -0.12740357220172882 0.44823548197746277 72.0 11 -0.0496576689183712
2.1921772956848145 -0.07693559676408768 -0.26933127641677856 53.0 4 -0.04965536296367645
3.650224447250366 -0.1281065195798874 0.5784947276115417 100.0 12 -0.049653060734272
1.9274345636367798 -0.06798113137483597 -0.16873352229595184 66.0 5 -0.049650758504867554
3.680753707885742 -0.1304643601179123 0.7159153819084167 96.0 13 -0.049648452550172806
2.2814204692840576 -0.08126366883516312 -0.11964000016450882 21.0 6 -0.049646150320768356
3.6749191284179688 -0.13154198229312897 0.8489653468132019 94.0 14 -0.04964384436607361
2.256211280822754 -0.08076001703739166 -0.03940753638744354 52.0 7 -0.04964154213666916
3.670076847076416 -0.13201004266738892 0.9840300679206848 115.0 15 -0.04963923618197441
2.0501954555511475 -0.0766105204820633 -0.5497316718101501 32.0 0 -0.04961850121617317
2.2540833950042725 -0.08422928303480148 0.039372626692056656 39.0 8 -0.049616195261478424
2.1635262966156006 -0.08122354000806808 -0.49984127283096313 70.0 1 -0.049613893032073975
2.2792491912841797 -0.08596640080213547 0.11953534185886383 2.0 9 -0.04961158707737923
2.1678404808044434 -0.08214329183101654 -0.42168790102005005 78.0 2 -0.04960928484797478
3.629497528076172 -0.13816243410110474 0.3177698254585266 50.0 10 -0.04960698261857033
2.2048990726470947 -0.08393289893865585 -0.34947463870048523 87.0 3 -0.04960467666387558
3.645934820175171 -0.13942541182041168 0.4479917287826538 81.0 11 -0.04960237443447113
2.053056240081787 -0.07887046784162521 -0.25226956605911255 53.0 4 -0.04960006847977638
3.653702735900879 -0.14099974930286407 0.5791204571723938 100.0 12 -0.04959776625037193
1.9291764497756958 -0.07478589564561844 -0.16890782117843628 77.0 5 -0.049595460295677185
3.6685304641723633 -0.14221319556236267 0.7136256694793701 93.0 13 -0.049593158066272736
2.3190574645996094 -0.09030526876449585 -0.1216287761926651 23.0 6 -0.04959085211157799
3.684199094772339 -0.1441085785627365 0.8512148261070251 100.0 14 -0.04958854988217354
2.2539174556732178 -0.08855666220188141 -0.039372626692056656 44.0 7 -0.04958624392747879
3.6657326221466064 -0.1446678191423416 0.9829947352409363 115.0 15 -0.04958394169807434
2.0634419918060303 -0.08395856618881226 -0.5533550977706909 48.0 0 -0.0495632030069828
2.235793352127075 -0.09136217832565308 0.039058487862348557 42.0 8 -0.049560900777578354
2.1515469551086426 -0.08829572796821594 -0.49714183807373047 72.0 1 -0.049558598548173904
2.2689573764801025 -0.0935107171535492 0.11901197582483292 3.0 9 -0.049556292593479156
2.167556047439575 -0.08933165669441223 -0.42168790102005005 78.0 2 -0.04955399036407471
3.636981964111328 -0.15052707493305206 0.31846708059310913 48.0 10 -0.04955168440937996
2.1927506923675537 -0.09113673120737076 -0.3475974202156067 85.0 3 -0.04954938217997551
3.649392604827881 -0.15231680870056152 0.44847920536994934 90.0 11 -0.04954707622528076
1.9893012046813965 -0.08337641507387161 -0.24446991086006165 51.0 4 -0.04954477399587631
3.6689774990081787 -0.15441718697547913 0.5816234350204468 100.0 12 -0.049542468041181564
1.928903579711914 -0.08151951432228088 -0.16890782117843628 77.0 5 -0.049540165811777115
3.6523194313049316 -0.15435469150543213 0.7105727195739746 93.0 13 -0.04953785985708237
2.302764415740967 -0.09772228449583054 -0.12079139798879623 28.0 6 -0.04953555762767792
3.693408489227295 -0.1573827862739563 0.8534643650054932 94.0 14 -0.04953325167298317
2.2555925846099854 -0.09650924056768417 -0.03940753638744354 44.0 7 -0.04953094944357872
3.6729259490966797 -0.15779440104961395 0.9850653409957886 115.0 15 -0.04952864348888397
2.0631203651428223 -0.09152089804410934 -0.5533550977706909 49.0 0 -0.04950790852308273
2.2434515953063965 -0.09952046722173691 0.03919810429215431 50.0 8 -0.049505606293678284
2.1512258052825928 -0.09580548107624054 -0.49714183807373047 72.0 1 -0.049503300338983536
2.2805888652801514 -0.10196555405855179 0.11964000016450882 3.0 9 -0.049500998109579086
2.1711363792419434 -0.09745161235332489 -0.42245110869407654 78.0 2 -0.04949869215488434
3.6364059448242188 -0.16385629773139954 0.31846708059310913 48.0 10 -0.04949638992547989
2.2002952098846436 -0.09953000396490097 -0.3488488793373108 83.0 3 -0.04949408397078514
3.6428897380828857 -0.16478553414344788 0.44774800539016724 100.0 11 -0.04949178174138069
1.9731335639953613 -0.08959946781396866 -0.2425200194120407 45.0 4 -0.049489475786685944
3.6644694805145264 -0.16704347729682922 0.5809977054595947 100.0 12 -0.049487173557281494
1.9325878620147705 -0.08843430876731873 -0.16925644874572754 75.0 5 -0.049484867602586746
3.6713411808013916 -0.16864092648029327 0.714388906955719 92.0 13 -0.0494825653731823
2.3003957271575928 -0.10606969147920609 -0.12068671733140945 50.0 6 -0.04948025941848755
3.681126832962036 -0.17037811875343323 0.8507649302482605 94.0 14 -0.0494779571890831
2.2612345218658447 -0.10465950518846512 -0.03951225057244301 51.0 7 -0.04947565123438835
3.6839311122894287 -0.1711522787809372 0.9881711006164551 111.0 15 -0.0494733490049839
2.064718246459961 -0.09881433844566345 -0.5538727641105652 49.0 0 -0.04945261403918266
2.2470667362213135 -0.10793435573577881 0.03926791250705719 54.0 8 -0.049450308084487915
2.148913621902466 -0.10359565913677216 -0.4966919720172882 79.0 1 -0.049448005855083466
2.268249273300171 -0.10934863239526749 0.11901197582483292 3.0 9 -0.04944569990038872
2.1688225269317627 -0.10493483394384384 -0.4220695197582245 86.0 2 -0.04944339767098427
3.6497421264648438 -0.17722514271736145 0.31968727707862854 48.0 10 -0.04944109171628952
2.176257848739624 -0.10605603456497192 -0.3450944721698761 54.0 3 -0.04943878948688507
3.642261266708374 -0.17813628911972046 0.44774800539016724 100.0 11 -0.04943648353219032
1.9608957767486572 -0.0962468609213829 -0.24105757474899292 50.0 4 -0.04943418130278587
3.6520259380340576 -0.17925278842449188 0.5791204571723938 100.0 12 -0.049431875348091125
1.9461973905563354 -0.09586591273546219 -0.17047663033008575 61.0 5 -0.049429573118686676
3.682495355606079 -0.1820368766784668 0.7166786193847656 90.0 13 -0.04942726716399193
2.3059957027435303 -0.11439579725265503 -0.121000736951828 49.0 6 -0.04942496493458748
3.6785635948181152 -0.18312972784042358 0.8503150343894958 97.0 14 -0.04942265897989273
2.234891653060913 -0.11125948280096054 -0.039058487862348557 56.0 7 -0.04942035675048828
3.6910293102264404 -0.18439613282680511 0.9902417063713074 111.0 15 -0.04941805452108383
2.0527849197387695 -0.10542643070220947 -0.5507669448852539 49.0 0 -0.049397315829992294
2.2466964721679688 -0.11538529396057129 0.03926791250705719 54.0 8 -0.049395013600587845
2.1524505615234375 -0.1109217181801796 -0.4975917637348175 81.0 1 -0.0493927076458931
2.2678537368774414 -0.11726562678813934 0.11901197582483292 3.0 9 -0.04939040541648865
2.1625609397888184 -0.11219961941242218 -0.42092466354370117 82.0 2 -0.0493880994617939
3.6451220512390137 -0.18975688517093658 0.3193386495113373 22.0 10 -0.04938579723238945
2.1818125247955322 -0.11358026415109634 -0.34603309631347656 86.0 3 -0.0493834912776947
3.6495797634124756 -0.19062767922878265 0.4487229585647583 100.0 11 -0.04938118904829025
1.9526363611221313 -0.10233334451913834 -0.24008263647556305 54.0 4 -0.049378883093595505
3.6513779163360596 -0.1919996440410614 0.5791204571723938 100.0 12 -0.049376580864191055
1.9398819208145142 -0.10234391689300537 -0.16995368897914886 67.0 5 -0.04937427490949631
3.6857924461364746 -0.19445432722568512 0.7174418568611145 93.0 13 -0.04937197268009186
2.3056037425994873 -0.12204212695360184 -0.121000736951828 40.0 6 -0.04936967045068741
3.6857197284698486 -0.19574066996574402 0.8521146178245544 97.0 14 -0.04936736449599266
2.234489679336548 -0.11906003952026367 -0.039058487862348557 81.0 7 -0.04936506226658821
3.678788661956787 -0.1966603398323059 0.9871358871459961 113.0 15 -0.04936275631189346
2.042778968811035 -0.1117057204246521 -0.5481787323951721 48.0 0 -0.049342021346092224
2.2462799549102783 -0.12322703003883362 0.03926791250705719 52.0 8 -0.049339715391397476
2.155941963195801 -0.11864865571260452 -0.4984915554523468 79.0 1 -0.04933741316199303
2.267430543899536 -0.1251811981201172 0.11901197582483292 3.0 9 -0.04933510720729828
2.170017957687378 -0.11980319768190384 -0.42245110869407654 82.0 2 -0.04933280497789383
3.6524298191070557 -0.20228418707847595 0.3200358748435974 77.0 10 -0.04933049902319908
2.173513174057007 -0.12075719237327576 -0.3447815775871277 95.0 3 -0.04932819679379463
3.6647486686706543 -0.20424962043762207 0.45067286491394043 97.0 11 -0.04932589456439018
1.958213210105896 -0.10948110371828079 -0.24081383645534515 59.0 4 -0.049323588609695435
3.6585748195648193 -0.2051866352558136 0.5803719758987427 100.0 12 -0.049321286380290985
1.9435104131698608 -0.10899937152862549 -0.17030231654644012 70.0 5 -0.04931898042559624
3.685091257095337 -0.207318976521492 0.7174418568611145 93.0 13 -0.04931667819619179
2.323110580444336 -0.13110226392745972 -0.12194279581308365 30.0 6 -0.04931437224149704
3.696687936782837 -0.20926588773727417 0.8548140525817871 97.0 14 -0.04931207001209259
2.226074457168579 -0.12640567123889923 -0.038918863981962204 77.0 7 -0.04930976405739784
3.678079605102539 -0.2095005065202713 0.9871358871459961 115.0 15 -0.04930746182799339
2.0443053245544434 -0.11894787847995758 -0.5486963987350464 49.0 0 -0.049286723136901855
2.2378509044647217 -0.13060124218463898 0.039128296077251434 51.0 8 -0.049284420907497406
2.145787477493286 -0.12560419738292694 -0.49624204635620117 77.0 1 -0.04928211867809296
2.2689738273620605 -0.13321231305599213 0.1191166415810585 2.0 9 -0.04927981272339821
2.171546459197998 -0.12749232351779938 -0.42283275723457336 89.0 2 -0.04927751049399376
3.63976788520813 -0.21432961523532867 0.31898999214172363 53.0 10 -0.04927520453929901
2.1513872146606445 -0.1270623356103897 -0.3413400650024414 83.0 3 -0.04927290230989456
3.65212345123291 -0.2163364440202713 0.44921043515205383 100.0 11 -0.049270596355199814
1.9637638330459595 -0.11666906625032425 -0.24154506623744965 56.0 4 -0.049268294125795364
3.6775548458099365 -0.21913114190101624 0.5835006237030029 98.0 12 -0.049265988171100616
1.9689732789993286 -0.11732343584299088 -0.17256836593151093 54.0 5 -0.04926368594169617
3.6765058040618896 -0.21971260011196136 0.7159153819084167 92.0 13 -0.04926137998700142
2.3126704692840576 -0.13861314952373505 -0.12141943722963333 32.0 6 -0.04925907775759697
3.6998252868652344 -0.22240230441093445 0.8557138442993164 97.0 14 -0.04925677180290222
2.2256197929382324 -0.1341753453016281 -0.038918863981962204 68.0 7 -0.04925446957349777
3.681182384490967 -0.22257131338119507 0.9881711006164551 113.0 15 -0.049252163618803024
2.057374954223633 -0.12691573798656464 -0.5523198843002319 51.0 0 -0.049231428653001785
2.247360944747925 -0.1390293687582016 0.03930281847715378 45.0 8 -0.049229126423597336
2.1433908939361572 -0.13297295570373535 -0.49579212069511414 77.0 1 -0.04922682046890259
2.288428783416748 -0.14237186312675476 0.12016335874795914 1.0 9 -0.04922451823949814
2.1789262294769287 -0.1355592906475067 -0.4243592619895935 89.0 2 -0.04922221228480339
3.6330318450927734 -0.22666127979755402 0.31846708059310913 56.0 10 -0.04921991005539894
2.1588165760040283 -0.13506467640399933 -0.3425915241241455 90.0 3 -0.04921760410070419
3.647383689880371 -0.22883480787277222 0.4487229585647583 100.0 11 -0.049215301871299744
1.9554200172424316 -0.123024582862854 -0.2405700981616974 56.0 4 -0.049212995916604996
3.676767587661743 -0.23196688294410706 0.5835006237030029 96.0 12 -0.049210693687200546
1.968551754951477 -0.12419572472572327 -0.17256836593151093 47.0 5 -0.0492083877325058
3.6757164001464844 -0.23254463076591492 0.7159153819084167 92.0 13 -0.04920608550310135
2.3121724128723145 -0.14668503403663635 -0.12141943722963333 37.0 6 -0.0492037795484066
3.6912472248077393 -0.2348208725452423 0.8539142608642578 97.0 14 -0.04920147731900215
2.239107370376587 -0.14283451437950134 -0.03916320204734802 34.0 7 -0.049199171364307404
3.691950798034668 -0.23615959286689758 0.9912769794464111 111.0 15 -0.049196869134902954
2.0549917221069336 -0.13397087156772614 -0.5518022775650024 52.0 0 -0.049176134169101715
2.2608299255371094 -0.14778634905815125 0.0395471528172493 39.0 8 -0.04917382821440697
2.142913818359375 -0.1404539942741394 -0.49579212069511414 74.0 1 -0.04917152598500252
2.311833620071411 -0.1519308090209961 0.12141943722963333 1.0 9 -0.04916922003030777
2.1588492393493652 -0.14187686145305634 -0.42054301500320435 89.0 2 -0.04916691780090332
3.6620399951934814 -0.2413066178560257 0.3210817575454712 89.0 10 -0.04916461184620857
2.168187379837036 -0.14325068891048431 -0.34415584802627563 93.0 3 -0.04916230961680412
3.650524139404297 -0.241827592253685 0.44921043515205383 100.0 11 -0.049160003662109375
1.9589401483535767 -0.1301126629114151 -0.24105757474899292 56.0 4 -0.049157701432704926
3.673964500427246 -0.24466851353645325 0.5831877589225769 98.0 12 -0.04915539547801018
1.9681061506271362 -0.1310664862394333 -0.17256836593151093 49.0 5 -0.04915309324860573
3.690553665161133 -0.2464202344417572 0.7189683318138123 92.0 13 -0.04915078729391098
2.321610450744629 -0.15542219579219818 -0.12194279581308365 31.0 6 -0.04914848506450653
3.694293737411499 -0.24796530604362488 0.8548140525817871 100.0 14 -0.04914617910981178
2.2445805072784424 -0.15105240046977997 -0.03926791250705719 28.0 7 -0.04914387688040733
3.694958448410034 -0.2493055760860443 0.9923122525215149 111.0 15 -0.049141570925712585
2.0545361042022705 -0.14078474044799805 -0.5518022775650024 57.0 0 -0.04900193214416504
2.264317512512207 -0.1555568277835846 0.039616964757442474 30.0 8 -0.04899962991476059
2.1521568298339844 -0.14822886884212494 -0.49804162979125977 68.0 1 -0.04899732396006584
2.319287061691284 -0.16014660894870758 0.12183811515569687 1.0 9 -0.04899502173066139
2.160325527191162 -0.14917033910751343 -0.42092466354370117 100.0 2 -0.048992715775966644
3.653269052505493 -0.25289860367774963 0.32038450241088867 100.0 10 -0.048990413546562195
2.1657299995422363 -0.15030311048030853 -0.343843013048172 87.0 3 -0.04898810759186745
3.657623529434204 -0.2544829845428467 0.4501853883266449 100.0 11 -0.048985805362463
1.966418981552124 -0.137160524725914 -0.24203252792358398 54.0 4 -0.04898349940776825
3.673133134841919 -0.2568504810333252 0.5831877589225769 98.0 12 -0.0489811971783638
1.9894993305206299 -0.1394682675600052 -0.17448578774929047 46.0 5 -0.04897889122366905
3.689716100692749 -0.25865721702575684 0.7189683318138123 90.0 13 -0.0489765889942646
2.346982717514038 -0.16494029760360718 -0.12330353260040283 26.0 6 -0.048974283039569855
3.7051148414611816 -0.2610364258289337 0.8575134873390198 100.0 14 -0.048971980810165405
2.2739882469177246 -0.16060815751552582 -0.03979148715734482 38.0 7 -0.04896967485547066
3.6902575492858887 -0.261284202337265 0.9912769794464111 111.0 15 -0.04896737262606621
2.052079439163208 -0.14817491173744202 -0.5512846112251282 55.0 0 -0.04894663766026497
2.2557826042175293 -0.16288374364376068 0.03947734460234642 22.0 8 -0.04894433170557022
2.1516263484954834 -0.1557404100894928 -0.49804162979125977 61.0 1 -0.04894202947616577
2.3386340141296387 -0.16968683898448944 0.1228848323225975 1.0 9 -0.048939723521471024
2.1480159759521484 -0.1562328040599823 -0.41863495111465454 83.0 2 -0.048937421292066574
3.6463558673858643 -0.2658521831035614 0.3198615610599518 100.0 10 -0.048935115337371826
2.1572837829589844 -0.15766392648220062 -0.3425915241241455 83.0 3 -0.04893281310796738
3.6685914993286133 -0.2681170403957367 0.4516478180885315 100.0 11 -0.04893050715327263
1.9659281969070435 -0.14402377605438232 -0.24203252792358398 54.0 4 -0.04892820492386818
3.6761538982391357 -0.26995986700057983 0.583813488483429 98.0 12 -0.04892589896917343
1.985026478767395 -0.14611956477165222 -0.1741371750831604 45.0 5 -0.04892359673976898
3.6926591396331787 -0.2724679112434387 0.7197315692901611 92.0 13 -0.048921290785074234
2.3622968196868896 -0.17471985518932343 -0.1241409033536911 26.0 6 -0.048918988555669785
3.70996356010437 -0.27504679560661316 0.8588631749153137 100.0 14 -0.04891668260097504
2.2754077911376953 -0.1686926633119583 -0.03982638940215111 49.0 7 -0.04891438037157059
3.6854701042175293 -0.27387773990631104 0.9902417063713074 113.0 15 -0.04891207441687584
2.0592548847198486 -0.15592052042484283 -0.5533550977706909 55.0 0 -0.0488913394510746
2.26314640045166 -0.1717558056116104 0.039616964757442474 12.0 8 -0.04888903722167015
2.1393823623657227 -0.1627386063337326 -0.4953422546386719 68.0 1 -0.0488867312669754
2.3380274772644043 -0.17784914374351501 0.1228848323225975 1.0 9 -0.04888442903757095
2.161160707473755 -0.16477462649345398 -0.421306312084198 89.0 2 -0.048882123082876205
3.6533522605895996 -0.2791859805583954 0.3205588161945343 100.0 10 -0.048879820853471756
2.1547508239746094 -0.1650424599647522 -0.3422786593437195 77.0 3 -0.04887751489877701
3.6596672534942627 -0.2809535562992096 0.45067286491394043 100.0 11 -0.04887521266937256
1.989137887954712 -0.1530558317899704 -0.24495738744735718 51.0 4 -0.04887290671467781
3.681097984313965 -0.2832450568675995 0.584752082824707 96.0 12 -0.04887060448527336
2.0182745456695557 -0.15565210580825806 -0.17710046470165253 51.0 5 -0.04886829853057861
3.6838560104370117 -0.2847508192062378 0.7182050943374634 93.0 13 -0.048865996301174164
2.3676464557647705 -0.18342754244804382 -0.12445490807294846 19.0 6 -0.048863690346479416
3.71286678314209 -0.28829705715179443 0.8597630262374878 100.0 14 -0.048861388117074966
2.2787926197052 -0.17694392800331116 -0.039896201342344284 25.0 7 -0.04885908588767052
3.6921956539154053 -0.28734028339385986 0.9923122525215149 111.0 15 -0.04885677993297577
2.0586979389190674 -0.16310769319534302 -0.5533550977706909 55.0 0 -0.04883604496717453
2.2884788513183594 -0.1813129037618637 0.04007072374224663 9.0 8 -0.04883373901247978
2.125232696533203 -0.16875238716602325 -0.49219295382499695 70.0 1 -0.04883143678307533
2.3373923301696777 -0.18600930273532867 0.1228848323225975 1.0 9 -0.048829130828380585
2.1586151123046875 -0.17216138541698456 -0.42092466354370117 68.0 2 -0.048826828598976135
3.6622860431671143 -0.2927305996417999 0.32143038511276245 99.0 10 -0.04882452264428139
2.1600990295410156 -0.17265911400318146 -0.34321725368499756 71.0 3 -0.04882222041487694
3.6587154865264893 -0.293087899684906 0.45067286491394043 97.0 11 -0.04881991446018219
1.9965344667434692 -0.16028663516044617 -0.24593235552310944 51.0 4 -0.04881761223077774
3.6859941482543945 -0.2965680658817291 0.5856907367706299 91.0 12 -0.04881531000137329
2.0375783443450928 -0.16429761052131653 -0.17884357273578644 61.0 5 -0.04881300404667854
3.686805009841919 -0.2972809672355652 0.7189683318138123 93.0 13 -0.048810701817274094
2.361052989959717 -0.19079531729221344 -0.1241409033536911 38.0 6 -0.048808395862579346
3.704120635986328 -0.2999785840511322 0.8579633831977844 100.0 14 -0.048806093633174896
3.6988723278045654 -0.3008531928062439 0.9943828582763672 108.0 15 -0.0488014854490757
2.0716233253479004 -0.17104646563529968 -0.5569786429405212 57.0 0 -0.04878074675798416
2.3077614307403564 -0.19094908237457275 0.04041977599263191 3.0 8 -0.04877844452857971
2.120746374130249 -0.17584773898124695 -0.4912931025028229 74.0 1 -0.048776138573884964
2.336729049682617 -0.19416719675064087 0.1228848323225975 1.0 9 -0.048773836344480515
2.138467311859131 -0.17769291996955872 -0.4171084761619568 68.0 2 -0.04877153038978577
3.6652660369873047 -0.30520424246788025 0.3217789828777313 99.0 10 -0.04876922816038132
2.165388822555542 -0.18069103360176086 -0.34415584802627563 86.0 3 -0.04876692593097687
3.6616265773773193 -0.3061882555484772 0.45116034150123596 100.0 11 -0.04876461997628212
2.0117883682250977 -0.16858099400997162 -0.24788227677345276 72.0 4 -0.04876231774687767
3.6750941276550293 -0.30860623717308044 0.584126353263855 96.0 12 -0.04876001179218292
2.0489349365234375 -0.17205385863780975 -0.17988945543766022 51.0 5 -0.04875770956277847
3.6974833011627197 -0.3111362159252167 0.7212580442428589 92.0 13 -0.048755403608083725
2.3583824634552 -0.19886794686317444 -0.12403623014688492 24.0 6 -0.048753101378679276
3.7011091709136963 -0.3127424716949463 0.8575134873390198 100.0 14 -0.04875079542398453
3.6264681816101074 -0.30707278847694397 -0.06352675706148148 71.0 7 -0.04874849319458008
3.7054991722106934 -0.31441617012023926 0.9964533448219299 106.0 15 -0.04874618723988533
2.059465169906616 -0.17728263139724731 -0.5538727641105652 57.0 0 -0.04872545227408409
2.3389573097229004 -0.20175309479236603 0.04097824916243553 2.0 8 -0.04872314631938934
2.1240029335021973 -0.18358510732650757 -0.49219295382499695 70.0 1 -0.048720844089984894
3.6532912254333496 -0.31640931963920593 0.1921776533126831 74.0 9 -0.048718541860580444
2.12805438041687 -0.1843094825744629 -0.415200412273407 86.0 2 -0.048716235905885696
3.6602084636688232 -0.31765204668045044 0.32143038511276245 96.0 10 -0.04871393367648125
2.1509692668914795 -0.18705059587955475 -0.34196579456329346 73.0 3 -0.0487116277217865
3.6644904613494873 -0.3193124830722809 0.4516478180885315 100.0 11 -0.04870932549238205
2.0250303745269775 -0.17681103944778442 -0.24958842992782593 85.0 4 -0.0487070195376873
3.675962448120117 -0.32160499691963196 0.584439218044281 100.0 12 -0.04870471730828285
2.050306558609009 -0.17937856912612915 -0.18006375432014465 49.0 5 -0.048702411353588104
3.6983301639556885 -0.32421237230300903 0.7216396331787109 86.0 13 -0.048700109124183655
