# .PCD v0.7 - Point Cloud Data file format
VERSION 0.7
FIELDS x y z intensity ring time
SIZE 4 4 4 4 4 4
TYPE F F F F F F
COUNT 1 1 1 1 1 1
WIDTH 548
HEIGHT 1
VIEWPOINT 0 0 0 1 0 0 0
POINTS 548
DATA ascii
-3.029541015625 0.9395375847816467 -0.2775038778781891 3.0 5 -0.08510634303092957
-3.0788302421569824 0.9554124474525452 0.6266167759895325 63.0 13 -0.08510404080152512
-2.445315361022949 0.7592906951904297 -0.1341894119977951 37.0 6 -0.08510173112154007
-3.0745136737823486 0.9546620845794678 0.7432383298873901 76.0 14 -0.08509942889213562
-2.948493003845215 0.9160950779914856 -0.05389302968978882 1.0 7 -0.08509712666273117
-3.042004108428955 0.9457311034202576 0.8535852432250977 88.0 15 -0.08509482443332672
-2.773458242416382 0.8659605383872986 -0.7785277366638184 34.0 0 -0.08507408946752548
-2.918419599533081 0.9117809534072876 0.05336945876479149 3.0 8 -0.08507177978754044
-2.8029792308807373 0.8762516975402832 -0.6780025362968445 7.0 1 -0.08506947755813599
-2.9604556560516357 0.9254810810089111 0.1625555008649826 2.0 9 -0.08506717532873154
-2.6625614166259766 0.8328652381896973 -0.5422792434692383 20.0 2 -0.08506487309932709
-3.099325180053711 0.9700813293457031 0.28412771224975586 49.0 10 -0.08506256341934204
-2.5731441974639893 0.8058810234069824 -0.4270661175251007 7.0 3 -0.08506026118993759
-3.0857419967651367 0.9670125842094421 0.3970503509044647 53.0 11 -0.08505795896053314
-2.4227523803710938 0.7592443227767944 -0.31174179911613464 1.0 4 -0.08505565673112869
-3.085550546646118 0.9675439596176147 0.5121665000915527 76.0 12 -0.08505334705114365
-3.0718986988067627 0.9644409418106079 0.6258535385131836 62.0 13 -0.08504874259233475
-2.4389729499816895 0.7661983966827393 -0.13398006558418274 37.0 6 -0.0850464403629303
-3.0806267261505127 0.9677726626396179 0.7454878091812134 78.0 14 -0.08504413068294525
-2.945438861846924 0.9258676767349243 -0.05389302968978882 1.0 7 -0.0850418284535408
-3.051751136779785 0.9598710536956787 0.8572087287902832 91.0 15 -0.08503952622413635
-2.7816245555877686 0.8786442875862122 -0.7816335558891296 18.0 0 -0.08501879125833511
-2.9287266731262207 0.9256724119186401 0.05361378937959671 3.0 8 -0.08501648902893066
-3.0731890201568604 0.971921980381012 -0.7441381216049194 18.0 1 -0.08501417934894562
-2.9478487968444824 0.932282030582428 0.1620321422815323 2.0 9 -0.08501187711954117
-2.6579132080078125 0.8410977125167847 -0.5418975949287415 17.0 2 -0.08500957489013672
-3.1131858825683594 0.9857667088508606 0.28569650650024414 51.0 10 -0.08500727266073227
-2.3595480918884277 0.747586190700531 -0.39202481508255005 1.0 3 -0.08500496298074722
-3.0825181007385254 0.9772399663925171 0.3970503509044647 53.0 11 -0.08500266075134277
-2.3483147621154785 0.7444780468940735 -0.30247974395751953 2.0 4 -0.08500035852193832
-3.0860908031463623 0.9789653420448303 0.5127922296524048 80.0 12 -0.08499805629253387
-3.0799102783203125 0.9781882166862488 0.6281432509422302 71.0 13 -0.08499344438314438
-2.440225839614868 0.77549147605896 -0.1341894119977951 37.0 6 -0.08499114215373993
-3.0792579650878906 0.97857266664505 0.7459377646446228 86.0 14 -0.08498883992433548
-2.942352294921875 0.9356301426887512 -0.05389302968978882 1.0 7 -0.08498653769493103
-3.0522332191467285 0.971157431602478 0.858244001865387 94.0 15 -0.08498422801494598
-2.917898416519165 0.9345881938934326 -0.8209740519523621 6.0 0 -0.08496689796447754
-2.926891803741455 0.9380311369895935 0.0536486990749836 3.0 8 -0.08496459573507309
-3.104520320892334 0.9955571293830872 -0.7526862621307373 29.0 1 -0.08496229350566864
-2.9478862285614014 0.9453276991844177 0.16224147379398346 2.0 9 -0.0849599838256836
-2.6526458263397217 0.8511606454849243 -0.5415159463882446 16.0 2 -0.08495768159627914
-3.1205859184265137 1.0019103288650513 0.2867423892021179 51.0 10 -0.0849553793668747
-2.337721109390259 0.7510100603103638 -0.388896107673645 1.0 3 -0.08495307713747025
-3.089909791946411 0.9932510852813721 0.3985127806663513 53.0 11 -0.0849507674574852
-2.367985725402832 0.7611886858940125 -0.3054046034812927 2.0 4 -0.08494846522808075
-3.0821359157562256 0.9913457632064819 0.5127922296524048 80.0 12 -0.0849461629986763
-3.0778276920318604 0.9911456108093262 0.6285248398780823 66.0 13 -0.0849415510892868
-2.444697141647339 0.7877316474914551 -0.13460808992385864 41.0 6 -0.08493924885988235
-3.0715951919555664 0.9897311329841614 0.7450379729270935 81.0 14 -0.0849369466304779
-2.938572645187378 0.9474338889122009 -0.05389302968978882 1.0 7 -0.08493464440107346
-3.0593414306640625 0.9869607090950012 0.8613498210906982 98.0 15 -0.08493233472108841
-2.9846203327178955 0.9668833017349243 -0.8406442999839783 4.0 0 -0.08491159975528717
-2.938983201980591 0.9526649117469788 0.053927935659885406 3.0 8 -0.08490929752588272
-3.108616590499878 1.0082515478134155 -0.7544858455657959 29.0 1 -0.08490699529647827
-2.9656333923339844 0.9618762731552124 0.16339287161827087 3.0 9 -0.08490469306707382
-2.653543710708618 0.8611646890640259 -0.5422792434692383 6.0 2 -0.08490238338708878
-3.109666585922241 1.0097910165786743 0.2860451340675354 51.0 10 -0.08490008115768433
-2.3352179527282715 0.7587581872940063 -0.388896107673645 1.0 3 -0.08489777892827988
-3.0922625064849854 1.0053335428237915 0.3992440104484558 56.0 11 -0.08489547669887543
-2.361672878265381 0.7678096294403076 -0.3049171268939972 3.0 4 -0.08489316701889038
-3.0825889110565186 1.0027827024459839 0.5134179592132568 80.0 12 -0.08489086478948593
-3.0894579887390137 1.0062105655670166 0.6315777897834778 67.0 13 -0.08488626033067703
-2.453465223312378 0.7995474338531494 -0.13523612916469574 43.0 6 -0.08488395065069199
-3.0831186771392822 1.0047420263290405 0.7486371397972107 81.0 14 -0.08488164842128754
-2.9354147911071777 0.9571734666824341 -0.05389302968978882 1.0 7 -0.08487934619188309
-3.045032262802124 0.9935052990913391 0.858244001865387 96.0 15 -0.08487704396247864
-2.9740543365478516 0.9743696451187134 -0.8385737538337708 4.0 0 -0.0848563089966774
-2.9244065284729004 0.9586682915687561 0.053718507289886475 3.0 8 -0.08485399931669235
-3.108959674835205 1.0197687149047852 -0.75538569688797 30.0 1 -0.0848516970872879
-2.9736437797546387 0.9759593605995178 0.16402089595794678 3.0 9 -0.08484939485788345
-2.6208276748657227 0.8601639866828918 -0.5361733436584473 1.0 2 -0.084847092628479
-3.104408025741577 1.019476056098938 0.28587085008621216 54.0 10 -0.08484478294849396
-2.3439488410949707 0.7701979279518127 -0.39077335596084595 1.0 3 -0.08484248071908951
-3.0945684909820557 1.0174423456192017 0.3999752104282379 60.0 11 -0.08484017848968506
-2.3740639686584473 0.7810109853744507 -0.3068670332431793 1.0 4 -0.08483787626028061
-3.0865750312805176 1.0160081386566162 0.5146694779396057 80.0 12 -0.08483556658029556
-3.086104154586792 1.01645028591156 0.6315777897834778 68.0 13 -0.08483096212148666
-2.458388328552246 0.8101784586906433 -0.13565480709075928 45.0 6 -0.08482865989208221
-3.083294630050659 1.0167179107666016 0.7495369911193848 81.0 14 -0.08482635766267776
-2.932055711746216 0.967414140701294 -0.05389302968978882 1.0 7 -0.08482404798269272
-3.041546106338501 1.0041277408599854 0.858244001865387 94.0 15 -0.08482174575328827
-2.9889724254608154 0.9908231496810913 -0.8437501192092896 4.0 0 -0.08480101078748703
-2.9362266063690186 0.9739070534706116 0.053997743874788284 3.0 8 -0.08479870855808258
-3.1053807735443115 1.0306156873703003 -0.75538569688797 29.0 1 -0.08479639887809753
-2.9740099906921387 0.9875916838645935 0.16423025727272034 3.0 9 -0.08479409664869308
-3.1121745109558105 1.0340757369995117 0.28691670298576355 55.0 10 -0.08478949218988419
-2.3299989700317383 0.7746359705924988 -0.388896107673645 2.0 3 -0.08478718250989914
-3.090998411178589 1.0282375812530518 0.3999752104282379 63.0 11 -0.08478488028049469
-2.341187000274658 0.7792625427246094 -0.30296722054481506 8.0 4 -0.08478257805109024
-3.0923802852630615 1.0298970937728882 0.5162338018417358 85.0 12 -0.08478027582168579
-3.080674886703491 1.026595115661621 0.6311962008476257 71.0 13 -0.0847756639122963
-2.4441769123077393 0.814965009689331 -0.13502678275108337 45.0 6 -0.08477336168289185
-3.0889694690704346 1.0305581092834473 0.751786470413208 92.0 14 -0.0847710594534874
-2.9286608695983887 0.9776431918144226 -0.05389302968978882 1.0 7 -0.08476875722408295
-3.0526809692382812 1.0196356773376465 0.862385094165802 100.0 15 -0.0847664475440979
-2.9854955673217773 1.0012506246566772 -0.8437501192092896 5.0 0 -0.08474571257829666
-2.9328088760375977 0.9841512441635132 0.053997743874788284 3.0 8 -0.08474341034889221
-3.105459213256836 1.0426890850067139 -0.7562854886054993 30.0 1 -0.08474110811948776
-2.9781177043914795 1.0005111694335938 0.16464893519878387 3.0 9 -0.08473879843950272
-2.3095483779907227 0.7759025692939758 -0.4735879600048065 1.0 2 -0.08473649621009827
-3.1085457801818848 1.044933795928955 0.28691670298576355 57.0 10 -0.08473419398069382
-2.302941083908081 0.7745774388313293 -0.3848288059234619 8.0 3 -0.08473189175128937
-3.0855090618133545 1.0383878946304321 0.39973148703575134 65.0 11 -0.08472958952188492
-2.3290460109710693 0.7842632532119751 -0.30174851417541504 15.0 4 -0.08472727984189987
-3.0999984741210938 1.044468879699707 0.5181110501289368 85.0 12 -0.08472497761249542
-3.082653760910034 1.0392241477966309 0.6323410272598267 68.0 13 -0.08472037315368652
-2.441317081451416 0.8234918713569641 -0.13502678275108337 47.0 6 -0.08471806347370148
-3.0835068225860596 1.0407112836837769 0.7513365745544434 94.0 14 -0.08471576124429703
-2.9252307415008545 0.9878595471382141 -0.05389302968978882 1.0 7 -0.08471345901489258
-3.0564239025115967 1.0327589511871338 0.8644556403160095 100.0 15 -0.08471115678548813
-2.9799764156341553 1.0115654468536377 -0.8432324528694153 4.0 0 -0.08469041436910629
-2.9445042610168457 0.9995242357254028 0.05427698418498039 3.0 8 -0.08468811213970184
-3.1054909229278564 1.0547763109207153 -0.7571852803230286 29.0 1 -0.0846858099102974
-2.974606990814209 1.0109007358551025 0.16464893519878387 3.0 9 -0.08468350768089294
-2.2472097873687744 0.7641370892524719 -0.4613761901855469 1.0 2 -0.0846812054514885
-3.117898941040039 1.0608117580413818 0.28813689947128296 59.0 10 -0.08467889577150345
-2.268296480178833 0.7721913456916809 -0.3795100450515747 10.0 3 -0.084676593542099
-3.0931403636932373 1.0529911518096924 0.40119388699531555 65.0 11 -0.08467429131269455
-2.299987316131592 0.7834271192550659 -0.2983361780643463 19.0 4 -0.0846719890832901
-3.0925941467285156 1.0540090799331665 0.5174852609634399 96.0 12 -0.08466967940330505
-3.0756707191467285 1.0488412380218506 -0.2843020260334015 15.0 5 -0.0846673771739006
-3.0899722576141357 1.0543203353881836 0.6346307396888733 73.0 13 -0.08466507494449615
-2.434502601623535 0.8311431407928467 -0.134817436337471 45.0 6 -0.0846627727150917
-3.0778274536132812 1.0513759851455688 0.7508866190910339 92.0 14 -0.08466046303510666
-2.9217641353607178 0.9980652928352356 -0.05389302968978882 1.0 7 -0.08465816080570221
-3.0637683868408203 1.0471705198287964 0.8675615191459656 102.0 15 -0.08465585857629776
-2.963637113571167 1.017569899559021 -0.8396090269088745 4.0 0 -0.08463512361049652
-2.948385715484619 1.0129085779190063 0.05441660061478615 3.0 8 -0.08463282138109207
-3.108975887298584 1.0686852931976318 -0.7589848637580872 29.0 1 -0.08463051170110703
-2.986170530319214 1.0264719724655151 0.16548630595207214 3.0 9 -0.08462820947170258
-2.1832635402679443 0.7509052753448486 -0.4487827718257904 5.0 2 -0.08462590724229813
-3.116060972213745 1.0723371505737305 0.2883111834526062 61.0 10 -0.08462360501289368
-2.256248712539673 0.7768889665603638 -0.3779457211494446 10.0 3 -0.08462129533290863
-3.09489107131958 1.0662600994110107 0.40192511677742004 70.0 11 -0.08461899310350418
-2.2745800018310547 0.7840885519981384 -0.29541128873825073 24.0 4 -0.08461669087409973
-3.094498872756958 1.0667293071746826 0.518423855304718 91.0 12 -0.08461438864469528
-3.1011202335357666 1.070223093032837 0.6376836895942688 77.0 13 -0.08460977673530579
-2.123861789703369 0.7333782315254211 -0.11775590479373932 17.0 6 -0.08460747450590134
-3.083348274230957 1.0652951002120972 0.753136157989502 89.0 14 -0.08460517227649689
-2.918262481689453 1.0082581043243408 -0.05389302968978882 1.0 7 -0.08460286259651184
-3.0564424991607666 1.0565955638885498 0.866526186466217 102.0 15 -0.08460056036710739
-2.963716983795166 1.0291762351989746 -0.8406442999839783 4.0 0 -0.08457982540130615
-2.9525668621063232 1.0253043174743652 0.0545562244951725 3.0 8 -0.0845775231719017
-3.1109373569488525 1.0809073448181152 -0.7603346109390259 31.0 1 -0.08457522094249725
-2.9976611137390137 1.042136311531067 0.1663236916065216 3.0 9 -0.08457291126251221
-2.165795087814331 0.7533618211746216 -0.4457298517227173 7.0 2 -0.08457060903310776
-3.1066532135009766 1.0812437534332275 0.2877882421016693 58.0 10 -0.08456830680370331
-2.2294068336486816 0.7759256958961487 -0.3738784193992615 13.0 3 -0.08456600457429886
-3.106335401535034 1.081740140914917 0.4038750231266022 68.0 11 -0.08456369489431381
-2.2457234859466553 0.782482922077179 -0.2919989824295044 28.0 4 -0.08456139266490936
-3.0926215648651123 1.0781757831573486 0.5187367796897888 93.0 12 -0.08455909043550491
-2.1840991973876953 0.7618659734725952 -0.2023756206035614 8.0 5 -0.08455678820610046
-3.0864319801330566 1.0766212940216064 0.6353939771652222 77.0 13 -0.08455447852611542
-2.125190019607544 0.7417331337928772 -0.11796525865793228 52.0 6 -0.08455217629671097
-3.0908374786376953 1.079369068145752 0.7558355927467346 83.0 14 -0.08454987406730652
-2.9147255420684814 1.0184379816055298 -0.05389302968978882 1.0 7 -0.08454757183790207
-3.061854362487793 1.0704460144042969 0.8691143989562988 106.0 15 -0.08454526960849762
-2.960287570953369 1.0389987230300903 -0.8406442999839783 5.0 0 -0.08452452719211578
-2.937649726867676 1.0316283702850342 0.05434679239988327 3.0 8 -0.08452222496271133
-3.105306625366211 1.09111487865448 -0.7598847150802612 25.0 1 -0.08451992273330688
-3.0090789794921875 1.0578932762145996 0.16716106235980988 3.0 9 -0.08451762050390244
-2.124389886856079 0.7468656897544861 -0.4377158582210541 16.0 2 -0.08451531082391739
-3.108689785003662 1.0935219526290894 0.2883111834526062 65.0 10 -0.08451300859451294
-2.2024614810943604 0.7751769423484802 -0.36981111764907837 13.0 3 -0.08451070636510849
-3.0987958908081055 1.0912580490112305 0.40338757634162903 72.0 11 -0.08450840413570404
-2.2336173057556152 0.7870182394981384 -0.29078027606010437 27.0 4 -0.084506094455719
-3.103743314743042 1.094218134880066 0.521239697933197 93.0 12 -0.08450379222631454
-2.177802801132202 0.7677797079086304 -0.20202700793743134 15.0 5 -0.0845014899969101
-3.0845065116882324 1.0880415439605713 0.635775625705719 83.0 13 -0.08449918776750565
-2.1094038486480713 0.7444943785667419 -0.117232546210289 65.0 6 -0.0844968855381012
-3.1035890579223633 1.0959910154342651 0.7598847150802612 99.0 14 -0.08449457585811615
-3.061741352081299 1.08241605758667 0.8701496720314026 104.0 15 -0.08448997139930725
-2.9621047973632812 1.051263451576233 -0.8421972393989563 5.0 0 -0.08446923643350601
-2.9528746604919434 1.0485687255859375 0.054695840924978256 3.0 8 -0.08446692675352097
-3.123514413833618 1.1097768545150757 -0.7652835249900818 5.0 1 -0.08446462452411652
-3.0016040802001953 1.0670517683029175 0.1669517159461975 3.0 9 -0.08446232229471207
-2.119920253753662 0.7536186575889587 -0.43733423948287964 27.0 2 -0.08446002006530762
-3.116116523742676 1.1083736419677734 0.28935706615448 65.0 10 -0.08445771038532257
-2.190437078475952 0.779548704624176 -0.36824676394462585 17.0 3 -0.08445540815591812
-3.0968379974365234 1.1027333736419678 0.4036312997341156 75.0 11 -0.08445310592651367
-2.21402645111084 0.7888146638870239 -0.2885866165161133 5.0 4 -0.08445080369710922
-3.112929582595825 1.109688639640808 0.523429811000824 91.0 12 -0.08444850146770477
-2.171355724334717 0.7740389704704285 -0.20167838037014008 26.0 5 -0.08444619178771973
-3.0991814136505127 1.105397343635559 0.6395918130874634 82.0 13 -0.08444388955831528
-2.0861008167266846 0.7444683313369751 -0.11608116328716278 58.0 6 -0.08444158732891083
-3.094238758087158 1.1048520803451538 0.7585350275039673 94.0 14 -0.08443928509950638
-2.0978009700775146 0.7494693994522095 -0.038883961737155914 9.0 7 -0.08443697541952133
-3.068859100341797 1.0969977378845215 0.8732554912567139 104.0 15 -0.08443467319011688
-2.9711456298828125 1.0661643743515015 -0.8458206653594971 6.0 0 -0.08441393822431564
-2.958606719970703 1.0622485876083374 0.0548703633248806 3.0 8 -0.0844116359949112
-2.9999289512634277 1.0776749849319458 0.1670563817024231 3.0 9 -0.0844070240855217
-2.104343891143799 0.7563655376434326 -0.43466290831565857 3.0 2 -0.08440472185611725
-3.119727849960327 1.121941089630127 0.2900542914867401 67.0 10 -0.0844024196267128
-2.182126522064209 0.7851836681365967 -0.3673081696033478 8.0 3 -0.08440011739730835
-3.1041758060455322 1.1175720691680908 0.4050937294960022 77.0 11 -0.0843978077173233
-2.2243330478668213 0.8012477159500122 -0.29029279947280884 1.0 4 -0.08439550548791885
-3.1036572456359863 1.117997169494629 0.5224911570549011 96.0 12 -0.0843932032585144
-2.172389507293701 0.7829649448394775 -0.20202700793743134 29.0 5 -0.08439090102910995
-3.1026909351348877 1.1188727617263794 0.6411182284355164 83.0 13 -0.08438859134912491
-2.081610679626465 0.7510678768157959 -0.1159764900803566 52.0 6 -0.08438628911972046
-3.092195987701416 1.1163079738616943 0.7589848637580872 99.0 14 -0.08438398689031601
-2.0896613597869873 0.7543848156929016 -0.03877924755215645 51.0 7 -0.08438168466091156
-3.074289083480835 1.110450029373169 0.8758436441421509 102.0 15 -0.08437937498092651
-2.9528770446777344 1.0712591409683228 -0.841679573059082 6.0 0 -0.08435864001512527
-2.9550678730010986 1.0720539093017578 0.0548703633248806 1.0 8 -0.08435633778572083
-2.999903440475464 1.0895037651062012 0.16726572811603546 3.0 9 -0.08435173332691193
-3.113919973373413 1.132143497467041 0.28988000750541687 74.0 10 -0.08434712141752243
-3.109780788421631 1.1312522888183594 0.40631240606307983 89.0 11 -0.08434251695871353
-3.103447675704956 1.130176067352295 0.5231168866157532 93.0 12 -0.08433790504932404
-2.1565394401550293 0.7857681512832642 -0.20080682635307312 30.0 5 -0.08433560281991959
-3.1137208938598633 1.134531855583191 0.6441711783409119 83.0 13 -0.08433330059051514
-2.079108476638794 0.7579666376113892 -0.1159764900803566 51.0 6 -0.08433099091053009
-3.097630739212036 1.1298949718475342 0.7612344026565552 94.0 14 -0.08432868868112564
-2.0832583904266357 0.7603033781051636 -0.03870943933725357 83.0 7 -0.08432638645172119
-3.068579912185669 1.1205120086669922 0.8753260374069214 106.0 15 -0.08432408422231674
-2.9275426864624023 1.0730665922164917 -0.8354679346084595 6.0 0 -0.0843033492565155
-2.0839388370513916 0.7642631530761719 0.03874434158205986 8.0 8 -0.08430103957653046
-3.0204555988311768 1.108917236328125 0.16862647235393524 2.0 9 -0.08429643511772156
-3.1176295280456543 1.1452114582061768 0.290577232837677 80.0 10 -0.08429182320833206
-3.1132652759552 1.1448417901992798 0.4072873890399933 93.0 11 -0.08428721874952316
-3.1106066703796387 1.1450961828231812 0.5249941349029541 96.0 12 -0.08428260684013367
-2.1427035331726074 0.7887855172157288 -0.19976095855236053 27.0 5 -0.08428030461072922
-3.1097412109375 1.1453946828842163 0.6441711783409119 82.0 13 -0.08427800238132477
-2.0764501094818115 0.765219509601593 -0.1159764900803566 55.0 6 -0.08427570015192032
-3.1028099060058594 1.1440709829330444 0.7634838819503784 99.0 14 -0.08427339047193527
-2.0693349838256836 0.7634179592132568 -0.03850000724196434 56.0 7 -0.08427108824253082
-3.0610251426696777 1.1298787593841553 0.8742908239364624 104.0 15 -0.08426878601312637
-2.9056639671325684 1.0765681266784668 -0.8302915096282959 7.0 0 -0.08424805104732513
-2.05875825881958 0.7631919384002686 0.038325484842061996 39.0 8 -0.08424574881792068
-3.127042531967163 1.1604527235031128 0.17480210959911346 18.0 9 -0.08424113690853119
-3.115480899810791 1.1567800045013428 0.29075154662132263 85.0 10 -0.08423653244972229
-3.1055283546447754 1.154318928718567 0.40679988265037537 97.0 11 -0.0842319205403328
-2.1229348182678223 0.7895119786262512 -0.27810585498809814 1.0 4 -0.08422961831092834
-3.11584734916687 1.1593916416168213 0.5265584588050842 93.0 12 -0.0842273160815239
-2.1306002140045166 0.7927860021591187 -0.19888940453529358 3.0 5 -0.08422500640153885
-3.1020443439483643 1.1548728942871094 0.6434080004692078 85.0 13 -0.0842227041721344
-2.058793306350708 0.7668852210044861 -0.11513911187648773 53.0 6 -0.08422040194272995
-3.113405704498291 1.1603400707244873 0.7670831084251404 100.0 14 -0.0842180997133255
-2.0610365867614746 0.7685407400131226 -0.038395293056964874 45.0 7 -0.08421579748392105
-3.078782558441162 1.148659586906433 0.880502462387085 106.0 15 -0.084213487803936
-2.858468532562256 1.0704437494277954 -0.817868173122406 20.0 0 -0.08419275283813477
-2.0448460578918457 0.7661640644073486 0.038116052746772766 42.0 8 -0.08419045060873032
-3.139803409576416 1.177673101425171 0.1757441610097885 70.0 9 -0.08418583869934082
-2.0973916053771973 0.7866867780685425 -0.43542614579200745 1.0 2 -0.08418353646993637
-3.120750665664673 1.1711481809616089 0.2916231155395508 100.0 10 -0.08418123424053192
-2.106367349624634 0.7908926606178284 -0.35635775327682495 1.0 3 -0.08417893201112747
-3.1089134216308594 1.167944073677063 0.4077748656272888 100.0 11 -0.08417662233114243
-2.0941519737243652 0.7871395945549011 -0.2746935188770294 1.0 4 -0.08417432010173798
-3.115478754043579 1.1716524362564087 0.5271841883659363 96.0 12 -0.08417201787233353
-3.110856771469116 1.1705331802368164 0.6460793018341064 90.0 13 -0.08416741341352463
-2.05236554145813 0.7726597785949707 -0.11492977291345596 29.0 6 -0.08416510373353958
-3.091099739074707 1.1643317937850952 0.7625840902328491 100.0 14 -0.08416280150413513
-2.0564703941345215 0.7750247716903687 -0.038360390812158585 40.0 7 -0.08416049927473068
-3.078369379043579 1.1607627868652344 0.881537675857544 108.0 15 -0.08415819704532623
-2.8511009216308594 1.0790475606918335 -0.816832959651947 38.0 0 -0.0841374546289444
-2.038419485092163 0.771880567073822 0.03804624453186989 44.0 8 -0.08413515239953995
-3.1356732845306396 1.1886260509490967 0.1757441610097885 55.0 9 -0.08413054794073105
-2.094632863998413 0.7940033078193665 -0.43542614579200745 1.0 2 -0.0841282457113266
-3.138998508453369 1.190513014793396 0.29371485114097595 93.0 10 -0.08412593603134155
-2.1035938262939453 0.7982400059700012 -0.35635775327682495 1.0 3 -0.0841236338019371
-3.112240791320801 1.1816076040267944 0.4087498188018799 100.0 11 -0.08412133157253265
-3.111370325088501 1.1825196743011475 0.5271841883659363 96.0 12 -0.08411671966314316
-3.110421895980835 1.1827806234359741 0.6468425393104553 92.0 13 -0.08411211520433426
-3.0870168209075928 1.1751139163970947 0.7625840902328491 100.0 14 -0.08410750329494476
-2.02945876121521 0.7729459404945374 -0.03790662810206413 32.0 7 -0.08410520106554031
-3.092350721359253 1.178381085395813 0.8867141008377075 106.0 15 -0.08410289883613586
-2.8364908695220947 1.084851861000061 -0.813727080821991 45.0 0 -0.08408216387033463
-2.035712480545044 0.7789918184280396 0.03804624453186989 41.0 8 -0.08407986164093018
-2.102001428604126 0.8047787547111511 -0.5196369886398315 1.0 1 -0.08407755196094513
-3.142695426940918 1.2038509845733643 0.17637218534946442 56.0 9 -0.08407524973154068
-2.091848373413086 0.801310122013092 -0.43542614579200745 1.0 2 -0.08407294750213623
-3.125521659851074 1.1978979110717773 0.2928432822227478 72.0 10 -0.08407064527273178
-2.0417730808258057 0.7829455137252808 -0.3463459312915802 1.0 3 -0.08406833559274673
-3.115510940551758 1.1953084468841553 0.40972477197647095 100.0 11 -0.08406603336334229
-2.0515403747558594 0.7875123620033264 -0.2698187232017517 1.0 4 -0.08406373113393784
-3.109067678451538 1.1940815448760986 0.5274971127510071 91.0 12 -0.08406142890453339
-3.1154372692108154 1.1971518993377686 0.6487506031990051 83.0 13 -0.08405681699514389
-3.095627784729004 1.1907800436019897 0.7657334208488464 94.0 14 -0.08405221253633499
-3.0575711727142334 1.1773662567138672 0.8779142498970032 96.0 15 -0.0840476006269455
-2.834488868713379 1.0954430103302002 -0.8142447471618652 41.0 0 -0.08402686566114426
-2.066464900970459 0.799454927444458 -0.5115387439727783 2.0 1 -0.08402226120233536
-3.1496500968933105 1.2191388607025146 0.1770002245903015 29.0 9 -0.08401995152235031
-1.9974945783615112 0.7731726169586182 -0.4163452684879303 1.0 2 -0.08401764929294586
-3.0748727321624756 1.1908127069473267 0.28848549723625183 36.0 10 -0.08401534706354141
-2.035343647003174 0.7886404395103455 -0.34572020173072815 1.0 3 -0.08401304483413696
-3.0835564136505127 1.1954134702682495 0.40606871247291565 75.0 11 -0.08401073515415192
-2.0746896266937256 0.8047189116477966 -0.2732310891151428 1.0 4 -0.08400843292474747
-3.0809402465820312 1.1956363916397095 0.523429811000824 85.0 12 -0.08400613069534302
-3.083787441253662 1.197360634803772 0.6430263519287109 77.0 13 -0.08400151878595352
-3.07873797416687 1.1966367959976196 0.7625840902328491 92.0 14 -0.08399691432714462
-3.046241044998169 1.185230016708374 0.8758436441421509 94.0 15 -0.08399230241775513
-2.8360462188720703 1.107439398765564 -0.8157976865768433 36.0 0 -0.08397156745195389
-2.007873296737671 0.7844524383544922 0.037627387791872025 1.0 8 -0.08396926522254944
-2.09633207321167 0.819433331489563 -0.5196369886398315 1.0 1 -0.08396696299314499
-2.0795559883117676 0.8132947683334351 0.11702320724725723 10.0 9 -0.08396466076374054
-1.9545584917068481 0.7644094228744507 -0.40794962644577026 1.0 2 -0.0839623510837555
-3.091107130050659 1.2095248699188232 0.29040294885635376 38.0 10 -0.08396004885435104
-2.0509731769561768 0.8029412627220154 -0.3488488793373108 5.0 3 -0.0839577466249466
-3.083061456680298 1.2076178789138794 0.4065561592578888 82.0 11 -0.08395544439554214
-2.0607783794403076 0.8076101541519165 -0.2717686593532562 1.0 4 -0.0839531347155571
-3.0859434604644775 1.2099883556365967 0.5249941349029541 87.0 12 -0.08395083248615265
-3.066795587539673 1.2030988931655884 0.6403550505638123 71.0 13 -0.08394622802734375
-2.054391384124756 0.8063482642173767 -0.11566247045993805 1.0 6 -0.0839439183473587
-3.079983711242676 1.2095134258270264 0.7639338374137878 89.0 14 -0.08394161611795425
-2.036142587661743 0.8000058531761169 -0.03818586841225624 1.0 7 -0.0839393138885498
-3.0420851707458496 1.1958562135696411 0.8758436441421509 96.0 15 -0.08393701165914536
-2.8573215007781982 1.1272578239440918 -0.8230445981025696 27.0 0 -0.08391627669334412
-2.8384034633636475 1.1209393739700317 -0.7045467495918274 41.0 1 -0.08391166478395462
-2.0655593872070312 0.8161453008651733 0.11639518290758133 40.0 9 -0.08390936255455017
-1.9774409532546997 0.7813278436660767 -0.4132923185825348 2.0 2 -0.08390706032514572
-3.0905721187591553 1.2217718362808228 0.29075154662132263 41.0 10 -0.08390475064516068
-2.0628528594970703 0.8159083724021912 -0.3513518273830414 6.0 3 -0.08390244841575623
-3.082519054412842 1.219833254814148 0.4070436358451843 83.0 11 -0.08390014618635178
-2.0653297901153564 0.8177213668823242 -0.2727436125278473 1.0 4 -0.08389784395694733
-3.0872104167938232 1.2229363918304443 0.5259327292442322 85.0 12 -0.08389553427696228
-2.093154191970825 0.8291609287261963 -0.19697196781635284 1.0 5 -0.08389323204755783
-3.0680527687072754 1.2159669399261475 0.6414998769760132 68.0 13 -0.08389092981815338
-1.9921528100967407 0.7899553179740906 -0.11231297254562378 1.0 6 -0.08388862758874893
-3.072120189666748 1.2188198566436768 0.7630340456962585 83.0 14 -0.08388632535934448
-1.9887306690216064 0.7894023060798645 -0.037348151206970215 1.0 7 -0.08388401567935944
-3.0522561073303223 1.2121715545654297 0.8799847960472107 92.0 15 -0.08388171344995499
-2.89643931388855 1.1543899774551392 -0.8354679346084595 19.0 0 -0.08386097848415375
-1.9540538787841797 0.7791928052902222 0.03671986237168312 1.0 8 -0.0838586762547493
-2.82723331451416 1.127951979637146 -0.702747106552124 54.0 1 -0.08385636657476425
-2.038583755493164 0.8137245178222656 0.11503444612026215 30.0 9 -0.0838540643453598
-1.9674081802368164 0.7853139042854309 -0.41176581382751465 4.0 2 -0.08385176211595535
-3.0973899364471436 1.2369860410690308 0.291797399520874 42.0 10 -0.0838494598865509
-2.056323528289795 0.8216383457183838 -0.35072609782218933 7.0 3 -0.08384715020656586
-3.076399087905884 1.2298483848571777 0.40679988265037537 78.0 11 -0.08384484797716141
-3.084756374359131 1.2344392538070679 0.5262455940246582 87.0 12 -0.08384024351835251
-2.0902469158172607 0.8364624381065369 -0.19697196781635284 1.0 5 -0.08383794128894806
-3.0783705711364746 1.2325061559677124 0.6445528268814087 68.0 13 -0.08383563160896301
-2.035733938217163 0.8154721856117249 -0.11492977291345596 7.0 6 -0.08383332937955856
-3.066038131713867 1.2288113832473755 0.7625840902328491 86.0 14 -0.08383102715015411
-1.9785391092300415 0.7933621406555176 -0.03720853105187416 1.0 7 -0.08382872492074966
-3.0659351348876953 1.23001229763031 0.8851611614227295 90.0 15 -0.08382641524076462
-2.897768497467041 1.1666579246520996 -0.8370208144187927 14.0 0 -0.08380568027496338
-1.9364829063415527 0.780032217502594 0.03644062578678131 1.0 8 -0.08380337804555893
-2.816049098968506 1.134899616241455 -0.7009475231170654 56.0 1 -0.08380107581615448
-2.0357308387756348 0.8208355903625488 0.11503444612026215 28.0 9 -0.08379877358675003
-1.950088620185852 0.7863034009933472 -0.40871289372444153 1.0 2 -0.08379646390676498
-3.093052864074707 1.2477912902832031 0.291797399520874 42.0 10 -0.08379416167736053
-2.0644338130950928 0.8332469463348389 -0.35260334610939026 7.0 3 -0.08379185944795609
-3.0831313133239746 1.2450393438339233 0.40826234221458435 81.0 11 -0.08378955721855164
-2.0319623947143555 0.8209662437438965 -0.269087553024292 3.0 4 -0.08378724753856659
-3.074934959411621 1.2429779767990112 0.5253069996833801 85.0 12 -0.08378494530916214
-2.0614542961120605 0.8332996368408203 -0.1945316195487976 3.0 5 -0.08378264307975769
-3.081329584121704 1.2461886405944824 0.6460793018341064 67.0 13 -0.08378034085035324
-2.02917218208313 0.8210749626159668 -0.1147204264998436 6.0 6 -0.0837780311703682
-3.0743746757507324 1.2446244955062866 0.7657334208488464 89.0 14 -0.08377572894096375
-1.9813175201416016 0.8025162220001221 -0.03731324523687363 6.0 7 -0.0837734267115593
-3.0455095767974854 1.2341771125793457 0.880502462387085 84.0 15 -0.08377112448215485
-2.8990468978881836 1.1789493560791016 -0.8385737538337708 12.0 0 -0.08375038951635361
-1.8670673370361328 0.7596560716629028 0.03518405184149742 1.0 8 -0.08374807983636856
-2.8192899227142334 1.147661566734314 -0.702747106552124 51.0 1 -0.08374577760696411
-2.0384023189544678 0.830196738243103 0.1153484508395195 26.0 9 -0.08374347537755966
-1.9546047449111938 0.7960678339004517 -0.4102393686771393 1.0 2 -0.08374117314815521
-3.084988594055176 1.2570761442184448 0.29144880175590515 42.0 10 -0.08373886346817017
-2.0432207584381104 0.8329907655715942 -0.34947463870048523 7.0 3 -0.08373656123876572
-3.089794635772705 1.2602932453155518 0.40972477197647095 89.0 11 -0.08373425900936127
-2.043787956237793 0.8340539932250977 -0.2710374593734741 3.0 4 -0.08373195677995682
-2.043776512145996 0.834465503692627 -0.19313712418079376 3.0 5 -0.08372734487056732
-3.0733256340026855 1.2554528713226318 0.6453160643577576 67.0 13 -0.08372504264116287
-2.037386655807495 0.8326863050460815 -0.1153484508395195 3.0 6 -0.08372274041175842
-3.0700113773345947 1.255348563194275 0.7657334208488464 83.0 14 -0.08372043073177338
-1.9896092414855957 0.813970685005188 -0.03752267360687256 8.0 7 -0.08371812850236893
-3.04118275642395 1.2448004484176636 0.880502462387085 84.0 15 -0.08371582627296448
-2.894913911819458 1.1890617609024048 -0.8385737538337708 10.0 0 -0.08369509130716324
-1.890298843383789 0.7768100500106812 0.03567272052168846 1.0 8 -0.08369278907775879
-2.7990455627441406 1.1508265733718872 -0.6986980438232422 45.0 1 -0.08369047939777374
-2.0391862392425537 0.8388267755508423 0.11555780470371246 26.0 9 -0.0836881771683693
-1.9663392305374146 0.8088608384132385 -0.4132923185825348 1.0 2 -0.08368587493896484
-3.099006175994873 1.2754199504852295 0.29319190979003906 41.0 10 -0.0836835727095604
-2.0439536571502686 0.8416220545768738 -0.3501003682613373 6.0 3 -0.08368126302957535
-3.0853769779205322 1.2710702419281006 0.40972477197647095 81.0 11 -0.0836789608001709
-2.0316872596740723 0.8374007940292358 -0.2698187232017517 3.0 4 -0.08367665857076645
-2.0982985496520996 0.8652843832969666 0.3594864308834076 1.0 12 -0.083674356341362
-2.0279576778411865 0.8362776041030884 -0.19191694259643555 3.0 5 -0.08367204666137695
-3.0616652965545654 1.2631772756576538 0.6437895894050598 67.0 13 -0.0836697444319725
-2.0049290657043457 0.8276001811027527 -0.11367370933294296 6.0 6 -0.08366744220256805
-3.0746161937713623 1.269777536392212 0.7679829597473145 81.0 14 -0.0836651399731636
-1.9867557287216187 0.8209108114242554 -0.03752267360687256 8.0 7 -0.08366283774375916
-3.0439603328704834 1.2583600282669067 0.8825729489326477 82.0 15 -0.08366052806377411
-2.8980934619903564 1.2016141414642334 -0.8406442999839783 10.0 0 -0.08364081382751465
-1.8987950086593628 0.7876715660095215 0.035882145166397095 1.0 8 -0.0836385115981102
-2.8024134635925293 1.1630903482437134 -0.7004976272583008 34.0 1 -0.08363620936870575
-2.014258623123169 0.8363932371139526 0.11430173367261887 26.0 9 -0.0836338996887207
-1.9999091625213623 0.8304348587989807 -0.42092466354370117 1.0 2 -0.08363159745931625
-3.0984396934509277 1.2872185707092285 0.2935405373573303 41.0 10 -0.0836292952299118
-2.041151285171509 0.848395586013794 -0.3501003682613373 6.0 3 -0.08362699300050735
-3.086643695831299 1.2835816144943237 0.41045600175857544 71.0 11 -0.08362468332052231
-2.01423716545105 0.8380333185195923 -0.26786884665489197 3.0 4 -0.08362238109111786
-2.0826518535614014 0.8669240474700928 0.3572963774204254 1.0 12 -0.08362007886171341
-2.047245979309082 0.8521860241889954 -0.19400867819786072 4.0 5 -0.08361777663230896
-3.068333864212036 1.2778520584106445 0.6460793018341064 66.0 13 -0.08361546695232391
-1.9966425895690918 0.831939697265625 -0.11335969716310501 7.0 6 -0.08361316472291946
-3.0721874237060547 1.2807154655456543 0.7684328556060791 83.0 14 -0.08361086249351501
-1.984022617340088 0.8274946808815002 -0.03752267360687256 6.0 7 -0.08360856026411057
-3.0540337562561035 1.2743991613388062 0.8867141008377075 82.0 15 -0.08360625058412552
-2.9045727252960205 1.216200590133667 -0.8437501192092896 9.0 0 -0.08358551561832428
-1.9071003198623657 0.7989308834075928 0.036091577261686325 1.0 8 -0.08358321338891983
-2.9277396202087402 1.227101445198059 -0.7328906059265137 27.0 1 -0.08358091115951538
-2.0002756118774414 0.8387851119041443 0.11367370933294296 33.0 9 -0.08357860893011093
-1.9535458087921143 0.8191896677017212 -0.41176581382751465 1.0 2 -0.08357629925012589
-3.101276397705078 1.3011094331741333 0.29423779249191284 41.0 10 -0.08357399702072144
-2.0345349311828613 0.8539859056472778 -0.34947463870048523 7.0 3 -0.08357169479131699
-2.0112993717193604 0.8450592756271362 -0.26786884665489197 3.0 4 -0.08356708288192749
-2.037729024887085 0.8565828800201416 0.3501003682613373 1.0 12 -0.08356478065252304
-2.036911964416504 0.856239378452301 -0.1933114379644394 7.0 5 -0.08356247842311859
-3.087380886077881 1.2984492778778076 0.6510403156280518 42.0 13 -0.08356017619371414
-2.0047719478607178 0.8435519337654114 -0.11398772895336151 9.0 6 -0.0835578665137291
-3.0587174892425537 1.2876518964767456 0.7661833167076111 75.0 14 -0.08355556428432465
-1.9663788080215454 0.8282051682472229 -0.03724343329668045 6.0 7 -0.0835532620549202
-3.0638086795806885 1.291053295135498 0.8908551931381226 76.0 15 -0.08355095982551575
-2.886075019836426 1.220313310623169 -0.8396090269088745 7.0 0 -0.08353022485971451
-1.874833106994629 0.793117105960846 0.03553309664130211 1.0 8 -0.08352791517972946
-3.1459710597991943 1.3314993381500244 -0.7886784672737122 46.0 1 -0.08352561295032501
-2.0028529167175293 0.848098635673523 0.11398772895336151 36.0 9 -0.08352331072092056
-1.972368597984314 0.8351902365684509 -0.4163452684879303 1.0 2 -0.08352100849151611
-3.102219820022583 1.314258098602295 0.29476073384284973 36.0 10 -0.08351869881153107
-2.038816452026367 0.8641666173934937 -0.35072609782218933 7.0 3 -0.08351639658212662
-2.0962088108062744 0.8889244198799133 0.27956831455230713 31.0 11 -0.08351409435272217
-2.0156471729278564 0.8551756739616394 -0.26884379982948303 3.0 4 -0.08351179212331772
-2.031090259552002 0.8621466159820557 0.34947463870048523 2.0 12 -0.08350948244333267
-2.0210726261138916 0.8578943610191345 -0.19209124147891998 7.0 5 -0.08350718021392822
-1.9963010549545288 0.848201334476471 -0.11367370933294296 9.0 6 -0.08350257575511932
-3.066758394241333 1.303656816482544 0.7693326473236084 78.0 14 -0.08350027352571487
-1.9487543106079102 0.8288030624389648 -0.03696419671177864 8.0 7 -0.08349796384572983
-3.05572772026062 1.3002283573150635 0.8898199200630188 80.0 15 -0.08349566161632538
-2.876467704772949 1.2281038761138916 -0.8380560874938965 7.0 0 -0.08347492665052414
-1.8830868005752563 0.8043698668479919 0.03574252873659134 1.0 8 -0.08347262442111969
-3.1484718322753906 1.3455359935760498 -0.7904780507087708 21.0 1 -0.08347031474113464
-1.9943711757659912 0.8527287840843201 0.11367370933294296 40.0 9 -0.0834680125117302
-1.9874931573867798 0.8497879505157471 -0.4201614260673523 1.0 2 -0.08346571028232574
-3.093949556350708 1.3235117197036743 0.29441210627555847 38.0 10 -0.0834634080529213
-2.0285232067108154 0.8681692481040955 -0.34947463870048523 7.0 3 -0.08346109837293625
-2.0985679626464844 0.8985797762870789 0.28029951453208923 34.0 11 -0.0834587961435318
-2.027247190475464 0.8684605360031128 -0.27079370617866516 2.0 4 -0.08345649391412735
-2.024437189102173 0.8676748275756836 0.3488488793373108 2.0 12 -0.0834541916847229
-2.007078170776367 0.860234797000885 -0.1910453885793686 6.0 5 -0.08345188945531845
-2.0912551879882812 0.8967445492744446 0.44229528307914734 1.0 13 -0.0834495797753334
-1.9878212213516235 0.8528026938438416 -0.11335969716310501 7.0 6 -0.08344727754592896
-3.0729336738586426 1.3189657926559448 0.7720320820808411 83.0 14 -0.0834449753165245
-1.9678988456726074 0.8450691103935242 -0.0373830571770668 8.0 7 -0.08344267308712006
-3.0476207733154297 1.3093609809875488 0.888784646987915 78.0 15 -0.08344036340713501
-2.8721635341644287 1.2381372451782227 -0.8380560874938965 6.0 0 -0.08341962844133377
-1.8710863590240479 0.8069790005683899 0.035568006336688995 2.0 8 -0.08341732621192932
-1.9950497150421143 0.8612684607505798 0.11388305574655533 43.0 9 -0.08341271430253983
-1.9845147132873535 0.8567204475402832 -0.4201614260673523 1.0 2 -0.08341041207313538
-3.0966267585754395 1.337464451789856 0.2951093316078186 40.0 10 -0.08340810984373093
-2.0218539237976074 0.8736772537231445 -0.3488488793373108 7.0 3 -0.08340580761432648
-2.086308002471924 0.9019610285758972 0.2790808379650116 39.0 11 -0.08340350538492203
-2.024203300476074 0.8755317330360413 -0.27079370617866516 1.0 4 -0.08340119570493698
-2.010518789291382 0.8700286149978638 0.34697169065475464 2.0 12 -0.08339889347553253
-2.0095489025115967 0.8696089386940002 -0.19156832993030548 7.0 5 -0.08339659124612808
-2.026855945587158 0.877518355846405 0.42932024598121643 1.0 13 -0.08339428901672363
-1.9738359451293945 0.8549731969833374 -0.11273165792226791 9.0 6 -0.08339197933673859
-3.082615375518799 1.3358834981918335 0.775631308555603 83.0 14 -0.08338967710733414
-1.9649369716644287 0.8519333004951477 -0.0373830571770668 10.0 7 -0.08338737487792969
-3.0536651611328125 1.3246039152145386 0.8918904662132263 76.0 15 -0.08338507264852524
-2.8713667392730713 1.2496973276138306 -0.8390913605690002 6.0 0 -0.0833643302321434
-1.8700917959213257 0.8143033981323242 0.035602912306785583 1.0 8 -0.08336202800273895
-1.9828763008117676 0.8642377853393555 0.11335969716310501 49.0 9 -0.08335742354393005
-1.9887107610702515 0.8667807579040527 -0.42168790102005005 1.0 2 -0.0833551213145256
-3.1028974056243896 1.3530430793762207 0.2961552143096924 40.0 10 -0.08335281163454056
-2.024223566055298 0.8830992579460144 -0.34978750348091125 8.0 3 -0.08335050940513611
-2.070411205291748 0.9036799669265747 0.27737462520599365 25.0 11 -0.08334820717573166
-2.0102195739746094 0.8778256773948669 -0.26933127641677856 1.0 4 -0.08334590494632721
-2.0038490295410156 0.8754596710205078 0.3463459312915802 3.0 12 -0.08334359526634216
-2.002849578857422 0.8750229477882385 -0.19121968746185303 8.0 5 -0.08334129303693771
-2.0381717681884766 0.8908790349960327 0.43237319588661194 1.0 13 -0.08333899080753326
-1.958030104637146 0.856256365776062 -0.11199896037578583 9.0 6 -0.08333668857812881
-3.0672216415405273 1.3419482707977295 0.7729318737983704 78.0 14 -0.08333437889814377
-1.9601192474365234 0.8579850792884827 -0.037348151206970215 9.0 7 -0.08333207666873932
-3.059640645980835 1.339905023574829 0.8949962854385376 76.0 15 -0.08332977443933487
-2.8457629680633545 1.2503873109817505 -0.8328797221183777 1.0 0 -0.08330903947353363
-1.8654072284698486 0.8200215101242065 0.035568006336688995 2.0 8 -0.08330673724412918
-2.2797493934631348 1.002638578414917 -0.5749749541282654 1.0 1 -0.08330442756414413
-1.9743634462356567 0.868740439414978 0.11304567754268646 53.0 9 -0.08330212533473969
-1.9605153799057007 0.8626471757888794 -0.4163452684879303 2.0 2 -0.08329982310533524
-3.1163907051086426 1.3718935251235962 0.2978983223438263 27.0 10 -0.08329752087593079
-2.0247442722320557 0.8917521238327026 -0.3504132330417633 8.0 3 -0.08329521119594574
-2.0599780082702637 0.9076999425888062 0.276399701833725 12.0 11 -0.08329290896654129
-2.0180418491363525 0.8896414637565613 -0.27079370617866516 1.0 4 -0.08329060673713684
-1.9917436838150024 0.8784638047218323 0.3447815775871277 3.0 12 -0.08328830450773239
-2.001605749130249 0.8828134536743164 -0.19139400124549866 9.0 5 -0.08328599482774734
-2.0458264350891113 0.9027436971664429 0.43466290831565857 1.0 13 -0.0832836925983429
-1.967819094657898 0.8687318563461304 -0.11273165792226791 11.0 6 -0.08328139036893845
-3.067866086959839 1.3550095558166504 0.7742815613746643 74.0 14 -0.083279088139534
-1.9516249895095825 0.862397313117981 -0.03724343329668045 8.0 7 -0.08327677845954895
-3.063779592514038 1.3544819355010986 0.8975844979286194 72.0 15 -0.0832744762301445
-1.855222225189209 0.8232836127281189 0.03542838618159294 2.0 8 -0.08325143903493881
-1.974969506263733 0.8772485256195068 0.11325501650571823 53.0 9 -0.08324682712554932
-1.9772285223007202 0.8782519698143005 -0.42054301500320435 2.0 2 -0.08324452489614487
-2.1138370037078857 0.9393729567527771 0.2023756206035614 1.0 10 -0.08324222266674042
-2.025228977203369 0.900420069694519 -0.35103899240493774 8.0 3 -0.08323992043733597
-2.044100761413574 0.9092372059822083 0.2746935188770294 2.0 11 -0.08323761075735092
-2.0149242877960205 0.8966804146766663 -0.27079370617866516 1.0 4 -0.08323530852794647
-1.959791898727417 0.8725557923316956 0.3397757112979889 1.0 12 -0.08323300629854202
-1.982130765914917 0.8825016617774963 -0.18982520699501038 8.0 5 -0.08323070406913757
-2.031902551651001 0.9050859212875366 0.43237319588661194 1.0 13 -0.08322839438915253
-1.9611262083053589 0.8739696145057678 -0.11252231895923615 12.0 6 -0.08322609215974808
-3.0684571266174316 1.3680908679962158 0.775631308555603 71.0 14 -0.08322378993034363
-1.9339929819107056 0.8626870512962341 -0.03696419671177864 8.0 7 -0.08322148770093918
-3.059032440185547 1.3651690483093262 0.8975844979286194 70.0 15 -0.08321918547153473
-1.8578121662139893 0.8322066068649292 0.03553309664130211 2.0 8 -0.08319614082574844
-1.9718952178955078 0.8841371536254883 0.11325501650571823 53.0 9 -0.08319153636693954
-1.9795252084732056 0.8875582218170166 -0.42168790102005005 3.0 2 -0.0831892266869545
-2.0614631175994873 0.9247281551361084 0.19766922295093536 20.0 10 -0.08318692445755005
-2.0202715396881104 0.9066746830940247 -0.35072609782218933 9.0 3 -0.0831846222281456
-2.0264270305633545 0.9098621606826782 0.2727436125278473 2.0 11 -0.08318231999874115
-1.9828089475631714 0.8906940817832947 -0.2668938934803009 1.0 4 -0.0831800103187561
-1.9711484909057617 0.8858689665794373 0.3422786593437195 1.0 12 -0.08317770808935165
-1.9754036664962769 0.8877813220024109 -0.18947657942771912 8.0 5 -0.0831754058599472
-2.0752861499786377 0.9331056475639343 0.44229528307914734 1.0 13 -0.08317310363054276
-1.963527798652649 0.8832685351371765 -0.1128363311290741 9.0 6 -0.0831708014011383
-3.0725483894348145 1.3827916383743286 0.7778807878494263 75.0 14 -0.08316849172115326
-1.9382635354995728 0.8727167844772339 -0.037103816866874695 9.0 7 -0.08316618949174881
-3.054248571395874 1.3758388757705688 0.8975844979286194 72.0 15 -0.08316388726234436
-2.2234084606170654 1.0048412084579468 -0.6537768840789795 1.0 0 -0.08314315229654312
-1.851251482963562 0.8370392918586731 0.03546328842639923 1.0 8 -0.08314084261655807
-2.208756923675537 0.9991489052772522 -0.5596782565116882 7.0 1 -0.08313854038715363
-1.972436547279358 0.8926616311073303 0.1134643703699112 55.0 9 -0.08313623815774918
-1.9978785514831543 0.904175877571106 -0.4262673258781433 3.0 2 -0.08313393592834473
-2.080002546310425 0.9417805075645447 0.19976095855236053 38.0 10 -0.08313162624835968
-2.009896993637085 0.910460889339447 -0.34947463870048523 9.0 3 -0.08312932401895523
-1.9925012588500977 0.902999997138977 0.2686000466346741 5.0 11 -0.08312702178955078
-2.01223087310791 0.9123648405075073 -0.2712811827659607 1.0 4 -0.08312471956014633
-1.9824355840682983 0.8992724418640137 0.3447815775871277 2.0 12 -0.08312241733074188
-1.9777358770370483 0.897140622138977 -0.1899995058774948 9.0 5 -0.08312010765075684
-1.9513397216796875 0.885988175868988 -0.11231297254562378 10.0 6 -0.08311550319194794
-3.078348398208618 1.3983443975448608 0.7805802226066589 74.0 14 -0.08311320096254349
-1.940666675567627 0.881959855556488 -0.03720853105187416 10.0 7 -0.08311089128255844
-3.059979200363159 1.3912887573242188 0.9006903171539307 70.0 15 -0.08310858905315399
-2.2128570079803467 1.0093895196914673 -0.6517063975334167 2.0 0 -0.08308785408735275
-1.8646914958953857 0.8509683012962341 0.03577743470668793 2.0 8 -0.0830855518579483
-2.185756206512451 0.9979492425918579 -0.5547293424606323 9.0 1 -0.08308324217796326
-1.96219801902771 0.8958795070648193 0.11304567754268646 55.0 9 -0.08308093994855881
-2.0000672340393066 0.9135918617248535 -0.42741215229034424 4.0 2 -0.08307863771915436
-2.0658295154571533 0.94406658411026 0.19871510565280914 43.0 10 -0.08307633548974991
-2.0174853801727295 0.9223993420600891 -0.3513518273830414 9.0 3 -0.08307403326034546
-1.9929476976394653 0.9116012454032898 0.269087553024292 6.0 11 -0.08307172358036041
-1.9911422729492188 0.9107754230499268 -0.26884379982948303 1.0 4 -0.08306942135095596
-1.975850224494934 0.904197633266449 0.34415584802627563 4.0 12 -0.08306711912155151
-1.9709692001342773 0.9023800492286682 -0.18965089321136475 10.0 5 -0.08306481689214706
-2.068721294403076 0.9475711584091187 0.44229528307914734 1.0 13 -0.08306250721216202
-1.9427881240844727 0.8902981281280518 -0.11199896037578583 11.0 6 -0.08306020498275757
-3.0790090560913086 1.4109803438186646 0.7819299101829529 78.0 14 -0.08305790275335312
