# .PCD v0.7 - Point Cloud Data file format
VERSION 0.7
FIELDS x y z intensity ring time
SIZE 4 4 4 4 4 4
TYPE F F F F F F
COUNT 1 1 1 1 1 1
WIDTH 539
HEIGHT 1
VIEWPOINT 0 0 0 1 0 0 0
POINTS 539
DATA ascii
-0.19778595864772797 1.8147484064102173 0.09567013382911682 100.0 9 -0.08533261716365814
-0.1971837729215622 1.8092232942581177 -0.35375988483428955 94.0 2 -0.08533031493425369
-0.7271705269813538 6.6828765869140625 0.5881268978118896 93.0 10 -0.08532801270484924
-0.19797924160957336 1.82242751121521 -0.29034239053726196 100.0 3 -0.0853257030248642
-0.7243266701698303 6.67838716506958 0.8248117566108704 97.0 11 -0.08532340079545975
-0.19745804369449615 1.8235658407211304 -0.22521455585956573 96.0 4 -0.0853210985660553
-0.7218589782714844 6.6773762702941895 1.0637544393539429 88.0 12 -0.08531879633665085
-0.1959380954504013 1.8124762773513794 -0.15949499607086182 100.0 5 -0.0853164866566658
-0.7194309830665588 6.665802955627441 1.3032255172729492 100.0 13 -0.08531418442726135
-0.19856350123882294 1.8427895307540894 -0.09713554382324219 7.0 6 -0.0853118821978569
-0.7188894748687744 6.682648181915283 1.5517125129699707 100.0 14 -0.08530957996845245
-0.1953866183757782 1.8192591667175293 -0.03193790465593338 8.0 7 -0.085307277739048
-0.7121974229812622 6.642271041870117 1.7899925708770752 63.0 15 -0.08530496805906296
-0.1934300661087036 1.8250371217727661 -0.4917562007904053 90.0 0 -0.08528423309326172
-0.19210803508758545 1.815586805343628 0.031868092715740204 97.0 8 -0.08528193086385727
-0.19140689074993134 1.8119906187057495 -0.42065849900245667 90.0 1 -0.08527962863445282
-0.19186940789222717 1.8194003105163574 0.09587948024272919 100.0 9 -0.08527731895446777
-0.1912793666124344 1.8138052225112915 -0.3545231223106384 97.0 2 -0.08527501672506332
-0.7044689059257507 6.691318035125732 0.5886498689651489 96.0 10 -0.08527271449565887
-0.1914096176624298 1.8211430311203003 -0.29002952575683594 100.0 3 -0.08527041226625443
-0.7001832723617554 6.672978401184082 0.8238368034362793 99.0 11 -0.08526810258626938
-0.1912994682788849 1.8262183666229248 -0.2254583090543747 99.0 4 -0.08526580035686493
-0.6989553570747375 6.6837849617004395 1.0643802881240845 88.0 12 -0.08526349812746048
-0.1908530443906784 1.8250387907028198 -0.1605408787727356 100.0 5 -0.08526119589805603
-0.6961568593978882 6.668273448944092 1.3032255172729492 100.0 13 -0.08525889366865158
-0.19192399084568024 1.841484785079956 -0.097030870616436 7.0 6 -0.08525658398866653
-0.6955565214157104 6.685117244720459 1.5517125129699707 100.0 14 -0.08525428175926208
-0.18924115598201752 1.8219194412231445 -0.03197281062602997 9.0 7 -0.08525197952985764
-0.6890117526054382 6.644715785980225 1.7899925708770752 63.0 15 -0.08524967730045319
-0.18745164573192596 1.8295449018478394 -0.49279147386550903 92.0 0 -0.08522893488407135
-0.18637922406196594 1.8222143650054932 0.03197281062602997 67.0 8 -0.0852266326546669
-0.1854778379201889 1.8165249824523926 -0.42155829071998596 90.0 1 -0.08522433042526245
-0.18470674753189087 1.8121111392974854 0.09546079486608505 100.0 9 -0.085222028195858
-0.18633994460105896 1.8281340599060059 -0.3571944534778595 99.0 2 -0.08521972596645355
-0.6821142435073853 6.703647613525391 0.5895214676856995 93.0 10 -0.0852174162864685
-0.18525147438049316 1.8237651586532593 -0.29034239053726196 100.0 3 -0.08521511405706406
-0.6760830879211426 6.667482376098633 0.8228618502616882 99.0 11 -0.0852128118276596
-0.18392354249954224 1.816999912261963 -0.22423960268497467 96.0 4 -0.08521050959825516
-0.6760188937187195 6.690114498138428 1.065005898475647 88.0 12 -0.08520819991827011
-0.1842813491821289 1.8237113952636719 -0.16036656498908997 100.0 5 -0.08520589768886566
-0.6728773713111877 6.670662879943848 1.3032255172729492 100.0 13 -0.08520359545946121
-0.18849588930606842 1.8719518184661865 -0.09860094636678696 8.0 6 -0.08520129323005676
-0.6710488796234131 6.675870895385742 1.5490130186080933 100.0 14 -0.08519898355007172
-0.1854761391878128 1.8484348058700562 -0.03242656961083412 17.0 7 -0.08519668132066727
-0.6665816307067871 6.654769420623779 1.7920631170272827 63.0 15 -0.08519437909126282
-0.18144410848617554 1.8340331315994263 -0.4938267767429352 90.0 0 -0.08517364412546158
-0.179231658577919 1.8148937225341797 0.031833190470933914 59.0 8 -0.08517134189605713
-0.17913536727428436 1.8171613216400146 -0.42155829071998596 90.0 1 -0.08516903221607208
-0.1783050298690796 1.808738350868225 0.09525144845247269 100.0 9 -0.08516672998666763
-0.17880336940288544 1.8170504570007324 -0.35490477085113525 99.0 2 -0.08516442775726318
-0.6583218574523926 6.702022075653076 0.5891727805137634 93.0 10 -0.08516212552785873
-0.17965565621852875 1.8322646617889404 -0.29159387946128845 100.0 3 -0.08515981584787369
-0.6535767912864685 6.677704334259033 0.8238368034362793 99.0 11 -0.08515751361846924
-0.17758028209209442 1.8176307678222656 -0.22423960268497467 92.0 4 -0.08515521138906479
-0.653447151184082 6.688387393951416 1.0643802881240845 88.0 12 -0.08515290915966034
-0.17888161540031433 1.8342584371566772 -0.16123811900615692 100.0 5 -0.08515059947967529
-0.64958655834198 6.672971248626709 1.3032255172729492 100.0 13 -0.08514829725027084
-0.18215395510196686 1.8745862245559692 -0.09870561957359314 10.0 6 -0.0851459950208664
-0.6477430462837219 6.6781721115112305 1.5490130186080933 100.0 14 -0.08514369279146194
-0.17895977199077606 1.8450591564178467 -0.032356761395931244 26.0 7 -0.0851413831114769
-0.6448804140090942 6.660789489746094 1.7930984497070312 63.0 15 -0.08513908088207245
-0.17394140362739563 1.8231165409088135 -0.4907209575176239 90.0 0 -0.08511834591627121
-0.1734025478363037 1.8174686431884766 0.031868092715740204 55.0 8 -0.08511604368686676
-0.17458593845367432 1.8332651853561401 -0.4251575171947479 92.0 1 -0.08511374145746231
-0.17236779630184174 1.813326358795166 0.09546079486608505 100.0 9 -0.08511143177747726
-0.1726454198360443 1.8196179866790771 -0.3552863597869873 100.0 2 -0.08510912954807281
-0.6343580484390259 6.698328018188477 0.5886498689651489 96.0 10 -0.08510682731866837
-0.17413687705993652 1.8387500047683716 -0.2925325036048889 100.0 3 -0.08510452508926392
-0.631990909576416 6.685763835906982 0.8245680332183838 100.0 11 -0.08510221540927887
-0.17117840051651 1.814257264137268 -0.22375212609767914 96.0 4 -0.08509991317987442
-0.6284276843070984 6.672927379608154 1.0615644454956055 85.0 12 -0.08509761095046997
-0.1707991361618042 1.817018985748291 -0.15966932475566864 100.0 5 -0.08509530872106552
-0.6287420392036438 6.688770294189453 1.3058968782424927 100.0 13 -0.08509299904108047
-0.17556294798851013 1.8712029457092285 -0.09849628061056137 8.0 6 -0.08509069681167603
-0.6246835589408875 6.6705827713012695 1.54676353931427 100.0 14 -0.08508839458227158
-0.1712149828672409 1.8317352533340454 -0.032112427055835724 24.0 7 -0.08508609235286713
-0.620909571647644 6.6553053855896 1.7910279035568237 63.0 15 -0.08508378267288208
-0.16824845969676971 1.8275306224822998 -0.4917562007904053 89.0 0 -0.08506304770708084
-0.16650792956352234 1.812088966369629 0.03176337853074074 50.0 8 -0.08506074547767639
-0.16818596422672272 1.833863377571106 -0.4251575171947479 92.0 1 -0.08505844324827194
-0.16749389469623566 1.8298285007476807 0.09629816561937332 100.0 9 -0.08505614101886749
-0.1661144644021988 1.8182543516159058 -0.35490477085113525 99.0 2 -0.08505383133888245
-0.6117809414863586 6.696426868438721 0.5883012413978577 99.0 10 -0.085051529109478
-0.16520562767982483 1.8118057250976562 -0.2881523370742798 100.0 3 -0.08504922688007355
-0.6095503568649292 6.697813034057617 0.8257867693901062 99.0 11 -0.0850469246506691
-0.16592220962047577 1.8267052173614502 -0.22521455585956573 94.0 4 -0.08504461497068405
-0.6054858565330505 6.679015159606934 1.0621901750564575 85.0 12 -0.0850423127412796
-0.16445589065551758 1.8176040649414062 -0.15966932475566864 100.0 5 -0.08504001051187515
-0.6033408641815186 6.681253910064697 1.3039886951446533 100.0 13 -0.0850377082824707
-0.16942010819911957 1.8797907829284668 -0.0989149659872055 10.0 6 -0.08503539860248566
-0.602092981338501 6.680486679077148 1.5485631227493286 100.0 14 -0.08503309637308121
-0.16750767827033997 1.862196683883667 -0.03263600170612335 30.0 7 -0.08503079414367676
-0.5973303318023682 6.653584003448486 1.7899925708770752 63.0 15 -0.08502849191427231
-0.16120940446853638 1.8242864608764648 -0.4907209575176239 90.0 0 -0.08500775694847107
-0.16056740283966064 1.820655107498169 0.03190299868583679 50.0 8 -0.08500544726848602
-0.16009603440761566 1.8189376592636108 -0.42155829071998596 92.0 1 -0.08500314503908157
-0.160087451338768 1.8224718570709229 0.09587948024272919 100.0 9 -0.08500084280967712
-0.15979155898094177 1.8227624893188477 -0.35566797852516174 99.0 2 -0.08499854058027267
-0.5874055027961731 6.700608730316162 0.5884755849838257 93.0 10 -0.08499623090028763
-0.15821997821331024 1.8084633350372314 -0.28752657771110535 100.0 3 -0.08499392867088318
-0.5839630365371704 6.688137054443359 0.8243243098258972 99.0 11 -0.08499162644147873
-0.15957005321979523 1.8312565088272095 -0.22570204734802246 96.0 4 -0.08498932421207428
-0.5822014212608337 6.694965362548828 1.0643802881240845 88.0 12 -0.08498701453208923
-0.15796473622322083 1.8201795816421509 -0.15984363853931427 100.0 5 -0.08498471230268478
-0.5781694650650024 6.675596714019775 1.3024622201919556 100.0 13 -0.08498241007328033
-0.160809725522995 1.860500693321228 -0.09786824882030487 10.0 6 -0.08498010784387589
-0.5774373412132263 6.68070650100708 1.548113226890564 100.0 14 -0.08497780561447144
-0.1620555967092514 1.8787366151809692 -0.03291523829102516 33.0 7 -0.08497549593448639
-0.5732694268226624 6.659578323364258 1.7910279035568237 63.0 15 -0.08497319370508194
-0.15517349541187286 1.8325648307800293 -0.49279147386550903 90.0 0 -0.0849524587392807
-0.15372532606124878 1.8192386627197266 0.031868092715740204 45.0 8 -0.08495015650987625
-0.15375611186027527 1.8233959674835205 -0.42245811223983765 90.0 1 -0.0849478468298912
-0.15338872373104095 1.8190391063690186 0.09567013382911682 100.0 9 -0.08494554460048676
-0.15375757217407227 1.8272217512130737 -0.3564312160015106 99.0 2 -0.0849432423710823
-0.5631775259971619 6.706687927246094 0.5888242125511169 93.0 10 -0.08494094014167786
-0.1517559140920639 1.8109992742538452 -0.28783944249153137 100.0 3 -0.08493863046169281
-0.5592787265777588 6.688253879547119 0.8240805268287659 100.0 11 -0.08493632823228836
-0.15251553058624268 1.8238894939422607 -0.2247270941734314 96.0 4 -0.08493402600288391
-0.5594865083694458 6.704830169677734 1.0656317472457886 88.0 12 -0.08493172377347946
-0.15210652351379395 1.826676368713379 -0.16036656498908997 100.0 5 -0.08492942154407501
-0.5545400381088257 6.673661231994629 1.3016990423202515 100.0 13 -0.08492711186408997
-0.15530502796173096 1.8729931116104126 -0.09849628061056137 13.0 6 -0.08492480963468552
-0.5541152358055115 6.682681560516357 1.548113226890564 100.0 14 -0.08492250740528107
-0.15302355587482452 1.8493974208831787 -0.03239166736602783 21.0 7 -0.08492020517587662
-0.5503358244895935 6.665389537811279 1.7920631170272827 63.0 15 -0.08491789549589157
-0.14972157776355743 1.8407713174819946 -0.49486202001571655 89.0 0 -0.08489716053009033
-0.14801554381847382 1.823724627494812 0.03193790465593338 42.0 8 -0.08489485830068588
-0.14739355444908142 1.820011019706726 -0.42155829071998596 92.0 1 -0.08489255607128143
-0.14687158167362213 1.8135656118392944 0.09535612165927887 100.0 9 -0.08489025384187698
-0.14659000933170319 1.8140236139297485 -0.35375988483428955 97.0 2 -0.08488794416189194
-0.5415761470794678 6.716462135314941 0.5895214676856995 93.0 10 -0.08488564193248749
-0.14590752124786377 1.8134618997573853 -0.2881523370742798 100.0 3 -0.08488333970308304
-0.5377301573753357 6.697987079620361 0.8250555396080017 100.0 11 -0.08488103747367859
-0.1464659422636032 1.8243852853775024 -0.2247270941734314 92.0 4 -0.08487872779369354
-0.5361466407775879 6.69286584854126 1.0634416341781616 84.0 12 -0.08487642556428909
-0.1466827094554901 1.8351149559020996 -0.1610638052225113 100.0 5 -0.08487412333488464
-0.533809244632721 6.693077087402344 1.305133581161499 100.0 13 -0.0848718211054802
-0.15099479258060455 1.8973894119262695 -0.09975234419107437 15.0 6 -0.08486951142549515
-0.5314891934394836 6.678654670715332 1.54676353931427 100.0 14 -0.0848672091960907
-0.14578138291835785 1.8359408378601074 -0.03214733302593231 19.0 7 -0.08486490696668625
-0.5288411974906921 6.6748809814453125 1.7941336631774902 63.0 15 -0.0848626047372818
-0.1430160105228424 1.833553671836853 -0.49279147386550903 87.0 0 -0.08484186977148056
-0.14258717000484467 1.8321802616119385 0.032077521085739136 40.0 8 -0.08483956009149551
-0.14226290583610535 1.8321471214294434 -0.42425769567489624 90.0 1 -0.08483725786209106
-0.14178484678268433 1.8259902000427246 0.09598415344953537 100.0 9 -0.08483495563268661
-0.14087732136249542 1.818414330482483 -0.3545231223106384 97.0 2 -0.08483265340328217
-0.5186845064163208 6.710275173187256 0.5888242125511169 90.0 10 -0.08483034372329712
-0.14034909009933472 1.819844126701355 -0.28909093141555786 98.0 3 -0.08482804149389267
-0.5159741044044495 6.705671310424805 0.8257867693901062 97.0 11 -0.08482573926448822
-0.14041562378406525 1.82486093044281 -0.2247270941734314 94.0 4 -0.08482343703508377
-0.5139474868774414 6.694607257843018 1.0634416341781616 83.0 12 -0.08482112735509872
-0.13937953114509583 1.8196988105773926 -0.15966932475566864 100.0 5 -0.08481882512569427
-0.5117589831352234 6.696767807006836 1.3055152893066406 100.0 13 -0.08481652289628983
-0.14470146596431732 1.897879719734192 -0.09975234419107437 18.0 6 -0.08481422066688538
-0.5093372464179993 6.680380344390869 1.54676353931427 100.0 14 -0.08481191098690033
-0.13923773169517517 1.830432415008545 -0.032042618840932846 24.0 7 -0.08480960875749588
-0.5058245658874512 6.665040493011475 1.7910279035568237 63.0 15 -0.08480730652809143
-0.13635994493961334 1.8263119459152222 -0.4907209575176239 89.0 0 -0.08478657156229019
-0.13472852110862732 1.8087129592895508 0.03165866807103157 33.0 8 -0.08478426933288574
-0.1364748328924179 1.8364956378936768 -0.4251575171947479 90.0 1 -0.0847819596529007
-0.13528430461883545 1.8204749822616577 0.09567013382911682 100.0 9 -0.08477965742349625
-0.135137140750885 1.8227874040603638 -0.3552863597869873 97.0 2 -0.0847773551940918
-0.4962839186191559 6.709970951080322 0.5886498689651489 96.0 10 -0.08477505296468735
-0.13533052802085876 1.8340898752212524 -0.2912810146808624 100.0 3 -0.0847727432847023
-0.49373260140419006 6.707345485687256 0.8257867693901062 97.0 11 -0.08477044105529785
-0.134945809841156 1.833235502243042 -0.22570204734802246 92.0 4 -0.0847681388258934
-0.491890549659729 6.698244094848633 1.0637544393539429 88.0 12 -0.08476583659648895
-0.1336350440979004 1.8241251707077026 -0.1600179374217987 100.0 5 -0.0847635269165039
-0.48897784948349 6.690595626831055 1.3039886951446533 100.0 13 -0.08476122468709946
-0.13913361728191376 1.908308982849121 -0.10027570277452469 21.0 6 -0.08475892245769501
-0.4871828258037567 6.682032585144043 1.54676353931427 100.0 14 -0.08475662022829056
-0.13389182090759277 1.8408561944961548 -0.03221714124083519 25.0 7 -0.08475431799888611
-0.4837210774421692 6.666680812835693 1.7910279035568237 63.0 15 -0.08475200831890106
-0.12993833422660828 1.830653429031372 -0.4917562007904053 90.0 0 -0.08497238159179688
-0.12866367399692535 1.8171733617782593 0.031798284500837326 32.0 8 -0.08497007936239243
-0.1286448836326599 1.8214322328567505 -0.42155829071998596 89.0 1 -0.08496777713298798
-0.12899544835090637 1.8309425115585327 0.09619349241256714 100.0 9 -0.08496546745300293
-0.12859289348125458 1.8252288103103638 -0.35566797852516174 99.0 2 -0.08496316522359848
-0.4719681739807129 6.715719699859619 0.5889984965324402 96.0 10 -0.08496086299419403
-0.12805519998073578 1.8266913890838623 -0.29002952575683594 100.0 3 -0.08495856076478958
-0.4685932397842407 6.701188564300537 0.8248117566108704 99.0 11 -0.08495625108480453
-0.12790700793266296 1.8337401151657104 -0.22570204734802246 100.0 4 -0.08495394885540009
-0.4676741361618042 6.7217607498168945 1.0671961307525635 89.0 12 -0.08495164662599564
-0.12690624594688416 1.8285999298095703 -0.16036656498908997 100.0 5 -0.08494934439659119
-0.4639101028442383 6.684508800506592 1.3024622201919556 100.0 13 -0.08494703471660614
-0.1315852701663971 1.9008362293243408 -0.09985701739788055 19.0 6 -0.08494473248720169
-0.463265597820282 6.709126949310303 1.5526123046875 100.0 14 -0.08494243025779724
-0.1276473104953766 1.853326439857483 -0.03242656961083412 27.0 7 -0.08494012802839279
-0.4583825170993805 6.672344207763672 1.7920631170272827 63.0 15 -0.08493781834840775
-0.12374705821275711 1.83882737159729 -0.4938267767429352 89.0 0 -0.0849170833826065
-0.1223192885518074 1.8176114559173584 0.031798284500837326 30.0 8 -0.08491478115320206
-0.12202461808919907 1.8179816007614136 -0.42065849900245667 89.0 1 -0.08491247892379761
-0.12207022309303284 1.8234105110168457 0.095774807035923 100.0 9 -0.08491017669439316
-0.12216422706842422 1.8296055793762207 -0.3564312160015106 99.0 2 -0.08490786701440811
-0.44747814536094666 6.719393253326416 0.5891727805137634 93.0 10 -0.08490556478500366
-0.12162140756845474 1.8310903310775757 -0.290655255317688 100.0 3 -0.08490326255559921
-0.4446740746498108 6.694860935211182 0.8238368034362793 97.0 11 -0.08490096032619476
-0.12084872275590897 1.8242716789245605 -0.22448335587978363 99.0 4 -0.08489865064620972
-0.44316431879997253 6.707583427429199 1.0646930932998657 85.0 12 -0.08489634841680527
-0.1203918531537056 1.8270436525344849 -0.16019225120544434 100.0 5 -0.08489404618740082
-0.4405672252178192 6.703795433044434 1.3058968782424927 100.0 13 -0.08489174395799637
-0.1256628930568695 1.9172495603561401 -0.10069439560174942 28.0 6 -0.08488943427801132
-0.43791109323501587 6.699112415313721 1.549912929534912 100.0 14 -0.08488713204860687
-0.12156892567873001 1.8597471714019775 -0.032531287521123886 28.0 7 -0.08488482981920242
-0.435596227645874 6.681613922119141 1.7941336631774902 63.0 15 -0.08488252758979797
-0.11757306009531021 1.8431038856506348 -0.49486202001571655 90.0 0 -0.08486179262399673
-0.11591090261936188 1.8220387697219849 0.031868092715740204 33.0 8 -0.08485948294401169
-0.11560772359371185 1.8223061561584473 -0.42155829071998596 89.0 1 -0.08485718071460724
-0.1150718480348587 1.813859224319458 0.09525144845247269 100.0 9 -0.08485487848520279
-0.11540462076663971 1.8241429328918457 -0.3552863597869873 97.0 2 -0.08485257625579834
-0.42477768659591675 6.732844352722168 0.5902186632156372 90.0 10 -0.0848502665758133
-0.1156005933880806 1.8374183177947998 -0.29159387946128845 100.0 3 -0.08484796434640884
-0.42087727785110474 6.7083330154418945 0.8252992630004883 99.0 11 -0.0848456621170044
-0.11403806507587433 1.822721004486084 -0.22423960268497467 94.0 4 -0.08484335988759995
-0.41925904154777527 6.701203346252441 1.0634416341781616 84.0 12 -0.0848410502076149
-0.11463336646556854 1.837395429611206 -0.1610638052225113 100.0 5 -0.08483874797821045
-0.4170401990413666 6.703332901000977 1.3055152893066406 100.0 13 -0.084836445748806
-0.11946567893028259 1.9256500005722046 -0.10111307352781296 38.0 6 -0.08483414351940155
-0.4139207601547241 6.690875053405762 1.5476633310317993 100.0 14 -0.0848318412899971
-0.11396471410989761 1.8421971797943115 -0.03221714124083519 25.0 7 -0.08482953161001205
-0.4129822552204132 6.694662570953369 1.7972395420074463 63.0 15 -0.0848272293806076
-0.11044158041477203 1.8319330215454102 -0.4917562007904053 87.0 0 -0.08480649441480637
-0.11022868007421494 1.8284014463424683 0.03197281062602997 30.0 8 -0.08480419218540192
-0.11003219336271286 1.8304604291915894 -0.42335790395736694 90.0 1 -0.08480188250541687
-0.10897810012102127 1.8182373046875 0.09546079486608505 100.0 9 -0.08479958027601242
-0.10891973227262497 1.8225749731063843 -0.35490477085113525 99.0 2 -0.08479727804660797
-0.40103426575660706 6.730308532714844 0.589870035648346 93.0 10 -0.08479497581720352
-0.10985971242189407 1.8437072038650513 -0.2925325036048889 100.0 3 -0.08479266613721848
-0.39909836649894714 6.717617988586426 0.8262742161750793 95.0 11 -0.08479036390781403
-0.10846211016178131 1.8310155868530273 -0.22521455585956573 96.0 4 -0.08478806167840958
-0.3959795832633972 6.704597473144531 1.0637544393539429 88.0 12 -0.08478575944900513
-0.10728152841329575 1.8218729496002197 -0.15966932475566864 100.0 5 -0.08478345721960068
-0.3956148624420166 6.718398571014404 1.3081865310668945 100.0 13 -0.08478114753961563
-0.11214233189821243 1.9100852012634277 -0.10027570277452469 25.0 6 -0.08477884531021118
-0.3919598460197449 6.696102142333984 1.5485631227493286 100.0 14 -0.08477654308080673
-0.1073000580072403 1.83859121799469 -0.03214733302593231 27.0 7 -0.08477424085140228
-0.38893914222717285 6.684492111206055 1.7941336631774902 63.0 15 -0.08477193117141724
-0.1045861467719078 1.836146593093872 -0.49279147386550903 89.0 0 -0.084751196205616
-0.10361846536397934 1.824782133102417 0.03190299868583679 28.0 8 -0.08474889397621155
-0.10408297181129456 1.838615894317627 -0.4251575171947479 90.0 1 -0.0847465917468071
-0.10328789055347443 1.8245707750320435 0.095774807035923 100.0 9 -0.08474428206682205
-0.10254376381635666 1.8170456886291504 -0.35375988483428955 91.0 2 -0.0847419798374176
-0.3789355456829071 6.735579967498779 0.5902186632156372 67.0 10 -0.08473967760801315
-0.10198485106229782 1.8184398412704468 -0.2884652018547058 100.0 3 -0.0847373753786087
-0.3760949373245239 6.726898193359375 0.8272491693496704 99.0 11 -0.08473507314920425
-0.10251139104366302 1.8393113613128662 -0.226189523935318 94.0 4 -0.08473276346921921
-0.3747316300868988 6.723625183105469 1.0665702819824219 89.0 12 -0.08473046123981476
-0.10101869702339172 1.8182399272918701 -0.15932069718837738 100.0 5 -0.08472815901041031
-0.37162265181541443 6.709936618804932 1.3062784671783447 100.0 13 -0.08472585678100586
-0.10382223129272461 1.8805515766143799 -0.09870561957359314 18.0 6 -0.08472354710102081
-0.3692243993282318 6.709104061126709 1.551262617111206 100.0 14 -0.08472124487161636
-0.10197202116250992 1.8529136180877686 -0.03239166736602783 26.0 7 -0.08471894264221191
-0.3663453161716461 6.678030014038086 1.7920631170272827 63.0 15 -0.08471664041280746
-0.09817567467689514 1.8365005254745483 -0.49279147386550903 89.0 0 -0.08469589799642563
-0.09756705909967422 1.8251157999038696 0.03190299868583679 29.0 8 -0.08469359576702118
-0.0973626896739006 1.8272751569747925 -0.42245811223983765 90.0 1 -0.08469129353761673
-0.09744743257761002 1.8348925113677979 0.09629816561937332 100.0 9 -0.08468899130821228
-0.09661508351564407 1.8252346515655518 -0.3552863597869873 97.0 2 -0.08468668907880783
-0.3551081717014313 6.730893135070801 0.5896957516670227 56.0 10 -0.08468437939882278
-0.09574633836746216 1.8148226737976074 -0.28783944249153137 100.0 3 -0.08468207716941833
-0.3531583845615387 6.716214179992676 0.8257867693901062 99.0 11 -0.08467977494001389
-0.09620402753353119 1.8356763124465942 -0.22570204734802246 92.0 4 -0.08467747271060944
-0.35064268112182617 6.713055610656738 1.0646930932998657 84.0 12 -0.08467516303062439
-0.09498237073421478 1.8245506286621094 -0.15984363853931427 100.0 5 -0.08467286080121994
-0.349163681268692 6.707211017608643 1.3055152893066406 100.0 13 -0.08467055857181549
-0.09634409099817276 1.8569507598876953 -0.09744956344366074 17.0 6 -0.08466825634241104
-0.3471735715866089 6.714183807373047 1.5521622896194458 100.0 14 -0.084665946662426
-0.09570974856615067 1.8572523593902588 -0.03246147558093071 28.0 7 -0.08466364443302155
-0.3432319760322571 6.683126926422119 1.7930984497070312 63.0 15 -0.0846613422036171
-0.09227803349494934 1.8406749963760376 -0.4938267767429352 87.0 0 -0.08464060723781586
-0.09139557182788849 1.829439640045166 0.03197281062602997 27.0 8 -0.08463830500841141
-0.09098410606384277 1.8276036977767944 -0.42245811223983765 89.0 1 -0.08463599532842636
-0.09064555168151855 1.827242374420166 0.09587948024272919 100.0 9 -0.08463369309902191
-0.09124226123094559 1.839270830154419 -0.3579576909542084 99.0 2 -0.08463139086961746
-0.3335740864276886 6.747953414916992 0.5910902619361877 50.0 10 -0.08462908864021301
-0.08950841426849365 1.8171188831329346 -0.2881523370742798 96.0 3 -0.08462677896022797
-0.3293211758136749 6.709475040435791 0.8248117566108704 99.0 11 -0.08462447673082352
-0.08979612588882446 1.836000919342041 -0.22570204734802246 90.0 4 -0.08462217450141907
-0.3280712366104126 6.731996536254883 1.0675089359283447 88.0 12 -0.08461987227201462
-0.08922185003757477 1.8308255672454834 -0.16036656498908997 100.0 5 -0.08461756259202957
-0.3259376585483551 6.712310791015625 1.3062784671783447 100.0 13 -0.08461526036262512
-0.08995845168828964 1.8592705726623535 -0.09755422919988632 16.0 6 -0.08461295813322067
-0.32345452904701233 6.70951509475708 1.5508127212524414 100.0 14 -0.08461065590381622
-0.08912970870733261 1.8555777072906494 -0.03242656961083412 27.0 7 -0.08460834622383118
-0.32045692205429077 6.695861339569092 1.7962043285369873 63.0 15 -0.08460604399442673
-0.08621267229318619 1.8487048149108887 -0.4958973228931427 89.0 0 -0.08458530902862549
-0.08510138839483261 1.8317450284957886 0.03200771287083626 24.0 8 -0.08458300679922104
-0.08460353314876556 1.8279101848602295 -0.42245811223983765 89.0 1 -0.08458070456981659
-0.08389914780855179 1.819567084312439 0.09546079486608505 100.0 9 -0.08457839488983154
-0.08436969667673111 1.8297722339630127 -0.3560495972633362 100.0 2 -0.0845760926604271
-0.3103811740875244 6.75703763961792 0.5917875170707703 29.0 10 -0.08457379043102264
-0.08442862331867218 1.8450466394424438 -0.2925325036048889 100.0 3 -0.0845714882016182
-0.306442528963089 6.722482204437256 0.8262742161750793 97.0 11 -0.08456917852163315
-0.08302605152130127 1.8283710479736328 -0.2247270941734314 94.0 4 -0.0845668762922287
-0.3038574755191803 6.717313766479492 1.065005898475647 87.0 12 -0.08456457406282425
-0.0833711251616478 1.8430681228637695 -0.16141243278980255 100.0 5 -0.0845622718334198
-0.30286023020744324 6.721252918243408 1.307804822921753 100.0 13 -0.08455996215343475
-0.08490025997161865 1.891497254371643 -0.09922898560762405 21.0 6 -0.0845576599240303
-0.30012041330337524 6.712550640106201 1.551262617111206 100.0 14 -0.08455535769462585
-0.08229650557041168 1.8478868007659912 -0.032286953181028366 29.0 7 -0.0845530554652214
-0.29742273688316345 6.704659461975098 1.7982748746871948 63.0 15 -0.08455075323581696
-0.07925981283187866 1.8374141454696655 -0.49279147386550903 92.0 0 -0.08453001081943512
-0.07887805998325348 1.836026668548584 0.032077521085739136 25.0 8 -0.08452770859003067
-0.07822280377149582 1.828194499015808 -0.42245811223983765 90.0 1 -0.08452540636062622
-0.07763256877660751 1.821844220161438 0.09556546807289124 95.0 9 -0.08452310413122177
-0.0774809792637825 1.8182867765426636 -0.35375988483428955 97.0 2 -0.08452079445123672
-0.28611522912979126 6.7421555519104 0.5903929471969604 49.0 10 -0.08451849222183228
-0.07790467888116837 1.8433564901351929 -0.2922196090221405 100.0 3 -0.08451618999242783
-0.28330692648887634 6.731444358825684 0.8272491693496704 95.0 11 -0.08451388776302338
-0.0768091008067131 1.8326164484024048 -0.22521455585956573 94.0 4 -0.08451157808303833
-0.28016212582588196 6.7124128341674805 1.0640673637390137 84.0 12 -0.08450927585363388
-0.07627280801534653 1.8274226188659668 -0.1600179374217987 100.0 5 -0.08450697362422943
-0.27980268001556396 6.732077121734619 1.3097130060195923 100.0 13 -0.08450467139482498
-0.07854445278644562 1.8977687358856201 -0.099542997777462 23.0 6 -0.08450236916542053
-0.2771703004837036 6.7252397537231445 1.553961992263794 100.0 14 -0.08450005948543549
-0.07568119466304779 1.84416663646698 -0.03221714124083519 29.0 7 -0.08449775725603104
-0.27354222536087036 6.694075107574463 1.7951689958572388 63.0 15 -0.08449545502662659
-0.07253987342119217 1.8299583196640015 -0.4907209575176239 89.0 0 -0.08447472006082535
-0.07223246991634369 1.8302963972091675 0.03197281062602997 23.0 8 -0.0844724103808403
-0.0722992941737175 1.8401397466659546 -0.4251575171947479 92.0 1 -0.08447010815143585
-0.07135111838579178 1.8240998983383179 0.09567013382911682 84.0 9 -0.0844678059220314
-0.0716710239648819 1.8322783708572388 -0.3564312160015106 99.0 2 -0.08446550369262695
-0.26258039474487305 6.743112564086914 0.5903929471969604 95.0 10 -0.0844631940126419
-0.0711631253361702 1.835721731185913 -0.2909681499004364 100.0 3 -0.08446089178323746
-0.2599625885486603 6.736359119415283 0.8277366757392883 95.0 11 -0.08445858955383301
-0.07041199505329132 1.8328733444213867 -0.22521455585956573 88.0 4 -0.08445628732442856
-0.25755825638771057 6.735063076019287 1.0675089359283447 88.0 12 -0.08445398509502411
-0.06981682777404785 1.8256868124008179 -0.15984363853931427 100.0 5 -0.08445167541503906
-0.2560790479183197 6.727127552032471 1.3085681200027466 100.0 13 -0.08444937318563461
-0.07214679569005966 1.9040188789367676 -0.09985701739788055 26.0 6 -0.08444707095623016
-0.25361788272857666 6.724218368530273 1.5535120964050293 100.0 14 -0.08444476872682571
-0.06969389319419861 1.8564091920852661 -0.03242656961083412 29.0 7 -0.08444245904684067
-0.2501752972602844 6.694989204406738 1.7951689958572388 63.0 15 -0.08444015681743622
-0.06643030792474747 1.8379226922988892 -0.49279147386550903 90.0 0 -0.08441942185163498
-0.06533945351839066 1.8165485858917236 0.03172847628593445 20.0 8 -0.08441711962223053
-0.06573653221130371 1.8364858627319336 -0.42425769567489624 90.0 1 -0.08441480994224548
-0.06555168330669403 1.8403058052062988 0.09650751203298569 76.0 9 -0.08441250771284103
-0.06527426093816757 1.832517385482788 -0.3564312160015106 99.0 2 -0.08441020548343658
-0.2391802966594696 6.7479705810546875 0.5907416343688965 85.0 10 -0.08440790325403214
-0.06475520879030228 1.8359588384628296 -0.2909681499004364 100.0 3 -0.08440560102462769
-0.23630888760089874 6.73325777053833 0.8272491693496704 99.0 11 -0.08440329134464264
-0.06429027020931244 1.8410435914993286 -0.226189523935318 92.0 4 -0.08440098911523819
-0.23384253680706024 6.7299981117248535 1.0665702819824219 87.0 12 -0.08439868688583374
-0.06378987431526184 1.835875391960144 -0.16071519255638123 100.0 5 -0.08439638465642929
-0.2321898490190506 6.716207027435303 1.3062784671783447 100.0 13 -0.08439407497644424
-0.06433240324258804 1.8703256845474243 -0.09807758778333664 23.0 6 -0.0843917727470398
-0.230275958776474 6.728958606719971 1.5544118881225586 100.0 14 -0.08438947051763535
-0.06307769566774368 1.8526443243026733 -0.032356761395931244 27.0 7 -0.0843871682882309
-0.22693291306495667 6.69968318939209 1.7962043285369873 63.0 15 -0.08438485860824585
-0.06001386418938637 1.8381433486938477 -0.49279147386550903 85.0 0 -0.08436412364244461
-0.059129174798727036 1.8207627534866333 0.031798284500837326 20.0 8 -0.08436182141304016
-0.059073470532894135 1.8289133310317993 -0.42245811223983765 92.0 1 -0.08435951918363571
-0.058613892644643784 1.8245534896850586 0.09567013382911682 74.0 9 -0.08435721695423126
-0.058813657611608505 1.830771803855896 -0.3560495972633362 97.0 2 -0.08435490727424622
-0.21588316559791565 6.756729602813721 0.5914388298988342 87.0 10 -0.08435260504484177
-0.05859658122062683 1.8440711498260498 -0.2922196090221405 100.0 3 -0.08435030281543732
-0.2126767933368683 6.73007345199585 0.8267617225646973 97.0 11 -0.08434800058603287
-0.05749057978391647 1.8293520212173462 -0.2247270941734314 92.0 4 -0.08434569090604782
-0.2105940729379654 6.738670825958252 1.067821741104126 87.0 12 -0.08434338867664337
-0.05719389021396637 1.8301124572753906 -0.16019225120544434 100.0 5 -0.08434108644723892
-0.20886467397212982 6.7209014892578125 1.3070416450500488 100.0 13 -0.08433878421783447
-0.057804644107818604 1.8705389499664307 -0.09807758778333664 22.0 6 -0.08433647453784943
-0.20672768354415894 6.727773666381836 1.553961992263794 100.0 14 -0.08433417230844498
-0.05685415491461754 1.8608481884002686 -0.0324963815510273 25.0 7 -0.08433187007904053
-0.2037845253944397 6.708158493041992 1.7982748746871948 63.0 15 -0.08432956784963608
-0.053935375064611435 1.8499279022216797 -0.4958973228931427 89.0 0 -0.08430883288383484
-0.05294646695256233 1.82695472240448 0.03190299868583679 21.0 8 -0.08430652320384979
-0.05291296914219856 1.8369001150131226 -0.42425769567489624 92.0 1 -0.08430422097444534
-0.052245039492845535 1.824747085571289 0.09567013382911682 65.0 9 -0.0843019187450409
-0.05236691236495972 1.8290036916732788 -0.35566797852516174 99.0 2 -0.08429961651563644
-0.1924080103635788 6.761425495147705 0.5917875170707703 87.0 10 -0.0842973068356514
-0.05227041244506836 1.8482136726379395 -0.29284536838531494 100.0 3 -0.08429500460624695
-0.1895192414522171 6.742681503295898 0.8282241225242615 95.0 11 -0.0842927023768425
-0.05132582038640976 1.8374788761138916 -0.22570204734802246 88.0 4 -0.08429040014743805
-0.18673977255821228 6.727517127990723 1.0659445524215698 85.0 12 -0.084288090467453
-0.051191750913858414 1.8442423343658447 -0.16141243278980255 100.0 5 -0.08428578823804855
-0.1856210082769394 6.729439735412598 1.3085681200027466 100.0 13 -0.0842834860086441
-0.05160272493958473 1.8827083110809326 -0.09870561957359314 25.0 6 -0.08428118377923965
-0.18324032425880432 6.728454113006592 1.553961992263794 100.0 14 -0.08427887409925461
-0.049925900995731354 1.845043659210205 -0.03221714124083519 23.0 7 -0.08427657186985016
-0.18057332932949066 6.716553211212158 1.8003453016281128 63.0 15 -0.08427426964044571
-0.0470806322991848 1.8346551656723022 -0.4917562007904053 92.0 0 -0.08425353467464447
-0.046772196888923645 1.8351244926452637 0.032042618840932846 20.0 8 -0.08425123244524002
-0.04650192707777023 1.837073564529419 -0.42425769567489624 90.0 1 -0.08424892276525497
-0.04602525383234024 1.830908179283142 0.09598415344953537 59.0 9 -0.08424662053585052
-0.04583368077874184 1.8232873678207397 -0.3545231223106384 97.0 2 -0.08424431830644608
-0.1687038242816925 6.758072376251221 0.5914388298988342 87.0 10 -0.08424201607704163
-0.04572198539972305 1.8444353342056274 -0.2922196090221405 100.0 3 -0.08423970639705658
-0.16597993671894073 6.743301868438721 0.8282241225242615 97.0 11 -0.08423740416765213
-0.04481401666998863 1.8336777687072754 -0.22521455585956573 94.0 4 -0.08423510193824768
-0.16369111835956573 6.745901584625244 1.0687603950500488 88.0 12 -0.08423279970884323
-0.04446510970592499 1.8324588537216187 -0.16036656498908997 100.0 5 -0.08423049002885818
-0.1624116450548172 6.741823196411133 1.310857892036438 100.0 13 -0.08422818779945374
-0.04493452608585358 1.8788836002349854 -0.09849628061056137 26.0 6 -0.08422588557004929
-0.1599421501159668 6.73684549331665 1.5557615756988525 100.0 14 -0.08422358334064484
-0.04334336146712303 1.8392090797424316 -0.032112427055835724 22.0 7 -0.08422128111124039
-0.15703493356704712 6.713280200958252 1.7993099689483643 63.0 15 -0.08421897143125534
-0.0408487394452095 1.842533826828003 -0.4938267767429352 90.0 0 -0.0841982364654541
-0.04023459926247597 1.829278826713562 0.03193790465593338 19.0 8 -0.08419593423604965
-0.040173597633838654 1.8411211967468262 -0.4251575171947479 92.0 1 -0.0841936320066452
-0.039721615612506866 1.83505117893219 0.09619349241256714 47.0 9 -0.08419132232666016
-0.03955517336726189 1.827361822128296 -0.3552863597869873 97.0 2 -0.0841890200972557
-0.14511413872241974 6.758619785308838 0.5914388298988342 85.0 10 -0.08418671786785126
-0.03911470249295235 1.8366841077804565 -0.2909681499004364 100.0 3 -0.08418441563844681
-0.1425224393606186 6.747808933258057 0.8287115693092346 95.0 11 -0.08418210595846176
-0.03849655017256737 1.8377923965454102 -0.22570204734802246 90.0 4 -0.08417980372905731
-0.14026381075382233 6.75235652923584 1.0696990489959717 89.0 12 -0.08417750149965286
-0.03790236636996269 1.8246352672576904 -0.15966932475566864 100.0 5 -0.08417519927024841
-0.1387946456670761 6.738422870635986 1.3100945949554443 100.0 13 -0.08417289704084396
-0.03837612271308899 1.8790290355682373 -0.09849628061056137 23.0 6 -0.08417058736085892
-0.13638395071029663 6.735414505004883 1.555311679840088 100.0 14 -0.08416828513145447
-0.03700283542275429 1.8433479070663452 -0.0321822389960289 21.0 7 -0.08416598290205002
-0.1335248053073883 6.709924697875977 1.7982748746871948 63.0 15 -0.08416368067264557
-0.034416355192661285 1.842665195465088 -0.4938267767429352 89.0 0 -0.08414293825626373
-0.033700522035360336 1.821410894393921 0.031798284500837326 18.0 8 -0.08414063602685928
-0.03367560729384422 1.8373534679412842 -0.42425769567489624 92.0 1 -0.08413833379745483
-0.033387862145900726 1.839172601699829 0.0964028462767601 40.0 9 -0.08413603156805038
-0.033353932201862335 1.8373034000396729 -0.3571944534778595 99.0 2 -0.08413372933864594
-0.12159110605716705 6.7630696296691895 0.5917875170707703 85.0 10 -0.08413141965866089
-0.032809123396873474 1.842734456062317 -0.2919067442417145 100.0 3 -0.08412911742925644
-0.11890198290348053 6.744296073913574 0.8282241225242615 97.0 11 -0.08412681519985199
-0.03221931308507919 1.8458548784255981 -0.22667700052261353 94.0 4 -0.08412451297044754
-0.1164894625544548 6.740954399108887 1.067821741104126 87.0 12 -0.0841222032904625
-0.03167105093598366 1.8327245712280273 -0.16036656498908997 100.0 5 -0.08411990106105804
-0.11514263600111008 6.731014728546143 1.3085681200027466 100.0 13 -0.0841175988316536
-0.03174872696399689 1.8751577138900757 -0.0982869416475296 26.0 6 -0.08411529660224915
-0.11306623369455338 6.747539520263672 1.5580110549926758 100.0 14 -0.0841129869222641
-0.030536239966750145 1.8414664268493652 -0.03214733302593231 21.0 7 -0.08411068469285965
-0.11010019481182098 6.710350036621094 1.7982748746871948 63.0 15 -0.0841083824634552
-0.02804221771657467 1.84663724899292 -0.49486202001571655 89.0 0 -0.08408764749765396
-0.027403688058257103 1.8255163431167603 0.031868092715740204 18.0 8 -0.08408534526824951
-0.027145715430378914 1.8296657800674438 -0.42245811223983765 92.0 1 -0.08408303558826447
-0.027288256213068962 1.83927321434021 0.0964028462767601 40.0 9 -0.08408073335886002
-0.026968633756041527 1.839371681213379 -0.35757607221603394 94.0 2 -0.08407843112945557
-0.09807085245847702 6.769429683685303 0.5923104286193848 90.0 10 -0.08407612890005112
-0.026347817853093147 1.84086275100708 -0.29159387946128845 100.0 3 -0.08407381922006607
-0.0953574851155281 6.7446699142456055 0.8282241225242615 99.0 11 -0.08407151699066162
-0.0256654005497694 1.838016390800476 -0.22570204734802246 90.0 4 -0.08406921476125717
-0.09421589225530624 6.74722957611084 1.0687603950500488 87.0 12 -0.08406691253185272
-0.025410322472453117 1.842785120010376 -0.16123811900615692 100.0 5 -0.08406460285186768
-0.09175141900777817 6.739227771759033 1.3100945949554443 100.0 13 -0.08406230062246323
-0.025364452973008156 1.8872394561767578 -0.0989149659872055 28.0 6 -0.08405999839305878
-0.08951365947723389 6.747893333435059 1.5580110549926758 100.0 14 -0.08405769616365433
-0.024482088163495064 1.845556616783142 -0.03221714124083519 21.0 7 -0.08405538648366928
-0.0880003347992897 6.722268104553223 1.8013806343078613 63.0 15 -0.08405308425426483
-0.02168682962656021 1.8544508218765259 -0.49693259596824646 89.0 0 -0.08403234928846359
-0.021466320380568504 1.8355950117111206 0.032042618840932846 17.0 8 -0.08403004705905914
-0.021168332546949387 1.8375400304794312 -0.42425769567489624 90.0 1 -0.0840277448296547
-0.02086733840405941 1.8393572568893433 0.0964028462767601 24.0 9 -0.08402543514966965
-0.020482463762164116 1.83356511592865 -0.3564312160015106 99.0 2 -0.0840231329202652
-0.0745076835155487 6.775707244873047 0.5928333401679993 87.0 10 -0.08402083069086075
-0.02033040300011635 1.8488410711288452 -0.29284536838531494 100.0 3 -0.0840185284614563
-0.07307487726211548 6.752889156341553 0.8291990756988525 92.0 11 -0.08401621878147125
-0.019528275355696678 1.8341213464736938 -0.22521455585956573 88.0 4 -0.0840139165520668
-0.0706438273191452 6.745542049407959 1.0684475898742676 87.0 12 -0.08401161432266235
-0.018956638872623444 1.8408703804016113 -0.1610638052225113 100.0 5 -0.0840093120932579
-0.06952226161956787 6.751274108886719 1.3123843669891357 100.0 13 -0.08400700241327286
-0.019005287438631058 1.8773274421691895 -0.09839160740375519 27.0 6 -0.08400470018386841
-0.06702136993408203 6.736461639404297 1.555311679840088 100.0 14 -0.08400239795446396
-0.01803925260901451 1.8456308841705322 -0.03221714124083519 20.0 7 -0.08400009572505951
-0.0646473839879036 6.734124660491943 1.8044863939285278 63.0 15 -0.08399778604507446
-0.015439513139426708 1.8429218530654907 -0.4938267767429352 90.0 0 -0.08397705107927322
-0.015041874721646309 1.8336591720581055 0.03200771287083626 18.0 8 -0.08397474884986877
-0.014784794300794601 1.841500163078308 -0.4251575171947479 89.0 1 -0.08397244662046432
-0.014752027578651905 1.837419033050537 0.09629816561937332 16.0 9 -0.08397014439105988
-0.014386101625859737 1.8316599130630493 -0.3560495972633362 97.0 2 -0.08396783471107483
-0.05195983871817589 6.765954971313477 0.5919618010520935 90.0 10 -0.08396553248167038
-0.013890951871871948 1.850875973701477 -0.29315823316574097 100.0 3 -0.08396323025226593
-0.049591176211833954 6.765013217926025 0.8306615352630615 90.0 11 -0.08396092802286148
-0.013503700494766235 1.8421162366867065 -0.226189523935318 90.0 4 -0.08395861834287643
-0.04825840890407562 6.7437639236450195 1.0681346654891968 87.0 12 -0.08395631611347198
-0.012796718627214432 1.8329535722732544 -0.16036656498908997 100.0 5 -0.08395401388406754
-0.04595691338181496 6.7514753341674805 1.3123843669891357 100.0 13 -0.08395171165466309
-0.012597285211086273 1.899351716041565 -0.099542997777462 25.0 6 -0.08394940197467804
-0.044757772237062454 6.74833869934082 1.5580110549926758 100.0 14 -0.08394709974527359
-0.011841708794236183 1.8336825370788574 -0.03200771287083626 17.0 7 -0.08394479751586914
-0.042265452444553375 6.726574897766113 1.8024158477783203 63.0 15 -0.08394249528646469
-0.009328448213636875 1.8429629802703857 -0.4938267767429352 89.0 0 -0.08392176032066345
-0.008932209573686123 1.827699899673462 0.03190299868583679 13.0 8 -0.0839194506406784
-0.008696812205016613 1.845436453819275 -0.4260573089122772 92.0 1 -0.08391714841127396
-0.008687449619174004 1.8434497117996216 0.09661218523979187 7.0 9 -0.0839148461818695
-0.008330206386744976 1.8356239795684814 -0.35681283473968506 97.0 2 -0.08391254395246506
-0.029515499249100685 6.764098167419434 0.5917875170707703 87.0 10 -0.08391023427248001
-0.007720420137047768 1.843010425567627 -0.2919067442417145 100.0 3 -0.08390793204307556
-0.027158666402101517 6.765140533447266 0.8306615352630615 92.0 11 -0.08390562981367111
-0.0073953173123300076 1.8421509265899658 -0.226189523935318 88.0 4 -0.08390332758426666
-0.02590395323932171 6.745862007141113 1.0684475898742676 87.0 12 -0.08390101790428162
-0.0066886404529213905 1.8250166177749634 -0.15966932475566864 100.0 5 -0.08389871567487717
-0.023555602878332138 6.747664451599121 1.3116211891174316 100.0 13 -0.08389641344547272
-0.006272624246776104 1.891394019126892 -0.09912431240081787 23.0 6 -0.08389411121606827
-0.022406430914998055 6.756245136260986 1.559810757637024 100.0 14 -0.08389180898666382
-0.005835806485265493 1.8577078580856323 -0.03242656961083412 20.0 7 -0.08388949930667877
-0.01994323916733265 6.720882415771484 1.8008629083633423 63.0 15 -0.08388719707727432
-0.003229886759072542 1.8507111072540283 -0.4958973228931427 89.0 0 -0.08386646211147308
-0.0028739231638610363 1.829719066619873 0.03193790465593338 12.0 8 -0.08386415988206863
-0.0025665590073913336 1.8376601934432983 -0.42425769567489624 92.0 1 -0.08386185020208359
-0.0022618251387029886 1.8514577150344849 0.097030870616436 2.0 9 -0.08385954797267914
-0.002247299998998642 1.8395678997039795 -0.35757607221603394 97.0 2 -0.08385724574327469
-0.007097509223967791 6.77810525894165 0.5930076837539673 93.0 10 -0.08385494351387024
-0.0016073790611699224 1.8410505056381226 -0.29159387946128845 100.0 3 -0.08385263383388519
-0.004719859454780817 6.761223316192627 0.8301740288734436 94.0 11 -0.08385033160448074
-0.0009686328121460974 1.850105881690979 -0.22716447710990906 88.0 4 -0.0838480293750763
-0.002363975392654538 6.763689994812012 1.0712634325027466 88.0 12 -0.08384572714567184
-0.00031987737747840583 1.832998275756836 -0.16036656498908997 100.0 5 -0.0838434249162674
-0.0011775452876463532 6.747705459594727 1.3116211891174316 100.0 13 -0.08384111523628235
2.231660189977447e-08 1.871431827545166 -0.09807758778333664 19.0 6 -0.0838388130068779
0.0011763207148760557 6.758231163024902 1.5602606534957886 100.0 14 -0.08383651077747345
0.0006477506249211729 1.8557173013687134 -0.03239166736602783 18.0 7 -0.083834208548069
0.003522974904626608 6.728638648986816 1.8029335737228394 63.0 15 -0.08383189886808395
0.0035603386349976063 1.854574203491211 -0.49693259596824646 90.0 0 -0.08381116390228271
0.0035202985163778067 1.8337174654006958 0.03200771287083626 13.0 8 -0.08380886167287827
0.003848577383905649 1.8376579284667969 -0.42425769567489624 89.0 1 -0.08380655944347382
0.004205123987048864 1.8534516096115112 0.09713554382324219 1.0 9 -0.08380425721406937
0.004523443523794413 1.8513433933258057 -0.35986578464508057 97.0 2 -0.08380194753408432
0.01775968447327614 6.784063339233398 0.5935305953025818 87.0 10 -0.08379964530467987
0.005140890367329121 1.8410440683364868 -0.29159387946128845 100.0 3 -0.08379734307527542
0.01887981966137886 6.7611985206604 0.8301740288734436 94.0 11 -0.08379504084587097
0.005477279424667358 1.8461278676986694 -0.22667700052261353 90.0 4 -0.08379273116588593
0.021235112100839615 6.759706020355225 1.070637583732605 88.0 12 -0.08379042893648148
0.006104523316025734 1.840957760810852 -0.1610638052225113 100.0 5 -0.08378812670707703
0.02356625162065029 6.751590728759766 1.3123843669891357 100.0 13 -0.08378582447767258
0.00688070897012949 1.8774110078811646 -0.09839160740375519 22.0 6 -0.08378351479768753
0.02592896856367588 6.7523345947265625 1.558910846710205 100.0 14 -0.08378121256828308
0.007156618405133486 1.863702416419983 -0.032531287521123886 19.0 7 -0.08377891033887863
0.027024375274777412 6.732448577880859 1.8039687871932983 63.0 15 -0.08377660810947418
0.010076293721795082 1.8622777462005615 -0.499003142118454 92.0 0 -0.08375587314367294
0.010219315998256207 1.8296927213668823 0.03193790465593338 13.0 8 -0.0837535634636879
0.010605945251882076 1.8415290117263794 -0.4251575171947479 90.0 1 -0.08375126123428345
0.010832879692316055 1.8254626989364624 0.09567013382911682 1.0 9 -0.083748959004879
0.010916400700807571 1.8395370244979858 -0.35757607221603394 94.0 2 -0.08374665677547455
0.04146652668714523 6.787944316864014 0.593879222869873 87.0 10 -0.0837443470954895
0.01164137851446867 1.852866768836975 -0.293471097946167 100.0 3 -0.08374204486608505
0.043713729828596115 6.769023895263672 0.8311489820480347 92.0 11 -0.0837397426366806
0.012217779643833637 1.8421251773834229 -0.226189523935318 90.0 4 -0.08373744040727615
0.04596870392560959 6.75365686416626 1.0696990489959717 85.0 12 -0.08373513072729111
0.01290803961455822 1.8488924503326416 -0.1617610603570938 100.0 5 -0.08373282849788666
0.04719018191099167 6.75931978225708 1.313910722732544 100.0 13 -0.08373052626848221
0.013405969366431236 1.8733810186386108 -0.09818226099014282 16.0 6 -0.08372822403907776
0.04950850456953049 6.754151821136475 1.5593607425689697 100.0 14 -0.08372591435909271
