# .PCD v0.7 - Point Cloud Data file format
VERSION 0.7
FIELDS x y z intensity ring time
SIZE 4 4 4 4 4 4
TYPE F F F F F F
COUNT 1 1 1 1 1 1
WIDTH 552
HEIGHT 1
VIEWPOINT 0 0 0 1 0 0 0
POINTS 552
DATA ascii
3.184713840484619 4.122025489807129 1.202588438987732 73.0 14 -0.03212946280837059
3.05839204788208 3.9570977687835693 -0.08729694038629532 50.0 7 -0.03212716057896614
3.185718059539795 4.120351791381836 1.3955522775650024 120.0 15 -0.03212485462427139
3.1185193061828613 4.02182149887085 0.08883275091648102 74.0 8 -0.032101813703775406
3.0469048023223877 3.9280476570129395 -1.147700309753418 3.0 1 -0.032099511474370956
3.1337826251983643 4.040050029754639 0.2679601311683655 69.0 9 -0.03209720551967621
2.235016345977783 2.880328893661499 -0.7086646556854248 26.0 2 -0.03209490329027176
3.1373238563537598 4.0416975021362305 0.4476318657398224 57.0 10 -0.03209259733557701
2.2570974826812744 2.9066898822784424 -0.5828748941421509 3.0 3 -0.03209029510617256
3.1552460193634033 4.061861991882324 0.6315270066261292 82.0 11 -0.03208799287676811
2.2497308254241943 2.895113468170166 -0.4501853883266449 1.0 4 -0.032085686922073364
3.1599042415618896 4.066389560699463 0.8156493902206421 81.0 12 -0.032083384692668915
2.3025269508361816 2.961991786956787 -0.32822853326797485 4.0 5 -0.03208107873797417
3.1744611263275146 4.082184791564941 1.0051817893981934 70.0 13 -0.03207877650856972
2.260138750076294 2.9053666591644287 -0.1929103434085846 1.0 6 -0.03207647055387497
3.193098545074463 4.1031951904296875 1.2003389596939087 76.0 14 -0.03207416832447052
3.066584587097168 3.940622329711914 -0.08715732395648956 60.0 7 -0.03207186236977577
3.1851227283477783 4.091472625732422 1.3893406391143799 120.0 15 -0.03206956014037132
3.119532346725464 3.995696544647217 0.08848369866609573 72.0 8 -0.032046519219875336
3.0911002159118652 3.957854747772217 -1.159397840499878 1.0 1 -0.032044216990470886
3.140489101409912 4.019642353057861 0.2673321068286896 69.0 9 -0.03204191103577614
2.225712537765503 2.8477602005004883 -0.7025587558746338 1.0 2 -0.03203960880637169
3.1452746391296387 4.022876262664795 0.446760356426239 59.0 10 -0.03203730285167694
2.2776737213134766 2.9131953716278076 -0.5856907367706299 2.0 3 -0.03203500062227249
3.150355100631714 4.027921199798584 0.6278709173202515 78.0 11 -0.032032694667577744
2.3033535480499268 2.9439220428466797 -0.45895999670028687 1.0 4 -0.032030392438173294
3.1704256534576416 4.050668716430664 0.814710795879364 75.0 12 -0.032028086483478546
2.3189945220947266 2.9617793560028076 -0.3291000723838806 1.0 5 -0.0320257842540741
3.1758785247802734 4.056176662445068 1.0013656616210938 70.0 13 -0.03202347829937935
2.2377398014068604 2.8569746017456055 -0.19018888473510742 1.0 6 -0.0320211760699749
3.194669723510742 4.077243804931641 1.1958398818969727 83.0 14 -0.03201887011528015
3.0692195892333984 3.9157285690307617 -0.08684317767620087 59.0 7 -0.0320165678858757
3.185082197189331 4.06208610534668 1.3831290006637573 122.0 15 -0.032014261931180954
3.1235735416412354 3.9722073078155518 0.08820446580648422 71.0 8 -0.031991224735975266
3.1389825344085693 3.9903693199157715 0.2660760283470154 69.0 9 -0.03198661655187607
2.2788522243499756 2.8959052562713623 -0.7162970304489136 1.0 2 -0.03198431059718132
3.1536688804626465 4.006160736083984 0.4460630714893341 59.0 10 -0.03198200836777687
2.2694976329803467 2.8819475173950195 -0.5809977054595947 1.0 3 -0.03197970241308212
3.1496541500091553 3.9981882572174072 0.6249460577964783 76.0 11 -0.03197740018367767
2.3111588954925537 2.9327447414398193 -0.45847249031066895 1.0 4 -0.031975094228982925
3.174058675765991 4.027721405029297 0.8122078776359558 79.0 12 -0.031972791999578476
3.182722806930542 4.0358171463012695 0.9990758895874023 67.0 13 -0.03196818381547928
2.2155354022979736 2.808377742767334 -0.18746741116046906 1.0 6 -0.03196587786078453
3.1919796466827393 4.044651031494141 1.189541220664978 89.0 14 -0.03196357563138008
3.074753999710083 3.896111249923706 -0.08663374930620193 57.0 7 -0.03196126967668533
3.1973369121551514 4.049986362457275 1.3826115131378174 122.0 15 -0.031958967447280884
3.1267971992492676 3.9492850303649902 0.08792522549629211 68.0 8 -0.0319359265267849
3.1355271339416504 3.957472324371338 0.26461061835289 63.0 9 -0.0319313183426857
3.155256748199463 3.979515314102173 0.4443199634552002 60.0 10 -0.0319267101585865
2.2913155555725098 2.8898837566375732 -0.584126353263855 1.0 3 -0.03192440792918205
3.1579601764678955 3.981501340866089 0.6239711046218872 85.0 11 -0.031922101974487305
2.288792371749878 2.8846325874328613 -0.4521353244781494 1.0 4 -0.031919799745082855
3.1721346378326416 3.99650239944458 0.8081405758857727 75.0 12 -0.03191749379038811
2.30688738822937 2.905357837677002 -0.324567973613739 1.0 5 -0.03191519156098366
3.1863210201263428 4.012940883636475 0.9960229992866516 67.0 13 -0.03191288560628891
2.2298057079315186 2.8072702884674072 -0.1878861039876938 1.0 6 -0.03191058337688446
3.189615488052368 4.0142083168029785 1.183692455291748 86.0 14 -0.03190827742218971
3.0684258937835693 3.8603084087371826 -0.08607526868581772 59.0 7 -0.03190597519278526
3.2018370628356934 4.026702880859375 1.3784703016281128 122.0 15 -0.031903669238090515
3.133769989013672 3.928417921066284 0.08771578967571259 71.0 8 -0.0318044051527977
3.1450278759002686 3.939709186553955 0.2641919255256653 69.0 9 -0.0317997969686985
2.2818663120269775 2.858444929122925 -0.7109543085098267 1.0 2 -0.031797491014003754
3.151721715927124 3.946681499481201 0.44187960028648376 57.0 10 -0.031795188784599304
2.296959638595581 2.875293016433716 -0.5828748941421509 1.0 3 -0.031792882829904556
3.162618398666382 3.9574930667877197 0.6220211386680603 82.0 11 -0.03179058060050011
3.1707215309143066 3.964794158935547 0.8040732741355896 79.0 12 -0.03178597241640091
3.1985559463500977 3.998168706893921 0.9952597618103027 66.0 13 -0.03178136423230171
2.299981117248535 2.873929262161255 -0.1929103434085846 1.0 6 -0.031779058277606964
3.200652599334717 3.9979279041290283 1.182342767715454 89.0 14 -0.031776756048202515
3.07505464553833 3.839670419692993 -0.08586584031581879 63.0 7 -0.03177445009350777
3.200870990753174 3.9953417778015137 1.3717409372329712 122.0 15 -0.03177214786410332
3.1349399089813232 3.9018654823303223 0.0873667448759079 74.0 8 -0.03174910694360733
3.1512513160705566 3.919368267059326 0.2635639011859894 66.0 9 -0.03174449875950813
2.294290065765381 2.853523015975952 -0.7117176055908203 60.0 2 -0.031742196530103683
3.1554906368255615 3.9232351779937744 0.4404851198196411 57.0 10 -0.031739890575408936
2.292123317718506 2.8487884998321533 -0.5791204571723938 1.0 3 -0.031737588346004486
3.171433925628662 3.940244436264038 0.621046245098114 85.0 11 -0.03173528239130974
3.1771082878112793 3.9444708824157715 0.8021960258483887 82.0 12 -0.03173067420721054
2.4520950317382812 3.044346332550049 -0.3419991433620453 1.0 5 -0.03172837197780609
3.1927831172943115 3.962519884109497 0.9891538619995117 70.0 13 -0.03172606602311134
3.102142810821533 3.8486487865448 -0.2590630054473877 1.0 6 -0.031723763793706894
3.202357292175293 3.971560001373291 1.1778438091278076 83.0 14 -0.031721457839012146
3.0871827602386475 3.827357053756714 -0.0858309343457222 60.0 7 -0.0317191556096077
3.2050938606262207 3.9721157550811768 1.3675999641418457 121.0 15 -0.03171684965491295
3.1284120082855225 3.8660295009613037 0.08680827170610428 79.0 8 -0.03169381245970726
3.153601884841919 3.894374132156372 0.26262184977531433 59.0 9 -0.03168920427560806
2.315356969833374 2.8592278957366943 -0.7151521444320679 27.0 2 -0.031686898320913315
3.1616387367248535 3.902909755706787 0.43943923711776733 57.0 10 -0.031684596091508865
3.028362512588501 3.737048625946045 -0.7618359327316284 6.0 3 -0.03168229013681412
3.1676690578460693 3.9075605869293213 0.6176338791847229 82.0 11 -0.03167998790740967
3.102081298828125 3.8252921104431152 -0.6047157645225525 30.0 4 -0.03167768195271492
3.1858789920806885 3.9272215366363525 0.8009445667266846 82.0 12 -0.03167537972331047
2.5380184650421143 3.128605842590332 -0.35245782136917114 74.0 5 -0.03167307376861572
3.188040256500244 3.928483724594116 0.9834296107292175 72.0 13 -0.03167077153921127
3.1193339824676514 3.842449426651001 -0.25937703251838684 25.0 6 -0.031668465584516525
3.2063724994659424 3.948256492614746 1.1742446422576904 83.0 14 -0.031666163355112076
3.0942206382751465 3.8087966442108154 -0.08565641939640045 63.0 7 -0.031663861125707626
3.203101873397827 3.941413402557373 1.360870599746704 117.0 15 -0.03166155517101288
3.139362096786499 3.851984739303589 0.0867384597659111 76.0 8 -0.03163851425051689
3.154552459716797 3.8678653240203857 0.2615751326084137 59.0 9 -0.031633906066417694
2.3488986492156982 2.880035877227783 -0.7224029302597046 25.0 2 -0.031631603837013245
3.162648916244507 3.876410961151123 0.4376961290836334 56.0 10 -0.0316292978823185
3.055129051208496 3.743288278579712 -0.7652775049209595 48.0 3 -0.03162699565291405
3.1737558841705322 3.887253999710083 0.6161714792251587 85.0 11 -0.0316246896982193
3.110393524169922 3.8082897663116455 -0.6037408113479614 66.0 4 -0.03162238746881485
3.192070245742798 3.90689754486084 0.7990673780441284 82.0 12 -0.0316200852394104
2.532536745071411 3.0996689796447754 -0.35019177198410034 96.0 5 -0.03161777928471565
3.191793203353882 3.9051711559295654 0.9803766012191772 75.0 13 -0.0316154770553112
3.1188201904296875 3.8145294189453125 -0.25822561979293823 27.0 6 -0.031613171100616455
3.2028632164001465 3.9159209728240967 1.1679459810256958 78.0 14 -0.031610868871212006
3.1036970615386963 3.793329954147339 -0.08555170148611069 64.0 7 -0.03160856291651726
3.209495782852173 3.9212405681610107 1.357764720916748 120.0 15 -0.03160626068711281
3.1451778411865234 3.831727981567383 0.08652903139591217 76.0 8 -0.03158321976661682
3.150883674621582 3.8373172283172607 0.2602143883705139 61.0 9 -0.031578611582517624
2.3751380443573 2.891540288925171 -0.7273639440536499 25.0 2 -0.031576305627822876
3.1647777557373047 3.8514926433563232 0.43612733483314514 57.0 10 -0.031574003398418427
3.0405783653259277 3.699030876159668 -0.7583943605422974 50.0 3 -0.03157170116901398
3.17343807220459 3.8592851161956787 0.6134903430938721 89.0 11 -0.03156939521431923
3.114180326461792 3.7872204780578613 -0.6020345687866211 77.0 4 -0.03156709298491478
3.1886940002441406 3.8764591217041016 0.7950000762939453 86.0 12 -0.03156478703022003
2.5420732498168945 3.08927321434021 -0.3500174582004547 83.0 5 -0.03156248480081558
3.202911376953125 3.8909738063812256 0.9796134233474731 74.0 13 -0.031560178846120834
3.13211727142334 3.8036186695098877 -0.25822561979293823 31.0 6 -0.031557876616716385
3.204681396484375 3.891739845275879 1.1638967990875244 74.0 14 -0.03155557066202164
3.10735821723938 3.7722129821777344 -0.08530735969543457 70.0 7 -0.03155326843261719
3.215111494064331 3.901629686355591 1.3546589612960815 115.0 15 -0.03155096247792244
3.154046058654785 3.8166513442993164 0.0864243134856224 76.0 8 -0.03152792155742645
3.155956983566284 3.817610263824463 0.259586364030838 63.0 9 -0.031523317098617554
2.3947224617004395 2.895751953125 -0.7304168343544006 17.0 2 -0.031521011143922806
3.1597533226013184 3.8194832801818848 0.4336869716644287 60.0 10 -0.031518708914518356
3.03645658493042 3.669142484664917 -0.7543270587921143 49.0 3 -0.03151640295982361
3.1735589504241943 3.8334500789642334 0.6110529899597168 91.0 11 -0.03151410073041916
3.119126081466675 3.7676987648010254 -0.6005722284317017 86.0 4 -0.03151179477572441
3.1838932037353516 3.8445632457733154 0.7906199097633362 84.0 12 -0.03150949254631996
2.5319674015045166 3.056277275085449 -0.347228467464447 83.0 5 -0.031507186591625214
3.20326828956604 3.865215301513672 0.9757972955703735 74.0 13 -0.031504884362220764
3.134516954421997 3.780910015106201 -0.25738826394081116 27.0 6 -0.031502578407526016
3.208864212036133 3.870589256286621 1.1607475280761719 78.0 14 -0.03150027617812157
3.101979970932007 3.740338087081909 -0.08481869101524353 64.0 7 -0.03149797022342682
3.2082955837249756 3.8671584129333496 1.346376657485962 120.0 15 -0.03149566799402237
3.1462197303771973 3.7815780639648438 0.08586584031581879 74.0 8 -0.03147262707352638
3.161597490310669 3.797360897064209 0.2589583396911621 66.0 9 -0.031468018889427185
2.4369730949401855 2.9270222187042236 -0.740338921546936 6.0 2 -0.031465716660022736
3.162198543548584 3.796738862991333 0.43229246139526367 61.0 10 -0.03146341070532799
3.032168388366699 3.639324426651001 -0.7502597570419312 48.0 3 -0.03146110847592354
3.181170701980591 3.8168041706085205 0.610077977180481 93.0 11 -0.03145880252122879
3.123361110687256 3.7461140155792236 -0.5988659858703613 79.0 4 -0.03145650029182434
3.184638500213623 3.818258047103882 0.7874912023544312 81.0 12 -0.03145419433712959
2.5369832515716553 3.0417444705963135 -0.3465312123298645 81.0 5 -0.03145189210772514
3.203491687774658 3.839496374130249 0.9719811081886292 75.0 13 -0.031449586153030396
3.1431972980499268 3.765895128250122 -0.257074236869812 26.0 6 -0.031447283923625946
3.2161078453063965 3.851886749267578 1.158497929573059 75.0 14 -0.0314449779689312
3.1175825595855713 3.732556104660034 -0.0848885104060173 66.0 7 -0.03144267573952675
3.2131052017211914 3.845557689666748 1.342753291130066 120.0 15 -0.031440369784832
3.1465582847595215 3.755244255065918 0.0855167880654335 72.0 8 -0.03141733258962631
3.169699192047119 3.7801804542541504 0.2585396468639374 69.0 9 -0.031412724405527115
2.4610507488250732 2.935046672821045 -0.7445367574691772 1.0 2 -0.03141041845083237
3.17031192779541 3.7795708179473877 0.43159523606300354 63.0 10 -0.03140811622142792
3.035966396331787 3.6181247234344482 -0.748069703578949 49.0 3 -0.03140581026673317
3.1791586875915527 3.7874321937561035 0.6071531176567078 88.0 11 -0.03140350803732872
3.1287589073181152 3.7260687351226807 -0.5974035859107971 82.0 4 -0.03140120208263397
3.1903250217437744 3.798042058944702 0.785614013671875 77.0 12 -0.03139889985322952
2.5411787033081055 3.0252416133880615 -0.34565967321395874 79.0 5 -0.031396593898534775
3.1941394805908203 3.8012359142303467 0.9651119112968445 74.0 13 -0.031394291669130325
3.135760545730591 3.7304389476776123 -0.2553994953632355 28.0 6 -0.03139198571443558
3.2207558155059814 3.830195903778076 1.1553486585617065 78.0 14 -0.03138968348503113
3.131880521774292 3.7231802940368652 -0.0849234089255333 68.0 7 -0.03138738125562668
3.215313673019409 3.8210155963897705 1.3380944728851318 121.0 15 -0.03138507530093193
3.149331569671631 3.732010841369629 0.08523755520582199 72.0 8 -0.031362034380435944
3.1648337841033936 3.7477304935455322 0.257074236869812 69.0 9 -0.031357426196336746
2.4991469383239746 2.9594380855560303 -0.7529323101043701 1.0 2 -0.0313551239669323
3.1783437728881836 3.762392520904541 0.430897980928421 63.0 10 -0.03135281801223755
3.0651519298553467 3.627120018005371 -0.7521370053291321 97.0 3 -0.0313505157828331
3.175698757171631 3.7566046714782715 0.603984534740448 88.0 11 -0.03134820982813835
3.1212379932403564 3.690871477127075 -0.5935037732124329 82.0 4 -0.0313459075987339
3.202286720275879 3.7853755950927734 0.785301148891449 82.0 12 -0.031343601644039154
2.5491490364074707 3.0133111476898193 -0.3453110456466675 79.0 5 -0.031341299414634705
3.2048518657684326 3.78706693649292 0.9643487334251404 72.0 13 -0.031338997185230255
3.1474738121032715 3.7179455757141113 -0.2552948296070099 38.0 6 -0.03133669123053551
3.2202517986297607 3.802572250366211 1.1503998041152954 81.0 14 -0.03133438900113106
3.140977144241333 3.7076501846313477 -0.08481869101524353 82.0 7 -0.03133208304643631
3.226135015487671 3.8068206310272217 1.3370592594146729 123.0 15 -0.03132978081703186
3.157158851623535 3.7149007320404053 0.08509793877601624 71.0 8 -0.03130673989653587
3.1649582386016846 3.721445083618164 0.2560275197029114 69.0 9 -0.031302131712436676
2.5476200580596924 2.9955618381500244 -0.7643808722496033 1.0 2 -0.03129982575774193
3.1875839233398438 3.7467234134674072 0.43037503957748413 66.0 10 -0.03129752352833748
3.07523512840271 3.613389253616333 -0.75151127576828 67.0 3 -0.03129521757364273
3.188793182373047 3.745495557785034 0.603984534740448 88.0 11 -0.03129291534423828
3.123804807662964 3.6678638458251953 -0.591553807258606 75.0 4 -0.03129061311483383
3.200108766555786 3.756129503250122 0.7815467119216919 92.0 12 -0.031288307160139084
2.559652805328369 3.004394054412842 -0.3453110456466675 79.0 5 -0.031286004930734634
3.212958335876465 3.76987886428833 0.9628221988677979 74.0 13 -0.031283698976039886
3.1435866355895996 3.687178611755371 -0.2539340853691101 32.0 6 -0.03128139674663544
3.2158026695251465 3.7705495357513428 1.1441011428833008 81.0 14 -0.03127909079194069
3.1435182094573975 3.684492826461792 -0.08453945815563202 74.0 7 -0.03127678856253624
3.2281155586242676 3.7823116779327393 1.3324004411697388 122.0 15 -0.03127448260784149
3.162304639816284 3.6947431564331055 0.0848885104060173 71.0 8 -0.031251441687345505
3.166891098022461 3.698791265487671 0.2551901638507843 69.0 9 -0.031246835365891457
3.0535809993743896 3.5651938915252686 -0.9124486446380615 30.0 2 -0.031244531273841858
3.1837897300720215 3.7159054279327393 0.42810899019241333 68.0 10 -0.03124222718179226
3.08140230178833 3.59513258934021 -0.7499468922615051 9.0 3 -0.03123992308974266
3.1940948963165283 3.7253003120422363 0.602522075176239 88.0 11 -0.031237618997693062
3.137880802154541 3.658445119857788 -0.5917975902557373 45.0 4 -0.031235314905643463
3.2022578716278076 3.733502149581909 0.7790436744689941 88.0 12 -0.031233010813593864
2.5584490299224854 2.9818313121795654 -0.3437422513961792 83.0 5 -0.031230706721544266
3.218425750732422 3.7497031688690186 0.960532546043396 71.0 13 -0.031228402629494667
3.146028995513916 3.6640613079071045 -0.25309672951698303 32.0 6 -0.03122609853744507
3.218787908554077 3.747473955154419 1.140501856803894 81.0 14 -0.03122379630804062
3.147902488708496 3.664945602416992 -0.08433002978563309 79.0 7 -0.03122149221599102
3.2267909049987793 3.7554688453674316 1.3267065286636353 122.0 15 -0.03121918812394142
3.1588761806488037 3.6660561561584473 0.08446964621543884 69.0 8 -0.031196147203445435
3.171956777572632 3.6786394119262695 0.254562109708786 66.0 9 -0.031191539019346237
3.0724196434020996 3.5619451999664307 -0.9143567681312561 63.0 2 -0.03118923492729664
3.1772165298461914 3.682143211364746 0.42549434304237366 68.0 10 -0.03118693083524704
2.564204216003418 2.971710443496704 -0.621670663356781 1.0 3 -0.03118462674319744
3.1960549354553223 3.7026655673980713 0.6005722284317017 90.0 11 -0.031182322651147842
3.134427785873413 3.629988670349121 -0.5888727307319641 71.0 4 -0.031180018559098244
3.2036502361297607 3.7088468074798584 0.7762279510498047 86.0 12 -0.031177714467048645
2.559722661972046 2.9623303413391113 -0.3425220847129822 79.0 5 -0.031175412237644196
3.215440034866333 3.7211828231811523 0.9559531211853027 71.0 13 -0.031173108145594597
3.1503262519836426 3.6445415019989014 -0.25246867537498474 27.0 6 -0.031170804053544998
3.229922294616699 3.7353062629699707 1.140052080154419 83.0 14 -0.0311684999614954
3.155442476272583 3.647885799407959 -0.08419041335582733 79.0 7 -0.0311661958694458
3.2285046577453613 3.73103404045105 1.3220477104187012 122.0 15 -0.031163891777396202
3.1585474014282227 3.639904737472534 0.08412060141563416 71.0 8 -0.031140850856900215
3.18477725982666 3.6675453186035156 0.254562109708786 69.0 9 -0.031136242672801018
3.066192626953125 3.530984878540039 -0.9090141654014587 55.0 2 -0.03113393858075142
3.1867971420288086 3.6685776710510254 0.4251457154750824 66.0 10 -0.03113163448870182
2.556422233581543 2.9418656826019287 -0.6172904372215271 1.0 3 -0.03112933225929737
3.194633722305298 3.6750073432922363 0.5978910326957703 88.0 11 -0.031127028167247772
3.137960910797119 3.6085405349731445 -0.5871665477752686 74.0 4 -0.031124724075198174
3.2100934982299805 3.6901895999908447 0.7746635675430298 88.0 12 -0.031122419983148575
2.568223714828491 2.9523227214813232 -0.34234774112701416 83.0 5 -0.031120115891098976
3.2155210971832275 3.695126533508301 0.9521369338035583 71.0 13 -0.031117811799049377
3.1446688175201416 3.6124329566955566 -0.2510032653808594 22.0 6 -0.03111550770699978
3.2339818477630615 3.7137224674224854 1.1369026899337769 75.0 14 -0.03111320361495018
3.1655309200286865 3.6338329315185547 -0.08412060141563416 79.0 7 -0.03111089952290058
3.2338945865631104 3.7110021114349365 1.3189419507980347 121.0 15 -0.031108595430850983
3.163339138031006 3.619821310043335 0.08391116559505463 72.0 8 -0.031085554510354996
3.180467128753662 3.636861562728882 0.2532013952732086 59.0 9 -0.031080948188900948
3.191713333129883 3.648433208465576 0.4240998327732086 65.0 10 -0.03107634000480175
2.597898483276367 2.968600273132324 -0.6247993111610413 1.0 3 -0.03107403591275215
3.191751003265381 3.6459109783172607 0.5949662327766418 86.0 11 -0.031071731820702553
3.1322293281555176 3.5766565799713135 -0.5837542414665222 72.0 4 -0.031069427728652954
3.215146064758301 3.670046091079712 0.7727863192558289 88.0 12 -0.031067123636603355
2.5824530124664307 2.9478354454040527 -0.34287068247795105 68.0 5 -0.031064819544553757
3.218048095703125 3.6720688343048096 0.9490840435028076 74.0 13 -0.031062515452504158
3.1467273235321045 3.589418411254883 -0.2501659095287323 22.0 6 -0.03106021136045456
3.2302229404449463 3.683363437652588 1.1310540437698364 78.0 14 -0.03105790726840496
3.170280694961548 3.613743543624878 -0.08391116559505463 82.0 7 -0.031055603176355362
3.236633777618408 3.6880760192871094 1.3148008584976196 121.0 15 -0.031053299084305763
3.170670509338379 3.6027536392211914 0.08377154916524887 74.0 8 -0.031030260026454926
3.1786234378814697 3.6092495918273926 0.2520500123500824 61.0 9 -0.031025651842355728
2.484811782836914 2.821443557739258 -0.7307984828948975 60.0 2 -0.03102334775030613
3.196526288986206 3.628300428390503 0.42305395007133484 62.0 10 -0.03102104365825653
2.498533248901367 2.8350279331207275 -0.5985183119773865 36.0 3 -0.031018739566206932
3.201833724975586 3.6317684650421143 0.5944787263870239 86.0 11 -0.031016435474157333
3.2148683071136475 3.643988609313965 0.7696576118469238 92.0 12 -0.031011827290058136
2.611180067062378 2.9597201347351074 -0.3453110456466675 60.0 5 -0.031009523198008537
3.2256503105163574 3.654924154281616 0.9475575089454651 72.0 13 -0.03100721910595894
3.1565945148468018 3.5754170417785645 -0.24995654821395874 16.0 6 -0.03100491501390934
3.2288694381713867 3.655998468399048 1.1261049509048462 74.0 14 -0.03100261092185974
3.1696372032165527 3.5876686573028564 -0.08356212079524994 74.0 7 -0.031000306829810143
3.2494890689849854 3.6767547130584717 1.3148008584976196 121.0 15 -0.030998002737760544
3.1752684116363525 3.5826854705810547 0.08356212079524994 71.0 8 -0.030974963679909706
3.184577465057373 3.5906598567962646 0.2515266239643097 59.0 9 -0.03097035549581051
2.486830234527588 2.8039391040802 -0.7285087704658508 80.0 2 -0.03096805140376091
3.1959481239318848 3.602217435836792 0.4213108420372009 72.0 10 -0.03096574731171131
2.5057926177978516 2.823333978652954 -0.5978925824165344 67.0 3 -0.030963443219661713
3.2065844535827637 3.6116621494293213 0.5930162668228149 84.0 11 -0.030961139127612114
2.490104913711548 2.8036892414093018 -0.4604223966598511 48.0 4 -0.030958835035562515
3.214449167251587 3.617976188659668 0.7665289640426636 92.0 12 -0.030956530943512917
2.5434205532073975 2.8627097606658936 -0.33502665162086487 52.0 5 -0.030954226851463318
3.2253477573394775 3.628967046737671 0.9437413215637207 75.0 13 -0.03095192275941372
2.522768497467041 2.837472438812256 -0.19898132979869843 4.0 6 -0.03094961866736412
3.233842134475708 3.635967969894409 1.1234056949615479 74.0 14 -0.030947314575314522
3.167520761489868 3.560148000717163 -0.08317817002534866 63.0 7 -0.030945010483264923
3.232760190963745 3.6322011947631836 1.302895188331604 115.0 15 -0.030942708253860474
3.1771035194396973 3.5596439838409424 0.08328288793563843 72.0 8 -0.030919667333364487
3.1930994987487793 3.5750534534454346 0.25121262669563293 61.0 9 -0.03091505914926529
2.501833438873291 2.8010990619659424 -0.7300352454185486 58.0 2 -0.03091275505721569
3.1925742626190186 3.5732102394104004 0.41921913623809814 62.0 10 -0.030910450965166092
2.506415843963623 2.8042616844177246 -0.5957025289535522 77.0 3 -0.030908146873116493
3.213878870010376 3.5945284366607666 0.5920413136482239 86.0 11 -0.030905842781066895
2.5012006759643555 2.7964589595794678 -0.46066614985466003 59.0 4 -0.030903538689017296
3.2204740047454834 3.599372148513794 0.7649646401405334 96.0 12 -0.030901234596967697
2.501586675643921 2.795905828475952 -0.32822853326797485 50.0 5 -0.0308989305049181
3.227520227432251 3.6059842109680176 0.94068843126297 75.0 13 -0.03089662827551365
2.527329206466675 2.8226966857910156 -0.1985626369714737 53.0 6 -0.03089432418346405
3.2400145530700684 3.617398738861084 1.121156096458435 71.0 14 -0.03089202009141445
2.524726629257202 2.817809820175171 -0.06603990495204926 33.0 7 -0.030889715999364853
3.235105037689209 3.6093850135803223 1.2987539768218994 115.0 15 -0.030887411907315254
3.1707942485809326 3.5277116298675537 0.08279421925544739 71.0 8 -0.030864370986819267
3.1988821029663086 3.556460380554199 0.2506892681121826 59.0 9 -0.03085976280272007
2.522099733352661 2.804025650024414 -0.7330881953239441 58.0 2 -0.03085745871067047
3.1943655014038086 3.5501959323883057 0.4178246259689331 58.0 10 -0.030855154618620872
2.50958251953125 2.788153886795044 -0.5941381454467773 56.0 3 -0.030852850526571274
3.20515513420105 3.5596842765808105 0.5881415009498596 88.0 11 -0.030850548297166824
2.5229029655456543 2.8009865283966064 -0.4628598093986511 53.0 4 -0.030848244205117226
3.2303714752197266 3.5851759910583496 0.7643388509750366 96.0 12 -0.030845940113067627
2.509995460510254 2.7856781482696533 -0.3280542194843292 66.0 5 -0.030843636021018028
3.2269444465637207 3.5801122188568115 0.9368722438812256 75.0 13 -0.03084133192896843
2.5358290672302246 2.8123745918273926 -0.1984579712152481 88.0 6 -0.03083902783691883
3.24478816986084 3.5973868370056152 1.1184567213058472 72.0 14 -0.030836723744869232
2.534547805786133 2.808979034423828 -0.06603990495204926 75.0 7 -0.030834419652819633
3.2399187088012695 3.5894649028778076 1.2956480979919434 117.0 15 -0.030832115560770035
3.1750380992889404 3.507725954055786 0.08258479088544846 74.0 8 -0.030809074640274048
3.193230390548706 3.5265872478485107 0.24932852387428284 63.0 9 -0.03080446645617485
2.542414426803589 2.806847095489502 -0.7361411452293396 61.0 2 -0.0308021642267704
3.1987123489379883 3.5301640033721924 0.4167787432670593 58.0 10 -0.030799860134720802
2.5471596717834473 2.8101117610931396 -0.6007084250450134 57.0 3 -0.030797556042671204
3.2108914852142334 3.541123867034912 0.586922824382782 88.0 11 -0.030795251950621605
2.5353333950042725 2.795102834701538 -0.46334728598594666 53.0 4 -0.030792947858572006
3.223663330078125 3.5539588928222656 0.7599587440490723 96.0 12 -0.030790643766522408
2.541126012802124 2.800507068634033 -0.3308432102203369 39.0 5 -0.03078833967447281
3.2341408729553223 3.563014030456543 0.9353457689285278 72.0 13 -0.03078603558242321
2.5442886352539062 2.8020262718200684 -0.19835329055786133 31.0 6 -0.03078373149037361
3.2455341815948486 3.5730552673339844 1.1144076585769653 74.0 14 -0.030781427398324013
2.5451929569244385 2.802039623260498 -0.06607481092214584 64.0 7 -0.030779123306274414
3.244006872177124 3.570125102996826 1.2925424575805664 120.0 15 -0.030776819214224815
3.183958053588867 3.4942219257354736 0.08251497894525528 74.0 8 -0.030753780156373978
3.189371347427368 3.4977097511291504 0.24807246029376984 63.0 9 -0.03074917197227478
2.5574893951416016 2.8037564754486084 -0.7376676201820374 58.0 2 -0.03074686788022518
3.2043018341064453 3.511617422103882 0.41590720415115356 60.0 10 -0.030744563788175583
2.5644543170928955 2.810404062271118 -0.6025856137275696 57.0 3 -0.030742259696125984
3.214587688446045 3.5216586589813232 0.585460364818573 90.0 11 -0.030739955604076385
2.552618980407715 2.795475959777832 -0.46480971574783325 50.0 4 -0.030737651512026787
3.2173984050750732 3.5222649574279785 0.7555785775184631 88.0 12 -0.030735347419977188
2.5643255710601807 2.806328535079956 -0.3325863182544708 38.0 5 -0.03073304332792759
3.2379934787750244 3.543572425842285 0.9330560564994812 74.0 13 -0.03073073923587799
3.246845245361328 3.550766706466675 1.1108083724975586 75.0 14 -0.030726131051778793
2.560356378555298 2.7990405559539795 -0.0662144273519516 60.0 7 -0.030723826959729195
3.249929189682007 3.551652669906616 1.2899541854858398 120.0 15 -0.030721522867679596
3.182614803314209 3.468353509902954 0.08216592669487 74.0 8 -0.030698483809828758
3.1961586475372314 3.4806699752807617 0.2476537823677063 66.0 9 -0.03069387562572956
2.5773966312408447 2.806828022003174 -0.7407205700874329 58.0 2 -0.030691571533679962
3.2105371952056885 3.4951040744781494 0.41520997881889343 61.0 10 -0.030689267441630363
2.5902857780456543 2.8188912868499756 -0.6063400506973267 57.0 3 -0.030686963349580765
3.213428020477295 3.4958009719848633 0.5830230116844177 90.0 11 -0.030684659257531166
2.575798749923706 2.8011600971221924 -0.4672470986843109 53.0 4 -0.030682355165481567
3.22298526763916 3.5037457942962646 0.7540141940116882 88.0 12 -0.03068005107343197
2.5808520317077637 2.80469012260437 -0.3334578573703766 35.0 5 -0.03067774698138237
3.2450263500213623 3.526468515396118 0.9315295815467834 74.0 13 -0.03067544288933277
2.602530002593994 2.8272576332092285 -0.20138879120349884 4.0 6 -0.030673138797283173
3.248659133911133 3.5279440879821777 1.1072092056274414 75.0 14 -0.030670834705233574
2.574176549911499 2.7944979667663574 -0.06631914526224136 57.0 7 -0.030668530613183975
3.250525951385498 3.5274996757507324 1.2852953672409058 123.0 15 -0.030666226521134377
3.1811323165893555 3.442535877227783 0.08181688189506531 72.0 8 -0.03064318746328354
3.202864408493042 3.463627338409424 0.24723508954048157 69.0 9 -0.03063857927918434
2.5996646881103516 2.810333728790283 -0.7441551089286804 57.0 2 -0.030636275187134743
3.2057337760925293 3.464303731918335 0.41294392943382263 66.0 10 -0.030633971095085144
2.605968475341797 2.815176486968994 -0.6075915694236755 57.0 3 -0.030631667003035545
3.2256100177764893 3.4845633506774902 0.5830230116844177 94.0 11 -0.030629362910985947
2.6030941009521484 2.811087131500244 -0.47041571140289307 55.0 4 -0.030627058818936348
3.2311694622039795 3.488125801086426 0.7530755996704102 96.0 12 -0.03062475472688675
2.597398519515991 2.8029706478118896 -0.33432942628860474 41.0 5 -0.03062245063483715
3.241912841796875 3.497274398803711 0.9269501566886902 72.0 13 -0.030620146542787552
2.627812623977661 2.8338098526000977 -0.20254017412662506 6.0 6 -0.030617844313383102
3.2562673091888428 3.5102977752685547 1.1054095029830933 74.0 14 -0.030615540221333504
2.5934360027313232 2.7957570552825928 -0.06656347960233688 52.0 7 -0.030613236129283905
3.2470500469207764 3.4991397857666016 1.2790838479995728 123.0 15 -0.030610932037234306
3.1855523586273193 3.422071933746338 0.08160745352506638 72.0 8 -0.03058789111673832
3.2046475410461426 3.4401726722717285 0.2463977038860321 66.0 9 -0.030583282932639122
2.6268560886383057 2.8199164867401123 -0.7491161227226257 53.0 2 -0.030580978840589523
3.213730812072754 3.4487199783325195 0.41242098808288574 68.0 10 -0.030578674748539925
2.6292498111724854 2.82051157951355 -0.6107202172279358 57.0 3 -0.030576370656490326
3.21399188041687 3.4465839862823486 0.5786356925964355 88.0 11 -0.030574066564440727
2.626919984817505 2.8160438537597656 -0.4728530943393707 59.0 4 -0.03057176247239113
3.235846757888794 3.46759295463562 0.7511983513832092 86.0 12 -0.03056946024298668
2.6239683628082275 2.8109092712402344 -0.3364211618900299 41.0 5 -0.03056715615093708
3.2366859912872314 3.4672791957855225 0.9219891428947449 70.0 13 -0.03056485205888748
2.6376876831054688 2.824620246887207 -0.20254017412662506 5.0 6 -0.030562547966837883
3.255197048187256 3.4846696853637695 1.1009105443954468 74.0 14 -0.030560243874788284
2.613222122192383 2.7964606285095215 -0.0668078139424324 45.0 7 -0.030557939782738686
3.251938581466675 3.4787464141845703 1.2759779691696167 123.0 15 -0.030555635690689087
3.1920087337493896 3.405094623565674 0.08146783709526062 72.0 8 -0.0305325947701931
3.2084367275238037 3.4202258586883545 0.245769664645195 69.0 9 -0.030527986586093903
2.647920846939087 2.821723222732544 -0.7521690726280212 52.0 2 -0.030525684356689453
3.222259521484375 3.4325592517852783 0.41189804673194885 67.0 10 -0.030523378401994705
2.6517393589019775 2.8238162994384766 -0.6135360598564148 56.0 3 -0.030521076172590256
3.217849016189575 3.4266622066497803 0.5771732330322266 88.0 11 -0.030518772080540657
2.6448893547058105 2.8155369758605957 -0.4743155241012573 57.0 4 -0.03051646798849106
3.2371087074279785 3.444761276245117 0.748695433139801 86.0 12 -0.03051416389644146
2.650139570236206 2.8191535472869873 -0.3385128974914551 45.0 5 -0.03051185980439186
3.2453370094299316 3.4511029720306396 0.9208442568778992 71.0 13 -0.030509555712342262
2.6589713096618652 2.826571226119995 -0.20337754487991333 8.0 6 -0.030507251620292664
3.251920700073242 3.455686330795288 1.095511794090271 75.0 14 -0.030504947528243065
2.642152786254883 2.8077104091644287 -0.06729648262262344 34.0 7 -0.030502643436193466
3.2587645053863525 3.4617481231689453 1.2739074230194092 122.0 15 -0.030500339344143867
3.1923043727874756 3.382855176925659 0.08118859678506851 71.0 8 -0.030434926971793175
3.203305244445801 3.3921432495117188 0.2445136159658432 69.0 9 -0.030430318787693977
2.6635115146636963 2.820528268814087 -0.7540771961212158 68.0 2 -0.03042801469564438
3.2248191833496094 3.4137284755706787 0.4108521640300751 70.0 10 -0.03042571060359478
2.668738603591919 2.8240854740142822 -0.615413248538971 56.0 3 -0.03042340651154518
3.2237391471862793 3.410202980041504 0.5761982798576355 84.0 11 -0.030421102419495583
2.670579433441162 2.8240580558776855 -0.4772403836250305 61.0 4 -0.030418798327445984
3.2403697967529297 3.425396680831909 0.7468182444572449 86.0 12 -0.030416494235396385
2.6754143238067627 2.828181743621826 -0.34060463309288025 44.0 5 -0.030414190143346786
3.249415159225464 3.4337611198425293 0.9189361929893494 68.0 13 -0.030411887913942337
2.6829428672790527 2.834157943725586 -0.20452894270420074 8.0 6 -0.03040958382189274
3.252042293548584 3.4341323375701904 1.0919125080108643 75.0 14 -0.03040727972984314
2.6596999168395996 2.8076441287994385 -0.06750591099262238 33.0 7 -0.03040497563779354
3.263582944869995 3.443910837173462 1.2713191509246826 122.0 15 -0.030402671545743942
3.2040908336639404 3.3716936111450195 0.08118859678506851 71.0 8 -0.030379630625247955
3.2123749256134033 3.3780453205108643 0.24430426955223083 66.0 9 -0.030375022441148758
2.686870813369751 2.825439691543579 -0.7578933835029602 114.0 2 -0.03037271834909916
3.22023606300354 3.385128974914551 0.4087603986263275 65.0 10 -0.03037041425704956
2.6990060806274414 2.8362181186676025 -0.6201062798500061 100.0 3 -0.030368110164999962
3.230149745941162 3.3931777477264404 0.5752233266830444 88.0 11 -0.030365807935595512
2.6900031566619873 2.824782133102417 -0.4789465665817261 68.0 4 -0.030363503843545914
3.2386815547943115 3.3997631072998047 0.7436895370483398 86.0 12 -0.030361199751496315
2.6907665729522705 2.824596643447876 -0.34130188822746277 44.0 5 -0.030358895659446716
3.260028123855591 3.420975685119629 0.9185545444488525 71.0 13 -0.030356591567397118
2.7148685455322266 2.8479063510894775 -0.20620369911193848 9.0 6 -0.03035428747534752
3.2559399604797363 3.4142985343933105 1.0892130136489868 74.0 14 -0.03035198338329792
2.821316957473755 2.957503318786621 -0.07134544104337692 92.0 7 -0.03034967929124832
3.26224684715271 3.418522357940674 1.2661428451538086 121.0 15 -0.030347375199198723
3.193720817565918 3.337371587753296 0.08063012361526489 71.0 8 -0.030324334278702736
3.218620777130127 3.3610422611236572 0.2438855916261673 73.0 9 -0.030319727957248688
2.6980743408203125 2.8174619674682617 -0.7582749724388123 68.0 2 -0.03031742386519909
3.2182490825653076 3.359480619430542 0.4070172905921936 65.0 10 -0.03031511977314949
2.7102572917938232 2.828204870223999 -0.6204191446304321 108.0 3 -0.03031281568109989
3.236478805541992 3.376150369644165 0.5742484331130981 88.0 11 -0.030310511589050293
2.7108383178710938 2.8268377780914307 -0.4808964729309082 100.0 4 -0.030308207497000694
3.240957498550415 3.37845778465271 0.7414994835853577 88.0 12 -0.030305903404951096
2.710265636444092 2.8252508640289307 -0.3425220847129822 70.0 5 -0.030303599312901497
3.2569973468780518 3.3939921855926514 0.9143567681312561 70.0 13 -0.030301295220851898
2.738623857498169 2.852820873260498 -0.2072504162788391 15.0 6 -0.0302989911288023
3.2597405910491943 3.3944783210754395 1.0865137577056885 74.0 14 -0.0302966870367527
3.0976085662841797 3.224518060684204 -0.07804716378450394 60.0 7 -0.030294382944703102
3.260773181915283 3.3931853771209717 1.260966420173645 121.0 15 -0.030292078852653503
3.197026014328003 3.3175628185272217 0.08042068779468536 72.0 8 -0.030269039794802666
3.219242572784424 3.3382842540740967 0.24304819107055664 76.0 9 -0.03026443161070347
2.7092559337615967 2.809439182281494 -0.7586565613746643 68.0 2 -0.03026212751865387
3.224424362182617 3.342489719390869 0.40632006525993347 67.0 10 -0.03025982342660427
2.7146244049072266 2.8130431175231934 -0.619167685508728 68.0 3 -0.030257519334554672
3.2303218841552734 3.3462650775909424 0.5710797905921936 82.0 11 -0.030255215242505074
2.7317216396331787 2.8287808895111084 -0.48284637928009033 86.0 4 -0.030252911150455475
3.249983310699463 3.3642845153808594 0.7408736944198608 88.0 12 -0.030250607058405876
2.72841477394104 2.8243725299835205 -0.34356793761253357 100.0 5 -0.030248302966356277
3.2483599185943604 3.361426591873169 0.9086324572563171 74.0 13 -0.03024599887430668
2.747177839279175 2.8418071269989014 -0.20714573562145233 11.0 6 -0.03024369478225708
3.264793872833252 3.376077175140381 1.0842641592025757 72.0 14 -0.03024139069020748
3.056011199951172 3.1590709686279297 -0.07672078162431717 85.0 7 -0.030239086598157883
3.269911766052246 3.379004955291748 1.2599310874938965 122.0 15 -0.030236782506108284
3.1974451541900635 3.294902801513672 0.08014144748449326 72.0 8 -0.030213743448257446
3.2163825035095215 3.313260316848755 0.242001473903656 73.0 9 -0.03020913526415825
2.7122082710266113 2.792922019958496 -0.7567484974861145 58.0 2 -0.03020683117210865
3.230518341064453 3.325498342514038 0.40562281012535095 62.0 10 -0.03020452708005905
2.718921184539795 2.7978830337524414 -0.6179162263870239 61.0 3 -0.030202222988009453
3.232297897338867 3.3250043392181396 0.5693736672401428 84.0 11 -0.030199918895959854
2.72912335395813 2.8064205646514893 -0.48065274953842163 72.0 4 -0.030197614803910255
3.258368730545044 3.3506557941436768 0.7402480244636536 92.0 12 -0.030195310711860657
2.7424254417419434 2.819115161895752 -0.34409087896347046 70.0 5 -0.030193006619811058
3.2545976638793945 3.344438314437866 0.9071059823036194 75.0 13 -0.03019070252776146
2.7431485652923584 2.817889928817749 -0.2060990184545517 23.0 6 -0.03018839843571186
3.260244607925415 3.3479056358337402 1.0788652896881104 72.0 14 -0.030186094343662262
3.127854585647583 3.2119557857513428 -0.07825659215450287 66.0 7 -0.030183790251612663
3.2784039974212646 3.365374803543091 1.2588958740234375 121.0 15 -0.030181486159563065
3.205559015274048 3.281421661376953 0.08007164299488068 76.0 8 -0.030158447101712227
3.219552516937256 3.293442964553833 0.2413734346628189 70.0 9 -0.03015383891761303
2.705467462539673 2.7665958404541016 -0.7521690726280212 53.0 2 -0.03015153482556343
3.233748435974121 3.3056554794311523 0.40457695722579956 63.0 10 -0.030149230733513832
2.72680401802063 2.78743839263916 -0.6176033616065979 55.0 3 -0.030146926641464233
3.239140272140503 3.310011625289917 0.5686424374580383 80.0 11 -0.030144622549414635
2.7286934852600098 2.7874257564544678 -0.4789465665817261 63.0 4 -0.030142318457365036
3.25346040725708 3.32232403755188 0.7364935278892517 92.0 12 -0.030140014365315437
2.7480673789978027 2.8052546977996826 -0.34356793761253357 66.0 5 -0.03013771027326584
3.260174512863159 3.3280186653137207 0.9055795669555664 75.0 13 -0.03013540618121624
2.7524776458740234 2.8087782859802246 -0.2060990184545517 60.0 6 -0.03013310395181179
3.2645087242126465 3.3301169872283936 1.076615810394287 68.0 14 -0.030130799859762192
2.7470173835754395 2.8012471199035645 -0.06848324835300446 45.0 7 -0.030128495767712593
3.2833645343780518 3.3470170497894287 1.256307601928711 122.0 15 -0.030126191675662994
2.758425712585449 2.8040566444396973 0.0686577707529068 26.0 8 -0.030103150755167007
3.0348687171936035 3.0829195976257324 0.22671939432621002 23.0 9 -0.03009854257106781
2.7022321224212646 2.745016574859619 -0.7487345337867737 55.0 2 -0.03009623847901821
3.2335078716278076 3.283557415008545 0.4031824767589569 63.0 10 -0.030093934386968613
2.7282004356384277 2.7694590091705322 -0.615726113319397 55.0 3 -0.030091630294919014
3.2437071800231934 3.2916154861450195 0.5674237012863159 82.0 11 -0.030089326202869415
2.738407611846924 2.777883291244507 -0.4789465665817261 59.0 4 -0.030087023973464966
3.2539424896240234 3.299694538116455 0.7339906096458435 92.0 12 -0.030084719881415367
2.743366003036499 2.7819390296936035 -0.34182482957839966 61.0 5 -0.03008241578936577
3.2690134048461914 3.3138232231140137 0.9048162698745728 75.0 13 -0.03008011169731617
2.75525164604187 2.7920446395874023 -0.20557565987110138 61.0 6 -0.03007780760526657
3.2692689895629883 3.3117663860321045 1.0743662118911743 72.0 14 -0.030075503513216972
2.753967761993408 2.7887959480285645 -0.06841342896223068 55.0 7 -0.030073199421167374
3.2787373065948486 3.319042682647705 1.250096082687378 123.0 15 -0.030070895329117775
2.759752035140991 2.7858874797821045 0.06844833493232727 44.0 8 -0.030047854408621788
2.7770473957061768 2.8013875484466553 0.2067270576953888 45.0 9 -0.03004324622452259
2.709033727645874 2.7327778339385986 -0.7479712963104248 55.0 2 -0.030040942132472992
2.7749717235565186 2.798319101333618 0.3447881042957306 26.0 10 -0.030038639903068542
2.7281107902526855 2.7501039505004883 -0.6135360598564148 56.0 3 -0.030036335811018944
3.242593288421631 3.267590045928955 0.5652300119400024 43.0 11 -0.030034031718969345
2.738297462463379 2.758446216583252 -0.4772403836250305 55.0 4 -0.030031727626919746
3.254302978515625 3.2771048545837402 0.7314876317977905 88.0 12 -0.030029423534870148
2.7446343898773193 2.7638652324676514 -0.3407789468765259 60.0 5 -0.03002711944282055
3.2681093215942383 3.289855718612671 0.90138179063797 78.0 13 -0.03002481535077095
2.76357364654541 2.780992269515991 -0.2054709792137146 60.0 6 -0.03002251125872135
3.2753114700317383 3.2948083877563477 1.0725666284561157 72.0 14 -0.030020207166671753
2.7665069103240967 2.78200101852417 -0.06848324835300446 59.0 7 -0.030017903074622154
3.273954153060913 3.2911415100097656 1.2438843250274658 123.0 15 -0.030015598982572556
2.755337953567505 2.7620792388916016 0.06809929013252258 45.0 8 -0.029992559924721718
2.7839865684509277 2.7888500690460205 0.20651769638061523 50.0 9 -0.02998795174062252
2.7157819271087646 2.7205264568328857 -0.7472080588340759 57.0 2 -0.029985647648572922
2.783315658569336 2.787205219268799 0.34461379051208496 49.0 10 -0.029983343556523323
2.7293179035186768 2.732178211212158 -0.6116588115692139 56.0 3 -0.029981039464473724
2.7839131355285645 2.785857915878296 0.48357757925987244 48.0 11 -0.029978735372424126
2.745103359222412 2.7460625171661377 -0.476752907037735 57.0 4 -0.029976431280374527
2.800588369369507 2.8005893230438232 0.6273022890090942 46.0 12 -0.02997412718832493
2.748631000518799 2.7486319541931152 -0.34008169174194336 59.0 5 -0.02997182309627533
2.7548978328704834 2.7529759407043457 -0.204110249876976 63.0 6 -0.029967214912176132
3.279900074005127 3.276468276977539 1.070317268371582 70.0 14 -0.029964910820126534
2.7677102088928223 2.7638494968414307 -0.06827381253242493 59.0 7 -0.029962606728076935
3.2799530029296875 3.2742347717285156 1.2418138980865479 123.0 15 -0.029960302636027336
2.7592947483062744 2.746800422668457 0.06795967370271683 44.0 8 -0.0299372635781765
2.7781283855438232 2.7636218070983887 0.205366313457489 52.0 9 -0.0299326553940773
2.722477436065674 2.708261489868164 -0.746444821357727 57.0 2 -0.029930351302027702
2.7859649658203125 2.7704474925994873 0.3437422513961792 49.0 10 -0.029928047209978104
2.7346351146698 2.7184572219848633 -0.6107202172279358 57.0 3 -0.029925743117928505
2.7879879474639893 2.7705271244049072 0.48260265588760376 49.0 11 -0.029923439025878906
2.7377734184265137 2.719674825668335 -0.4738280475139618 55.0 4 -0.029921134933829308
2.8075430393218994 2.788012981414795 0.6266764998435974 62.0 12 -0.02991883084177971
2.755380868911743 2.7362136840820312 -0.3397330939769745 57.0 5 -0.02991652674973011
2.811697244644165 2.791163682937622 0.7701051831245422 56.0 13 -0.02991422265768051
2.7616562843322754 2.7405285835266113 -0.20390090346336365 63.0 6 -0.029911918565630913
2.8057122230529785 2.783278703689575 0.912401556968689 42.0 14 -0.029909614473581314
2.774500608444214 2.7513561248779297 -0.06820400804281235 57.0 7 -0.029907310381531715
2.7688653469085693 2.737152576446533 0.06795967370271683 45.0 8 -0.02988196723163128
2.7730720043182373 2.740354537963867 0.20431959629058838 52.0 9 -0.02987735904753208
2.7151553630828857 2.6821844577789307 -0.7418653964996338 57.0 2 -0.029875054955482483
2.792782783508301 2.757906675338745 0.34339362382888794 49.0 10 -0.029872750863432884
2.7398910522460938 2.704730987548828 -0.6097816228866577 56.0 3 -0.029870446771383286
2.7905776500701904 2.7538058757781982 0.48138394951820374 55.0 11 -0.029868142679333687
2.7387702465057373 2.701737642288208 -0.4723656177520752 57.0 4 -0.029865838587284088
2.801304817199707 2.7634267807006836 0.6232349872589111 56.0 12 -0.02986353449523449
2.7592415809631348 2.720982074737549 -0.33903583884239197 57.0 5 -0.02986123040318489
2.80884051322937 2.7689266204833984 0.7666705846786499 45.0 13 -0.029858926311135292
2.759824275970459 2.7196574211120605 -0.20306353271007538 63.0 6 -0.029856622219085693
2.8195762634277344 2.7775697708129883 0.9137512445449829 54.0 14 -0.029854319989681244
2.7722134590148926 2.730912685394287 -0.06792476773262024 59.0 7 -0.029852015897631645
2.82039737701416 2.777409315109253 1.0606404542922974 66.0 15 -0.029849711805582047
2.772219181060791 2.7223517894744873 0.06782004982233047 47.0 8 -0.02982667088508606
2.7797691822052 2.727860689163208 0.204110249876976 52.0 9 -0.029822062700986862
2.7174930572509766 2.6658167839050293 -0.739957332611084 58.0 2 -0.029819758608937263
2.7895891666412354 2.735586643218994 0.34182482957839966 53.0 10 -0.029817454516887665
2.7446136474609375 2.691481828689575 -0.6088430285453796 57.0 3 -0.029815150424838066
2.795442581176758 2.7403671741485596 0.48065274953842163 54.0 11 -0.029812846332788467
2.7392067909240723 2.68430495262146 -0.4709031581878662 55.0 4 -0.02981054224073887
2.7996444702148438 2.7425732612609863 0.6207320094108582 57.0 12 -0.02980823814868927
2.754488229751587 2.6973931789398193 -0.33729270100593567 60.0 5 -0.02980593591928482
2.816605567932129 2.758222818374634 0.7662889957427979 49.0 13 -0.029803631827235222
2.76597261428833 2.7076966762542725 -0.202854186296463 63.0 6 -0.029801327735185623
