# .PCD v0.7 - Point Cloud Data file format
VERSION 0.7
FIELDS x y z intensity ring time
SIZE 4 4 4 4 4 4
TYPE F F F F F F
COUNT 1 1 1 1 1 1
WIDTH 540
HEIGHT 1
VIEWPOINT 0 0 0 1 0 0 0
POINTS 540
DATA ascii
-2.297515392303467 6.491584300994873 1.0906611680984497 76.0 12 -0.01531787309795618
-0.8159049153327942 2.306602954864502 -0.21405449509620667 1.0 5 -0.015315569005906582
-2.2922887802124023 6.484010696411133 1.3368079662322998 92.0 13 -0.015313264913856983
-0.8004572987556458 2.265446662902832 -0.12592032551765442 1.0 6 -0.015310960821807384
-2.2919132709503174 6.490157127380371 1.5890543460845947 100.0 14 -0.015308656729757786
-0.8283384442329407 2.345658779144287 -0.04342158883810043 1.0 7 -0.015306353569030762
-2.2799293994903564 6.459812164306641 1.8355448246002197 46.0 15 -0.015304049476981163
-1.0675700902938843 3.038297176361084 -0.8629027009010315 6.0 0 -0.015283312648534775
-0.7453970313072205 2.1225790977478027 0.03926791250705719 2.0 8 -0.01528100948780775
-1.0609896183013916 3.022942304611206 -0.7396391034126282 59.0 1 -0.015278705395758152
-0.7335357666015625 2.089970111846924 0.11608116328716278 2.0 9 -0.015276401303708553
-0.7759259343147278 2.211982011795044 -0.4556518793106079 9.0 2 -0.015274097211658955
-0.7349746227264404 2.0964107513427734 0.19435729086399078 1.0 10 -0.015271793119609356
-0.8197863101959229 2.3396317958831787 -0.3926505744457245 1.0 3 -0.015269489027559757
-2.2714247703552246 6.4861674308776855 0.8438233733177185 88.0 11 -0.015267184935510159
-0.7921761274337769 2.2633650302886963 -0.29443636536598206 3.0 4 -0.01526488084346056
-2.2748429775238037 6.499564170837402 1.0906611680984497 76.0 12 -0.015262576751410961
-0.7986388802528381 2.2831077575683594 -0.21161414682865143 1.0 5 -0.015260272659361362
-2.2657551765441895 6.480853080749512 1.3345181941986084 95.0 13 -0.015257969498634338
-0.7767336368560791 2.222975492477417 -0.12340819090604782 1.0 6 -0.01525566540658474
-2.2634634971618652 6.4815592765808105 1.585005283355713 100.0 14 -0.015253361314535141
-2.2567310333251953 6.465905666351318 1.8350270986557007 46.0 15 -0.015248753130435944
-1.0537869930267334 3.032881021499634 -0.8603145480155945 6.0 0 -0.01522801723331213
-0.7403225302696228 2.1307060718536377 0.039372626692056656 3.0 8 -0.015225713141262531
-1.0528777837753296 3.0319664478302 -0.7409887909889221 64.0 1 -0.015223409049212933
-0.7216514348983765 2.0793099403381348 0.1153484508395195 2.0 9 -0.015221104957163334
-0.7636956572532654 2.201693534851074 -0.45298057794570923 9.0 2 -0.015218800865113735
-0.7328736186027527 2.114023208618164 0.19575178623199463 1.0 10 -0.015216496773064137
-0.8159059286117554 2.3535356521606445 -0.39452776312828064 1.0 3 -0.015214192681014538
-2.250551462173462 6.495540618896484 0.8440670967102051 86.0 11 -0.015211889520287514
-0.7788195610046387 2.2490973472595215 -0.29224270582199097 3.0 4 -0.015209585428237915
-2.246974229812622 6.492530822753906 1.0881582498550415 76.0 12 -0.015207281336188316
-0.8062947392463684 2.3310720920562744 -0.21579761803150177 1.0 5 -0.015204977244138718
-2.2442495822906494 6.4883317947387695 1.3345181941986084 95.0 13 -0.015202673152089119
-0.7797979712486267 2.255741596221924 -0.12508295476436615 1.0 6 -0.01520036906003952
-2.238776922225952 6.479819297790527 1.5827556848526 100.0 14 -0.015198064967989922
-0.7466738224029541 2.1623666286468506 -0.03993110731244087 1.0 7 -0.015195760875940323
-2.2347757816314697 6.475571155548096 1.8355448246002197 46.0 15 -0.015193456783890724
-1.0430964231491089 3.034532070159912 -0.859796941280365 1.0 0 -0.01517272088676691
-0.7361295819282532 2.142733335494995 0.0395471528172493 3.0 8 -0.015170416794717312
-1.041654109954834 3.033780574798584 -0.7405388951301575 58.0 1 -0.015168112702667713
-0.722168505191803 2.1044857501983643 0.1166045218706131 1.0 9 -0.015165809541940689
-0.7570280432701111 2.2060704231262207 -0.45336219668388367 7.0 2 -0.01516350544989109
-0.7245659232139587 2.112672805786133 0.19540317356586456 1.0 10 -0.015161201357841492
-0.7961557507514954 2.3227338790893555 -0.388896107673645 1.0 3 -0.015158897265791893
-2.22786545753479 6.503356456756592 0.8440670967102051 86.0 11 -0.015156593173742294
-0.774822473526001 2.2630703449249268 -0.29370513558387756 3.0 4 -0.015154289081692696
-2.220458507537842 6.489121437072754 1.0862810611724854 81.0 12 -0.015151984989643097
-0.7830796837806702 2.2884910106658936 -0.21161414682865143 1.0 5 -0.015149680897593498
-2.2228593826293945 6.49984073638916 1.3352813720703125 95.0 13 -0.0151473768055439
-0.7628763318061829 2.2319910526275635 -0.12361754477024078 1.0 6 -0.0151450727134943
-2.217402696609497 6.491283893585205 1.583655595779419 100.0 14 -0.015142768621444702
-0.7714258432388306 2.2595818042755127 -0.041676346212625504 1.0 7 -0.015140465460717678
-2.2071685791015625 6.468705177307129 1.8314036130905151 46.0 15 -0.01513816136866808
-1.0213091373443604 3.005230188369751 -0.8504794239997864 1.0 0 -0.015117425471544266
-0.7241442203521729 2.132035493850708 0.03930281847715378 7.0 8 -0.015115121379494667
-1.0291779041290283 3.031862497329712 -0.7391892075538635 63.0 1 -0.015112817287445068
-0.7263686060905457 2.141038417816162 0.1184886172413826 1.0 9 -0.01511051319539547
-0.7524770498275757 2.2179956436157227 -0.45527029037475586 6.0 2 -0.015108209103345871
-0.7261442542076111 2.1416053771972656 0.197843536734581 1.0 10 -0.015105905011296272
-0.7880423665046692 2.3254990577697754 -0.388896107673645 1.0 3 -0.015103600919246674
-2.2026052474975586 6.503572463989258 0.8430922031402588 82.0 11 -0.015101296827197075
-0.7713737487792969 2.278923273086548 -0.29541128873825073 3.0 4 -0.015098992735147476
-2.198425054550171 6.49870491027832 1.0865938663482666 78.0 12 -0.015096688643097878
-0.7840243577957153 2.3176331520080566 -0.21405449509620667 1.0 5 -0.015094385482370853
-2.197643280029297 6.500120162963867 1.3337548971176147 97.0 13 -0.015092081390321255
-0.7755392789840698 2.295189380645752 -0.12696704268455505 1.0 6 -0.015089777298271656
-2.191610813140869 6.489753246307373 1.5814059972763062 100.0 14 -0.015087473206222057
-2.1821038722991943 6.469048976898193 1.8293330669403076 46.0 15 -0.01508286502212286
-1.0175793170928955 3.028921127319336 -0.8561733961105347 3.0 0 -0.015062129124999046
-0.7224255204200745 2.151611566543579 0.039616964757442474 4.0 8 -0.015059825032949448
-1.0136295557022095 3.0206563472747803 -0.7355900406837463 64.0 1 -0.015057520940899849
-0.7455625534057617 2.2230923175811768 0.1228848323225975 1.0 9 -0.01505521684885025
-0.7459781169891357 2.2243316173553467 -0.45603352785110474 6.0 2 -0.015052912756800652
-2.1838507652282715 6.515501499176025 0.6012002825737 13.0 10 -0.015050608664751053
-0.7861950993537903 2.346966028213501 -0.39202481508255005 1.0 3 -0.015048305504024029
-2.1779978275299072 6.5055742263793945 0.8423609733581543 80.0 11 -0.01504600141197443
-0.7577446699142456 2.2646594047546387 -0.29321765899658203 2.0 4 -0.015043697319924831
-2.1751017570495605 6.504465103149414 1.0862810611724854 81.0 12 -0.015041393227875233
-2.1699600219726562 6.492856502532959 1.3307020664215088 100.0 13 -0.015036785043776035
-0.7611958384513855 2.2789385318756104 -0.12592032551765442 1.0 6 -0.015034480951726437
-2.168945550918579 6.497363567352295 1.5814059972763062 100.0 14 -0.015032176859676838
-0.7480379343032837 2.2421493530273438 -0.04125748947262764 1.0 7 -0.01502987276762724
-2.157677412033081 6.471127510070801 1.8277801275253296 46.0 15 -0.01502756867557764
-1.0076097249984741 3.034287929534912 -0.8566910624504089 27.0 0 -0.015006832778453827
-0.7155409455299377 2.156018018722534 0.039651867002248764 2.0 8 -0.015004528686404228
-1.0024664402008057 3.0223262310028076 -0.7351400852203369 67.0 1 -0.01500222459435463
-0.7400628924369812 2.2325122356414795 -0.45717838406562805 6.0 2 -0.014997617341578007
-2.16172194480896 6.524975776672363 0.6013745665550232 73.0 10 -0.014995313249528408
-0.7755147218704224 2.3421950340270996 -0.39077335596084595 1.0 3 -0.01499300915747881
-2.1521592140197754 6.503714084625244 0.8411422967910767 86.0 11 -0.01499070506542921
-0.7560684084892273 2.286137580871582 -0.2956550419330597 3.0 4 -0.014988400973379612
-2.1523849964141846 6.512017250061035 1.0862810611724854 81.0 12 -0.014986096881330013
-2.148512363433838 6.504119873046875 1.331465244293213 100.0 13 -0.014981488697230816
-0.7632548213005066 2.311927080154419 -0.12759508192539215 1.0 6 -0.014979185536503792
-2.1444218158721924 6.499342441558838 1.5800563097000122 100.0 14 -0.014976881444454193
-0.7477209568023682 2.2675364017486572 -0.041676346212625504 1.0 7 -0.014974577352404594
-2.1362833976745605 6.482290267944336 1.8288154602050781 46.0 15 -0.014972273260354996
-1.0036377906799316 3.0579779148101807 -0.862385094165802 34.0 0 -0.014951537363231182
-0.7073867917060852 2.1566028594970703 0.039616964757442474 2.0 8 -0.014949233271181583
-0.7255412936210632 2.21455979347229 -0.45298057794570923 6.0 2 -0.014942320995032787
-2.1414108276367188 6.5400567054748535 0.6020718812942505 82.0 10 -0.014940016902983189
-0.7636474370956421 2.3336234092712402 -0.388896107673645 1.0 3 -0.01493771281093359
-2.127591133117676 6.505527496337891 0.8404110670089722 80.0 11 -0.014935408718883991
-0.7517834901809692 2.300084352493286 -0.2971175014972687 2.0 4 -0.014933105558156967
-2.126572370529175 6.510103225708008 1.0847166776657104 83.0 12 -0.014930801466107368
-2.1233599185943604 6.504114627838135 1.3299387693405151 97.0 13 -0.014926193282008171
-0.7403112053871155 2.2690072059631348 -0.12508295476436615 1.0 6 -0.014923889189958572
-2.1180953979492188 6.495673179626465 1.5773569345474243 100.0 14 -0.014921585097908974
-0.7088217735290527 2.1750683784484863 -0.03993110731244087 1.0 7 -0.014919281005859375
-2.112447738647461 6.4860334396362305 1.8277801275253296 46.0 15 -0.014916976913809776
-0.9893819093704224 3.050436496734619 -0.8592792749404907 57.0 0 -0.014896241016685963
-0.7041712403297424 2.1723744869232178 0.039861299097537994 1.0 8 -0.014893936924636364
-0.9873479008674622 3.0477898120880127 -0.7396391034126282 2.0 1 -0.014891632832586765
-1.336209774017334 4.127129077911377 0.22734741866588593 1.0 9 -0.014889328740537167
-0.7232494950294495 2.233888864517212 -0.4564151465892792 5.0 2 -0.014887025579810143
-2.1155030727386475 6.538012981414795 0.6012002825737 92.0 10 -0.014884721487760544
-0.7591441869735718 2.3475520610809326 -0.39077335596084595 2.0 3 -0.014882417395710945
-2.1067020893096924 6.518580913543701 0.8411422967910767 84.0 11 -0.014880113303661346
-0.7376492619514465 2.283804416656494 -0.294680118560791 2.0 4 -0.014877809211611748
-2.1014058589935303 6.50996732711792 1.0834652185440063 83.0 12 -0.014875505119562149
-0.7736220359802246 2.3966119289398193 -0.22032971680164337 1.0 5 -0.01487320102751255
-2.1018502712249756 6.515223503112793 1.3307020664215088 100.0 13 -0.014870896935462952
-0.7372899651527405 2.2867846488952637 -0.12592032551765442 1.0 6 -0.014868592843413353
-2.09480881690979 6.501172065734863 1.5769069194793701 100.0 14 -0.014866288751363754
-2.086244821548462 6.482333660125732 1.8246742486953735 46.0 15 -0.014861680567264557
-0.9852126240730286 3.074108362197876 -0.8649733066558838 28.0 0 -0.014840945601463318
-0.7014642357826233 2.190054178237915 0.040140535682439804 1.0 8 -0.01483864150941372
-1.3005950450897217 4.063059329986572 0.22357922792434692 1.0 9 -0.014834033325314522
-0.7154468297958374 2.2364001274108887 -0.4564151465892792 3.0 2 -0.014831729233264923
-2.087815761566162 6.53017520904541 0.5998058319091797 96.0 10 -0.014829425141215324
-0.7563555836677551 2.3671226501464844 -0.3935891389846802 2.0 3 -0.014827121049165726
-2.0815181732177734 6.518331527709961 0.8401673436164856 88.0 11 -0.014824816957116127
-0.72725909948349 2.2788004875183105 -0.29370513558387756 3.0 4 -0.014822512865066528
-2.077408790588379 6.509371757507324 1.0822137594223022 83.0 12 -0.01482020877301693
-0.7652520537376404 2.3992977142333984 -0.22032971680164337 1.0 5 -0.014817904680967331
-2.0755159854888916 6.511298179626465 1.3284122943878174 100.0 13 -0.014815600588917732
-0.7293025255203247 2.289344549179077 -0.12592032551765442 1.0 6 -0.014813297428190708
-2.0709218978881836 6.504731178283691 1.5760072469711304 100.0 14 -0.01481099333614111
-0.7328253388404846 2.3017919063568115 -0.042165014892816544 1.0 7 -0.01480868924409151
-2.0629780292510986 6.483694076538086 1.823121428489685 46.0 15 -0.014806385152041912
-0.9791420102119446 3.0922622680664062 -0.8691143989562988 21.0 0 -0.014785649254918098
-0.7325778007507324 2.3149831295013428 -0.5605780482292175 1.0 1 -0.014781041070818901
-1.2815873622894287 4.052339553833008 0.22274184226989746 1.0 9 -0.014778736978769302
-0.7064530849456787 2.235139846801758 -0.4556518793106079 2.0 2 -0.014776432886719704
-2.064406394958496 6.535523891448975 0.5996314883232117 90.0 10 -0.014774128794670105
-0.7562371492385864 2.3941049575805664 -0.3976564407348633 1.0 3 -0.014771824702620506
-2.054513931274414 6.508160591125488 0.8379737138748169 80.0 11 -0.014769520610570908
-0.7244757413864136 2.296344757080078 -0.2956550419330597 3.0 4 -0.014767217449843884
-2.0582363605499268 6.527887344360352 1.0840909481048584 83.0 12 -0.014764913357794285
-2.04801344871521 6.499419689178467 1.3245961666107178 100.0 13 -0.014760305173695087
-0.7277063727378845 2.310800552368164 -0.12696704268455505 1.0 6 -0.014758001081645489
-2.050511121749878 6.515279769897461 1.5769069194793701 100.0 14 -0.01475569698959589
-0.7163866758346558 2.277629852294922 -0.041676346212625504 1.0 7 -0.014753392897546291
-2.0391759872436523 6.48716926574707 1.822086215019226 46.0 15 -0.014751088805496693
-0.9885029196739197 3.1581761837005615 -0.8867141008377075 1.0 0 -0.014730352908372879
-0.72856205701828 2.3305461406707764 -0.5637273788452148 1.0 1 -0.014725744724273682
-1.260990023612976 4.033692836761475 0.22148579359054565 1.0 9 -0.014723440632224083
-0.699623167514801 2.2393441200256348 -0.45603352785110474 1.0 2 -0.014721137471497059
-2.0421302318573 6.540431976318359 0.5994572043418884 87.0 10 -0.01471883337944746
-0.7325762510299683 2.3477022647857666 -0.38952183723449707 2.0 3 -0.014716529287397861
-2.030012369155884 6.509606838226318 0.8372424840927124 82.0 11 -0.014714225195348263
-2.033052444458008 6.5233612060546875 1.0822137594223022 83.0 12 -0.014709617011249065
-2.02764892578125 6.514026641845703 1.326122522354126 100.0 13 -0.014705008827149868
-0.7042101621627808 2.263741970062256 -0.12424556910991669 1.0 6 -0.01470270473510027
-2.023704767227173 6.509372234344482 1.5737576484680176 100.0 14 -0.014700401574373245
-0.700518012046814 2.2532596588134766 -0.04118768125772476 1.0 7 -0.014698097482323647
-2.0199434757232666 6.501276016235352 1.8241567611694336 46.0 15 -0.014695793390274048
-0.557495653629303 1.8032053709030151 -0.5057324171066284 0.0 0 -0.01467505656182766
-1.2433671951293945 4.026618957519531 0.22085775434970856 1.0 9 -0.014668145217001438
-0.6929593086242676 2.2455244064331055 -0.4567967355251312 1.0 2 -0.01466584112495184
-2.0192856788635254 6.547520637512207 0.5994572043418884 87.0 10 -0.01466353703290224
-0.7131441831588745 2.3123655319213867 -0.3832644820213318 1.0 3 -0.014661232940852642
-2.009582042694092 6.520097255706787 0.8377299904823303 82.0 11 -0.014658928848803043
-0.7053220272064209 2.28983998298645 -0.2941926121711731 1.0 4 -0.014656624756753445
-2.008523941040039 6.524754524230957 1.0812751054763794 88.0 12 -0.01465432159602642
-0.7405056953430176 2.407050371170044 -0.22032971680164337 1.0 5 -0.014652017503976822
-2.003725528717041 6.513208866119385 1.3245961666107178 100.0 13 -0.014649713411927223
-0.7013953924179077 2.281337261199951 -0.12508295476436615 1.0 6 -0.014647409319877625
-2.000391960144043 6.510457992553711 1.5724079608917236 100.0 14 -0.014645105227828026
-0.6926488876342773 2.2556910514831543 -0.04118768125772476 1.0 7 -0.014642801135778427
-1.99667227268219 6.506440162658691 1.823639154434204 46.0 15 -0.014640497043728828
-0.5455566048622131 1.7866640090942383 -0.5005560517311096 26.0 0 -0.013911724090576172
-0.5491283535957336 1.800611138343811 -0.4346054494380951 8.0 1 -0.013907115906476974
-1.2262723445892334 4.023507118225098 0.22043907642364502 1.0 9 -0.013904811814427376
-0.5546187162399292 1.81975257396698 -0.3697878420352936 0.0 2 -0.013902507722377777
-1.9923559427261353 6.541187763214111 0.5982369780540466 90.0 10 -0.013900203630328178
-0.6782037615776062 2.228034496307373 -0.3688724935054779 1.0 3 -0.013897900469601154
-1.9845141172409058 6.523621559143066 0.8372424840927124 84.0 11 -0.013895596377551556
-0.6911500692367554 2.2734174728393555 -0.29175522923469543 1.0 4 -0.013893292285501957
-1.9811519384384155 6.520731449127197 1.0793979167938232 85.0 12 -0.013890988193452358
-1.9798383712768555 6.520510196685791 1.3245961666107178 100.0 13 -0.01388638000935316
-0.6756303906440735 2.2265565395355225 -0.12194279581308365 1.0 6 -0.013884075917303562
-1.9770835638046265 6.51961088180542 1.5728578567504883 100.0 14 -0.013881771825253963
-0.6704565286636353 2.212284803390503 -0.040349964052438736 1.0 7 -0.013879467733204365
-1.9700099229812622 6.504470348358154 1.8210508823394775 46.0 15 -0.013877163641154766
-0.538758397102356 1.786707878112793 -0.5000383853912354 47.0 0 -0.013856427744030952
-1.2554935216903687 4.16627836227417 0.07595287263393402 1.0 8 -0.013854123651981354
-0.5422772765159607 1.8006510734558105 -0.43415555357933044 43.0 1 -0.01385182049125433
-1.2122191190719604 4.027763366699219 0.22043907642364502 1.0 9 -0.013849516399204731
-0.5352492332458496 1.7784385681152344 -0.3610106408596039 27.0 2 -0.013847212307155132
-1.967787265777588 6.5423784255981445 0.5977140665054321 87.0 10 -0.013844908215105534
-0.5339491367340088 1.7763653993606567 -0.293783962726593 5.0 3 -0.013842604123055935
-1.9657292366027832 6.543816566467285 0.8389486074447632 76.0 11 -0.013840300031006336
-0.565632164478302 1.884155035018921 -0.24154506623744965 0.0 4 -0.013837995938956738
-1.9583766460418701 6.5276079177856445 1.0793979167938232 85.0 12 -0.013835691846907139
-1.9559392929077148 6.523620128631592 1.3238328695297241 100.0 13 -0.013831083662807941
-0.6563893556594849 2.1906368732452393 -0.11984935402870178 1.0 6 -0.013828780502080917
-1.9526350498199463 6.520872592926025 1.5715081691741943 100.0 14 -0.013826476410031319
-0.6558511257171631 2.191622734069824 -0.03993110731244087 1.0 7 -0.01382417231798172
-1.942866325378418 6.496500015258789 1.8169097900390625 46.0 15 -0.013821868225932121
-0.534172534942627 1.794132113456726 -0.5015913248062134 57.0 0 -0.013801132328808308
-0.5337671637535095 1.7950613498687744 -0.43235594034194946 50.0 1 -0.01379652414470911
-1.1954412460327148 4.0202741622924805 0.21981103718280792 1.0 9 -0.013794220052659512
-0.5301569700241089 1.7840598821640015 -0.36177387833595276 63.0 2 -0.013791915960609913
-1.9438050985336304 6.545387268066406 0.5973654389381409 87.0 10 -0.013789611868560314
-0.5249345898628235 1.7687498331069946 -0.2922196090221405 50.0 3 -0.013787307776510715
-1.9366674423217773 6.529703140258789 0.8362675309181213 84.0 11 -0.013785003684461117
-0.532538115978241 1.7966654300689697 -0.23008935153484344 29.0 4 -0.013782700523734093
-1.936720848083496 6.5340657234191895 1.0793979167938232 85.0 12 -0.013780396431684494
-0.523994505405426 1.768977165222168 -0.16141243278980255 1.0 5 -0.013778092339634895
-1.9286988973617554 6.515347003936768 1.3207799196243286 100.0 13 -0.013775788247585297
-0.5410879850387573 1.8290247917175293 -0.09996168315410614 0.0 6 -0.013773484155535698
-1.9298593997955322 6.527649402618408 1.5715081691741943 100.0 14 -0.0137711800634861
-0.6338387727737427 2.1439268589019775 -0.03902358189225197 1.0 7 -0.0137688759714365
-1.920218825340271 6.49920129776001 1.815874457359314 46.0 15 -0.013766571879386902
-0.5279061198234558 1.7959860563278198 -0.5015913248062134 73.0 0 -0.013745835982263088
-0.5245165824890137 1.7856030464172363 -0.4296565353870392 73.0 1 -0.01374122779816389
-0.5244783163070679 1.7877836227416992 -0.3621554970741272 65.0 2 -0.013736620545387268
-1.9237499237060547 6.561692237854004 0.5982369780540466 90.0 10 -0.01373431645333767
-0.5224020481109619 1.7818539142608643 -0.29409682750701904 80.0 3 -0.01373201236128807
-1.9150018692016602 6.536089897155762 0.8362675309181213 84.0 11 -0.013729708269238472
-0.5232298374176025 1.786990761756897 -0.22862690687179565 90.0 4 -0.013727404177188873
-1.9138989448547363 6.5407867431640625 1.0793979167938232 88.0 12 -0.013725100085139275
-0.5245271325111389 1.7937430143356323 -0.16350416839122772 74.0 5 -0.013722795993089676
-1.9059786796569824 6.51793909072876 1.320016622543335 100.0 13 -0.013720491901040077
-0.527176022529602 1.8039700984954834 -0.09849628061056137 27.0 6 -0.013718187808990479
-1.9060182571411133 6.526529788970947 1.5697084665298462 100.0 14 -0.01371588371694088
-0.5249477028846741 1.7986763715744019 -0.03270580992102623 3.0 7 -0.013713579624891281
-1.9007644653320312 6.516992568969727 1.81898033618927 46.0 15 -0.013711276464164257
-0.5214092135429382 1.795871376991272 -0.5010737180709839 78.0 0 -0.013690539635717869
-0.5193357467651367 1.7898962497711182 0.032531287521123886 1.0 8 -0.013688236474990845
-0.5193653702735901 1.7911664247512817 -0.4305563271045685 84.0 1 -0.013685932382941246
-0.5417519211769104 1.8683723211288452 0.10195045173168182 0.0 9 -0.013683628290891647
-0.5147224068641663 1.776313066482544 -0.35948416590690613 83.0 2 -0.013681324198842049
-1.900315284729004 6.562294006347656 0.5977140665054321 87.0 10 -0.01367902010679245
-0.5167276263237 1.7855644226074219 -0.29440969228744507 90.0 3 -0.013676716014742851
-1.8899701833724976 6.535106182098389 0.8352925181388855 86.0 11 -0.013674411922693253
-0.5125800371170044 1.773550033569336 -0.22667700052261353 82.0 4 -0.013672107830643654
-1.8889093399047852 6.535711288452148 1.077520728111267 88.0 12 -0.013669803738594055
-0.5185763835906982 1.7954723834991455 -0.16350416839122772 93.0 5 -0.013667499646544456
-1.884305477142334 6.528324127197266 1.3207799196243286 100.0 13 -0.013665196485817432
-0.516447901725769 1.7904469966888428 -0.0976589024066925 78.0 6 -0.013662892393767834
-1.8789081573486328 6.518163204193115 1.566109299659729 100.0 14 -0.013660588301718235
-0.5128878951072693 1.779271125793457 -0.032321859151124954 45.0 7 -0.013658284209668636
-1.880213737487793 6.52697229385376 1.8200156688690186 46.0 15 -0.013655980117619038
-0.5119446516036987 1.7865376472473145 -0.4979678690433502 78.0 0 -0.013635244220495224
-0.5128468871116638 1.7896860837936401 0.0324963815510273 56.0 8 -0.013632940128445625
-0.5134231448173523 1.7928787469863892 -0.4305563271045685 84.0 1 -0.013630636036396027
-0.5148943066596985 1.7992056608200073 0.09807758778333664 25.0 9 -0.013628331944346428
-0.5079784989356995 1.7762115001678467 -0.3591025471687317 87.0 2 -0.01362602785229683
-1.8746610879898071 6.559309005737305 0.5968425273895264 90.0 10 -0.01362372376024723
-0.5129753947257996 1.794865369796753 -0.29566118121147156 97.0 3 -0.013621419668197632
-1.8693772554397583 6.545156002044678 0.8357800245285034 86.0 11 -0.013619116507470608
-0.5088747143745422 1.7828755378723145 -0.2276519387960434 82.0 4 -0.013616812415421009
-1.8649982213974 6.538465976715088 1.076894998550415 88.0 12 -0.01361450832337141
-0.5062975287437439 1.7761950492858887 -0.16158674657344818 91.0 5 -0.013612204231321812
-1.8637210130691528 6.538313865661621 1.3215430974960327 100.0 13 -0.013609900139272213
-0.5137902498245239 1.8036750555038452 -0.0982869416475296 100.0 6 -0.013607596047222614
-1.8583482503890991 6.528107643127441 1.5670092105865479 100.0 14 -0.013605291955173016
-0.5044848322868347 1.7733571529388428 -0.0321822389960289 98.0 7 -0.013602987863123417
-1.851077914237976 6.511197566986084 1.8138039112091064 47.0 15 -0.013600683771073818
-0.5060169696807861 1.7882256507873535 -0.4979678690433502 81.0 0 -0.013579947873950005
-0.5011547207832336 1.7722232341766357 0.03214733302593231 100.0 8 -0.013577643781900406
-0.5092810392379761 1.8021612167358398 -0.43235594034194946 84.0 1 -0.013575339689850807
-0.5031830072402954 1.781770944595337 0.097030870616436 91.0 9 -0.013573036529123783
-0.5031530857086182 1.7816648483276367 -0.35986578464508057 90.0 2 -0.013570732437074184
-1.8491092920303345 6.552067756652832 0.5956223011016846 87.0 10 -0.013568428345024586
-0.5034893155097961 1.7852379083633423 -0.293783962726593 97.0 3 -0.013566124252974987
-1.8465203046798706 6.55164098739624 0.8357800245285034 86.0 11 -0.013563820160925388
-0.5026485919952393 1.7846410274505615 -0.2276519387960434 82.0 4 -0.01356151606887579
-1.8432353734970093 6.548738956451416 1.077520728111267 88.0 12 -0.013559211976826191
-0.5006342530250549 1.7798694372177124 -0.1617610603570938 96.0 5 -0.013556907884776592
-1.8376985788345337 6.533439636230469 1.3192534446716309 100.0 13 -0.013554603792726994
-0.5047891736030579 1.7958436012268066 -0.09776357561349869 85.0 6 -0.013552299700677395
-1.8360780477523804 6.536430358886719 1.5674591064453125 100.0 14 -0.01354999653995037
-0.5047773718833923 1.798210620880127 -0.032601095736026764 100.0 7 -0.013547692447900772
-1.8252089023590088 6.506458759307861 1.81069815158844 63.0 15 -0.013545388355851173
-0.5004981756210327 1.7937897443771362 -0.499003142118454 78.0 0 -0.01352465245872736
-0.49066638946533203 1.7585525512695312 0.031868092715740204 100.0 8 -0.013522348366677761
-0.5003697276115417 1.7945425510406494 -0.43010643124580383 88.0 1 -0.013520044274628162
-0.5001773834228516 1.7950602769851685 0.0976589024066925 96.0 9 -0.013517740182578564
-0.4987265169620514 1.7910621166229248 -0.3613922595977783 87.0 2 -0.013515436090528965
-1.8250807523727417 6.558801174163818 0.5956223011016846 87.0 10 -0.013513131998479366
-0.4974723756313324 1.7889742851257324 -0.29409682750701904 100.0 3 -0.013510827906429768
-1.8167272806167603 6.533183574676514 0.8326114416122437 88.0 11 -0.013508523814380169
-0.4985414445400238 1.7940350770950317 -0.22862690687179565 89.0 4 -0.01350621972233057
-1.8193057775497437 6.551326751708984 1.076894998550415 88.0 12 -0.013503916561603546
-0.49335309863090515 1.7777663469314575 -0.16141243278980255 93.0 5 -0.013501612469553947
-1.8126888275146484 6.53634786605835 1.3184902667999268 100.0 13 -0.013499308377504349
-0.49820321798324585 1.7976818084716797 -0.09776357561349869 100.0 6 -0.01349700428545475
-1.8136701583862305 6.5487494468688965 1.5688087940216064 100.0 14 -0.013494700193405151
-0.4963628351688385 1.792253017425537 -0.03246147558093071 100.0 7 -0.013492396101355553
-1.8035149574279785 6.516514778137207 1.8117334842681885 62.0 15 -0.013490092009305954
-0.4942331612110138 1.7955260276794434 -0.499003142118454 81.0 0 -0.01346935611218214
-0.4858083128929138 1.766123652458191 0.03197281062602997 100.0 8 -0.013467052020132542
-0.49172335863113403 1.7888480424880981 -0.42830681800842285 85.0 1 -0.013464747928082943
-0.4907316565513611 1.7852404117584229 0.097030870616436 100.0 9 -0.013462443836033344
-0.49247100949287415 1.7927922010421753 -0.3613922595977783 87.0 2 -0.013460139743983746
-1.8037586212158203 6.570895195007324 0.5961452722549438 90.0 10 -0.013457835651934147
-0.4907015860080719 1.788794994354248 -0.293783962726593 100.0 3 -0.013455532491207123
-1.7938176393508911 6.543627738952637 0.8330988883972168 90.0 11 -0.013453228399157524
-0.4901772141456604 1.7881065607070923 -0.2276519387960434 82.0 4 -0.013450924307107925
-1.7964277267456055 6.557636737823486 1.076894998550415 88.0 12 -0.013448620215058327
-0.4881961941719055 1.7833211421966553 -0.1617610603570938 87.0 5 -0.013446316123008728
-1.788826823234558 6.53884744644165 1.317726969718933 100.0 13 -0.01344401203095913
-0.4887653589248657 1.7878503799438477 -0.09713554382324219 75.0 6 -0.01344170793890953
-1.7857751846313477 6.53217077255249 1.5634099245071411 100.0 14 -0.013439403846859932
-0.4853602647781372 1.7766138315200806 -0.03214733302593231 100.0 7 -0.013437099754810333
-1.7807585000991821 6.522769927978516 1.8117334842681885 63.0 15 -0.013434795662760735
-0.48928964138031006 1.8008835315704346 -0.5000383853912354 78.0 0 -0.013414059765636921
-0.47994932532310486 1.767724871635437 0.03197281062602997 100.0 8 -0.013411755673587322
-0.4857890009880066 1.7904688119888306 -0.42830681800842285 87.0 1 -0.013409452512860298
-0.4853322505950928 1.788785457611084 0.09713554382324219 100.0 9 -0.0134071484208107
-0.4834401607513428 1.7830464839935303 -0.3591025471687317 87.0 2 -0.0134048443287611
-1.7803971767425537 6.571071624755859 0.5956223011016846 87.0 10 -0.013402540236711502
-0.4857999384403229 1.794225811958313 -0.29440969228744507 100.0 3 -0.013400236144661903
-1.7731432914733887 6.553373336791992 0.8335863351821899 88.0 11 -0.013397932052612305
-0.4826890230178833 1.7839739322662354 -0.2269207388162613 85.0 4 -0.013395627960562706
-1.771579623222351 6.552116394042969 1.0750178098678589 88.0 12 -0.013393323868513107
-0.48331958055496216 1.7887769937515259 -0.16210968792438507 93.0 5 -0.013391019776463509
-1.7661083936691284 6.540954113006592 1.316963791847229 100.0 13 -0.01338871568441391
-0.48231402039527893 1.7875330448150635 -0.097030870616436 37.0 6 -0.013386412523686886
-1.763089895248413 6.5342936515808105 1.5625101327896118 100.0 14 -0.013384108431637287
-0.4836311936378479 1.7936592102050781 -0.03242656961083412 100.0 7 -0.013381804339587688
-1.759116530418396 6.528639793395996 1.8117334842681885 63.0 15 -0.01337950024753809
-0.48031339049339294 1.7913004159927368 -0.49693259596824646 81.0 0 -0.013358764350414276
-0.47563686966896057 1.7751014232635498 0.032077521085739136 100.0 8 -0.013356460258364677
-0.47984838485717773 1.7920700311660767 -0.42830681800842285 89.0 1 -0.013354156166315079
-0.4770197868347168 1.782751202583313 0.09671685099601746 100.0 9 -0.01335185207426548
-0.477213591337204 1.784723162651062 -0.3591025471687317 90.0 2 -0.013349547982215881
-1.7555071115493774 6.565391540527344 0.5945764780044556 85.0 10 -0.013347243890166283
-0.4793369174003601 1.793918490409851 -0.29409682750701904 100.0 3 -0.013344939798116684
-1.7503788471221924 6.555380821228027 0.8330988883972168 88.0 11 -0.013342635706067085
-0.47594746947288513 1.783729910850525 -0.22667700052261353 79.0 4 -0.013340331614017487
-1.7476781606674194 6.554444313049316 1.0743920803070068 88.0 12 -0.013338028453290462
-0.4750202000141144 1.7827523946762085 -0.16141243278980255 96.0 5 -0.013335724361240864
-1.7452871799468994 6.554666996002197 1.3184902667999268 100.0 13 -0.013333420269191265
-0.48017945885658264 1.8046467304229736 -0.09786824882030487 30.0 6 -0.013331116177141666
-1.740268349647522 6.540408611297607 1.5625101327896118 100.0 14 -0.013328812085092068
-1.7333413362503052 6.523537635803223 1.8086276054382324 63.0 15 -0.01332420390099287
-0.4717702865600586 1.7855778932571411 -0.49486202001571655 81.0 0 -0.013303468003869057
-0.47427159547805786 1.797585129737854 -0.42920663952827454 83.0 1 -0.01329885981976986
-0.4750654995441437 1.8018690347671509 0.0976589024066925 40.0 9 -0.01329655572772026
-0.4696691334247589 1.7826632261276245 -0.3583393096923828 90.0 2 -0.013294251635670662
-1.729403018951416 6.564074516296387 0.593879222869873 85.0 10 -0.013291948474943638
-0.47275903820991516 1.7956632375717163 -0.29409682750701904 100.0 3 -0.01328964438289404
-1.7273521423339844 6.565591335296631 0.8335863351821899 92.0 11 -0.01328734029084444
-0.47142595052719116 1.793141484260559 -0.2276519387960434 89.0 4 -0.013285036198794842
-1.7241464853286743 6.562715530395508 1.074704885482788 89.0 12 -0.013282732106745243
-0.4674714505672455 1.7806272506713867 -0.1610638052225113 91.0 5 -0.013280428014695644
-1.7172675132751465 6.545827865600586 1.3154373168945312 100.0 13 -0.013278123922646046
-0.47660115361213684 1.8179863691329956 -0.09849628061056137 42.0 6 -0.013275819830596447
-1.715792179107666 6.544857978820801 1.5620602369308472 100.0 14 -0.013273515738546848
-0.4662228226661682 1.7796642780303955 -0.032112427055835724 12.0 7 -0.013271212577819824
-1.7074611186981201 6.522371768951416 1.806557059288025 63.0 15 -0.013268908485770226
-0.4671696424484253 1.7947732210159302 -0.49693259596824646 81.0 0 -0.013248171657323837
-0.4631153345108032 1.7804754972457886 0.032112427055835724 12.0 8 -0.013245868496596813
-0.4666989743709564 1.7955392599105835 -0.42830681800842285 87.0 1 -0.013243564404547215
-0.46795642375946045 1.80166494846344 0.09755422919988632 27.0 9 -0.013241260312497616
-0.4644310772418976 1.7880921363830566 -0.3591025471687317 90.0 2 -0.013238956220448017
-1.7053313255310059 6.570369243621826 0.593879222869873 85.0 10 -0.013236652128398418
-0.46369433403015137 1.7878235578536987 -0.2925325036048889 100.0 3 -0.01323434803634882
-1.6997886896133423 6.558427810668945 0.8318802118301392 88.0 11 -0.013232043944299221
-0.46584552526474 1.7987009286880493 -0.22813943028450012 84.0 4 -0.013229739852249622
-1.6941406726837158 6.5460429191589355 1.0709505081176758 87.0 12 -0.013227435760200024
-0.4622509777545929 1.786105990409851 -0.16141243278980255 87.0 5 -0.013225131668150425
-1.6924396753311157 6.5441789627075195 1.313910722732544 100.0 13 -0.013222828507423401
-0.4652544856071472 1.8003016710281372 -0.09744956344366074 27.0 6 -0.013220524415373802
-1.69179105758667 6.551103115081787 1.5620602369308472 100.0 14 -0.013218220323324203
-0.4656924903392792 1.8045965433120728 -0.032531287521123886 13.0 7 -0.013215916231274605
-1.681615948677063 6.5211029052734375 1.8044863939285278 63.0 15 -0.013213612139225006
-0.4618615508079529 1.8001354932785034 -0.4979678690433502 81.0 0 -0.013192876242101192
-0.457394540309906 1.7840183973312378 0.03214733302593231 12.0 8 -0.013190572150051594
-0.4575270712375641 1.7858308553695679 -0.4256074130535126 85.0 1 -0.013188268058001995
-0.4586920142173767 1.7916781902313232 0.09692620486021042 30.0 9 -0.013185963965952396
-0.460133820772171 1.7973101139068604 -0.36062902212142944 87.0 2 -0.013183659873902798
-1.6833750009536743 6.580142498016357 0.5942278504371643 87.0 10 -0.013181355781853199
-0.4584297239780426 1.793258786201477 -0.29315823316574097 100.0 3 -0.0131790516898036
-1.6754124164581299 6.558550834655762 0.8311489820480347 90.0 11 -0.013176748529076576
-0.45612749457359314 1.7868518829345703 -0.22643324732780457 85.0 4 -0.013174444437026978
-1.6722581386566162 6.555744171142578 1.0715762376785278 87.0 12 -0.013172140344977379
-0.4569987654685974 1.791569709777832 -0.1617610603570938 96.0 5 -0.01316983625292778
-1.6695873737335205 6.550046443939209 1.313910722732544 100.0 13 -0.013167532160878181
-0.45650285482406616 1.7922372817993164 -0.09692620486021042 22.0 6 -0.013165228068828583
-1.6669918298721313 6.549414157867432 1.5602606534957886 100.0 14 -0.013162923976778984
-0.45741915702819824 1.7984590530395508 -0.03239166736602783 11.0 7 -0.013160619884729385
-1.6616991758346558 6.538166522979736 1.8075922727584839 63.0 15 -0.013158315792679787
-0.455574631690979 1.8017369508743286 -0.4979678690433502 78.0 0 -0.013137579895555973
-0.45116472244262695 1.7856040000915527 0.03214733302593231 12.0 8 -0.013135275803506374
-0.45224422216415405 1.7911959886550903 -0.42650723457336426 89.0 1 -0.013132971711456776
-0.4517696797847748 1.7893165349960327 0.09671685099601746 37.0 9 -0.013130668550729752
-0.45241594314575195 1.7931946516036987 -0.35948416590690613 93.0 2 -0.013128364458680153
-1.660884141921997 6.587909698486328 0.5944021344184875 90.0 10 -0.013126060366630554
-0.45168426632881165 1.7929326295852661 -0.29284536838531494 100.0 3 -0.013123756274580956
-1.6525068283081055 6.564359188079834 0.8311489820480347 92.0 11 -0.013121452182531357
-0.45068368315696716 1.7902798652648926 -0.22667700052261353 88.0 4 -0.013119148090481758
-1.6485830545425415 6.553590774536133 1.0703247785568237 85.0 12 -0.01311684399843216
-0.44977033138275146 1.7892895936965942 -0.16141243278980255 96.0 5 -0.01311453990638256
-1.6467114686965942 6.555835247039795 1.313910722732544 100.0 13 -0.013112235814332962
-0.45121681690216064 1.7976940870285034 -0.09713554382324219 18.0 6 -0.013109931722283363
-1.6438419818878174 6.5492353439331055 1.558910846710205 100.0 14 -0.013107627630233765
-0.45145225524902344 1.7999660968780518 -0.03239166736602783 14.0 7 -0.01310532446950674
-1.6390676498413086 6.539894104003906 1.806557059288025 63.0 15 -0.013103020377457142
-0.44866299629211426 1.7994887828826904 -0.49693259596824646 81.0 0 -0.013082284480333328
-0.44524136185646057 1.7870901823043823 0.03214733302593231 12.0 8 -0.01307998038828373
-0.4472438395023346 1.796467900276184 -0.42740702629089355 89.0 1 -0.01307767629623413
-0.4458339810371399 1.7908048629760742 0.09671685099601746 37.0 9 -0.013075372204184532
-0.44457152485847473 1.7870641946792603 -0.3579576909542084 93.0 2 -0.013073068112134933
-1.635662317276001 6.579846382141113 0.5931819677352905 83.0 10 -0.013070764020085335
-0.4495462477207184 1.8097574710845947 -0.29534831643104553 100.0 3 -0.013068459928035736
-1.6307308673858643 6.569803237915039 0.8311489820480347 90.0 11 -0.013066155835986137
-0.4457012116909027 1.795617699623108 -0.22716447710990906 84.0 4 -0.013063851743936539
-1.6249374151229858 6.551352500915527 1.06907320022583 85.0 12 -0.01306154765188694
-0.4419175088405609 1.7830357551574707 -0.16071519255638123 93.0 5 -0.013059244491159916
-1.6292115449905396 6.578411102294922 1.317345380783081 100.0 13 -0.013056940399110317
-0.4514889717102051 1.8243849277496338 -0.09849628061056137 19.0 6 -0.013054636307060719
-1.6221098899841309 6.554651260375977 1.558910846710205 100.0 14 -0.01305233221501112
-0.4430810213088989 1.7917472124099731 -0.03221714124083519 14.0 7 -0.013050028122961521
-1.6145923137664795 6.5340399742126465 1.8034511804580688 63.0 15 -0.013047724030911922
-0.44177043437957764 1.7972148656845093 -0.4958973228931427 85.0 0 -0.013026988133788109
-0.4354962110519409 1.7730211019515991 0.031868092715740204 12.0 8 -0.01302468404173851
-0.44314247369766235 1.805511236190796 -0.42920663952827454 89.0 1 -0.013022379949688911
-0.4405311644077301 1.7962298393249512 0.09692620486021042 44.0 9 -0.013020075857639313
-0.43957775831222534 1.7923423051834106 -0.35872092843055725 93.0 2 -0.013017771765589714
-1.6124123334884644 6.5794291496276855 0.592659056186676 90.0 10 -0.013015467673540115
-0.438844233751297 1.7920513153076172 -0.2922196090221405 100.0 3 -0.013013164512813091
-1.609877586364746 6.579031467437744 0.8316364884376526 90.0 11 -0.013010860420763493
-0.438959538936615 1.795234203338623 -0.2269207388162613 85.0 4 -0.013008556328713894
-1.6011228561401367 6.553146839141846 1.0684475898742676 85.0 12 -0.013006252236664295
-0.43474525213241577 1.7806962728500366 -0.16036656498908997 89.0 5 -0.013003948144614697
-1.6004012823104858 6.555169105529785 1.3116211891174316 100.0 13 -0.013001644052565098
-0.450170636177063 1.8452755212783813 -0.099542997777462 24.0 6 -0.012999339960515499
-1.600609302520752 6.565952777862549 1.5602606534957886 100.0 14 -0.0129970358684659
-0.4396630525588989 1.804940104484558 -0.03242656961083412 15.0 7 -0.012994731776416302
-1.5899451971054077 6.532128810882568 1.8013806343078613 63.0 15 -0.012992427684366703
-0.43608927726745605 1.8025771379470825 -0.49693259596824646 87.0 0 -0.01297169178724289
-0.43071475625038147 1.7803616523742676 0.03197281062602997 12.0 8 -0.01296938769519329
-0.4340894818305969 1.7956821918487549 -0.42650723457336426 85.0 1 -0.012967083603143692
-0.4347287118434906 1.799697756767273 0.097030870616436 46.0 9 -0.012964780442416668
-0.43162399530410767 1.7882158756256104 -0.35757607221603394 90.0 2 -0.01296247635036707
-1.589686393737793 6.5911054611206055 0.5931819677352905 87.0 10 -0.01296017225831747
-0.4322734773159027 1.7936476469039917 -0.2922196090221405 100.0 3 -0.012957868166267872
-1.5831862688064575 6.5691704750061035 0.8296865224838257 90.0 11 -0.012955564074218273
-0.4331545829772949 1.7986855506896973 -0.22716447710990906 89.0 4 -0.012953259982168674
-1.5823959112167358 6.575981616973877 1.0712634325027466 88.0 12 -0.012950955890119076
-0.42945966124534607 1.7860771417617798 -0.16071519255638123 93.0 5 -0.012948651798069477
-1.5745315551757812 6.553354740142822 1.3100945949554443 100.0 13 -0.012946347706019878
-0.44526976346969604 1.854681372642517 -0.09996168315410614 24.0 6 -0.012944044545292854
-1.5774437189102173 6.575564861297607 1.5611604452133179 100.0 14 -0.012941740453243256
-0.4347606599330902 1.8122972249984741 -0.032531287521123886 16.0 7 -0.012939436361193657
-1.5680360794067383 6.541395664215088 1.8024158477783203 63.0 15 -0.012937132269144058
-0.42979398369789124 1.8040884733200073 -0.49693259596824646 87.0 0 -0.012916396372020245
-0.42418691515922546 1.7819281816482544 0.03197281062602997 11.0 8 -0.012914092279970646
-0.4266035556793213 1.7934691905975342 -0.4256074130535126 87.0 1 -0.012911788187921047
-0.4262808561325073 1.7935068607330322 0.09661218523979187 39.0 9 -0.012909484095871449
-0.4281027317047119 1.801172137260437 -0.35986578464508057 87.0 2 -0.01290718000382185
-1.5666708946228027 6.596614360809326 0.5931819677352905 85.0 10 -0.012904875911772251
-0.4269216060638428 1.7989897727966309 -0.29284536838531494 100.0 3 -0.012902571819722652
-1.5581777095794678 6.571068286895752 0.8291990756988525 90.0 11 -0.012900267727673054
-0.4256442189216614 1.7963978052139282 -0.22667700052261353 86.0 4 -0.01289796456694603
-1.559194803237915 6.585581302642822 1.071889042854309 88.0 12 -0.012895660474896431
-0.4241400361061096 1.7914429903030396 -0.1610638052225113 93.0 5 -0.012893356382846832
-1.5516446828842163 6.558811664581299 1.3100945949554443 100.0 13 -0.012891052290797234
-0.44200968742370605 1.8698301315307617 -0.10069439560174942 29.0 6 -0.012888748198747635
-1.5504475831985474 6.563962459564209 1.5571112632751465 100.0 14 -0.012886444106698036
-0.428573340177536 1.8158249855041504 -0.032566189765930176 16.0 7 -0.012884140014648438
-1.5440515279769897 6.547098636627197 1.8024158477783203 63.0 15 -0.012881835922598839
-0.4234951436519623 1.8055775165557861 -0.49693259596824646 85.0 0 -0.012861100025475025
-0.41796377301216125 1.7833980321884155 0.03197281062602997 9.0 8 -0.012858795933425426
-0.4212287664413452 1.798742413520813 -0.42650723457336426 90.0 1 -0.012856491841375828
-0.41910886764526367 1.791094183921814 0.0964028462767601 40.0 9 -0.012854187749326229
-0.4204722046852112 1.7969204187393188 -0.35872092843055725 93.0 2 -0.012851884588599205
-1.5431795120239258 6.60010290145874 0.5930076837539673 90.0 10 -0.012849580496549606
-0.4215376675128937 1.8043161630630493 -0.293471097946167 100.0 3 -0.012847276404500008
-1.5343327522277832 6.572599411010742 0.8287115693092346 97.0 11 -0.012844972312450409
-0.4157630503177643 1.7824070453643799 -0.2247270941734314 82.0 4 -0.01284266822040081
-1.5344018936157227 6.583288669586182 1.070637583732605 88.0 12 -0.012840364128351212
-0.41788366436958313 1.7929127216339111 -0.1610638052225113 100.0 5 -0.012838060036301613
-1.5287452936172485 6.5641865730285645 1.3100945949554443 100.0 13 -0.012835755944252014
-0.4368376135826111 1.877197504043579 -0.10100840777158737 30.0 6 -0.012833451852202415
-1.5266410112380981 6.56553840637207 1.5562114715576172 100.0 14 -0.012831147760152817
-0.4217810034751892 1.8153619766235352 -0.032531287521123886 19.0 7 -0.012828843668103218
-1.5211868286132812 6.552448749542236 1.8024158477783203 63.0 15 -0.01282653957605362
-0.4154511094093323 1.7995154857635498 -0.49486202001571655 85.0 0 -0.01280580461025238
-0.4144333004951477 1.796537160873413 0.0321822389960289 10.0 8 -0.012803500518202782
-0.4149478077888489 1.8002017736434937 -0.42650723457336426 89.0 1 -0.012801196426153183
-0.41226938366889954 1.7885817289352417 0.09619349241256714 43.0 9 -0.012798892334103584
-0.4128747880458832 1.792637586593628 -0.35757607221603394 96.0 2 -0.012796588242053986
-1.51834237575531 6.597683429718018 0.5923104286193848 90.0 10 -0.012794284150004387
-0.4161226153373718 1.8096269369125366 -0.29409682750701904 100.0 3 -0.012791980057954788
-1.5113790035247803 6.577915668487549 0.8287115693092346 97.0 11 -0.01278967596590519
-0.41131502389907837 1.7915867567062378 -0.22570204734802246 89.0 4 -0.01278737187385559
-1.511676549911499 6.5844902992248535 1.070011854171753 88.0 12 -0.012785067781805992
-0.41073212027549744 1.7904765605926514 -0.16071519255638123 93.0 5 -0.012782763689756393
-1.5066983699798584 6.573310852050781 1.310857892036438 100.0 13 -0.012780459597706795
-0.4311735928058624 1.8826048374176025 -0.10121775418519974 30.0 6 -0.01277815643697977
-1.50371515750885 6.570827484130859 1.5562114715576172 100.0 14 -0.012775852344930172
-0.4148660898208618 1.8128522634506226 -0.03246147558093071 19.0 7 -0.012773548252880573
-1.496867299079895 6.5461578369140625 1.7993099689483643 63.0 15 -0.012771244160830975
-0.40831154584884644 1.7971869707107544 -0.4938267767429352 87.0 0 -0.012750508263707161
-0.4062587320804596 1.788151502609253 0.03200771287083626 11.0 8 -0.012748204171657562
-0.40897616744041443 1.8015679121017456 -0.42650723457336426 89.0 1 -0.012745900079607964
-0.40690672397613525 1.7939056158065796 0.0964028462767601 42.0 9 -0.012743595987558365
-0.40748313069343567 1.7978973388671875 -0.3583393096923828 91.0 2 -0.012741291895508766
-1.4931071996688843 6.593226432800293 0.5914388298988342 87.0 10 -0.012738987803459167
-0.40924713015556335 1.8071435689926147 -0.293471097946167 100.0 3 -0.012736683711409569
-1.4895557165145874 6.582891464233398 0.8287115693092346 99.0 11 -0.01273437961935997
-0.4079994559288025 1.8045578002929688 -0.22716447710990906 88.0 4 -0.012732076458632946
-1.4878172874450684 6.585872650146484 1.0693861246109009 88.0 12 -0.012729772366583347
-0.4018470346927643 1.7802385091781616 -0.15966932475566864 96.0 5 -0.012727468274533749
-1.4848902225494385 6.578271389007568 1.310857892036438 100.0 13 -0.01272516418248415
-0.4266863763332367 1.8918174505233765 -0.10163643956184387 30.0 6 -0.012722860090434551
-1.4832037687301636 6.581480979919434 1.5575611591339111 100.0 14 -0.012720555998384953
-0.40853503346443176 1.8142893314361572 -0.03246147558093071 16.0 7 -0.012718251906335354
-1.4740060567855835 6.551342964172363 1.7993099689483643 63.0 15 -0.012715947814285755
-0.40319257974624634 1.8023016452789307 -0.49486202001571655 85.0 0 -0.012695211917161942
-0.39696037769317627 1.7758979797363281 0.03176337853074074 11.0 8 -0.012692907825112343
-0.4026845693588257 1.802984595298767 -0.42650723457336426 89.0 1 -0.012690603733062744
-0.40226203203201294 1.8010927438735962 0.09671685099601746 45.0 9 -0.012688299641013145
-0.3998079001903534 1.791574239730835 -0.35681283473968506 94.0 2 -0.012685996480286121
-1.4721003770828247 6.602031230926514 0.5917875170707703 87.0 10 -0.012683692388236523
-0.400358647108078 1.7969926595687866 -0.29159387946128845 100.0 3 -0.012681388296186924
-1.4639813899993896 6.576424598693848 0.8272491693496704 95.0 11 -0.012679084204137325
-0.40169742703437805 1.8059711456298828 -0.22716447710990906 90.0 4 -0.012676780112087727
-1.4668254852294922 6.594626426696777 1.070011854171753 85.0 12 -0.012674476020038128
-0.39723843336105347 1.78739595413208 -0.16019225120544434 100.0 5 -0.01267217192798853
-1.4576642513275146 6.564248561859131 1.3070416450500488 100.0 13 -0.01266986783593893
-0.4179173409938812 1.8835458755493164 -0.10111307352781296 32.0 6 -0.012667563743889332
-1.4597976207733154 6.584715843200684 1.5571112632751465 100.0 14 -0.012665260583162308
