# .PCD v0.7 - Point Cloud Data file format
VERSION 0.7
FIELDS x y z intensity ring time
SIZE 4 4 4 4 4 4
TYPE F F F F F F
COUNT 1 1 1 1 1 1
WIDTH 550
HEIGHT 1
VIEWPOINT 0 0 0 1 0 0 0
POINTS 550
DATA ascii
-3.310739040374756 3.044379472732544 1.0383741855621338 69.0 14 -0.08939258009195328
-2.715348720550537 2.4977660179138184 -0.06439937651157379 4.0 7 -0.08939027786254883
-3.2767281532287598 3.015216588973999 1.1931558847427368 102.0 15 -0.08938797563314438
-2.0032615661621094 1.8485565185546875 -0.7303873300552368 2.0 0 -0.08936723321676254
-2.9083492755889893 2.6837472915649414 0.06907662749290466 12.0 8 -0.0893649309873581
-2.6333136558532715 2.430803060531616 -0.8273700475692749 5.0 1 -0.08936262875795364
-1.8041011095046997 1.666526198387146 -0.4774041175842285 3.0 2 -0.08935802429914474
-3.3450868129730225 3.091083288192749 0.3984760344028473 55.0 10 -0.0893557146191597
-1.8625239133834839 1.7216991186141968 -0.4017237424850464 27.0 3 -0.08935341238975525
-3.3366706371307373 3.0843863487243652 0.5579178929328918 3.0 11 -0.0893511101603508
-2.8872342109680176 2.669865846633911 -0.48284637928009033 35.0 4 -0.08934880793094635
-3.3439204692840576 3.0932528972625732 0.7214757800102234 5.0 12 -0.0893464982509613
-2.9144601821899414 2.696929931640625 -0.34740278124809265 44.0 5 -0.08934419602155685
-3.3122410774230957 3.066094398498535 0.877339780330658 61.0 13 -0.0893418937921524
-2.916243314743042 2.700470209121704 -0.20829713344573975 55.0 6 -0.08933959156274796
-3.316713809967041 3.072385311126709 1.0437729358673096 69.0 14 -0.08933728188276291
-2.6992785930633545 2.500433921813965 -0.06422485411167145 1.0 7 -0.08933497965335846
-3.2860207557678223 3.0450191497802734 1.2004027366638184 87.0 15 -0.08933267742395401
-1.9967966079711914 1.855538010597229 -0.7303873300552368 3.0 0 -0.08931194245815277
-2.886776924133301 2.6834962368011475 0.06879738718271255 10.0 8 -0.08930964022874832
-2.6300947666168213 2.445746421813965 -0.8291696310043335 5.0 1 -0.08930733054876328
-1.811210036277771 1.6848481893539429 -0.48083871603012085 3.0 2 -0.08930272608995438
-3.350321054458618 3.1176717281341553 0.4003934860229492 52.0 10 -0.08930042386054993
-1.8593943119049072 1.7308818101882935 -0.40234947204589844 27.0 3 -0.08929811418056488
-3.3238911628723145 3.095242500305176 0.5576741695404053 48.0 11 -0.08929581195116043
-2.893406629562378 2.6953141689300537 -0.48552751541137695 41.0 4 -0.08929350972175598
-3.3374385833740234 3.1089460849761963 0.7224144339561462 51.0 12 -0.08929120749235153
-2.9035706520080566 2.705728769302368 -0.347228467464447 42.0 5 -0.08928889781236649
-3.3158791065216064 3.091024875640869 0.8811559677124023 59.0 13 -0.08928659558296204
-2.896573781967163 2.7010982036590576 -0.20756441354751587 59.0 6 -0.08928429335355759
-3.311668872833252 3.089261293411255 1.0455725193023682 69.0 14 -0.08928199112415314
-2.680298328399658 2.5002927780151367 -0.06398051977157593 2.0 7 -0.08927968144416809
-3.2894959449768066 3.0696513652801514 1.205579161643982 84.0 15 -0.08927737921476364
-1.9931291341781616 1.8651363849639893 -0.7314226627349854 3.0 0 -0.0892566442489624
-2.8764021396636963 2.691688299179077 0.06876248121261597 10.0 8 -0.08925434201955795
-2.6305060386657715 2.4624454975128174 -0.8318690657615662 5.0 1 -0.0892520397901535
-2.8092706203460693 2.630708932876587 0.2017027884721756 2.0 9 -0.08924973011016846
-1.7838259935379028 1.6710267066955566 -0.4751144051551819 3.0 2 -0.08924742788076401
-3.3510477542877197 3.1402461528778076 0.40178796648979187 50.0 10 -0.08924512565135956
-1.8608511686325073 1.743792176246643 -0.40391382575035095 28.0 3 -0.08924282342195511
-3.339676856994629 3.1306850910186768 0.5620614290237427 61.0 11 -0.08924051374197006
-2.875765085220337 2.6967461109161377 -0.48406505584716797 42.0 4 -0.08923821151256561
-3.3481767177581787 3.1408495903015137 0.7271074652671814 79.0 12 -0.08923590928316116
-2.8853909969329834 2.707667350769043 -0.34618258476257324 45.0 5 -0.08923360705375671
-3.3227901458740234 3.1181252002716064 0.8857353925704956 56.0 13 -0.08923129737377167
-2.8817760944366455 2.705221176147461 -0.20714573562145233 59.0 6 -0.08922899514436722
-3.3085086345672607 3.106896162033081 1.0478219985961914 67.0 14 -0.08922669291496277
-2.689044237136841 2.5260632038116455 -0.06439937651157379 48.0 7 -0.08922439068555832
-3.2956535816192627 3.0969913005828857 1.2117908000946045 87.0 15 -0.08922208845615387
-1.961621880531311 1.847891926765442 -0.7221052050590515 1.0 0 -0.08920134603977203
-2.850980043411255 2.686626672744751 0.06837853044271469 10.0 8 -0.08919904381036758
-2.6304025650024414 2.479633092880249 -0.8345685005187988 4.0 1 -0.08919674158096313
-2.8000712394714355 2.640498638153076 0.2017027884721756 14.0 9 -0.08919443935155869
-1.7782747745513916 1.6769330501556396 -0.4751144051551819 6.0 2 -0.08919212967157364
-3.3551087379455566 3.165013074874878 0.4035310745239258 50.0 10 -0.08918982744216919
-1.8604997396469116 1.7557002305984497 -0.40516531467437744 28.0 3 -0.08918752521276474
-3.3373899459838867 3.150499105453491 0.5635238885879517 63.0 11 -0.08918522298336029
-2.866333484649658 2.706768751144409 -0.48406505584716797 42.0 4 -0.08918291330337524
-3.3285768032073975 3.144378423690796 0.7252302765846252 65.0 12 -0.0891806110739708
-2.85756778717041 2.699434518814087 -0.34391653537750244 50.0 5 -0.08917830884456635
-3.3275818824768066 3.1445369720458984 0.889933168888092 59.0 13 -0.0891760066151619
-2.8723154067993164 2.715263843536377 -0.20714573562145233 59.0 6 -0.08917370438575745
-3.314634323120117 3.134493589401245 1.0532208681106567 61.0 14 -0.0891713947057724
-2.6758527755737305 2.531311273574829 -0.06429466605186462 46.0 7 -0.08916909247636795
-3.290436029434204 3.1137866973876953 1.213861346244812 85.0 15 -0.0891667902469635
-1.9607657194137573 1.8600462675094604 -0.7241756916046143 2.0 0 -0.08914605528116226
-2.828529119491577 2.6841742992401123 0.068064384162426 9.0 8 -0.08914374560117722
-2.627384901046753 2.4941658973693848 -0.8363680839538574 4.0 1 -0.08914144337177277
-2.844423770904541 2.701143980026245 0.20557565987110138 2.0 9 -0.08913914114236832
-1.7809523344039917 1.6912418603897095 -0.4774041175842285 20.0 2 -0.08913683891296387
-3.352707624435425 3.184938907623291 0.40457695722579956 52.0 10 -0.08913452923297882
-1.8529281616210938 1.7608226537704468 -0.40485242009162903 29.0 3 -0.08913222700357437
-3.34651517868042 3.1812779903411865 0.5669362545013428 61.0 11 -0.08912992477416992
-2.849675178527832 2.7099180221557617 -0.48284637928009033 48.0 4 -0.08912762254476547
-3.3347561359405518 3.172315835952759 0.7289847135543823 63.0 12 -0.08912532031536102
-2.8394668102264404 2.701152801513672 -0.34287068247795105 48.0 5 -0.08912301063537598
-3.3208513259887695 3.160194158554077 0.8910780549049377 57.0 13 -0.08912070840597153
-2.8512470722198486 2.714257001876831 -0.20630836486816406 59.0 6 -0.08911840617656708
-3.319196939468384 3.1608269214630127 1.0581697225570679 60.0 14 -0.08911610394716263
-2.6641037464141846 2.5378782749176025 -0.06422485411167145 34.0 7 -0.08911379426717758
-3.287938356399536 3.1332502365112305 1.216967225074768 87.0 15 -0.08911149203777313
-1.961244821548462 1.8735520839691162 -0.726763904094696 2.0 0 -0.0890907570719719
-2.809022903442383 2.6843600273132324 0.06782004982233047 8.0 8 -0.08908845484256744
-2.6214795112609863 2.5060153007507324 -0.8372678756713867 4.0 1 -0.0890861451625824
-2.846524477005005 2.722100257873535 0.20641303062438965 1.0 9 -0.08908384293317795
-1.776456356048584 1.6988056898117065 -0.47778576612472534 31.0 2 -0.0890815407037735
-3.35884690284729 3.213149309158325 0.40666869282722473 52.0 10 -0.08907923847436905
-1.8424888849258423 1.763182520866394 -0.40391382575035095 32.0 3 -0.0890769362449646
-3.346860647201538 3.2039222717285156 0.5688861608505249 63.0 11 -0.08907462656497955
-2.8401989936828613 2.719848155975342 -0.48284637928009033 50.0 4 -0.0890723243355751
-3.3407793045043945 3.2003347873687744 0.7327390909194946 63.0 12 -0.08907002210617065
-3.325392246246338 3.186708927154541 0.895275890827179 59.0 13 -0.08906541019678116
-2.8258960247039795 2.708989143371582 -0.20515696704387665 61.0 6 -0.08906310796737671
-3.326427936553955 3.1899282932281494 1.0640184879302979 57.0 14 -0.08906080573797226
-2.6725454330444336 2.563774585723877 -0.06464371830224991 22.0 7 -0.08905850350856781
-3.2937076091766357 3.160759687423706 1.2231788635253906 85.0 15 -0.08905619382858276
-1.9418373107910156 1.8686714172363281 -0.7221052050590515 2.0 0 -0.08903545886278152
-2.790990114212036 2.6858291625976562 0.06761062145233154 8.0 8 -0.08903315663337708
-2.5986766815185547 2.501635789871216 -0.8327688574790955 5.0 1 -0.08903085440397263
-2.831251382827759 2.7264773845672607 0.20599433779716492 1.0 9 -0.08902855217456818
-1.7730460166931152 1.7080289125442505 -0.4785490036010742 46.0 2 -0.08902624249458313
-3.3714358806610107 3.2489423751831055 0.40963199734687805 55.0 10 -0.08902394026517868
-1.8459694385528564 1.7795207500457764 -0.4061039388179779 31.0 3 -0.08902163803577423
-3.3442323207855225 3.223851203918457 0.5703485608100891 67.0 11 -0.08901933580636978
-2.8078250885009766 2.707698345184326 -0.4789465665817261 50.0 4 -0.08901702612638474
-3.3494908809661865 3.2311785221099854 0.7371193170547485 63.0 12 -0.08901472389698029
-2.14193058013916 2.066992998123169 -0.26042136549949646 1.0 5 -0.08901242166757584
-3.329227924346924 3.213874340057373 0.8994736671447754 57.0 13 -0.08901011943817139
-2.8044540882110596 2.7082300186157227 -0.20431959629058838 61.0 6 -0.08900780975818634
-3.318917989730835 3.2061617374420166 1.0653681755065918 56.0 14 -0.08900550752878189
-2.6794002056121826 2.5883708000183105 -0.06502766162157059 15.0 7 -0.08900320529937744
-3.297936201095581 3.1870040893554688 1.2288728952407837 87.0 15 -0.08900090306997299
-1.926978588104248 1.8673717975616455 -0.7189993262290955 1.0 0 -0.08898016810417175
-2.7753844261169434 2.6904735565185547 0.06747100502252579 8.0 8 -0.0889778584241867
-2.5922882556915283 2.5138566493988037 -0.8336686491966248 6.0 1 -0.08897555619478226
-2.804511308670044 2.719658851623535 0.20473827421665192 1.0 9 -0.08897325396537781
-1.7614364624023438 1.7087396383285522 -0.4770224988460541 61.0 2 -0.08897095173597336
-3.3715133666992188 3.2717902660369873 0.4110264480113983 53.0 10 -0.08896864205598831
-1.8439984321594238 1.7900813817977905 -0.407042533159256 32.0 3 -0.08896633982658386
-3.3523309230804443 3.2554478645324707 0.5737609267234802 67.0 11 -0.08896403759717941
-2.7893385887145996 2.709672212600708 -0.4774841368198395 49.0 4 -0.08896173536777496
-3.3481104373931885 3.2524850368499756 0.7393093705177307 66.0 12 -0.08895942568778992
-3.3362886905670166 3.2432665824890137 0.9044346809387207 59.0 13 -0.08895482122898102
-2.7892556190490723 2.712433099746704 -0.20390090346336365 61.0 6 -0.08895251899957657
-3.3202784061431885 3.2299559116363525 1.0694173574447632 55.0 14 -0.08895020931959152
-2.664616107940674 2.592129707336426 -0.06488804519176483 11.0 7 -0.08894790709018707
-3.306173324584961 3.2173595428466797 1.2361197471618652 102.0 15 -0.08894560486078262
-1.920448899269104 1.874086618423462 -0.7189993262290955 3.0 0 -0.08892486989498138
-2.7621541023254395 2.69547176361084 0.06736628711223602 7.0 8 -0.08892256766557693
-2.597882032394409 2.5360519886016846 -0.838167667388916 7.0 1 -0.08892025798559189
-2.803574323654175 2.737804412841797 0.205366313457489 1.0 9 -0.08891795575618744
-1.7526524066925049 1.7121341228485107 -0.4762592613697052 63.0 2 -0.08891565352678299
-3.365772008895874 3.289109468460083 0.4117237329483032 55.0 10 -0.08891335129737854
-1.845116138458252 1.8030897378921509 -0.4086068868637085 33.0 3 -0.0889110416173935
-3.3613898754119873 3.2859740257263184 0.5771732330322266 67.0 11 -0.08890873938798904
-2.7860140800476074 2.724459648132324 -0.47845906019210815 19.0 4 -0.0889064371585846
-3.349445343017578 3.2765848636627197 0.7421252131462097 65.0 12 -0.08890413492918015
-2.7639734745025635 2.7047924995422363 -0.33833858370780945 42.0 5 -0.0889018252491951
-3.343757152557373 3.2721621990203857 0.9093957543373108 60.0 13 -0.08889952301979065
-2.7731094360351562 2.71468186378479 -0.20337754487991333 64.0 6 -0.0888972207903862
-3.323472023010254 3.2545833587646484 1.0739164352416992 55.0 14 -0.08889491856098175
-2.6469802856445312 2.5930192470550537 -0.0646786168217659 11.0 7 -0.0888926163315773
-3.3004417419433594 3.2342891693115234 1.2381904125213623 85.0 15 -0.08889030665159225
-1.921114206314087 1.8872137069702148 -0.7215875387191772 4.0 0 -0.08886957168579102
-2.7470226287841797 2.699491500854492 0.06722667068243027 7.0 8 -0.08886726945638657
-2.5959622859954834 2.5519356727600098 -0.8404171466827393 5.0 1 -0.08886496722698212
-2.7887825965881348 2.741485834121704 0.20494762063026428 1.0 9 -0.08886265754699707
-1.7483652830123901 1.7193129062652588 -0.476640909910202 70.0 2 -0.08886035531759262
-3.3647892475128174 3.3100335597991943 0.41294392943382263 52.0 10 -0.08885805308818817
-1.8317710161209106 1.8025916814804077 -0.407042533159256 32.0 3 -0.08885575085878372
-3.371119737625122 3.318575859069824 0.5808293223381042 74.0 11 -0.08885344117879868
-2.128687620162964 2.0962414741516113 -0.36682677268981934 1.0 4 -0.08885113894939423
-3.3582661151885986 3.3070783615112305 0.7465053796768188 63.0 12 -0.08884883671998978
-2.7649242877960205 2.723731279373169 -0.33955875039100647 55.0 5 -0.08884653449058533
-3.3462975025177 3.2975950241088867 0.9132118821144104 59.0 13 -0.08884423226118088
-2.759350061416626 2.7201383113861084 -0.20306353271007538 63.0 6 -0.08884192258119583
-3.328742027282715 3.2825846672058105 1.0793153047561646 52.0 14 -0.08883962035179138
-2.6639959812164307 2.627056360244751 -0.0653069019317627 12.0 7 -0.08883731812238693
-3.306201219558716 3.2614963054656982 1.2444019317626953 85.0 15 -0.08883501589298248
-1.911767840385437 1.8911917209625244 -0.7205522656440735 4.0 0 -0.08881427347660065
-2.726682662963867 2.697335720062256 0.06694743037223816 6.0 8 -0.0888119712471962
-2.5680930614471436 2.5413401126861572 -0.8341185450553894 5.0 1 -0.08880966901779175
-2.7706801891326904 2.7427725791931152 0.20431959629058838 1.0 9 -0.0888073667883873
-1.7367724180221558 1.7198799848556519 -0.4751144051551819 75.0 2 -0.08880506455898285
-3.3801074028015137 3.3483996391296387 0.41625580191612244 53.0 10 -0.0888027548789978
-1.828589916229248 1.8114365339279175 -0.40766826272010803 34.0 3 -0.08880045264959335
-3.361506223678589 3.3311338424682617 0.5810730457305908 72.0 11 -0.0887981504201889
-2.1245439052581787 2.106084108352661 -0.36731424927711487 2.0 4 -0.08879584819078445
-3.3621304035186768 3.3340811729431152 0.7499468922615051 58.0 12 -0.08879353851079941
-2.7426700592041016 2.7207369804382324 -0.3379899561405182 60.0 5 -0.08879123628139496
-3.3423140048980713 3.3155853748321533 0.9151199460029602 55.0 13 -0.08878893405199051
-2.7389729022979736 2.7180190086364746 -0.20222614705562592 61.0 6 -0.08878663182258606
-3.33858323097229 3.3141987323760986 1.0860637426376343 60.0 14 -0.08878432214260101
-2.6647424697875977 2.64620304107666 -0.06555124372243881 20.0 7 -0.08878201991319656
-3.3139848709106445 3.2920777797698975 1.251649022102356 84.0 15 -0.08877971768379211
-1.89864182472229 1.8907047510147095 -0.7179640531539917 2.0 0 -0.08875898271799088
-2.708750009536743 2.698369264602661 0.06673800200223923 7.0 8 -0.08875668048858643
-2.546783685684204 2.5379080772399902 -0.8300694227218628 3.0 1 -0.08875437080860138
-2.7582602500915527 2.7496073246002197 0.204110249876976 1.0 9 -0.08875206857919693
-1.7366217374801636 1.7311737537384033 -0.476640909910202 82.0 2 -0.08874976634979248
-3.3816826343536377 3.3722524642944336 0.4178246259689331 48.0 10 -0.08874746412038803
-1.827850103378296 1.8233884572982788 -0.40891972184181213 34.0 3 -0.08874515444040298
-3.3625035285949707 3.355468273162842 0.5832667350769043 64.0 11 -0.08874285221099854
-2.7269046306610107 2.72214937210083 -0.4730968475341797 11.0 4 -0.08874054998159409
-3.3658485412597656 3.3611502647399902 0.753388524055481 64.0 12 -0.08873824775218964
-2.7153050899505615 2.711514949798584 -0.3357239067554474 44.0 5 -0.08873593807220459
-3.3390533924102783 3.3355579376220703 0.9174096584320068 49.0 13 -0.08873363584280014
-3.3325071334838867 3.33134388923645 1.0878634452819824 60.0 14 -0.08872903138399124
-2.673870801925659 2.673870325088501 -0.06600499898195267 38.0 7 -0.0887267217040062
-3.3188624382019043 3.3200206756591797 1.257860541343689 80.0 15 -0.08872441947460175
-1.9111273288726807 1.91647207736969 -0.725210964679718 1.0 0 -0.0887036845088005
-2.699315071105957 2.7078075408935547 0.06673800200223923 6.0 8 -0.08870138227939606
-2.74582576751709 2.7563893795013428 0.20390090346336365 1.0 9 -0.08869677037000656
-1.7222543954849243 1.7288802862167358 -0.474351167678833 82.0 2 -0.08869446814060211
-3.3867616653442383 3.4009766578674316 0.4199163615703583 47.0 10 -0.08869216591119766
-1.8242613077163696 1.8325576782226562 -0.4095454514026642 34.0 3 -0.08868986368179321
-3.3661725521087646 3.3826632499694824 0.5859478116035461 68.0 11 -0.08868755400180817
-2.7019855976104736 2.7161707878112793 -0.47041571140289307 45.0 4 -0.08868525177240372
-3.3610596656799316 3.379882574081421 0.7549527883529663 58.0 12 -0.08868294954299927
-2.6355786323547363 2.650338649749756 -0.32700833678245544 27.0 5 -0.08868064731359482
-3.3495352268218994 3.3694710731506348 0.9235155582427979 59.0 13 -0.08867833763360977
-2.5946338176727295 2.610987663269043 -0.1929103434085846 1.0 6 -0.08867603540420532
-3.33459210395813 3.356781482696533 1.092362403869629 56.0 14 -0.08867373317480087
-2.663112163543701 2.6817691326141357 -0.06597010046243668 38.0 7 -0.08867143094539642
-3.323585271835327 3.3480379581451416 1.264072299003601 78.0 15 -0.08866912126541138
-1.8745211362838745 1.8929321765899658 -0.7138229608535767 1.0 0 -0.08864838629961014
-2.68703293800354 2.7143714427948 0.06666819006204605 7.0 8 -0.08864608407020569
-1.9053200483322144 1.9253772497177124 -0.6253640055656433 3.0 1 -0.08864378184080124
-2.710904836654663 2.740398645401001 0.20201681554317474 1.0 9 -0.08864147961139679
-1.717590093612671 1.7362769842147827 -0.47473281621932983 86.0 2 -0.08863916993141174
-3.38887882232666 3.4269449710845947 0.4216594696044922 47.0 10 -0.0886368677020073
-1.828962802886963 1.8501534461975098 -0.41204842925071716 36.0 3 -0.08863456547260284
-3.3780646324157715 3.418396472930908 0.5900914072990417 62.0 11 -0.0886322632431984
-2.6938836574554443 2.7269973754882812 -0.47065943479537964 33.0 4 -0.08862995356321335
-3.3700602054595947 3.4126782417297363 0.7596458792686462 64.0 12 -0.0886276513338089
-2.583855390548706 2.6174445152282715 -0.3217789828777313 2.0 5 -0.08862534910440445
-3.3570621013641357 3.400702714920044 0.92885822057724 53.0 13 -0.088623046875
-3.3392767906188965 3.3850486278533936 1.0977611541748047 56.0 14 -0.0886184349656105
-2.660755157470703 2.6981678009033203 -0.06614462286233902 34.0 7 -0.08861613273620605
-3.3173038959503174 3.365121603012085 1.2661428451538086 82.0 15 -0.0886138305068016
-1.8675706386566162 1.8997899293899536 -0.7138229608535767 1.0 0 -0.08859309554100037
-2.660719394683838 2.7066218852996826 0.06624933332204819 7.0 8 -0.08859078586101532
-1.8958556652069092 1.9292361736297607 -0.6244641542434692 2.0 1 -0.08858848363161087
-2.6719298362731934 2.719924211502075 0.1998187005519867 5.0 9 -0.08858618140220642
-1.7112147808074951 1.742560625076294 -0.47473281621932983 86.0 2 -0.08858387917280197
-3.381877899169922 3.445030689239502 0.4223567247390747 48.0 10 -0.08858156949281693
-1.8166356086730957 1.8512046337127686 -0.41079697012901306 34.0 3 -0.08857926726341248
-3.3814070224761963 3.4457523822784424 0.5927725434303284 58.0 11 -0.08857696503400803
-2.6843483448028564 2.736384153366089 -0.47065943479537964 12.0 4 -0.08857466280460358
-3.3608932495117188 3.427241802215576 0.7602715492248535 65.0 12 -0.08857235312461853
-3.3514461517333984 3.4199955463409424 0.9307663440704346 57.0 13 -0.08856774866580963
-2.615018129348755 2.669436454772949 -0.19584116339683533 1.0 6 -0.08856544643640518
-3.343209981918335 3.4139721393585205 1.10316002368927 56.0 14 -0.08856314420700073
-2.6555182933807373 2.7117247581481934 -0.06624933332204819 34.0 7 -0.08856083452701569
-3.31634783744812 3.387725353240967 1.2702839374542236 82.0 15 -0.08855853229761124
-1.8717230558395386 1.9173568487167358 -0.7179640531539917 1.0 0 -0.08853779733181
-2.6298317909240723 2.6948883533477783 0.06572576612234116 19.0 8 -0.08853549510240555
-2.52834153175354 2.591792106628418 -0.835918128490448 2.0 1 -0.0885331854224205
-2.6540510654449463 2.720656394958496 0.1991906762123108 25.0 9 -0.08853088319301605
-1.7023799419403076 1.7457125186920166 -0.47396957874298096 89.0 2 -0.0885285809636116
-3.386521816253662 3.4739341735839844 0.4244484603404999 52.0 10 -0.08852627873420715
-1.8046478033065796 1.8518755435943604 -0.4095454514026642 32.0 3 -0.0885239690542221
-3.3729095458984375 3.4623892307281494 0.5935037732124329 60.0 11 -0.08852166682481766
-2.850186824798584 2.9268198013305664 -0.5016142725944519 20.0 4 -0.08851936459541321
-3.3737168312072754 3.464425802230835 0.7659032344818115 63.0 12 -0.08851706236600876
-3.347702980041504 3.440115213394165 0.9330560564994812 55.0 13 -0.08851245045661926
-2.7491297721862793 2.8260037899017334 -0.20662237703800201 8.0 6 -0.08851014822721481
-3.351651191711426 3.4465770721435547 1.1099085807800293 52.0 14 -0.08850784599781036
-2.6446423530578613 2.7195444107055664 -0.0662144273519516 13.0 7 -0.08850554376840591
-3.3206608295440674 3.415903329849243 1.2764955759048462 84.0 15 -0.08850323408842087
-1.8771209716796875 1.9363617897033691 -0.722622811794281 4.0 0 -0.08848249912261963
-2.6361911296844482 2.7193877696990967 0.06610971689224243 7.0 8 -0.08848019689321518
-2.4980344772338867 2.5777711868286133 -0.8287197351455688 3.0 1 -0.08847789466381073
-2.647318124771118 2.7327728271484375 0.19940000772476196 7.0 9 -0.08847559243440628
-1.6990077495574951 1.7544647455215454 -0.47473281621932983 86.0 2 -0.08847328275442123
-3.393775463104248 3.5057754516601562 0.4268888235092163 52.0 10 -0.08847098052501678
-1.8067405223846436 1.8663657903671265 -0.4114226996898651 34.0 3 -0.08846867829561234
-3.371072292327881 3.4835407733917236 0.5952099561691284 56.0 11 -0.08846637606620789
-2.863929033279419 2.96051025390625 -0.5057578086853027 35.0 4 -0.08846406638622284
-3.378081798553467 3.4932212829589844 0.7696576118469238 66.0 12 -0.08846176415681839
-2.5424563884735107 2.6300337314605713 -0.3200358748435974 1.0 5 -0.08845946192741394
-3.355379819869995 3.470959186553955 0.9383986592292786 57.0 13 -0.08845715969800949
-2.8466122150421143 2.9456942081451416 -0.21468211710453033 41.0 6 -0.08845485001802444
-3.348327159881592 3.4660820960998535 1.1126079559326172 55.0 14 -0.08845254778862
-2.6698601245880127 2.764721393585205 -0.06708704680204391 24.0 7 -0.08845024555921555
-3.3248183727264404 3.4441518783569336 1.2827072143554688 85.0 15 -0.0884479433298111
-1.8666692972183228 1.9384015798568726 -0.721069872379303 4.0 0 -0.08842720836400986
-3.3395204544067383 3.4690632820129395 0.08405079692602158 39.0 8 -0.08842489868402481
-2.490372896194458 2.587878942489624 -0.8291696310043335 3.0 1 -0.08842259645462036
-3.4179420471191406 3.551764965057373 0.2583303153514862 27.0 9 -0.08842029422521591
-1.687735915184021 1.754429578781128 -0.4732063114643097 89.0 2 -0.08841799199581146
-3.3959412574768066 3.5313713550567627 0.4286319315433502 48.0 10 -0.08841568231582642
-1.8084286451339722 1.881205439567566 -0.41329991817474365 34.0 3 -0.08841338008642197
-3.382275342941284 3.519618034362793 0.5993534922599792 64.0 11 -0.08841107785701752
-2.861828565597534 2.979078531265259 -0.5072202682495117 34.0 4 -0.08840877562761307
-3.3787951469421387 3.5172252655029297 0.7724734544754028 61.0 12 -0.08840646594762802
-2.543381690979004 2.6485095024108887 -0.32125604152679443 10.0 5 -0.08840416371822357
-3.3595597743988037 3.499645709991455 0.9429781436920166 55.0 13 -0.08840186148881912
-2.85567307472229 2.97578763961792 -0.2161475121974945 42.0 6 -0.08839955925941467
-3.3496971130371094 3.4918127059936523 1.1171070337295532 55.0 14 -0.08839724957942963
-2.6620612144470215 2.775002956390381 -0.0671219527721405 23.0 7 -0.08839494735002518
-3.337446928024292 3.4802565574645996 1.2920247316360474 85.0 15 -0.08839264512062073
-1.8625619411468506 1.9476981163024902 -0.7221052050590515 4.0 0 -0.08837191015481949
-3.3362903594970703 3.4887893199920654 0.08426021784543991 35.0 8 -0.08836960792541504
-2.4858171939849854 2.600349187850952 -0.8305193185806274 3.0 1 -0.08836729824542999
-3.4220809936523438 3.5810015201568604 0.259586364030838 29.0 9 -0.08836499601602554
-1.6775331497192383 1.7560516595840454 -0.47206148505210876 93.0 2 -0.0883626937866211
-3.400106191635132 3.560495138168335 0.4307236969470978 48.0 10 -0.08836039155721664
-1.8035444021224976 1.8886207342147827 -0.4136127531528473 33.0 3 -0.0883580818772316
-3.392516613006592 3.5537891387939453 0.6032533049583435 62.0 11 -0.08835577964782715
-2.8697500228881836 3.0072221755981445 -0.5103888511657715 33.0 4 -0.0883534774184227
-3.3801324367523193 3.5432915687561035 0.7756021618843079 61.0 12 -0.08835117518901825
-2.534121036529541 2.6573715209960938 -0.32125604152679443 11.0 5 -0.0883488655090332
-3.373678207397461 3.537761926651001 0.9502288103103638 50.0 13 -0.08834656327962875
-2.8623266220092773 3.0025887489318848 -0.2174035906791687 38.0 6 -0.0883442610502243
-3.351544141769409 3.5170083045959473 1.1216059923171997 52.0 14 -0.08834195882081985
-2.6689107418060303 2.801652431488037 -0.06754080951213837 23.0 7 -0.0883396565914154
-3.3386003971099854 3.5058751106262207 1.2972010374069214 72.0 15 -0.08833734691143036
-1.862403154373169 1.9611921310424805 -0.7246933579444885 3.0 0 -0.08825969696044922
-3.3358724117279053 3.5140459537506104 0.08457436412572861 36.0 8 -0.08825739473104477
-2.4937076568603516 2.627819776535034 -0.8363680839538574 3.0 1 -0.08825509250164032
-3.422677993774414 3.608011245727539 0.26063308119773865 28.0 9 -0.08825278282165527
-1.6740953922271729 1.7647452354431152 -0.47282472252845764 93.0 2 -0.08825048059225082
-3.398625373840332 3.583906650543213 0.43211814761161804 50.0 10 -0.08824817836284637
-1.79389226436615 1.8923513889312744 -0.41298702359199524 37.0 3 -0.08824587613344193
-3.3958539962768555 3.5834903717041016 0.6061781644821167 60.0 11 -0.08824356645345688
-2.880552291870117 3.0407772064208984 -0.5142886638641357 31.0 4 -0.08824126422405243
-3.3834218978881836 3.5728683471679688 0.7793565988540649 57.0 12 -0.08823896199464798
-2.524829387664795 2.666201114654541 -0.32125604152679443 10.0 5 -0.08823665976524353
-3.3687870502471924 3.5586578845977783 0.9525185227394104 46.0 13 -0.08823435008525848
-2.8691487312316895 3.031918525695801 -0.2187643200159073 35.0 6 -0.08823204785585403
-3.3560409545898438 3.547672748565674 1.1274547576904297 50.0 14 -0.08822974562644958
-2.670989990234375 2.8244922161102295 -0.06785495579242706 24.0 7 -0.08822744339704514
-3.3389995098114014 3.5321271419525146 1.302377462387085 75.0 15 -0.08822513371706009
-1.8595225811004639 1.9718972444534302 -0.7262462973594666 4.0 0 -0.08820439875125885
-3.337301731109619 3.5402207374572754 0.0849234089255333 38.0 8 -0.0882020965218544
-2.4765005111694336 2.6279988288879395 -0.8336686491966248 4.0 1 -0.08819979429244995
-3.4237585067749023 3.6344733238220215 0.2616797983646393 28.0 9 -0.0881974920630455
-1.6652331352233887 1.7677196264266968 -0.47206148505210876 97.0 2 -0.08819518238306046
-3.4079482555389404 3.618957281112671 0.43490713834762573 47.0 10 -0.088192880153656
-1.7805057764053345 1.891409993171692 -0.4114226996898651 33.0 3 -0.08819057792425156
-3.3887670040130615 3.6011040210723877 0.6071531176567078 60.0 11 -0.0881882756948471
-2.883521318435669 3.0652735233306885 -0.5167260766029358 31.0 4 -0.08818596601486206
-3.3898749351501465 3.6048035621643066 0.7837367653846741 52.0 12 -0.08818366378545761
-2.5209667682647705 2.6808040142059326 -0.32195332646369934 10.0 5 -0.08818136155605316
-3.365758180618286 3.5804078578948975 0.9551898241043091 42.0 13 -0.08817905932664871
-2.8653862476348877 3.049192428588867 -0.2192876636981964 34.0 6 -0.08817674964666367
-3.3649849891662598 3.5820913314819336 1.1346532106399536 56.0 14 -0.08817444741725922
-2.6843857765197754 2.85857892036438 -0.06844833493232727 23.0 7 -0.08817214518785477
-3.3425161838531494 3.5606629848480225 1.3085891008377075 72.0 15 -0.08816984295845032
-1.865832805633545 1.9924771785736084 -0.7314226627349854 4.0 0 -0.08814910799264908
-3.3440561294555664 3.572286605834961 0.08541207760572433 38.0 8 -0.08814679831266403
-2.4593236446380615 2.628089666366577 -0.8309692740440369 4.0 1 -0.08814449608325958
-3.4233312606811523 3.6595301628112793 0.26262184977531433 30.0 9 -0.08814219385385513
-1.6617348194122314 1.776389241218567 -0.47282472252845764 97.0 2 -0.08813989162445068
-3.4157073497772217 3.6526598930358887 0.4375218451023102 41.0 10 -0.08813758194446564
-1.7833356857299805 1.907714605331421 -0.4136127531528473 33.0 3 -0.08813527971506119
-3.389728307723999 3.627415895462036 0.6095905303955078 65.0 11 -0.08813297748565674
-2.8836445808410645 3.0869252681732178 -0.5186759233474731 33.0 4 -0.08813067525625229
-3.39884352684021 3.639713764190674 0.7887426614761353 57.0 12 -0.08812836557626724
-2.5143139362335205 2.6924991607666016 -0.3223019242286682 11.0 5 -0.08812606334686279
-3.370654821395874 3.6107921600341797 0.9601508975028992 46.0 13 -0.08812376111745834
-2.8697140216827393 3.0752387046813965 -0.22043907642364502 20.0 6 -0.0881214588880539
-3.359107494354248 3.6009397506713867 1.1369026899337769 55.0 14 -0.08811915665864944
-2.6812093257904053 2.8752448558807373 -0.06862286478281021 24.0 7 -0.0881168469786644
-3.348508358001709 3.5920917987823486 1.3158360719680786 66.0 15 -0.08811454474925995
-1.8641279935836792 2.0046374797821045 -0.7334932088851929 3.0 0 -0.08809380978345871
-3.3533504009246826 3.6073713302612305 0.08597055077552795 38.0 8 -0.08809150755405426
-2.4660534858703613 2.6537888050079346 -0.8363680839538574 4.0 1 -0.08808919787406921
-3.4295654296875 3.6919445991516113 0.2640872597694397 30.0 9 -0.08808689564466476
-1.6501787900924683 1.776425838470459 -0.4712982177734375 93.0 2 -0.08808459341526031
-3.4205617904663086 3.6835391521453857 0.4397878348827362 42.0 10 -0.08808229118585587
-1.7833853960037231 1.9211667776107788 -0.4151771068572998 36.0 3 -0.08807998150587082
-3.3986501693725586 3.662508010864258 0.6134903430938721 63.0 11 -0.08807767927646637
-2.890402317047119 3.1158907413482666 -0.5218445658683777 12.0 4 -0.08807537704706192
-3.388803482055664 3.6544525623321533 0.7893683910369873 56.0 12 -0.08807307481765747
-2.5184473991394043 2.7158689498901367 -0.3240450322628021 10.0 5 -0.08807077258825302
-3.3780500888824463 3.6441335678100586 0.9658752083778381 53.0 13 -0.08806846290826797
-2.8548901081085205 3.080841541290283 -0.22012506425380707 2.0 6 -0.08806616067886353
-3.3637328147888184 3.6312294006347656 1.1427514553070068 56.0 14 -0.08806385844945908
-2.677949905395508 2.89192271232605 -0.06879738718271255 24.0 7 -0.08806155622005463
-3.351698160171509 3.620770215988159 1.3220477104187012 68.0 15 -0.08805924654006958
-1.9043012857437134 2.0622262954711914 -0.7521281838417053 2.0 0 -0.08803851157426834
-3.359727382659912 3.6396262645721436 0.08645922690629959 38.0 8 -0.08803620934486389
-2.4554531574249268 2.6609485149383545 -0.835918128490448 4.0 1 -0.08803390711545944
-3.4349122047424316 3.7223780155181885 0.2654479742050171 33.0 9 -0.0880315974354744
-1.6386436223983765 1.7764025926589966 -0.46977177262306213 82.0 2 -0.08802929520606995
-3.414436101913452 3.7027807235717773 0.44065943360328674 41.0 10 -0.0880269929766655
-1.780684471130371 1.931738018989563 -0.41611573100090027 33.0 3 -0.08802469074726105
-3.4046783447265625 3.6947855949401855 0.6169026494026184 57.0 11 -0.0880223885178566
-3.387373208999634 3.677293539047241 0.7918713688850403 55.0 12 -0.0880177766084671
-2.5022027492523193 2.717315912246704 -0.32317349314689636 8.0 5 -0.08801547437906265
-3.3865840435028076 3.679013252258301 0.9719811081886292 53.0 13 -0.0880131721496582
-2.3004496097564697 2.499967098236084 -0.17804694175720215 1.0 6 -0.08801086246967316
-3.361591100692749 3.6544227600097656 1.146350622177124 56.0 14 -0.08800856024026871
-2.6805293560028076 2.9140331745147705 -0.06911153346300125 22.0 7 -0.08800625801086426
-3.344902992248535 3.6375529766082764 1.3241182565689087 72.0 15 -0.08800395578145981
-2.0851027965545654 2.2738959789276123 -0.8266680836677551 4.0 0 -0.08798321336507797
-3.3543968200683594 3.658116579055786 0.08663374930620193 39.0 8 -0.08798091113567352
-2.44661545753479 2.669076681137085 -0.835918128490448 4.0 1 -0.08797860890626907
-3.4434869289398193 3.757905960083008 0.267122745513916 37.0 9 -0.08797630667686462
-1.6377371549606323 1.7879024744033813 -0.4712982177734375 68.0 2 -0.08797400444746017
-3.4122543334960938 3.7264318466186523 0.4420539140701294 41.0 10 -0.08797169476747513
-1.7702670097351074 1.9332613945007324 -0.4151771068572998 36.0 3 -0.08796939253807068
-3.408491373062134 3.7236270904541016 0.6198275685310364 57.0 11 -0.08796709030866623
-1.6362463235855103 1.7881537675857544 -0.2976049780845642 2.0 4 -0.08796478807926178
-3.401182174682617 3.7182469367980957 0.7981287240982056 57.0 12 -0.08796247839927673
-3.3849642276763916 3.7018141746520996 0.9750339984893799 57.0 13 -0.08795787394046783
-2.302926778793335 2.5193755626678467 -0.17888431251049042 2.0 6 -0.08795557171106339
-3.379688262939453 3.6986377239227295 1.1566983461380005 52.0 14 -0.08795326203107834
-2.6851768493652344 2.9396121501922607 -0.06949548423290253 24.0 7 -0.08795095980167389
-3.3478169441223145 3.6663260459899902 1.3303300142288208 72.0 15 -0.08794865757226944
-2.11527681350708 2.3222150802612305 -0.841679573059082 4.0 0 -0.0879279226064682
-3.3537240028381348 3.6831107139587402 0.08694788813591003 36.0 8 -0.08792562037706375
-2.4333484172821045 2.6732773780822754 -0.8345685005187988 3.0 1 -0.0879233106970787
-3.4478228092193604 3.789107322692871 0.2684834897518158 38.0 9 -0.08792100846767426
-1.626513957977295 1.7875152826309204 -0.46977177262306213 52.0 2 -0.0879187062382698
-3.419987916946411 3.7598350048065186 0.44466859102249146 47.0 10 -0.08791640400886536
-1.756862998008728 1.9321213960647583 -0.4136127531528473 31.0 3 -0.08791409432888031
-3.4061543941497803 3.747253656387329 0.6217774152755737 57.0 11 -0.08791179209947586
-1.6219847202301025 1.7850393056869507 -0.2961425185203552 2.0 4 -0.08790948987007141
-3.3988070487976074 3.7417938709259033 0.8006316423416138 56.0 12 -0.08790718764066696
-1.6504077911376953 1.816956877708435 -0.21475175023078918 1.0 5 -0.08790487796068192
-3.3799402713775635 3.7223284244537354 0.9773237109184265 55.0 13 -0.08790257573127747
-2.2780098915100098 2.5096523761749268 -0.17762824892997742 3.0 6 -0.08790027350187302
-3.3785436153411865 3.723400831222534 1.1607475280761719 49.0 14 -0.08789797127246857
-2.6923649311065674 2.9682226181030273 -0.06994924694299698 24.0 7 -0.08789566159248352
-3.3505702018737793 3.6951630115509033 1.3365415334701538 75.0 15 -0.08789335936307907
-2.1343722343444824 2.3596718311309814 -0.8525499701499939 5.0 0 -0.08787262439727783
-3.362306594848633 3.7185263633728027 0.08750636875629425 33.0 8 -0.08787032216787338
-2.4266157150268555 2.6846463680267334 -0.8354682922363281 3.0 1 -0.08786801993846893
-3.4452877044677734 3.8129751682281494 0.26932087540626526 38.0 9 -0.08786571025848389
-1.6413240432739258 1.8164891004562378 -0.47587767243385315 53.0 2 -0.08786340802907944
-3.4228694438934326 3.789492130279541 0.446760356426239 45.0 10 -0.08786110579967499
-3.401033639907837 3.7679624557495117 0.6232398748397827 63.0 11 -0.08785649389028549
-3.412186861038208 3.782972812652588 0.8068891167640686 53.0 12 -0.08785188943147659
-1.6106938123703003 1.7857199907302856 -0.21039395034313202 3.0 5 -0.08784958720207214
-3.385331630706787 3.7545166015625 0.9826663732528687 53.0 13 -0.0878472775220871
-2.2652242183685303 2.5131382942199707 -0.17731423676013947 2.0 6 -0.08784497529268265
-3.378570556640625 3.7496490478515625 1.165246605873108 49.0 14 -0.0878426730632782
-2.702061891555786 2.999889850616455 -0.07047281414270401 26.0 7 -0.08784037083387375
-3.363503932952881 3.7355504035949707 1.346894383430481 72.0 15 -0.0878380686044693
-2.1506502628326416 2.3944144248962402 -0.862385094165802 6.0 0 -0.08781732618808746
-3.369344472885132 3.7525599002838135 0.08802993595600128 32.0 8 -0.08781502395868301
-2.4211347103118896 2.697451591491699 -0.8368179798126221 3.0 1 -0.08781272172927856
-3.4479634761810303 3.8428163528442383 0.27057692408561707 35.0 9 -0.08781041949987411
-1.636284589767456 1.823668122291565 -0.4762592613697052 15.0 2 -0.08780810981988907
-3.4362261295318604 3.8310818672180176 0.45024657249450684 43.0 10 -0.08780580759048462
-1.5890427827835083 1.7722612619400024 -0.3770070970058441 2.0 3 -0.08780350536108017
-3.409060001373291 3.803462266921997 0.627139687538147 63.0 11 -0.08780120313167572
-3.4068682193756104 3.8036887645721436 0.80876624584198 51.0 12 -0.08779659122228622
-1.613755702972412 1.8017206192016602 -0.21161414682865143 1.0 5 -0.08779428899288177
-3.391850233078003 3.788249969482422 0.9883906841278076 50.0 13 -0.08779198676347733
-3.3758561611175537 3.7730376720428467 1.168845772743225 49.0 14 -0.08778737485408783
-2.691572904586792 3.0093042850494385 -0.07047281414270401 26.0 7 -0.08778507262468338
-3.36847186088562 3.767429828643799 1.354141354560852 70.0 15 -0.08778277039527893
-2.1332778930664062 2.391815185546875 -0.8587616086006165 6.0 0 -0.08776203542947769
-3.3775177001953125 3.788179874420166 0.0885884165763855 39.0 8 -0.08775972574949265
-2.3961451053619385 2.6884284019470215 -0.8314191102981567 1.0 1 -0.0877574235200882
-3.454458236694336 3.877197265625 0.272146999835968 25.0 9 -0.08775512129068375
-1.6077065467834473 1.8044495582580566 -0.46977177262306213 1.0 2 -0.0877528190612793
-3.4334332942962646 3.8549554347991943 0.4516410529613495 43.0 10 -0.08775050938129425
-1.614372730255127 1.813205361366272 -0.3845159709453583 1.0 3 -0.0877482071518898
-3.4181978702545166 3.840547800064087 0.6312832832336426 61.0 11 -0.08774590492248535
-3.4027602672576904 3.8258891105651855 0.8109562993049622 54.0 12 -0.08774130046367645
-3.3916499614715576 3.81473970413208 0.9922068119049072 49.0 13 -0.08773668855428696
-1.5855435132980347 1.7839581966400146 -0.12508295476436615 1.0 6 -0.08773438632488251
-3.387258291244507 3.8124773502349854 1.177393913269043 52.0 14 -0.08773208409547806
-2.69566011428833 3.0351274013519287 -0.07085677236318588 27.0 7 -0.08772977441549301
-3.36556077003479 3.7907216548919678 1.3582823276519775 72.0 15 -0.08772747218608856
-2.127476930618286 2.402139902114868 -0.859796941280365 6.0 0 -0.08770673722028732
-3.3788557052612305 3.816415309906006 0.08897236734628677 45.0 8 -0.08770443499088287
-2.2782578468322754 2.574195623397827 -0.7936273813247681 1.0 1 -0.08770212531089783
-3.4011993408203125 3.8443570137023926 0.2690068483352661 15.0 9 -0.08769982308149338
-1.5935922861099243 1.801228642463684 -0.4674820601940155 1.0 2 -0.08769752085208893
-3.4265568256378174 3.8743789196014404 0.45251262187957764 41.0 10 -0.08769521862268448
-1.6211175918579102 1.8336286544799805 -0.3876446485519409 1.0 3 -0.08769291639328003
-3.421860456466675 3.871792793273926 0.6344518661499023 63.0 11 -0.08769060671329498
-3.408999443054199 3.8599534034729004 0.8156493902206421 53.0 12 -0.08768600225448608
-3.3939056396484375 3.844216823577881 0.9967862963676453 49.0 13 -0.08768139034509659
-1.5912013053894043 1.8029588460922241 -0.1260250061750412 3.0 6 -0.08767908811569214
-3.389399528503418 3.8418147563934326 1.1827927827835083 57.0 14 -0.08767678588628769
-2.682403802871704 3.0415191650390625 -0.0707869604229927 12.0 7 -0.08767448365688324
-3.365083932876587 3.8169379234313965 1.3634587526321411 70.0 15 -0.0876721739768982
-2.130561351776123 2.422607183456421 -0.8644556403160095 6.0 0 -0.08765143901109695
-3.378716230392456 3.8432044982910156 0.08932141214609146 70.0 8 -0.0876491367816925
-2.2872674465179443 2.602626323699951 -0.7999260425567627 1.0 1 -0.08764683455228806
-3.38907790184021 3.857705593109131 0.2691115140914917 56.0 9 -0.0876445323228836
-1.608027458190918 1.830378770828247 -0.4735879600048065 1.0 2 -0.08764222264289856
-3.43141770362854 3.9072744846343994 0.45495298504829407 38.0 10 -0.08763992041349411
-1.6147066354751587 1.8392767906188965 -0.3876446485519409 1.0 3 -0.08763761818408966
-3.421419382095337 3.8986334800720215 0.6368892788887024 55.0 11 -0.08763531595468521
-3.418948173522949 3.8985633850097656 0.8212810754776001 57.0 12 -0.08763070404529572
-3.3895263671875 3.8663735389709473 0.999457597732544 53.0 13 -0.08762609958648682
-1.638868808746338 1.8700872659683228 -0.13031654059886932 1.0 6 -0.08762378990650177
-3.400367021560669 3.8814730644226074 1.1913409233093262 60.0 14 -0.08762148767709732
-3.369555711746216 3.849010467529297 1.3707057237625122 67.0 15 -0.08761688321828842
-2.1271746158599854 2.435849666595459 -0.866526186466217 6.0 0 -0.08759614825248718
-3.3652801513671875 3.8549752235412598 0.08932141214609146 32.0 8 -0.08759383857250214
-2.372986078262329 2.7192461490631104 -0.8332187533378601 3.0 1 -0.08759153634309769
-3.3677139282226562 3.8604817390441895 0.2684834897518158 21.0 9 -0.08758923411369324
-3.4360904693603516 3.940251588821411 0.4573933184146881 39.0 10 -0.08758462220430374
-3.418222665786743 3.92252516746521 0.6388391256332397 55.0 11 -0.08758001774549484
-1.683342456817627 1.9323735237121582 -0.31466665863990784 1.0 4 -0.0875777155160904
-3.419588565826416 3.9268605709075928 0.8247225880622864 59.0 12 -0.08757540583610535
-3.397923231124878 3.9033548831939697 1.005945086479187 50.0 13 -0.08757080137729645
-1.6323305368423462 1.8757970333099365 -0.13031654059886932 1.0 6 -0.087568499147892
-3.3919131755828857 3.899200201034546 1.1931405067443848 56.0 14 -0.08756618946790695
-1.587740182876587 1.8258416652679443 -0.04223482310771942 1.0 7 -0.0875638872385025
-3.373842239379883 3.881161689758301 1.3779526948928833 68.0 15 -0.08756158500909805
-2.121190309524536 2.4461796283721924 -0.8675615191459656 6.0 0 -0.08754085004329681
-3.3531136512756348 3.8682103157043457 0.08935632556676865 7.0 8 -0.08753854781389236
-2.3775174617767334 2.743713140487671 -0.838167667388916 4.0 1 -0.08753623813390732
-3.354217529296875 3.8722140789031982 0.2684834897518158 28.0 9 -0.08753393590450287
-3.443182945251465 3.976320505142212 0.4601823091506958 37.0 10 -0.08752933144569397
-3.422694683074951 3.955448865890503 0.6422514915466309 56.0 11 -0.08752471953630447
-3.417489528656006 3.9522204399108887 0.8275384306907654 56.0 12 -0.08752011507749557
-3.406102418899536 3.940441608428955 1.01243257522583 57.0 13 -0.08751550316810608
-3.393568515777588 3.9287123680114746 1.1985392570495605 56.0 14 -0.08751089870929718
-1.5552185773849487 1.8011027574539185 -0.04153672605752945 2.0 7 -0.08750859647989273
-3.377946138381958 3.91338849067688 1.3851995468139648 68.0 15 -0.08750628679990768
-2.1038148403167725 2.4433212280273438 -0.8639379739761353 6.0 0 -0.08748555183410645
-2.369196653366089 2.7534728050231934 -0.8386175632476807 3.0 1 -0.08748094737529755
-3.438361406326294 3.9974634647369385 0.27633386850357056 6.0 9 -0.0874786376953125
-3.450065851211548 4.012486934661865 0.4629712998867035 38.0 10 -0.0874740332365036
-3.4321529865264893 3.994473695755005 0.646638810634613 56.0 11 -0.0874694213271141
-1.7991538047790527 2.0946648120880127 -0.3390405476093292 1.0 4 -0.08746711909770966
-3.419114828109741 3.9821107387542725 0.8312928080558777 53.0 12 -0.0874648168683052
-3.408950090408325 3.9716744422912598 1.0173935890197754 50.0 13 -0.08746021240949631
-1.6842236518859863 1.9629359245300293 -0.1355501413345337 1.0 6 -0.08745790272951126
-3.4039392471313477 3.9686386585235596 1.2070873975753784 47.0 14 -0.08745560050010681
-1.6192097663879395 1.8884966373443604 -0.04342158883810043 1.0 7 -0.08745329827070236
-3.3692946434020996 3.9310221672058105 1.3872700929641724 75.0 15 -0.08745099604129791
-2.092761754989624 2.44771409034729 -0.8629027009010315 6.0 0 -0.08743025362491608
-2.377293586730957 2.78246808052063 -0.8449162244796753 3.0 1 -0.08742564916610718
-3.4503281116485596 4.039816379547119 0.2784273028373718 6.0 9 -0.08742334693670273
-3.4489760398864746 4.0396575927734375 0.4647144079208374 38.0 10 -0.08741873502731323
-3.438802719116211 4.030593395233154 0.6505386233329773 56.0 11 -0.08741413056850433
-1.7918314933776855 2.1009318828582764 -0.3390405476093292 1.0 4 -0.08741182833909988
-3.4257001876831055 4.018072128295898 0.8362987637519836 51.0 12 -0.08740951865911484
-3.407799005508423 3.998492479324341 1.0212098360061646 49.0 13 -0.08740491420030594
-1.7421247959136963 2.044818162918091 -0.14078372716903687 1.0 6 -0.08740261197090149
-3.4001729488372803 3.9923665523529053 1.2106866836547852 43.0 14 -0.08740030229091644
-3.3755860328674316 3.9662973880767822 1.3955522775650024 73.0 15 -0.08739569783210754
-2.08170485496521 2.4520583152770996 -0.8618674278259277 6.0 0 -0.0873749628663063
-1.546228289604187 1.8219600915908813 0.04171125218272209 2.0 8 -0.08737266063690186
-2.3549587726593018 2.7758898735046387 -0.8404171466827393 3.0 1 -0.08737035095691681
-3.445248603820801 4.062497615814209 0.2791600227355957 5.0 9 -0.08736804872751236
-2.3377254009246826 2.7565512657165527 -0.7025587558746338 1.0 2 -0.08736574649810791
-3.454179286956787 4.074469566345215 0.46732911467552185 36.0 10 -0.08736344426870346
-1.6564345359802246 1.9545830488204956 -0.4057910442352295 1.0 3 -0.08736113458871841
-3.4349780082702637 4.054688930511475 0.6524885296821594 56.0 11 -0.08735883235931396
-1.8152756690979004 2.143531322479248 -0.3448902666568756 1.0 4 -0.08735653012990952
-3.4333503246307373 4.055636405944824 0.8416175246238708 49.0 12 -0.08735422790050507
-3.409040689468384 4.028346538543701 1.0257892608642578 46.0 13 -0.08734961599111557
-1.7530351877212524 2.072234869003296 -0.14224915206432343 1.0 6 -0.08734731376171112
-3.408867359161377 4.030993938446045 1.2187849283218384 47.0 14 -0.08734501153230667
-3.384164810180664 4.004617214202881 1.4048699140548706 70.0 15 -0.08734039962291718
-2.080604314804077 2.4681718349456787 -0.8649733066558838 6.0 0 -0.08731966465711594
-1.561765432357788 1.853341817855835 0.0423046313226223 1.0 8 -0.08731736242771149
-2.3452553749084473 2.784092664718628 -0.8404171466827393 3.0 1 -0.08731506019830704
-3.4336209297180176 4.077553749084473 0.2793693542480469 3.0 9 -0.08731275051832199
-3.4578990936279297 4.107840538024902 0.4697694480419159 32.0 10 -0.08730814605951309
-1.6241649389266968 1.9301239252090454 -0.3995336890220642 1.0 3 -0.08730584383010864
-3.438694715499878 4.087921142578125 0.6559008955955505 58.0 11 -0.0873035341501236
-1.8793264627456665 2.2349376678466797 -0.3585396409034729 1.0 4 -0.08730123192071915
-3.440781593322754 4.093301773071289 0.8469362854957581 52.0 12 -0.0872989296913147
-3.4139041900634766 4.0627665519714355 1.0315134525299072 42.0 13 -0.0872943177819252
-1.793321132659912 2.1349265575408936 -0.14612199366092682 1.0 6 -0.08729201555252075
-3.404801845550537 4.054807186126709 1.2223842144012451 50.0 14 -0.0872897133231163
