# .PCD v0.7 - Point Cloud Data file format
VERSION 0.7
FIELDS x y z intensity ring time
SIZE 4 4 4 4 4 4
TYPE F F F F F F
COUNT 1 1 1 1 1 1
WIDTH 548
HEIGHT 1
VIEWPOINT 0 0 0 1 0 0 0
POINTS 548
DATA ascii
1.080145239830017 0.5413680076599121 -0.27893930673599243 60.0 1 -0.09477396309375763
1.0570428371429443 0.5297891497612 0.06196577474474907 59.0 9 -0.09477166086435318
1.0865296125411987 0.5443313121795654 -0.2362215518951416 63.0 2 -0.09476935863494873
1.0564316511154175 0.5290215611457825 0.10336671024560928 56.0 10 -0.09476705640554428
1.0792983770370483 0.54023677110672 -0.19116292893886566 58.0 3 -0.09476474672555923
1.0687237977981567 0.5347110629081726 0.1467307060956955 60.0 11 -0.09476244449615479
1.070499062538147 0.5355992913246155 -0.14697444438934326 52.0 4 -0.09476014226675034
2.9663808345794678 1.4835106134414673 0.5253069996833801 60.0 12 -0.09475784003734589
1.071057677268982 0.5354107618331909 -0.10476119816303253 61.0 5 -0.09475553035736084
2.9697651863098145 1.4839093685150146 0.6453160643577576 57.0 13 -0.09475322812795639
1.0720758438110352 0.5354521870613098 -0.06280315667390823 79.0 6 -0.09475092589855194
2.967244863510132 1.4820010662078857 0.7657334208488464 63.0 14 -0.09474862366914749
1.071688175201416 0.535024881362915 -0.02090798318386078 83.0 7 -0.09474631398916245
2.973155975341797 1.483658790588379 0.8903375267982483 72.0 15 -0.094744011759758
1.117342233657837 0.5558695197105408 -0.3343942165374756 43.0 0 -0.09472327679395676
1.0528312921524048 0.5235466361045837 0.020524028688669205 75.0 8 -0.09472097456455231
1.085424780845642 0.5395177006721497 -0.2798391282558441 61.0 1 -0.09471867233514786
1.0552170276641846 0.524502694606781 0.0617564357817173 61.0 9 -0.09471636265516281
1.0812960863113403 0.5372307896614075 -0.23469506204128265 61.0 2 -0.09471406042575836
1.0617488622665405 0.5272879600524902 0.10371533036231995 54.0 10 -0.09471175819635391
1.0846229791641235 0.5384110808372498 -0.1917886734008789 60.0 3 -0.09470945596694946
1.077604055404663 0.5346931219100952 0.14770564436912537 60.0 11 -0.09470714628696442
1.0722694396972656 0.5320461392402649 -0.14697444438934326 52.0 4 -0.09470484405755997
2.9571261405944824 1.466644525527954 0.5228040814399719 63.0 12 -0.09470254182815552
1.0763975381851196 0.5336257219314575 -0.10510982573032379 59.0 5 -0.09470023959875107
2.971151828765869 1.472308874130249 0.6445528268814087 55.0 13 -0.09469792991876602
1.0756351947784424 0.5327808260917664 -0.06290782243013382 75.0 6 -0.09469562768936157
2.973888874053955 1.4730188846588135 0.7661833167076111 66.0 14 -0.09469332545995712
1.0662882328033447 0.5279187560081482 -0.020768363028764725 89.0 7 -0.09469102323055267
2.9745969772338867 1.4720767736434937 0.8893022537231445 70.0 15 -0.09468871355056763
1.11398184299469 0.5495972037315369 -0.33284130692481995 51.0 0 -0.09466797858476639
1.0581488609313965 0.5218210816383362 0.02059384062886238 74.0 8 -0.09466567635536194
1.0837117433547974 0.5341928005218506 -0.27893930673599243 59.0 1 -0.09466337412595749
1.0570411682128906 0.5208168625831604 0.0617564357817173 59.0 9 -0.09466107189655304
1.0866875648498535 0.5351876616477966 -0.23545831441879272 61.0 2 -0.094658762216568
1.0581296682357788 0.5211230516433716 0.10319239646196365 61.0 10 -0.09465645998716354
1.0934911966323853 0.538301944732666 -0.1930401623249054 58.0 3 -0.0946541577577591
1.081152319908142 0.5319934487342834 0.14794939756393433 53.0 11 -0.09465185552835464
1.0741201639175415 0.5282996892929077 -0.14697444438934326 45.0 4 -0.0946495458483696
2.951591730117798 1.4510834217071533 0.520926833152771 60.0 12 -0.09464724361896515
1.0746769905090332 0.5281084775924683 -0.10476119816303253 50.0 5 -0.0946449413895607
2.97627329826355 1.461927890777588 0.6445528268814087 56.0 13 -0.09464263916015625
1.0774885416030884 0.5290225744247437 -0.06290782243013382 71.0 6 -0.0946403294801712
2.9755146503448486 1.4609105587005615 0.7652835249900818 61.0 14 -0.09463802725076675
1.0573532581329346 0.5189082026481628 -0.020558936521410942 77.0 7 -0.0946357250213623
2.969311475753784 1.4565789699554443 0.886196494102478 70.0 15 -0.09463342279195786
1.1055750846862793 0.5404205322265625 -0.32973548769950867 51.0 0 -0.09461268782615662
1.0528672933578491 0.5144280195236206 0.020454220473766327 75.0 8 -0.09461037814617157
1.0996710062026978 0.5370584726333618 -0.2825385332107544 60.0 1 -0.09460807591676712
1.066122055053711 0.5204439759254456 0.06217512488365173 56.0 9 -0.09460577368736267
1.0921703577041626 0.5329232215881348 -0.2362215518951416 61.0 2 -0.09460347145795822
1.054660677909851 0.5146203637123108 0.10266946256160736 56.0 10 -0.09460116177797318
1.0883550643920898 0.5308263897895813 -0.1917886734008789 58.0 3 -0.09459885954856873
1.0813106298446655 0.5271570086479187 0.14770564436912537 46.0 11 -0.09459655731916428
1.0760492086410522 0.5243595242500305 -0.14697444438934326 39.0 4 -0.09459425508975983
2.9586663246154785 1.441121220588684 0.521239697933197 62.0 12 -0.09459194540977478
1.060483455657959 0.5163163542747498 -0.10319239646196365 42.0 5 -0.09458964318037033
2.9710195064544678 1.4458554983139038 0.6422631144523621 57.0 13 -0.09458734095096588
1.0812163352966309 0.5259437561035156 -0.0630125030875206 66.0 6 -0.09458503872156143
2.980848789215088 1.4499956369400024 0.7652835249900818 66.0 14 -0.09458273649215698
1.0592483282089233 0.5150285959243774 -0.020558936521410942 69.0 7 -0.09458042681217194
2.9589922428131104 1.438086748123169 0.881537675857544 72.0 15 -0.09457812458276749
1.1145036220550537 0.539732038974762 -0.3318060338497162 51.0 0 -0.09455738961696625
1.0547456741333008 0.5105658173561096 0.020454220473766327 71.0 8 -0.0945550873875618
1.09461510181427 0.5296295285224915 -0.2807389199733734 60.0 1 -0.09455277770757675
1.0733259916305542 0.519328773021698 0.062489137053489685 53.0 9 -0.0945504754781723
1.0957915782928467 0.5299620628356934 -0.23660315573215485 66.0 2 -0.09454817324876785
1.063714861869812 0.5142202377319336 0.10336671024560928 49.0 10 -0.0945458710193634
1.0831786394119263 0.5233963131904602 -0.1905371993780136 60.0 3 -0.09454356133937836
1.0725104808807373 0.5180098414421082 0.14624322950839996 44.0 11 -0.09454125910997391
1.0707229375839233 0.5171465277671814 -0.1459994912147522 43.0 4 -0.09453895688056946
2.9618992805480957 1.4299265146255493 0.520926833152771 65.0 12 -0.09453665465116501
1.0515128374099731 0.507416307926178 -0.10214652866125107 49.0 5 -0.09453435242176056
2.96897554397583 1.4320634603500366 0.6407366394996643 57.0 13 -0.09453204274177551
1.0776482820510864 0.5195645093917847 -0.06269848346710205 56.0 6 -0.09452974051237106
2.9841363430023193 1.4387359619140625 0.7648336291313171 63.0 14 -0.09452743828296661
1.0682450532913208 0.5148012042045593 -0.020698554813861847 67.0 7 -0.09452513605356216
2.9657349586486816 1.428586721420288 0.8820553421974182 74.0 15 -0.09452282637357712
1.1232531070709229 0.5393784642219543 -0.3338765799999237 51.0 0 -0.09450209140777588
1.0528274774551392 0.5053344964981079 0.02038441225886345 71.0 8 -0.09449978917837143
1.0963655710220337 0.5259964466094971 -0.2807389199733734 59.0 1 -0.09449748694896698
1.067839503288269 0.5123106241226196 0.06207045167684555 39.0 9 -0.09449518471956253
1.0993131399154663 0.5271745920181274 -0.23698478937149048 63.0 2 -0.09449287503957748
1.0690075159072876 0.5124121308326721 0.10371533036231995 47.0 10 -0.09449057281017303
1.095597267150879 0.5249223709106445 -0.19241440296173096 60.0 3 -0.09448827058076859
1.0724319219589233 0.5135932564735413 0.1459994912147522 40.0 11 -0.09448596835136414
1.068851113319397 0.5118783712387085 -0.14551199972629547 47.0 4 -0.09448365867137909
2.970188617706299 1.4218016862869263 0.521552562713623 63.0 12 -0.09448135644197464
1.0585814714431763 0.506506085395813 -0.10266946256160736 55.0 5 -0.09447905421257019
2.966623544692993 1.4188225269317627 0.6392101645469666 56.0 13 -0.09447675198316574
1.0757614374160767 0.5142648816108704 -0.062489137053489685 51.0 6 -0.0944744423031807
2.983616828918457 1.4263100624084473 0.7634838819503784 66.0 14 -0.09447214007377625
1.0735549926757812 0.5129799842834473 -0.020768363028764725 61.0 7 -0.0944698378443718
2.9756853580474854 1.4212427139282227 0.8836082816123962 69.0 15 -0.09446753561496735
1.1285239458084106 0.5373117923736572 -0.33491185307502747 51.0 0 -0.09444680064916611
1.0653313398361206 0.5069965124130249 0.02059384062886238 63.0 8 -0.09444449096918106
1.0981037616729736 0.5223580598831177 -0.2807389199733734 60.0 1 -0.09444218873977661
1.0533000230789185 0.5010453462600708 0.0611284039914608 39.0 9 -0.09443988651037216
1.0939632654190063 0.5201537609100342 -0.23545831441879272 63.0 2 -0.09443758428096771
1.074299693107605 0.510574996471405 0.10406395047903061 47.0 10 -0.09443527460098267
1.0991162061691284 0.5221341848373413 -0.19272729754447937 61.0 3 -0.09443297237157822
1.074129343032837 0.5100337862968445 0.1459994912147522 45.0 11 -0.09443067014217377
1.074129343032837 0.5100337862968445 -0.1459994912147522 58.0 4 -0.09442836791276932
2.9623947143554688 1.4060159921646118 0.5193625092506409 62.0 12 -0.09442605823278427
1.0674556493759155 0.5064090490341187 -0.10336671024560928 51.0 5 -0.09442375600337982
2.974860191345215 1.4106584787368774 0.6399734020233154 56.0 13 -0.09442145377397537
1.0792655944824219 0.5115503668785095 -0.06259381026029587 49.0 6 -0.09441915154457092
2.9830470085144043 1.4139049053192139 0.7621342539787292 63.0 14 -0.09441684186458588
1.0662144422531128 0.5051365494728088 -0.02059384062886238 56.0 7 -0.09441453963518143
2.9786362648010254 1.4105393886566162 0.883090615272522 74.0 15 -0.09441223740577698
1.1250584125518799 0.5310927033424377 -0.3333589434623718 48.0 0 -0.09439150243997574
1.0597728490829468 0.5000473856925964 0.020454220473766327 46.0 8 -0.09438920021057129
1.1033552885055542 0.5203760266304016 -0.2816387414932251 61.0 1 -0.09438689053058624
1.0513430833816528 0.4958454668521881 0.060919057577848434 43.0 9 -0.0943845883011818
1.0974576473236084 0.5173611044883728 -0.23583993315696716 66.0 2 -0.09438228607177734
1.0687779188156128 0.5036123394966125 0.10336671024560928 38.0 10 -0.0943799838423729
1.1097770929336548 0.5226947069168091 -0.1942916363477707 64.0 3 -0.09437767416238785
1.0758144855499268 0.5064697861671448 0.1459994912147522 45.0 11 -0.0943753719329834
1.0883865356445312 0.5123884677886963 -0.14770564436912537 59.0 4 -0.09437306970357895
2.965254068374634 1.3953425884246826 0.5190495848655701 63.0 12 -0.0943707674741745
1.0673261880874634 0.50201815366745 -0.10319239646196365 42.0 5 -0.09436845779418945
2.9795215129852295 1.400786280632019 0.6399734020233154 55.0 13 -0.094366155564785
1.080956220626831 0.5079682469367981 -0.06259381026029587 45.0 6 -0.09436385333538055
2.9806649684906006 1.4006887674331665 0.7603346109390259 60.0 14 -0.0943615511059761
1.0588339567184448 0.4973468780517578 -0.020419316366314888 44.0 7 -0.09435924887657166
2.9675586223602295 1.3932656049728394 0.8784318566322327 72.0 15 -0.09435693919658661
1.118247628211975 0.5228739976882935 -0.3307707607746124 43.0 0 -0.09439277648925781
1.041670799255371 0.4868464469909668 0.020070267841219902 55.0 8 -0.09439047425985336
1.1052550077438354 0.5163288116455078 -0.2816387414932251 59.0 1 -0.09438817203044891
1.0550487041473389 0.49265021085739136 0.06102372705936432 50.0 9 -0.09438586235046387
1.1011253595352173 0.5141655206680298 -0.2362215518951416 63.0 2 -0.09438356012105942
1.0453404188156128 0.48789483308792114 0.10092635452747345 40.0 10 -0.09438125789165497
1.106314778327942 0.5161184668540955 -0.19335302710533142 69.0 3 -0.09437895566225052
1.0776636600494385 0.5025230646133423 0.1459994912147522 47.0 11 -0.09437664598226547
1.1029407978057861 0.5140756964683533 -0.14941182732582092 56.0 4 -0.09437434375286102
2.9705896377563477 1.3839473724365234 0.5190495848655701 63.0 12 -0.09437204152345657
1.0800827741622925 0.5029628872871399 -0.10423827171325684 14.0 5 -0.09436973929405212
2.973956823348999 1.3848844766616821 0.6376836895942688 60.0 13 -0.09436742961406708
1.0846213102340698 0.5048459768295288 -0.06269848346710205 54.0 6 -0.09436512738466263
2.993088483810425 1.3925224542617798 0.7621342539787292 67.0 14 -0.09436282515525818
1.0643620491027832 0.49496424198150635 -0.020489124581217766 44.0 7 -0.09436052292585373
2.971135139465332 1.3810456991195679 0.8779142498970032 74.0 15 -0.09435821324586868
1.1271685361862183 0.5220189690589905 -0.33284130692481995 42.0 0 -0.09433747828006744
1.0415493249893188 0.4823666214942932 0.020035361871123314 62.0 8 -0.094335176050663
1.1035137176513672 0.5108299851417542 -0.2807389199733734 57.0 1 -0.09433287382125854
1.0640124082565308 0.4923194646835327 0.06144241616129875 52.0 9 -0.0943305715918541
1.103002667427063 0.510125994682312 -0.2362215518951416 63.0 2 -0.09432826191186905
1.0543557405471802 0.4874040186405182 0.10162358731031418 41.0 10 -0.0943259596824646
1.1135785579681396 0.5145460963249207 -0.1942916363477707 73.0 3 -0.09432365745306015
1.0722029209136963 0.49542784690856934 0.14502453804016113 54.0 11 -0.0943213552236557
1.1047286987304688 0.510222315788269 -0.14941182732582092 56.0 4 -0.09431904554367065
2.971815824508667 1.371912956237793 0.518423855304718 63.0 12 -0.0943167433142662
1.0745954513549805 0.4958508312702179 -0.10354102402925491 2.0 5 -0.09431444108486176
2.9647507667541504 1.367396354675293 0.6346307396888733 57.0 13 -0.0943121388554573
1.0719541311264038 0.4941776394844055 -0.061861105263233185 51.0 6 -0.09430982917547226
2.9946320056915283 1.3799123764038086 0.7612344026565552 63.0 14 -0.09430752694606781
1.0606348514556885 0.488735556602478 -0.02038441225886345 50.0 7 -0.09430522471666336
2.9706733226776123 1.3682421445846558 0.8763613104820251 72.0 15 -0.09430292248725891
1.128983736038208 0.5180814266204834 -0.33284130692481995 43.0 0 -0.09428218752145767
1.0469454526901245 0.48021361231803894 0.02010517194867134 64.0 8 -0.09427987784147263
1.0982927083969116 0.5035336017608643 -0.27893930673599243 54.0 1 -0.09427757561206818
1.0548312664031982 0.4836078882217407 0.06081438809633255 51.0 9 -0.09427527338266373
1.106561303138733 0.5070908069610596 -0.23660315573215485 66.0 2 -0.09427297115325928
1.0614848136901855 0.48621004819869995 0.10214652866125107 38.0 10 -0.09427066147327423
1.1153680086135864 0.5106555819511414 -0.1942916363477707 73.0 3 -0.09426835924386978
1.0722066164016724 0.4906684160232544 0.14478079974651337 45.0 11 -0.09426605701446533
1.0993703603744507 0.5028672218322754 -0.14843687415122986 56.0 4 -0.09426375478506088
2.976586103439331 1.3615316152572632 0.518423855304718 63.0 12 -0.09426144510507584
1.090815782546997 0.4987240135669708 -0.10493551939725876 6.0 5 -0.09425914287567139
2.9730775356292725 1.3586702346801758 0.6353939771652222 58.0 13 -0.09425684064626694
1.07003915309906 0.488773375749588 -0.061651766300201416 51.0 6 -0.09425453841686249
2.990567207336426 1.3654030561447144 0.7589848637580872 61.0 14 -0.09425223618745804
1.0641535520553589 0.4858604967594147 -0.020419316366314888 57.0 7 -0.09424992650747299
2.9789469242095947 1.3594675064086914 0.8773965835571289 72.0 15 -0.09424762427806854
1.1378196477890015 0.5173360705375671 -0.33491185307502747 39.0 0 -0.0942268893122673
1.0521727800369263 0.47839468717575073 0.020174982026219368 69.0 8 -0.09422458708286285
1.1052789688110352 0.5023072957992554 -0.28028902411460876 51.0 1 -0.09422227740287781
1.0492392778396606 0.4766184687614441 0.06039569899439812 42.0 9 -0.09421997517347336
1.1011741161346436 0.4999787509441376 -0.23507671058177948 66.0 2 -0.09421767294406891
1.0831328630447388 0.49155867099761963 0.10406395047903061 46.0 10 -0.09421537071466446
1.1170554161071777 0.506953775882721 -0.1942916363477707 73.0 3 -0.09421306103467941
1.072020173072815 0.4862897992134094 0.1445370614528656 45.0 11 -0.09421075880527496
1.0938000679016113 0.49594005942344666 -0.1474619209766388 54.0 4 -0.09420845657587051
2.9741241931915283 1.3478705883026123 0.5171723961830139 65.0 12 -0.09420615434646606
1.0744014978408813 0.4866918623447418 -0.10319239646196365 19.0 5 -0.09420385211706161
2.9811432361602783 1.3504245281219482 0.636157214641571 60.0 13 -0.09420154243707657
1.071653962135315 0.48522254824638367 -0.061651766300201416 51.0 6 -0.09419924020767212
2.982651472091675 1.349853277206421 0.7558355927467346 60.0 14 -0.09419693797826767
1.0530893802642822 0.47637343406677246 -0.020174982026219368 63.0 7 -0.09419463574886322
2.983673334121704 1.3490629196166992 0.8773965835571289 70.0 15 -0.09419232606887817
1.144812822341919 0.5159409642219543 -0.3364647626876831 30.0 0 -0.09417159110307693
1.0574829578399658 0.47636139392852783 0.020244792103767395 69.0 8 -0.09416928887367249
1.1176867485046387 0.5032472610473633 -0.28298842906951904 51.0 1 -0.09416698664426804
1.0545393228530884 0.4745926558971405 0.06060504540801048 36.0 9 -0.09416467696428299
1.0974552631378174 0.4939068853855133 -0.23393183946609497 63.0 2 -0.09416237473487854
1.0956590175628662 0.492868572473526 0.10510982573032379 54.0 10 -0.09416007250547409
1.1080080270767212 0.498191773891449 -0.19241440296173096 63.0 3 -0.09415777027606964
1.1026813983917236 0.4955648183822632 0.14843687415122986 45.0 11 -0.09415546804666519
1.1027679443359375 0.49537235498428345 -0.14843687415122986 53.0 4 -0.09415315836668015
2.969801187515259 1.3334345817565918 0.5156080722808838 67.0 12 -0.0941508561372757
1.0615519285202026 0.4764125943183899 -0.1017979085445404 37.0 5 -0.09414855390787125
2.9876296520233154 1.3408147096633911 0.6365388631820679 61.0 13 -0.0941462516784668
1.0751636028289795 0.482295960187912 -0.0617564357817173 36.0 6 -0.09414394199848175
2.9909017086029053 1.3410273790359497 0.7567353844642639 63.0 14 -0.0941416397690773
1.0547457933425903 0.4726947546005249 -0.020174982026219368 63.0 7 -0.09413933753967285
2.974259853363037 1.3323208093643188 0.8732554912567139 70.0 15 -0.0941370353102684
1.1519885063171387 0.5141037106513977 -0.33801770210266113 36.0 0 -0.09411629289388657
1.048182487487793 0.46777769923210144 0.020035361871123314 64.0 8 -0.09411399066448212
1.124776005744934 0.5017240643501282 -0.2843381464481354 49.0 1 -0.09411168843507767
1.0707827806472778 0.47741490602493286 0.06144241616129875 41.0 9 -0.09410938620567322
1.102844476699829 0.49147969484329224 -0.23469506204128265 61.0 2 -0.09410708397626877
1.097458004951477 0.4888496994972229 0.10510982573032379 48.0 10 -0.09410477429628372
1.1224591732025146 0.4997507929801941 -0.19460450112819672 80.0 3 -0.09410247206687927
1.1116584539413452 0.4949420094490051 0.14941182732582092 41.0 11 -0.09410016983747482
1.100862979888916 0.48990604281425476 -0.14794939756393433 53.0 4 -0.09409786760807037
2.969022035598755 1.3206533193588257 0.5146694779396057 62.0 12 -0.09409555792808533
1.0450029373168945 0.46460962295532227 -0.1000547856092453 38.0 5 -0.09409325569868088
2.983553171157837 1.3258696794509888 0.6346307396888733 55.0 13 -0.09409095346927643
2.9957966804504395 1.33005690574646 0.7567353844642639 63.0 14 -0.09408634155988693
1.0637001991271973 0.4722556173801422 -0.020314600318670273 63.0 7 -0.09408403933048248
2.971829891204834 1.3187954425811768 0.8711849451065063 70.0 15 -0.09408173710107803
1.167911171913147 0.5163281559944153 -0.34215879440307617 36.0 0 -0.0940610021352768
1.0535483360290527 0.4655490219593048 0.02010517194867134 64.0 8 -0.09405869990587234
1.1176942586898804 0.4936617612838745 -0.28208863735198975 46.0 1 -0.0940563902258873
1.103501319885254 0.48739302158355713 0.06322184205055237 53.0 9 -0.09405408799648285
1.104553461074829 0.4876267910003662 -0.23469506204128265 61.0 2 -0.0940517857670784
1.0918666124343872 0.4817982614040375 0.10441257804632187 47.0 10 -0.09404948353767395
1.0970855951309204 0.48387306928634644 -0.18991146981716156 65.0 3 -0.0940471738576889
1.0989335775375366 0.48445844650268555 0.1474619209766388 34.0 11 -0.09404487162828445
1.109917402267456 0.48906928300857544 -0.1489243507385254 53.0 4 -0.09404256939888
2.966383457183838 1.3070945739746094 0.5134179592132568 27.0 12 -0.09404026716947556
1.0484414100646973 0.4617628753185272 -0.10022910684347153 46.0 5 -0.09403795748949051
1.0767592191696167 0.47378551959991455 -0.061651766300201416 0.0 6 -0.09403335303068161
3.003988027572632 1.3211627006530762 0.757635235786438 38.0 14 -0.09403105080127716
1.0653419494628906 0.4685404598712921 -0.020314600318670273 56.0 7 -0.09402874112129211
2.985257387161255 1.312301516532898 0.8737731575965881 78.0 15 -0.09402643889188766
1.1767849922180176 0.5153477787971497 -0.3442293405532837 34.0 0 -0.09400570392608643
1.0587499141693115 0.46365684270858765 0.020174982026219368 66.0 8 -0.09400340169668198
1.121110439300537 0.4907337427139282 -0.2825385332107544 41.0 1 -0.09400109946727753
1.1070257425308228 0.4843383729457855 0.06332651525735855 51.0 9 -0.09399878978729248
1.1134440898895264 0.48691433668136597 -0.2362215518951416 63.0 2 -0.09399648755788803
1.1008440256118774 0.48117607831954956 0.10510982573032379 47.0 10 -0.09399418532848358
1.1149744987487793 0.4873524606227875 -0.19272729754447937 66.0 3 -0.09399188309907913
1.0932577848434448 0.47763288021087646 0.14648695290088654 24.0 11 -0.09398957341909409
1.1006181240081787 0.4806192219257355 -0.1474619209766388 53.0 4 -0.09398727118968964
2.9673068523406982 1.295152187347412 0.5127922296524048 2.0 12 -0.09398496896028519
1.0591778755187988 0.46208351850509644 -0.10110066086053848 47.0 5 -0.09398266673088074
3.0572898387908936 1.3337922096252441 0.6483690142631531 1.0 13 -0.09398035705089569
1.078324556350708 0.4702119827270508 -0.061651766300201416 4.0 6 -0.09397805482149124
1.0761374235153198 0.46881186962127686 -0.020489124581217766 34.0 7 -0.09397345036268234
2.9827356338500977 1.298787236213684 0.8717026114463806 76.0 15 -0.0939711481332779
1.1979809999465942 0.5199033617973328 -0.34992337226867676 32.0 0 -0.09395040571689606
1.060361623764038 0.4599590003490448 0.020174982026219368 64.0 8 -0.09394810348749161
1.1353322267532349 0.49224337935447693 -0.2856878638267517 37.0 1 -0.09394580125808716
1.101296067237854 0.47748643159866333 0.06290782243013382 52.0 9 -0.09394349902868271
1.102442979812622 0.4777551293373108 -0.23355023562908173 60.0 2 -0.09394118934869766
1.0987770557403564 0.4759393036365509 0.10476119816303253 47.0 10 -0.09393888711929321
1.114856243133545 0.4826723635196686 -0.19241440296173096 64.0 3 -0.09393658488988876
1.0912748575210571 0.4722367823123932 0.1459994912147522 24.0 11 -0.09393428266048431
1.1059328317642212 0.47835132479667664 -0.14794939756393433 52.0 4 -0.09393197298049927
1.08082115650177 0.467265248298645 -0.10301808267831802 53.0 5 -0.09392736852169037
1.0817925930023193 0.4672377109527588 -0.0617564357817173 9.0 6 -0.09392276406288147
1.072178602218628 0.4628627300262451 -0.02038441225886345 12.0 7 -0.09391815215349197
2.983478307723999 1.2873588800430298 0.8706672787666321 74.0 15 -0.09391584992408752
1.2193118333816528 0.5241100192070007 -0.35561737418174744 30.0 0 -0.09389511495828629
1.0692298412322998 0.4595986604690552 0.020314600318670273 67.0 8 -0.09389280527830124
1.1530725955963135 0.49539926648139954 -0.2897369861602783 46.0 1 -0.09389050304889679
1.1139672994613647 0.4783680737018585 0.06353586167097092 49.0 9 -0.09388820081949234
1.1077120304107666 0.47545289993286133 -0.2343134582042694 58.0 2 -0.09388589859008789
1.0894458293914795 0.46738752722740173 0.10371533036231995 48.0 10 -0.09388358891010284
1.1218966245651245 0.4813093841075897 -0.19335302710533142 69.0 3 -0.0938812866806984
1.0891857147216797 0.4670509099960327 0.14551199972629547 24.0 11 -0.09387898445129395
1.1111621856689453 0.4762449860572815 -0.14843687415122986 52.0 4 -0.0938766822218895
1.1221485137939453 0.48072195053100586 0.19335302710533142 0.0 12 -0.09387437999248505
1.0916036367416382 0.4674105942249298 -0.10388964414596558 58.0 5 -0.0938720703125
1.0918837785720825 0.46753057837486267 0.23087888956069946 0.0 13 -0.09386976808309555
1.0943530797958374 0.4683625102043152 -0.0623844638466835 29.0 6 -0.0938674658536911
1.0811424255371094 0.4622616171836853 -0.020524028688669205 42.0 7 -0.0938628539443016
2.9826242923736572 1.2746598720550537 0.8691143989562988 72.0 15 -0.09386055171489716
1.2636995315551758 0.538232147693634 -0.36804068088531494 51.0 0 -0.09383981674909592
1.067147970199585 0.454296737909317 0.020244792103767395 69.0 8 -0.09383751451969147
1.1583809852600098 0.49289751052856445 -0.2906367778778076 45.0 1 -0.09383520483970642
1.1193060874938965 0.4760402739048004 0.06374520063400269 47.0 9 -0.09383290261030197
1.1147854328155518 0.47388723492622375 -0.23545831441879272 57.0 2 -0.09383060038089752
1.0836554765701294 0.4606541097164154 0.10301808267831802 49.0 10 -0.09382829815149307
1.1162974834442139 0.4743006229400635 -0.19210153818130493 66.0 3 -0.09382599592208862
1.0798465013504028 0.458590567111969 0.14404956996440887 29.0 11 -0.09382368624210358
1.1164723634719849 0.47391432523727417 -0.1489243507385254 52.0 4 -0.09382138401269913
1.0783576965332031 0.45751410722732544 0.18553130328655243 0.0 12 -0.09381908178329468
1.0913941860198975 0.4628197252750397 -0.10371533036231995 51.0 5 -0.09381677955389023
1.0664761066436768 0.4520333409309387 0.22515462338924408 4.0 13 -0.09381446987390518
1.0868672132492065 0.4604530930519104 -0.061861105263233185 52.0 6 -0.09381216764450073
1.0550811290740967 0.4469868838787079 0.26454243063926697 1.0 14 -0.09380986541509628
1.0882736444473267 0.4608243405818939 -0.02062874473631382 72.0 7 -0.09380756318569183
2.974602222442627 1.2589691877365112 0.8654909133911133 54.0 15 -0.09380525350570679
1.2763445377349854 0.5380994081497192 -0.3711465001106262 47.0 0 -0.09378451853990555
1.0651202201843262 0.4488295614719391 0.020174982026219368 61.0 8 -0.0937822163105011
1.156588077545166 0.4871353805065155 -0.2897369861602783 42.0 1 -0.09377991408109665
1.1228842735290527 0.47270920872688293 0.06384987384080887 43.0 9 -0.0937776118516922
1.1183242797851562 0.47055983543395996 -0.23583993315696716 60.0 2 -0.09377530217170715
1.089009404182434 0.45822495222091675 0.10336671024560928 49.0 10 -0.0937729999423027
1.1143866777420044 0.46867409348487854 -0.19147580862045288 66.0 3 -0.09377069771289825
1.0778602361679077 0.45309093594551086 0.14356210827827454 34.0 11 -0.0937683954834938
1.1145416498184204 0.46828150749206543 -0.14843687415122986 54.0 4 -0.09376608580350876
1.0836700201034546 0.4550880789756775 0.18615703284740448 2.0 12 -0.09376378357410431
1.0985944271087646 0.4611300826072693 -0.10423827171325684 50.0 5 -0.09376148134469986
1.0608841180801392 0.4450835883617401 0.22362814843654633 4.0 13 -0.09375917911529541
1.0774964094161987 0.45183199644088745 -0.06123307719826698 51.0 6 -0.09375686943531036
1.0585097074508667 0.4438701868057251 0.264992356300354 7.0 14 -0.09375456720590591
1.0936439037322998 0.45837876200675964 -0.020698554813861847 70.0 7 -0.09375226497650146
2.973850727081299 1.2458194494247437 0.8639379739761353 23.0 15 -0.09374996274709702
1.2854397296905518 0.5363932847976685 -0.37321707606315613 42.0 0 -0.09372922778129578
1.0667579174041748 0.44492289423942566 0.020174982026219368 42.0 8 -0.09372691810131073
1.160164475440979 0.483642578125 -0.29018688201904297 35.0 1 -0.09372461587190628
1.1153101921081543 0.46494394540786743 0.06332651525735855 40.0 9 -0.09372231364250183
1.123584508895874 0.4681631326675415 -0.23660315573215485 53.0 2 -0.09372001141309738
1.0888421535491943 0.45346468687057495 0.10319239646196365 50.0 10 -0.09371770173311234
1.1197445392608643 0.46610450744628906 -0.19210153818130493 66.0 3 -0.09371539950370789
1.0685169696807861 0.44456174969673157 0.14209966361522675 42.0 11 -0.09371309727430344
1.1125041246414185 0.4628628194332123 -0.14794939756393433 54.0 4 -0.09371079504489899
1.0578925609588623 0.4399254322052002 0.18146400153636932 11.0 12 -0.09370848536491394
1.0983576774597168 0.456527441740036 -0.10406395047903061 53.0 5 -0.09370618313550949
1.0533663034439087 0.4376114308834076 0.22172006964683533 2.0 13 -0.09370388090610504
1.0772223472595215 0.44730237126350403 -0.0611284039914608 56.0 6 -0.09370157867670059
1.0438547134399414 0.4334469139575958 0.2609432339668274 9.0 14 -0.09369926899671555
1.0933902263641357 0.4537915587425232 -0.02066364884376526 63.0 7 -0.0936969667673111
2.9853196144104004 1.238391399383545 0.8660085797309875 9.0 15 -0.09369466453790665
1.3104201555252075 0.5417230725288391 -0.37994638085365295 15.0 0 -0.09367392957210541
1.0756202936172485 0.44443726539611816 0.020314600318670273 36.0 8 -0.09367162734270096
1.1635630130767822 0.48053672909736633 -0.2906367778778076 26.0 1 -0.09366931766271591
1.1076157093048096 0.4574311673641205 0.06280315667390823 38.0 9 -0.09366701543331146
1.1124277114868164 0.45919129252433777 -0.23393183946609497 49.0 2 -0.09366471320390701
1.0866564512252808 0.44833138585090637 0.10284377634525299 52.0 10 -0.09366241097450256
1.1267626285552979 0.46464821696281433 -0.1930401623249054 73.0 3 -0.09366010129451752
1.0681499242782593 0.44025975465774536 0.14185592532157898 48.0 11 -0.09365779906511307
1.1103620529174805 0.4576583504676819 -0.1474619209766388 53.0 4 -0.09365549683570862
1.0465604066848755 0.4311475455760956 0.17927391827106476 45.0 12 -0.09365319460630417
1.099865436553955 0.4528828561306 -0.10406395047903061 55.0 5 -0.09365088492631912
1.0493649244308472 0.431874543428421 0.22057519853115082 4.0 13 -0.09364858269691467
1.0860881805419922 0.44676661491394043 -0.061547089368104935 54.0 6 -0.09364628046751022
1.0398797988891602 0.4277586042881012 0.25959354639053345 9.0 14 -0.09364397823810577
1.0930395126342773 0.4494030773639679 -0.02062874473631382 59.0 7 -0.09364167600870132
3.0072782039642334 1.2358285188674927 0.8711849451065063 3.0 15 -0.09363936632871628
2.9122469425201416 1.1926193237304688 -0.8432324528694153 60.0 0 -0.09361863136291504
1.0770879983901978 0.4408681392669678 0.020314600318670273 44.0 8 -0.09361632913351059
2.9074647426605225 1.1894744634628296 -0.7252422571182251 32.0 1 -0.09361402690410614
1.1147515773773193 0.4558301568031311 0.06311716884374619 37.0 9 -0.0936117172241211
1.1302990913391113 0.46218764781951904 -0.23736640810966492 47.0 2 -0.09360941499471664
1.0826042890548706 0.44246432185173035 0.1023208349943161 56.0 10 -0.0936071127653122
1.1301259994506836 0.4616558849811554 -0.19335302710533142 66.0 3 -0.09360481053590775
1.0677660703659058 0.43596506118774414 0.1416121870279312 52.0 11 -0.0936025008559227
1.1082769632339478 0.45227980613708496 -0.14697444438934326 52.0 4 -0.09360019862651825
1.042572021484375 0.425253301858902 0.17833532392978668 73.0 12 -0.0935978963971138
1.0939821004867554 0.44622287154197693 -0.10336671024560928 51.0 5 -0.09359559416770935
1.0489736795425415 0.42765092849731445 0.22019359469413757 8.0 13 -0.0935932919383049
1.0875636339187622 0.4431627690792084 -0.061547089368104935 54.0 6 -0.09359098225831985
1.0323426723480225 0.4204506278038025 0.2573440372943878 8.0 14 -0.0935886800289154
1.0964537858963013 0.4463385343551636 -0.02066364884376526 66.0 7 -0.09358637779951096
1.0432246923446655 0.42445868253707886 0.3017829954624176 3.0 15 -0.0935840755701065
2.9056508541107178 1.1780904531478882 -0.840126633644104 68.0 0 -0.09356333315372467
1.0693540573120117 0.43335023522377014 0.02014007791876793 45.0 8 -0.09356103092432022
2.9170169830322266 1.181515097618103 -0.7265920042991638 63.0 1 -0.09355872869491577
1.120038628578186 0.4534348249435425 0.06332651525735855 35.0 9 -0.09355642646551132
1.1337252855300903 0.4589757025241852 -0.23774802684783936 40.0 2 -0.09355412423610687
1.0841422080993652 0.4386823773384094 0.1023208349943161 56.0 10 -0.09355181455612183
1.1079236268997192 0.44808074831962585 -0.18928572535514832 53.0 3 -0.09354951232671738
1.0619198083877563 0.42925912141799927 0.14063723385334015 53.0 11 -0.09354721009731293
1.1245732307434082 0.4543571472167969 -0.1489243507385254 53.0 4 -0.09354490786790848
1.0458813905715942 0.4223518669605255 0.1786481887102127 64.0 12 -0.09354259818792343
1.091837763786316 0.44091010093688965 -0.10301808267831802 55.0 5 -0.09354029595851898
1.037716031074524 0.41884326934814453 0.2175222784280777 15.0 13 -0.09353799372911453
1.094660758972168 0.4416051506996155 -0.061861105263233185 53.0 6 -0.09353569149971008
1.0410332679748535 0.41976022720336914 0.2591436207294464 6.0 14 -0.09353338181972504
1.0980050563812256 0.442508727312088 -0.02066364884376526 65.0 7 -0.09353107959032059
1.0393242835998535 0.418648898601532 0.30023011565208435 6.0 15 -0.09352877736091614
2.9079532623291016 1.1672203540802002 -0.8396090269088745 60.0 0 -0.0935080423951149
1.0708601474761963 0.4296150803565979 0.02014007791876793 57.0 8 -0.09350574016571045
2.906653881072998 1.165522575378418 -0.7229927778244019 61.0 1 -0.0935034304857254
1.1252436637878418 0.4512050747871399 0.06353586167097092 35.0 9 -0.09350112825632095
1.1535440683364868 0.4623187780380249 -0.24156419932842255 49.0 2 -0.0934988260269165
1.081967830657959 0.4334137737751007 0.10197222232818604 54.0 10 -0.09349652379751205
1.1094810962677002 0.44421035051345825 -0.18928572535514832 53.0 3 -0.09349421411752701
1.0578827857971191 0.42333686351776123 0.13990601897239685 49.0 11 -0.09349191188812256
1.1298387050628662 0.4519035220146179 -0.14941182732582092 47.0 4 -0.09348960965871811
1.0472763776779175 0.4188809394836426 0.1786481887102127 64.0 12 -0.09348730742931366
1.1007704734802246 0.4400542676448822 -0.10371533036231995 51.0 5 -0.09348499774932861
1.0282331705093384 0.41084736585617065 0.21523255109786987 19.0 13 -0.09348269551992416
1.0869214534759521 0.4340778589248657 -0.06133774667978287 54.0 6 -0.09348039329051971
1.0225834846496582 0.4081766903400421 0.2541947066783905 5.0 14 -0.09347809106111526
1.0957520008087158 0.4373828172683716 -0.02059384062886238 47.0 7 -0.09347578138113022
1.0371184349060059 0.41376808285713196 0.2991948127746582 6.0 15 -0.09347347915172577
2.913804054260254 1.1577779054641724 -0.840126633644104 61.0 0 -0.09345274418592453
1.0834288597106934 0.43049225211143494 0.02034950442612171 69.0 8 -0.09345044195652008
2.9032583236694336 1.1529994010925293 -0.7211931347846985 61.0 1 -0.09344813972711563
1.1156736612319946 0.44285300374031067 0.06290782243013382 31.0 9 -0.09344583004713058
1.164275050163269 0.4619101583957672 -0.24347227811813354 51.0 2 -0.09344352781772614
1.0853263139724731 0.4303685128688812 0.10214652866125107 52.0 10 -0.09344122558832169
1.118293285369873 0.4434410035610199 -0.1905371993780136 58.0 3 -0.09343892335891724
1.040826439857483 0.4125126004219055 0.137468621134758 36.0 11 -0.09343661367893219
1.101801872253418 0.43645724654197693 -0.14551199972629547 43.0 4 -0.09343431144952774
1.06709885597229 0.4224943220615387 0.18177686631679535 50.0 12 -0.09343200922012329
1.1041525602340698 0.4369419813156128 -0.10388964414596558 50.0 5 -0.09342970699071884
1.031415343284607 0.40815800428390503 0.2156141698360443 22.0 13 -0.0934273973107338
1.0846402645111084 0.42900216579437256 -0.0611284039914608 56.0 6 -0.09342509508132935
1.0203070640563965 0.4033503234386444 0.2532949149608612 5.0 14 -0.0934227928519249
1.1084308624267578 0.43796396255493164 -0.020803268998861313 31.0 7 -0.09342049062252045
1.0331658124923706 0.40801727771759033 0.29764193296432495 7.0 15 -0.0934181809425354
2.914032220840454 1.146693229675293 -0.8390913605690002 65.0 0 -0.09339744597673416
1.1016736030578613 0.43329471349716187 0.02066364884376526 80.0 8 -0.09339514374732971
2.9018237590789795 1.1407212018966675 -0.7198433876037598 60.0 1 -0.09339284151792526
1.1153538227081299 0.43822574615478516 0.06280315667390823 21.0 9 -0.09339053928852081
1.1566641330718994 0.45445671677589417 -0.24156419932842255 49.0 2 -0.09338822960853577
1.0886019468307495 0.4274955689907074 0.1023208349943161 46.0 10 -0.09338592737913132
1.1271897554397583 0.4424213767051697 -0.1917886734008789 58.0 3 -0.09338362514972687
1.055195927619934 0.41395193338394165 0.13917480409145355 19.0 11 -0.09338132292032242
1.1033188104629517 0.4326082766056061 -0.14551199972629547 44.0 4 -0.09337901324033737
1.0409795045852661 0.4079550504684448 0.1770838350057602 44.0 12 -0.09337671101093292
1.1093811988830566 0.43453866243362427 -0.10423827171325684 50.0 5 -0.09337440878152847
1.0438019037246704 0.40885159373283386 0.21790388226509094 18.0 13 -0.09337210655212402
1.0879911184310913 0.42594125866889954 -0.06123307719826698 53.0 6 -0.09336979687213898
1.0108203887939453 0.3955254554748535 0.2505955100059509 5.0 14 -0.09336749464273453
1.0969164371490479 0.42899397015571594 -0.020558936521410942 33.0 7 -0.09336519241333008
1.0273865461349487 0.40159478783607483 0.29557135701179504 7.0 15 -0.09336289018392563
2.916415214538574 1.1353050470352173 -0.8385737538337708 64.0 0 -0.09334215521812439
1.1143602132797241 0.43379926681518555 0.02087307907640934 78.0 8 -0.09333984553813934
2.9112367630004883 1.1327041387557983 -0.7211931347846985 61.0 1 -0.0933375433087349
1.1317684650421143 0.44012048840522766 0.0636405274271965 20.0 9 -0.09333524107933044
1.156491994857788 0.4495032727718353 -0.2411825805902481 37.0 2 -0.093332938849926
1.08644700050354 0.4220600724220276 0.10197222232818604 39.0 10 -0.09333062916994095
1.1269621849060059 0.43757230043411255 -0.19147580862045288 51.0 3 -0.0933283269405365
1.0510830879211426 0.40811026096343994 0.13844358921051025 23.0 11 -0.09332602471113205
1.104822039604187 0.4287545680999756 -0.14551199972629547 44.0 4 -0.0933237224817276
1.0479217767715454 0.4064626097679138 0.17802242934703827 48.0 12 -0.09332141280174255
1.1071760654449463 0.4292229115962982 -0.10388964414596558 50.0 5 -0.0933191105723381
1.0416321754455566 0.4036042094230652 0.21714064478874207 12.0 13 -0.09331680834293365
1.0969947576522827 0.42483609914779663 -0.061651766300201416 57.0 6 -0.0933145061135292
1.0231672525405884 0.39603883028030396 0.2532949149608612 5.0 14 -0.09331220388412476
1.0946775674819946 0.4237184226512909 -0.020489124581217766 30.0 7 -0.09330989420413971
1.0179718732833862 0.3938235938549042 0.2924655079841614 7.0 15 -0.09330759197473526
2.9041364192962646 1.1188665628433228 -0.8339149951934814 65.0 0 -0.09328685700893402
1.1159428358078003 0.4297117590904236 0.02087307907640934 74.0 8 -0.09328455477952957
2.9190056324005127 1.123426914215088 -0.7220929265022278 63.0 1 -0.09328224509954453
1.142694354057312 0.43955492973327637 0.06416388601064682 24.0 9 -0.09327994287014008
1.1745455265045166 0.4518069326877594 -0.24461714923381805 26.0 2 -0.09327764064073563
1.069317102432251 0.41111502051353455 0.10022910684347153 26.0 10 -0.09327533841133118
1.122950792312622 0.43151038885116577 -0.1905371993780136 47.0 3 -0.09327302873134613
1.0488654375076294 0.40283191204071045 0.13795611262321472 37.0 11 -0.09327072650194168
1.1100927591323853 0.42612484097480774 -0.1459994912147522 46.0 4 -0.09326842427253723
1.042027473449707 0.39978837966918945 0.17677095532417297 47.0 12 -0.09326612204313278
1.1068073511123657 0.42464208602905273 -0.10371533036231995 53.0 5 -0.09326381981372833
1.030202865600586 0.3950454592704773 0.2144693285226822 9.0 13 -0.09326151013374329
1.0966060161590576 0.42028915882110596 -0.061547089368104935 54.0 6 -0.09325920790433884
1.0209038257598877 0.3910709321498871 0.2523951232433319 5.0 14 -0.09325690567493439
1.0962231159210205 0.4197036027908325 -0.020489124581217766 31.0 7 -0.09325460344552994
1.0157999992370605 0.38870930671691895 0.29143026471138 7.0 15 -0.09325229376554489
2.911634683609009 1.1100980043411255 -0.8349502682685852 61.0 0 -0.09323155879974365
1.1286476850509644 0.4300864040851593 0.021082507446408272 64.0 8 -0.0932292565703392
2.913804292678833 1.1097619533538818 -0.7198433876037598 60.0 1 -0.09322695434093475
1.1479549407958984 0.4369843006134033 0.06437323242425919 33.0 9 -0.0932246521115303
1.1834547519683838 0.45049774646759033 -0.2461436241865158 14.0 2 -0.09322234243154526
1.0632967948913574 0.4045461416244507 0.0995318591594696 21.0 10 -0.09322004020214081
1.1262965202331543 0.4282902479171753 -0.19085006415843964 49.0 3 -0.09321773797273636
1.0317093133926392 0.3921155035495758 0.13551872968673706 43.0 11 -0.09321543574333191
1.111573338508606 0.4222475290298462 -0.1459994912147522 44.0 4 -0.09321312606334686
1.0434165000915527 0.39614883065223694 0.17677095532417297 42.0 12 -0.09321082383394241
1.1082828044891357 0.42077624797821045 -0.10371533036231995 51.0 5 -0.09320852160453796
1.0223981142044067 0.387964129447937 0.21256123483181 8.0 13 -0.09320621937513351
1.0999338626861572 0.4171673059463501 -0.061651766300201416 57.0 6 -0.09320390969514847
1.0167958736419678 0.3854328989982605 0.2510454058647156 6.0 14 -0.09320160746574402
1.0995515584945679 0.41658273339271545 -0.020524028688669205 28.0 7 -0.09319930523633957
1.0171505212783813 0.3851613700389862 0.29143026471138 4.0 15 -0.09319700300693512
2.9245290756225586 1.1033378839492798 -0.8375384211540222 64.0 0 -0.09317626804113388
1.133884310722351 0.42755481600761414 0.02115231566131115 63.0 8 -0.09317395836114883
2.914013385772705 1.0982089042663574 -0.7189435958862305 60.0 1 -0.09317165613174438
1.1494733095169067 0.43297475576400757 0.06437323242425919 37.0 9 -0.09316935390233994
2.934072732925415 1.1051839590072632 -0.6094439625740051 54.0 2 -0.09316705167293549
1.0684318542480469 0.402235746383667 0.09988047927618027 25.0 10 -0.09316474199295044
1.133331298828125 0.4264428913593292 -0.1917886734008789 46.0 3 -0.09316243976354599
1.0237815380096436 0.3850181996822357 0.13430002331733704 45.0 11 -0.09316013753414154
1.1130406856536865 0.418364554643631 -0.1459994912147522 46.0 4 -0.09315783530473709
1.0503407716751099 0.39458805322647095 0.17770956456661224 41.0 12 -0.09315552562475204
1.1209355592727661 0.42110881209373474 -0.10476119816303253 55.0 5 -0.0931532233953476
1.02006995677948 0.3830128610134125 0.21179798245429993 8.0 13 -0.09315092116594315
1.1032533645629883 0.4140267074108124 -0.0617564357817173 54.0 6 -0.0931486189365387
1.0071876049041748 0.37777477502822876 0.2483459860086441 6.0 14 -0.09314630925655365
1.1122336387634277 0.4169539511203766 -0.020733458921313286 40.0 7 -0.0931440070271492
1.0293431282043457 0.3856750726699829 0.2945360839366913 1.0 15 -0.09314170479774475
2.9265527725219727 1.0924477577209473 -0.8370208144187927 65.0 0 -0.09312096983194351
1.1428638696670532 0.4263904094696045 0.021291935816407204 48.0 8 -0.09311866760253906
2.912351131439209 1.0859884023666382 -0.7175939083099365 63.0 1 -0.09311635792255402
1.1509774923324585 0.4289599359035492 0.06437323242425919 37.0 9 -0.09311405569314957
2.9268746376037598 1.0908222198486328 -0.6071542501449585 78.0 2 -0.09311175346374512
1.0716965198516846 0.399198979139328 0.1000547856092453 32.0 10 -0.09310945123434067
1.1440690755844116 0.4259304702281952 -0.19335302710533142 45.0 3 -0.09310714155435562
1.028840184211731 0.3828269839286804 0.13478749990463257 47.0 11 -0.09310483932495117
1.110772967338562 0.41309255361557007 -0.14551199972629547 47.0 4 -0.09310253709554672
1.0406020879745483 0.38679006695747375 0.1758323609828949 41.0 12 -0.09310023486614227
1.1149283647537231 0.414417028427124 -0.10406395047903061 55.0 5 -0.09309792518615723
1.0195602178573608 0.37876635789871216 0.21141637861728668 9.0 13 -0.09309562295675278
1.0990748405456543 0.4080871343612671 -0.06144241616129875 53.0 6 -0.09309332072734833
1.0030189752578735 0.372222900390625 0.24699626863002777 6.0 14 -0.09309101849794388
1.1080576181411743 0.41098299622535706 -0.02062874473631382 64.0 7 -0.09308871626853943
1.0252491235733032 0.3800649046897888 0.29298317432403564 1.0 15 -0.09308640658855438
2.9156627655029297 1.0773793458938599 -0.8328797221183777 65.0 0 -0.09313154220581055
1.134892225265503 0.4191345274448395 0.02111741155385971 46.0 8 -0.0931292399764061
2.919593095779419 1.0776735544204712 -0.7184937596321106 61.0 1 -0.09312693774700165
1.1636368036270142 0.42928820848464966 0.06500126421451569 35.0 9 -0.0931246280670166
2.9286341667175293 1.080430030822754 -0.6067726016044617 70.0 2 -0.09312232583761215
1.0655367374420166 0.39288654923439026 0.09935755282640457 42.0 10 -0.0931200236082077
1.154742956161499 0.4255492687225342 -0.19491736590862274 42.0 3 -0.09311772137880325
1.0319668054580688 0.38009893894195557 0.13503123819828033 50.0 11 -0.0931154116988182
1.1121364831924438 0.4094075560569763 -0.14551199972629547 46.0 4 -0.09311310946941376
1.0326097011566162 0.3799264430999756 0.17426802217960358 43.0 12 -0.09311080724000931
1.118166446685791 0.41140520572662354 -0.10423827171325684 50.0 5 -0.09310850501060486
1.037394404411316 0.3814813196659088 0.21485093235969543 8.0 13 -0.09310619533061981
1.1079206466674805 0.4071964621543884 -0.061861105263233185 50.0 6 -0.09310389310121536
1.0024187564849854 0.36822256445884705 0.24654637277126312 6.0 14 -0.09310159087181091
1.1019057035446167 0.4045492708683014 -0.020489124581217766 59.0 7 -0.09309928864240646
1.0228763818740845 0.37533217668533325 0.2919479012489319 1.0 15 -0.09309697896242142
2.9157767295837402 1.0658693313598633 -0.8318444490432739 65.0 0 -0.09307624399662018
1.1138094663619995 0.4069353938102722 0.020698554813861847 54.0 8 -0.09307394176721573
2.919675588607788 1.0661394596099854 -0.7175939083099365 63.0 1 -0.09307163953781128
1.1763854026794434 0.429332435131073 0.06562929600477219 47.0 9 -0.09306933730840683
2.932387590408325 1.0702012777328491 -0.6067726016044617 70.0 2 -0.09306702762842178
1.0556710958480835 0.38506796956062317 0.09831167012453079 42.0 10 -0.09306472539901733
1.176635980606079 0.42895859479904175 -0.1983589231967926 43.0 3 -0.09306242316961288
1.0388826131820679 0.37853333353996277 0.13576246798038483 52.0 11 -0.09306012094020844
1.1284810304641724 0.41095688939094543 -0.1474619209766388 43.0 4 -0.09305781126022339
1.039498209953308 0.37834668159484863 0.17520661652088165 51.0 12 -0.09305550903081894
1.1121068000793457 0.4047740697860718 -0.10354102402925491 49.0 5 -0.09305320680141449
1.025804877281189 0.3731600046157837 0.21217963099479675 9.0 13 -0.09305090457201004
1.107458233833313 0.40264442563056946 -0.0617564357817173 56.0 6 -0.093048594892025
1.0073611736297607 0.3660520315170288 0.24744616448879242 5.0 14 -0.09304629266262054
1.116468071937561 0.4054790437221527 -0.020733458921313286 63.0 7 -0.0930439904332161
1.0114688873291016 0.3671455979347229 0.2883244454860687 1.0 15 -0.09304168820381165
2.9194798469543457 1.0556840896606445 -0.8318444490432739 65.0 0 -0.0930209532380104
1.1077005863189697 0.40032604336738586 0.020558936521410942 57.0 8 -0.09301864355802536
2.916048049926758 1.0532939434051514 -0.7157943248748779 64.0 1 -0.09301634132862091
1.18719482421875 0.428821861743927 0.0661526545882225 37.0 9 -0.09301403909921646
2.936105489730835 1.0599579811096191 -0.6067726016044617 70.0 2 -0.09301173686981201
1.057008981704712 0.3813803493976593 0.09831167012453079 42.0 10 -0.09300942718982697
1.1929922103881836 0.4302098751068115 -0.2008618712425232 49.0 3 -0.09300712496042252
1.0289926528930664 0.3708658814430237 0.13430002331733704 52.0 11 -0.09300482273101807
1.1298377513885498 0.40721210837364197 -0.1474619209766388 44.0 4 -0.09300252050161362
1.0388888120651245 0.37422776222229004 0.17489375174045563 52.0 12 -0.09300021082162857
1.122885823249817 0.404264360666275 -0.10441257804632187 51.0 5 -0.09299790859222412
1.0086281299591064 0.3629295825958252 0.20836342871189117 10.0 13 -0.09299560636281967
1.1069777011871338 0.39810001850128174 -0.061651766300201416 51.0 6 -0.09299330413341522
