# .PCD v0.7 - Point Cloud Data file format
VERSION 0.7
FIELDS x y z intensity ring time
SIZE 4 4 4 4 4 4
TYPE F F F F F F
COUNT 1 1 1 1 1 1
WIDTH 550
HEIGHT 1
VIEWPOINT 0 0 0 1 0 0 0
POINTS 550
DATA ascii
-1.8995767831802368 1.0729784965515137 -0.038081150501966476 8.0 7 -0.0853407233953476
-3.103097915649414 1.7535042762756348 0.95504230260849 74.0 15 -0.08533841371536255
-2.69085431098938 1.524893045425415 -0.8287386298179626 22.0 0 -0.08531767874956131
-2.1900579929351807 1.242104411125183 -0.5812735557556152 1.0 1 -0.08531307429075241
-1.9438406229019165 1.1029092073440552 0.11712788045406342 54.0 9 -0.08531077206134796
-1.948311448097229 1.1054458618164062 -0.43542614579200745 1.0 2 -0.08530846238136292
-3.1674046516418457 1.7978739738464355 0.31864139437675476 28.0 10 -0.08530616015195847
-2.042405128479004 1.1597760915756226 -0.37200120091438293 3.0 3 -0.08530385792255402
-3.158630847930908 1.7943518161773682 0.4460418224334717 60.0 11 -0.08530155569314957
-3.11507248878479 1.7710456848144531 0.5675443410873413 65.0 12 -0.08529694378376007
-1.9587303400039673 1.1140704154968262 -0.19714628159999847 7.0 5 -0.08529464155435562
-3.1144204139709473 1.7713942527770996 0.6964528560638428 61.0 13 -0.08529233932495117
-1.9129811525344849 1.088491439819336 -0.1153484508395195 10.0 6 -0.08529002964496613
-3.1161856651306152 1.7738380432128906 0.8278198838233948 73.0 14 -0.08528772741556168
-1.9045082330703735 1.0845504999160767 -0.03825567662715912 7.0 7 -0.08528542518615723
-3.103672981262207 1.7681500911712646 0.9571128487586975 76.0 15 -0.08528312295675278
-2.6500256061553955 1.514614462852478 -0.817868173122406 32.0 0 -0.08526238799095154
-2.1535661220550537 1.23136305809021 -0.5727254152297974 4.0 1 -0.08525777608156204
-1.946913719177246 1.1136540174484253 0.11754656583070755 50.0 9 -0.08525547385215759
-1.9442466497421265 1.112579345703125 -0.43542614579200745 1.0 2 -0.08525317162275314
-3.1538777351379395 1.8055118322372437 0.31794413924217224 26.0 10 -0.0852508619427681
-1.9901444911956787 1.139765739440918 -0.3632408678531647 2.0 3 -0.08524855971336365
-3.1575164794921875 1.8083255290985107 0.44677305221557617 60.0 11 -0.0852462574839592
-3.1122992038726807 1.783873200416565 0.5681700706481934 65.0 12 -0.0852416455745697
-1.951372742652893 1.118918776512146 -0.1967976689338684 4.0 5 -0.08523934334516525
-3.124936819076538 1.7925660610198975 0.7002690434455872 63.0 13 -0.0852370411157608
-1.9159080982208252 1.0994720458984375 -0.11576715111732483 9.0 6 -0.08523473888635635
-3.1198036670684814 1.7910690307617188 0.8305193185806274 73.0 14 -0.0852324366569519
-1.8955081701278687 1.088205099105835 -0.03815096244215965 6.0 7 -0.08523012697696686
-3.100832223892212 1.7808973789215088 0.9581481218338013 76.0 15 -0.08522782474756241
-2.627983570098877 1.5142109394073486 -0.8126918077468872 36.0 0 -0.08520708978176117
-2.1676082611083984 1.249956488609314 -0.5776743292808533 3.0 1 -0.08520247787237167
-1.9516652822494507 1.1254323720932007 0.11806992441415787 47.0 9 -0.08520017564296722
-3.1492819786071777 1.8175050020217896 0.31811845302581787 25.0 10 -0.08519557118415833
-1.96733558177948 1.1358416080474854 -0.359799325466156 2.0 3 -0.08519326150417328
-3.1611807346343994 1.8258440494537354 0.44823548197746277 61.0 11 -0.08519095927476883
-1.9920824766159058 1.151055932044983 -0.28249314427375793 1.0 4 -0.08518865704536438
-3.119736909866333 1.8026318550109863 0.5706729888916016 63.0 12 -0.08518635481595993
-1.9457300901412964 1.1247265338897705 -0.19662334024906158 6.0 5 -0.08518405258655548
-3.1152613162994385 1.8014978170394897 0.6995058059692383 63.0 13 -0.08518174290657043
-1.925889253616333 1.1141538619995117 -0.1166045218706131 9.0 6 -0.08517944067716599
-3.1185922622680664 1.8048768043518066 0.8318690657615662 72.0 14 -0.08517713844776154
-1.9107362031936646 1.1058332920074463 -0.03853491693735123 5.0 7 -0.08517483621835709
-3.0945968627929688 1.791710615158081 0.9581481218338013 78.0 15 -0.08517252653837204
-2.6193413734436035 1.52143394947052 -0.8116565346717834 36.0 0 -0.0851517915725708
-2.456629753112793 1.4274970293045044 -0.6559573411941528 2.0 1 -0.0851471871137619
-1.959811806678772 1.139264464378357 0.11880263686180115 44.0 9 -0.08514488488435745
-3.15152907371521 1.8334975242614746 0.31898999214172363 23.0 10 -0.08514027297496796
-1.9738026857376099 1.1483194828033447 -0.36167651414871216 2.0 3 -0.08513797074556351
-3.1585397720336914 1.8383140563964844 0.4487229585647583 64.0 11 -0.08513566851615906
-1.9745304584503174 1.1496648788452148 -0.2805432379245758 3.0 4 -0.08513335883617401
-3.1339077949523926 1.8254426717758179 0.5744274258613586 71.0 12 -0.08513105660676956
-1.9676138162612915 1.146558165550232 -0.19923801720142365 3.0 5 -0.08512875437736511
-3.116055488586426 1.8157724142074585 0.701032280921936 61.0 13 -0.08512645214796066
-1.920458197593689 1.1195282936096191 -0.11649984866380692 9.0 6 -0.08512414246797562
-3.1327905654907227 1.8269892930984497 0.8372678756713867 72.0 14 -0.08512184023857117
-1.89995539188385 1.1084654331207275 -0.038395293056964874 5.0 7 -0.08511953800916672
-3.1016719341278076 1.8102916479110718 0.9622892737388611 78.0 15 -0.08511723577976227
-2.6009433269500732 1.5223050117492676 -0.8075154423713684 36.0 0 -0.08509650081396103
-2.579425573348999 1.5109206438064575 -0.6901498436927795 33.0 1 -0.08509188890457153
-1.9594697952270508 1.1477761268615723 0.11901197582483292 27.0 9 -0.08508958667516708
-3.1712138652801514 1.8590517044067383 0.3216046690940857 24.0 10 -0.08508497476577759
-1.978302001953125 1.1601990461349487 -0.3632408678531647 1.0 3 -0.08508267253637314
-3.1555285453796387 1.8513367176055908 0.44921043515205383 61.0 11 -0.08508037030696869
-1.9636573791503906 1.1525311470031738 -0.27956831455230713 1.0 4 -0.08507806807756424
-3.119319438934326 1.830824851989746 0.5728631019592285 65.0 12 -0.0850757583975792
-1.999881386756897 1.1742620468139648 -0.2028985619544983 1.0 5 -0.08507345616817474
-3.1198554039001465 1.8326038122177124 0.7033219933509827 64.0 13 -0.0850711539387703
-1.9182605743408203 1.1272376775741577 -0.1166045218706131 9.0 6 -0.08506885170936584
-3.1247143745422363 1.8369262218475342 0.8368179798126221 73.0 14 -0.0850665420293808
-1.9152319431304932 1.1259076595306396 -0.03877924755215645 3.0 7 -0.08506423979997635
-3.1056432723999023 1.8264433145523071 0.9653950929641724 78.0 15 -0.0850619375705719
-2.595613479614258 1.5313746929168701 -0.8075154423713684 34.0 0 -0.08504120260477066
-2.5811142921447754 1.5234277248382568 -0.6919494867324829 43.0 1 -0.08503659069538116
-1.9795293807983398 1.1688255071640015 0.12047737836837769 21.0 9 -0.08503428846597672
-3.1715660095214844 1.874165415763855 0.3223019242286682 23.0 10 -0.08502968400716782
-1.9880489110946655 1.1747926473617554 -0.36574381589889526 1.0 3 -0.08502737432718277
-3.156207323074341 1.8658316135406494 0.4501853883266449 61.0 11 -0.08502507209777832
-1.9939974546432495 1.1792463064193726 -0.28444308042526245 1.0 4 -0.08502276986837387
-3.1282100677490234 1.8507555723190308 0.5756788849830627 65.0 12 -0.08502046763896942
-3.127277135848999 1.850939393043518 0.7063749432563782 64.0 13 -0.08501585572957993
-1.924823522567749 1.1396976709365845 -0.117232546210289 8.0 6 -0.08501355350017548
-3.1286654472351074 1.8532371520996094 0.83951735496521 73.0 14 -0.08501125127077103
-1.9061293601989746 1.1295274496078491 -0.03867453336715698 3.0 7 -0.08500894904136658
-3.1092193126678467 1.8431836366653442 0.9685009121894836 82.0 15 -0.08500663936138153
-2.5600991249084473 1.5230984687805176 -0.7981979846954346 16.0 0 -0.08493661880493164
-2.565199375152588 1.5273452997207642 -0.6892500519752502 15.0 1 -0.08493201434612274
-2.002689838409424 1.192421555519104 0.12215213477611542 20.0 9 -0.0849297046661377
-3.161252975463867 1.8837366104125977 0.32195332646369934 20.0 10 -0.0849251002073288
-1.9835237264633179 1.1824171543121338 -0.36574381589889526 1.0 3 -0.08492279797792435
-3.1592490673065186 1.8840372562408447 0.4516478180885315 64.0 11 -0.0849204882979393
-2.0030930042266846 1.1950304508209229 -0.2863929867744446 1.0 4 -0.08491818606853485
-3.1247992515563965 1.864232063293457 0.5763046741485596 71.0 12 -0.0849158838391304
-1.9914273023605347 1.1885428428649902 -0.2028985619544983 1.0 5 -0.08491358160972595
-3.133631706237793 1.870985984802246 0.7094278931617737 64.0 13 -0.0849112719297409
-1.9341505765914917 1.1552735567092896 -0.11806992441415787 2.0 6 -0.08490896970033646
-3.128217935562134 1.8692351579666138 0.8413169980049133 69.0 14 -0.084906667470932
-1.9054092168807983 1.1385581493377686 -0.03874434158205986 2.0 7 -0.08490436524152756
-3.1024422645568848 1.8545680046081543 0.9685009121894836 80.0 15 -0.08490205556154251
-2.5514533519744873 1.5300387144088745 -0.7971627116203308 12.0 0 -0.08488132059574127
-2.565133571624756 1.5388511419296265 -0.690599799156189 13.0 1 -0.08487671613693237
-2.0224905014038086 1.2137938737869263 0.12361754477024078 10.0 9 -0.08487441390752792
-3.1649060249328613 1.9009150266647339 0.32299917936325073 19.0 10 -0.08486980199813843
-1.935563087463379 1.162543535232544 -0.35760921239852905 1.0 3 -0.08486749976873398
-3.161491632461548 1.8996152877807617 0.45286649465560913 60.0 11 -0.08486519753932953
-3.1233510971069336 1.8781821727752686 0.5772432088851929 61.0 12 -0.08486058562994003
-3.1274101734161377 1.8813673257827759 0.7094278931617737 61.0 13 -0.08485598117113113
-1.9594006538391113 1.179188847541809 -0.11984935402870178 1.0 6 -0.08485367149114609
-3.130350112915039 1.884623408317566 0.8435665369033813 69.0 14 -0.08485136926174164
-1.968230128288269 1.1854392290115356 -0.040105629712343216 2.0 7 -0.08484906703233719
-3.102569103240967 1.8693734407424927 0.9705714583396912 80.0 15 -0.08484676480293274
-2.625732660293579 1.5864442586898804 -0.8220093250274658 9.0 0 -0.0848260298371315
-2.706494092941284 1.636528730392456 -0.730191171169281 46.0 1 -0.084821417927742
-2.5069940090179443 1.5164958238601685 0.15355370938777924 10.0 9 -0.08481911569833755
-3.175630569458008 1.9217151403427124 0.32474228739738464 19.0 10 -0.08481450378894806
-3.1531436443328857 1.9096112251281738 0.45262277126312256 61.0 11 -0.08480989933013916
-3.1387364864349365 1.902384877204895 0.581310510635376 65.0 12 -0.08480528742074966
-2.698911428451538 1.6358073949813843 -0.27610939741134644 5.0 5 -0.08480298519134521
-3.120824098587036 1.892271876335144 0.7094278931617737 63.0 13 -0.08480068296194077
-1.9552725553512573 1.186021327972412 -0.11984935402870178 1.0 6 -0.08479838073253632
-3.132081985473633 1.9005943536758423 0.8458160161972046 63.0 14 -0.08479607850313187
-1.979465126991272 1.2016412019729614 -0.04041977599263191 2.0 7 -0.08479376882314682
-3.112536907196045 1.8902199268341064 0.97574782371521 82.0 15 -0.08479146659374237
-2.6927783489227295 1.6398108005523682 -0.8447853922843933 7.0 0 -0.08477073162794113
-2.7290539741516113 1.6632075309753418 -0.7378395199775696 56.0 1 -0.08476611971855164
-3.15993332862854 1.9265609979629517 0.19395707547664642 2.0 9 -0.08476381748914719
-3.1808106899261475 1.9400502443313599 0.32596248388290405 13.0 10 -0.08475921303033829
-3.137986660003662 1.9154349565505981 0.4514040946960449 12.0 11 -0.08475460112094879
-3.1405060291290283 1.9184776544570923 0.5828748941421509 67.0 12 -0.08474999666213989
-2.699986219406128 1.6493722200393677 -0.27680662274360657 48.0 5 -0.08474769443273544
-3.124251365661621 1.9092968702316284 0.7117176055908203 64.0 13 -0.0847453847527504
-3.128753900527954 1.9135487079620361 0.8467158079147339 63.0 14 -0.0847407802939415
-1.9513779878616333 1.1939325332641602 -0.03993110731244087 1.0 7 -0.08473847806453705
-3.1125099658966064 1.9051079750061035 0.9778183698654175 82.0 15 -0.084736168384552
-2.6936240196228027 1.6532419919967651 -0.8468559384346008 9.0 0 -0.08471543341875076
-2.7265524864196777 1.674763560295105 -0.7387393116950989 55.0 1 -0.08471082895994186
-2.9643046855926514 1.8215124607086182 0.18233849108219147 1.0 9 -0.08470851927995682
-2.72147536277771 1.6722983121871948 -0.6208925247192383 1.0 2 -0.08470621705055237
-2.688894271850586 1.6535718441009521 -0.4999645948410034 25.0 3 -0.08470161259174347
-3.0399811267852783 1.870207667350769 0.43824219703674316 1.0 11 -0.08469931036233902
-2.7573280334472656 1.6969828605651855 -0.39753782749176025 7.0 4 -0.08469700068235397
-3.132107973098755 1.928392767906189 0.5825620293617249 63.0 12 -0.08469469845294952
-2.690819263458252 1.6566977500915527 -0.2764580249786377 48.0 5 -0.08469239622354507
-3.1376266479492188 1.9325460195541382 0.7162970304489136 63.0 13 -0.08469009399414062
-2.679812431335449 1.6512113809585571 -0.16496294736862183 2.0 6 -0.08468778431415558
-3.1270318031311035 1.9275262355804443 0.8480655550956726 66.0 14 -0.08468548208475113
-3.1157066822052 1.9220463037490845 0.9809242486953735 78.0 15 -0.08468087762594223
-2.6779792308807373 1.6565368175506592 -0.8437501192092896 7.0 0 -0.0846601352095604
-2.735602617263794 1.6935019493103027 -0.7427884340286255 56.0 1 -0.0846555307507515
-2.9766063690185547 1.8434163331985474 0.18348988890647888 6.0 9 -0.08465322852134705
-2.722297430038452 1.6859225034713745 -0.6224189400672913 48.0 2 -0.0846509262919426
-2.96563982963562 1.8373420238494873 0.3052194118499756 5.0 10 -0.08464861661195755
-2.6998965740203857 1.673353672027588 -0.5030933022499084 56.0 3 -0.0846463143825531
-2.9743850231170654 1.8441959619522095 0.42971134185791016 4.0 11 -0.08464401215314865
-2.731144428253174 1.694041132926941 -0.39461296796798706 10.0 4 -0.0846417099237442
-3.1371068954467773 1.9466049671173096 0.584752082824707 67.0 12 -0.08463940024375916
-2.70025634765625 1.6755350828170776 -0.278026819229126 50.0 5 -0.0846370980143547
-3.1475419998168945 1.953840732574463 0.7201131582260132 61.0 13 -0.08463479578495026
-2.6977860927581787 1.6753066778182983 -0.1664283573627472 13.0 6 -0.0846324935555458
-3.1318717002868652 1.94562828540802 0.8512148261070251 63.0 14 -0.08463018387556076
-3.1155405044555664 1.9369903802871704 0.9829947352409363 76.0 15 -0.08462557941675186
-2.6738193035125732 1.6668972969055176 -0.844267725944519 7.0 0 -0.08460484445095062
-2.74124813079834 1.710261344909668 -0.7459377646446228 51.0 1 -0.08460023254156113
-2.9854018688201904 1.8633135557174683 0.18443192541599274 7.0 9 -0.08459793031215668
-2.7347159385681152 1.7068500518798828 -0.6266167759895325 58.0 2 -0.08459562808275223
-2.9558284282684326 1.8455724716186523 0.3048707842826843 7.0 10 -0.08459332585334778
-2.690688133239746 1.6806750297546387 -0.5024675726890564 59.0 3 -0.08459101617336273
-2.9679291248321533 1.8545680046081543 0.42971134185791016 4.0 11 -0.08458871394395828
-2.7167980670928955 1.6983033418655396 -0.39339426159858704 18.0 4 -0.08458641171455383
-3.1403424739837646 1.9638272523880005 0.586629331111908 62.0 12 -0.08458410948514938
-2.6890299320220947 1.682250738143921 -0.2775038778781891 48.0 5 -0.08458179980516434
-3.140702486038208 1.9648159742355347 0.7201131582260132 60.0 13 -0.08457949757575989
-2.737633466720581 1.7133218050003052 -0.16925449669361115 21.0 6 -0.08457719534635544
-3.1333203315734863 1.9617186784744263 0.8534643650054932 66.0 14 -0.08457489311695099
-2.709868907928467 1.6972624063491821 -0.05581279844045639 3.0 7 -0.08457258343696594
-3.1153085231781006 1.951956868171692 0.9850653409957886 78.0 15 -0.08457028120756149
-2.667692184448242 1.6766855716705322 -0.844267725944519 7.0 0 -0.08454954624176025
-2.7352614402770996 1.7198197841644287 -0.7459377646446228 52.0 1 -0.08454494178295135
-2.9856417179107666 1.877976894378662 0.18485060334205627 7.0 9 -0.08454263210296631
-2.7301037311553955 1.7179068326950073 -0.6269984245300293 55.0 2 -0.08454032987356186
-2.9793946743011475 1.8754990100860596 0.3080084025859833 7.0 10 -0.08453802764415741
-2.6928675174713135 1.6957893371582031 -0.5040318965911865 63.0 3 -0.08453572541475296
-2.9580776691436768 1.8628010749816895 0.4292238652706146 4.0 11 -0.08453341573476791
-2.705814838409424 1.7046014070510864 -0.39266306161880493 23.0 4 -0.08453111350536346
-3.1401526927948 1.978990912437439 0.5878807902336121 62.0 12 -0.08452881127595901
-2.6983096599578857 1.7011901140213013 -0.27907267212867737 50.0 5 -0.08452650904655457
-3.140122652053833 1.9805024862289429 0.7216396331787109 61.0 13 -0.08452419936656952
-3.1586873531341553 1.992983341217041 -0.19573649764060974 67.0 6 -0.08452189713716507
-3.145883798599243 1.9856723546981812 0.8588631749153137 66.0 14 -0.08451959490776062
-2.6954731941223145 1.7013745307922363 -0.05563827231526375 5.0 7 -0.08451729267835617
-3.121544122695923 1.971070408821106 0.9892064332962036 76.0 15 -0.08451499044895172
-2.661823272705078 1.6859873533248901 -0.844267725944519 7.0 0 -0.08449424803256989
-3.1823513507843018 2.0164670944213867 0.06576066464185715 11.0 8 -0.08449194580316544
-2.7322311401367188 1.7319201231002808 -0.7468375563621521 52.0 1 -0.08448964357376099
-2.985816240310669 1.8926639556884766 0.1852693110704422 7.0 9 -0.08448734134435654
-2.7340381145477295 1.7337346076965332 -0.6292880773544312 51.0 2 -0.08448503166437149
-2.9795591831207275 1.890156865119934 0.3087056279182434 7.0 10 -0.08448272943496704
-2.6852641105651855 1.7041200399398804 -0.5037190318107605 54.0 3 -0.08448042720556259
-2.9646377563476562 1.8821415901184082 0.43117377161979675 4.0 11 -0.08447812497615814
-2.686440944671631 1.7055245637893677 -0.3907131552696228 28.0 4 -0.0844758152961731
-3.1515679359436035 2.00158953666687 0.5913223624229431 60.0 12 -0.08447351306676865
-2.704127073287964 1.718077301979065 -0.2802928686141968 48.0 5 -0.0844712108373642
-3.149758815765381 2.001983880996704 0.7254558801651001 57.0 13 -0.08446890860795975
-3.1584527492523193 2.008283853530884 -0.19615517556667328 61.0 6 -0.0844666063785553
-3.137637138366699 1.9950482845306396 0.8584132790565491 67.0 14 -0.08446429669857025
-2.6962671279907227 1.715065598487854 -0.055777888745069504 3.0 7 -0.0844619944691658
-3.1244232654571533 1.9881781339645386 0.9923122525215149 78.0 15 -0.08445969223976135
-2.6594748497009277 1.6968834400177002 -0.8453030586242676 6.0 0 -0.08443895727396011
-3.170591115951538 2.023780107498169 0.06565595418214798 27.0 8 -0.08443664759397507
-2.736327886581421 1.747263789176941 -0.7495369911193848 51.0 1 -0.08443434536457062
-2.9845738410949707 1.9057796001434326 0.18558332324028015 7.0 9 -0.08443204313516617
-2.7315831184387207 1.7449053525924683 -0.63005131483078 51.0 2 -0.08442974090576172
-2.998457908630371 1.916119933128357 0.31132030487060547 7.0 10 -0.08442743122577667
-2.704563617706299 1.7289750576019287 -0.5084120631217957 63.0 3 -0.08442512899637222
-2.9751033782958984 1.9026575088500977 0.4336111545562744 4.0 11 -0.08442282676696777
-2.67909836769104 1.7133543491363525 -0.39046943187713623 33.0 4 -0.08442052453756332
-3.1449129581451416 2.0120296478271484 0.5913223624229431 60.0 12 -0.08441822230815887
-2.713517904281616 1.736701488494873 -0.28186166286468506 50.0 5 -0.08441591262817383
-3.1431031227111816 2.0124170780181885 0.7254558801651001 55.0 13 -0.08441361039876938
-3.166912317276001 2.028441905975342 -0.19709724187850952 60.0 6 -0.08441130816936493
-3.1342859268188477 2.0075442790985107 0.8593130707740784 63.0 14 -0.08440900593996048
-2.81852650642395 1.8059896230697632 -0.05843065679073334 8.0 7 -0.08440669625997543
-3.1405832767486572 2.013123035430908 0.999559223651886 74.0 15 -0.08440439403057098
-2.657083511352539 1.7077823877334595 -0.8463383316993713 7.0 0 -0.08438365906476974
-3.153770923614502 2.027794361114502 0.06544652581214905 48.0 8 -0.0843813568353653
-2.746908187866211 1.7668704986572266 -0.754036009311676 49.0 1 -0.08437904715538025
-2.991339683532715 1.9248322248458862 0.18642069399356842 6.0 9 -0.0843767449259758
-2.7274324893951416 1.7550163269042969 -0.6304329633712769 49.0 2 -0.08437444269657135
-2.987062454223633 1.9228161573410034 0.3107973635196686 7.0 10 -0.0843721404671669
-2.698815107345581 1.7379343509674072 -0.5084120631217957 56.0 3 -0.08436983823776245
-2.9754526615142822 1.9168131351470947 0.4345861077308655 4.0 11 -0.0843675285577774
-2.6897871494293213 1.7334492206573486 -0.3929068148136139 43.0 4 -0.08436522632837296
-3.1428515911102295 2.026205539703369 0.5922609567642212 61.0 12 -0.0843629240989685
-2.704394817352295 1.7435312271118164 -0.2815130650997162 48.0 5 -0.08436062186956406
-3.147961139678955 2.030277729034424 0.7281271815299988 59.0 13 -0.08435831218957901
-3.1719162464141846 2.0465123653411865 -0.197829931974411 55.0 6 -0.08435600996017456
-3.143632650375366 2.0290400981903076 0.8638120889663696 67.0 14 -0.08435370773077011
-2.9314804077148438 1.8928323984146118 -0.06090889871120453 35.0 7 -0.08435140550136566
-3.130290985107422 2.0219779014587402 0.9985239505767822 74.0 15 -0.08434909582138062
-2.639755964279175 1.7096951007843018 -0.8427148461341858 7.0 0 -0.08432836085557938
-2.750535249710083 1.7828078269958496 -0.7567353844642639 50.0 1 -0.08432375639677048
-2.994657278060913 1.941781997680664 0.18704871833324432 6.0 9 -0.08432145416736603
-2.726231575012207 1.7677305936813354 -0.6315777897834778 47.0 2 -0.08431914448738098
-2.9803316593170166 1.933232069015503 0.3107973635196686 7.0 10 -0.08431684225797653
-2.691075086593628 1.7462691068649292 -0.5080991983413696 54.0 3 -0.08431454002857208
-2.9953842163085938 1.9444818496704102 0.4384859502315521 4.0 11 -0.08431223779916763
-2.6903793811798096 1.74715256690979 -0.39388173818588257 47.0 4 -0.08430992811918259
-3.152324676513672 2.0479254722595215 0.5953896641731262 61.0 12 -0.08430762588977814
-2.7083168029785156 1.759473204612732 -0.2825589179992676 46.0 5 -0.08430532366037369
-3.1457936763763428 2.0444633960723877 0.7292720079421997 55.0 13 -0.08430302143096924
-3.1748006343841553 2.064103126525879 -0.1984579712152481 53.0 6 -0.08430071175098419
-3.1463327407836914 2.0463759899139404 0.8665115237236023 67.0 14 -0.08429840952157974
-2.9332358837127686 1.9085063934326172 -0.06108342483639717 55.0 7 -0.08429610729217529
-3.1280715465545654 2.036052942276001 1.0000767707824707 72.0 15 -0.08429380506277084
-2.649949789047241 1.7294574975967407 -0.8478912711143494 7.0 0 -0.0842730700969696
-3.1412110328674316 2.050855875015259 0.06548143178224564 1.0 8 -0.08427076041698456
-2.741032361984253 1.7902668714523315 -0.7558355927467346 49.0 1 -0.08426845818758011
-3.0112693309783936 1.9675172567367554 0.18851414322853088 6.0 9 -0.08426615595817566
-2.7315495014190674 1.784752607345581 -0.6342491507530212 49.0 2 -0.08426385372877121
-2.995245933532715 1.9577946662902832 0.31306344270706177 7.0 10 -0.08426154404878616
-2.699842929840088 1.7653818130493164 -0.5109150409698486 55.0 3 -0.08425924181938171
-2.981933355331421 1.9505791664123535 0.43751096725463867 2.0 11 -0.08425693958997726
-2.697552442550659 1.7652287483215332 -0.3958316743373871 47.0 4 -0.08425463736057281
-3.156726121902466 2.066490411758423 0.5975797176361084 60.0 12 -0.08425232768058777
-2.712160587310791 1.7754640579223633 -0.28360477089881897 56.0 5 -0.08425002545118332
-3.1468498706817627 2.06080961227417 0.7311801314353943 59.0 13 -0.08424772322177887
-3.1742584705352783 2.0795509815216064 -0.19887664914131165 55.0 6 -0.08424542099237442
-3.1570990085601807 2.069096565246582 0.8714604377746582 69.0 14 -0.08424311131238937
-2.9232113361358643 1.9165410995483398 -0.061013612896203995 53.0 7 -0.08424080908298492
-3.1306376457214355 2.053316831588745 1.0031826496124268 72.0 15 -0.08423850685358047
-2.6406679153442383 1.7365747690200806 -0.8468559384346008 7.0 0 -0.08421777188777924
-3.110644578933716 2.046422004699707 0.0649927631020546 1.0 8 -0.08421546965837479
-2.7445337772369385 1.8062514066696167 -0.7585350275039673 51.0 1 -0.08421315997838974
-3.0110552310943604 1.9824105501174927 0.18893282115459442 6.0 9 -0.08421085774898529
-2.7351412773132324 1.8007550239562988 -0.6365388631820679 49.0 2 -0.08420855551958084
-3.0017049312591553 1.9770054817199707 0.3144579231739044 6.0 10 -0.08420625329017639
-2.706860303878784 1.7834892272949219 -0.5134179592132568 57.0 3 -0.08420394361019135
-2.988365888595581 1.9697158336639404 0.4394609034061432 4.0 11 -0.0842016413807869
-2.6880595684051514 1.7724487781524658 -0.39534419775009155 48.0 4 -0.08419933915138245
-3.164334297180176 2.087285280227661 0.6003955602645874 63.0 12 -0.084197036921978
-2.712599277496338 1.789307951927185 -0.2843020260334015 54.0 5 -0.08419472724199295
-3.1511075496673584 2.079350709915161 0.733851432800293 56.0 13 -0.0841924250125885
-3.163646697998047 2.0884177684783936 -0.19866731762886047 53.0 6 -0.08419012278318405
-3.1498570442199707 2.080104112625122 0.8714604377746582 69.0 14 -0.0841878205537796
-2.9248461723327637 1.9322447776794434 -0.06118813902139664 23.0 7 -0.08418551832437515
-3.1363446712493896 2.072753429412842 1.0073237419128418 72.0 15 -0.0841832086443901
-2.6410317420959473 1.75005042552948 -0.8489265441894531 7.0 0 -0.08416247367858887
-2.75445294380188 1.8265907764434814 -0.7630340456962585 48.0 1 -0.08415786921977997
-3.0041167736053467 1.9929090738296509 0.18893282115459442 5.0 9 -0.08415555953979492
-2.735382318496704 1.814632534980774 -0.6380652785301208 49.0 2 -0.08415325731039047
-2.9997661113739014 1.9907758235931396 0.3149808347225189 5.0 10 -0.08415095508098602
-2.7104921340942383 1.799483299255371 -0.5152952075004578 55.0 3 -0.08414865285158157
-2.991393804550171 1.9867249727249146 0.4409233331680298 2.0 11 -0.08414634317159653
-2.6884703636169434 1.7862144708633423 -0.39631912112236023 47.0 4 -0.08414404094219208
-3.1586735248565674 2.099412441253662 0.6007084250450134 62.0 12 -0.08414173871278763
-2.7196106910705566 1.8075892925262451 -0.28569650650024414 55.0 5 -0.08413943648338318
-3.161813497543335 2.102295160293579 0.7380492687225342 61.0 13 -0.08413713425397873
-3.1762936115264893 2.1127212047576904 -0.19992336630821228 57.0 6 -0.08413482457399368
-3.147444248199463 2.094325542449951 0.8728101253509521 67.0 14 -0.08413252234458923
-2.9297358989715576 1.950199007987976 -0.06143247336149216 51.0 7 -0.08413022011518478
-3.1435623168945312 2.093324899673462 1.0119824409484863 76.0 15 -0.08412791788578033
-2.63008713722229 1.7560398578643799 -0.8473736047744751 7.0 0 -0.0841071754693985
-2.7545406818389893 1.84052574634552 -0.7648336291313171 47.0 1 -0.0841025710105896
-3.0170681476593018 2.0167014598846436 0.19018888473510742 5.0 9 -0.08410026878118515
-2.733928680419922 1.8274422883987427 -0.6392101645469666 51.0 2 -0.0840979665517807
-3.001079559326172 2.00677227973938 0.31585240364074707 3.0 10 -0.08409565687179565
-2.7091197967529297 1.812228798866272 -0.5162338018417358 54.0 3 -0.0840933546423912
-3.0174362659454346 2.0192341804504395 0.4457980990409851 2.0 11 -0.08409105241298676
-2.695415496826172 1.8044227361679077 -0.39826905727386475 47.0 4 -0.0840887501835823
-3.1611740589141846 2.117020606994629 0.6025856137275696 61.0 12 -0.08408644050359726
-2.7165956497192383 1.819288969039917 -0.2860451340675354 54.0 5 -0.08408413827419281
-3.162611484527588 2.1187820434570312 0.739957332611084 60.0 13 -0.08408183604478836
-3.1788535118103027 2.1304681301116943 -0.20055140554904938 55.0 6 -0.08407953381538391
-3.154681921005249 2.1150662899017334 0.8768593072891235 66.0 14 -0.08407722413539886
-2.907963991165161 1.9503883123397827 -0.06111832708120346 57.0 7 -0.08407492190599442
-3.136235475540161 2.104285955429077 1.0119824409484863 76.0 15 -0.08407261967658997
-2.625544309616089 1.76628839969635 -0.8478912711143494 7.0 0 -0.08405188471078873
-3.137155055999756 2.1112618446350098 0.06600499898195267 18.0 8 -0.08404958248138428
-2.746483325958252 1.8490408658981323 -0.7643837332725525 43.0 1 -0.08404727280139923
-3.0133233070373535 2.029452323913574 0.1903982311487198 4.0 9 -0.08404497057199478
-2.7405600547790527 1.8457481861114502 -0.6422631144523621 51.0 2 -0.08404266834259033
-2.992403745651245 2.0161232948303223 0.31567808985710144 5.0 10 -0.08404036611318588
-2.7093300819396973 1.826089859008789 -0.5174852609634399 51.0 3 -0.08403805643320084
-3.007077693939209 2.0275352001190186 0.4453106224536896 2.0 11 -0.08403575420379639
-2.705557346343994 1.8249216079711914 -0.4007064402103424 45.0 4 -0.08403345197439194
-3.1652276515960693 2.1357760429382324 0.6047757267951965 65.0 12 -0.08403114974498749
-2.709909677505493 1.8292330503463745 -0.2860451340675354 52.0 5 -0.08402884006500244
-3.161705255508423 2.134202241897583 0.7414838075637817 63.0 13 -0.08402653783559799
-3.1862940788269043 2.151610851287842 -0.20149344205856323 60.0 6 -0.08402423560619354
-3.16019868850708 2.134791374206543 0.8804585337638855 69.0 14 -0.08402193337678909
-2.8911972045898438 1.9538092613220215 -0.06090889871120453 61.0 7 -0.08401962369680405
-3.1320719718933105 2.117384672164917 1.0130177736282349 78.0 15 -0.0840173214673996
-2.625448703765869 1.7802363634109497 -0.8499617576599121 9.0 0 -0.08399658650159836
-3.139697313308716 2.1289327144622803 0.0662144273519516 24.0 8 -0.08399428427219391
-2.7464630603790283 1.8629924058914185 -0.7661833167076111 41.0 1 -0.08399198204278946
-3.02274751663208 2.051173210144043 0.19144494831562042 4.0 9 -0.08398967236280441
-2.7532684803009033 1.8690122365951538 -0.6468425393104553 51.0 2 -0.08398737013339996
-3.0064220428466797 2.041627883911133 0.31794413924217224 3.0 10 -0.08398506790399551
-2.7058866024017334 1.838228702545166 -0.5181110501289368 51.0 3 -0.08398276567459106
-2.99998140335083 2.038020372390747 0.4453106224536896 2.0 11 -0.08398045599460602
-2.709022045135498 1.8410488367080688 -0.402168869972229 48.0 4 -0.08397815376520157
-3.1708216667175293 2.1556966304779053 0.6072786450386047 65.0 12 -0.08397585153579712
-2.7199819087982178 1.849886417388916 -0.2877882421016693 52.0 5 -0.08397354930639267
-3.1538617610931396 2.1457762718200684 0.7414838075637817 59.0 13 -0.08397123962640762
-3.176736354827881 2.1621506214141846 -0.20138879120349884 53.0 6 -0.08396893739700317
-3.162017345428467 2.1529409885406494 0.8831579089164734 66.0 14 -0.08396663516759872
-2.889317512512207 1.9672664403915405 -0.061013612896203995 83.0 7 -0.08396433293819427
-3.134242296218872 2.13482928276062 1.016123652458191 76.0 15 -0.08396202325820923
-2.6208136081695557 1.7904798984527588 -0.8504794239997864 6.0 0 -0.08394128829240799
-3.1401278972625732 2.1460676193237305 0.06638895720243454 23.0 8 -0.08393898606300354
-2.752485990524292 1.8818451166152954 -0.769782543182373 33.0 1 -0.08393668383359909
-3.018866539001465 2.0639665126800537 0.1916542947292328 4.0 9 -0.08393438160419464
-2.756450653076172 1.8852617740631104 -0.649132251739502 51.0 2 -0.0839320719242096
-3.0091428756713867 2.0588603019714355 0.31898999214172363 3.0 10 -0.08392976969480515
-2.7092344760894775 1.8543567657470703 -0.5199882388114929 47.0 3 -0.0839274674654007
-3.0055954456329346 2.057973623275757 0.4472605288028717 3.0 11 -0.08392516523599625
-2.705531597137451 1.853209376335144 -0.40265634655952454 48.0 4 -0.0839228555560112
-3.1763153076171875 2.175682306289673 0.6097816228866577 63.0 12 -0.08392055332660675
-2.720082998275757 1.863874077796936 -0.28848549723625183 50.0 5 -0.0839182510972023
-3.159306764602661 2.165652275085449 0.7445367574691772 59.0 13 -0.08391594886779785
-3.1790521144866943 2.180004358291626 -0.20201681554317474 53.0 6 -0.0839136391878128
-3.162518262863159 2.1694767475128174 0.8854073882102966 63.0 14 -0.08391133695840836
-2.8675925731658936 1.9671587944030762 -0.0606994703412056 77.0 7 -0.0839090347290039
-3.142699718475342 2.1566879749298096 1.021299958229065 76.0 15 -0.08390673249959946
-2.6129562854766846 1.7985221147537231 -0.8499617576599121 6.0 0 -0.08388599753379822
-3.1428775787353516 2.163271903991699 0.06659838557243347 20.0 8 -0.08388368785381317
-2.7751216888427734 1.9108549356460571 -0.7778807878494263 22.0 1 -0.08388138562440872
-3.0182228088378906 2.079023838043213 0.19207297265529633 4.0 9 -0.08387908339500427
-2.7498533725738525 1.8948720693588257 -0.649132251739502 55.0 2 -0.08387678116559982
-3.011780261993408 2.076136350631714 0.3200358748435974 4.0 10 -0.08387447148561478
-2.7128286361694336 1.8700575828552246 -0.5218654274940491 49.0 3 -0.08387216925621033
-3.0118279457092285 2.0769448280334473 0.44921043515205383 3.0 11 -0.08386986702680588
-2.702639102935791 1.8644254207611084 -0.40314382314682007 48.0 4 -0.08386756479740143
-3.1670756340026855 2.1856343746185303 0.6094687581062317 62.0 12 -0.08386525511741638
-2.7332353591918945 1.8869409561157227 -0.290577232837677 51.0 5 -0.08386295288801193
-3.168264150619507 2.1872713565826416 0.7483529448509216 61.0 13 -0.08386065065860748
-3.1981008052825928 2.208693504333496 -0.20369155704975128 57.0 6 -0.08385834842920303
-3.155305862426758 2.17995285987854 0.8854073882102966 63.0 14 -0.08385604619979858
-2.840968132019043 1.9635133743286133 -0.06028061360120773 65.0 7 -0.08385373651981354
-3.146275520324707 2.175335645675659 1.0249234437942505 72.0 15 -0.08385143429040909
-2.5926883220672607 1.797271728515625 -0.8453030586242676 6.0 0 -0.08383069932460785
-3.1369504928588867 2.175367832183838 0.06663328409194946 27.0 8 -0.0838283970952034
-2.859701156616211 1.9838453531265259 -0.8035252690315247 7.0 1 -0.08382608741521835
-3.02115797996521 2.0958518981933594 0.19270101189613342 4.0 9 -0.0838237851858139
-2.762908935546875 1.9174124002456665 -0.6537116169929504 18.0 2 -0.08382148295640945
-3.0130624771118164 2.0917928218841553 0.32090744376182556 2.0 10 -0.083819180727005
-2.7241315841674805 1.8919107913970947 -0.5253069996833801 40.0 3 -0.08381687104701996
-3.0078201293945312 2.0897107124328613 0.44969791173934937 3.0 11 -0.08381456881761551
-2.705895185470581 1.8806450366973877 -0.40460625290870667 47.0 4 -0.08381226658821106
-3.169543504714966 2.2028887271881104 0.6113459467887878 61.0 12 -0.08380996435880661
-2.7269630432128906 1.8959943056106567 -0.290577232837677 50.0 5 -0.08380766212940216
-3.1735036373138428 2.2072854042053223 0.7514058947563171 59.0 13 -0.08380535244941711
-3.2231597900390625 2.242658853530884 -0.20578500628471375 55.0 6 -0.08380305022001266
-3.158874034881592 2.1987462043762207 0.888556718826294 61.0 14 -0.08380074799060822
-2.816387414932251 1.9603571891784668 -0.05989665910601616 67.0 7 -0.08379844576120377
-3.1438002586364746 2.1890687942504883 1.0264763832092285 80.0 15 -0.08379613608121872
-2.580064058303833 1.8018858432769775 -0.8432324528694153 6.0 0 -0.08377540111541748
-3.1313588619232178 2.186903715133667 0.06666819006204605 31.0 8 -0.08377309888601303
-2.93298077583313 2.049121379852295 -0.8260203003883362 4.0 1 -0.08377079665660858
-3.0269200801849365 2.1155381202697754 0.1935383826494217 4.0 9 -0.08376849442720413
-3.285557270050049 2.297154188156128 -0.779263973236084 27.0 2 -0.08376618474721909
-3.0073750019073486 2.103440761566162 0.3210817575454712 4.0 10 -0.08376388251781464
-2.708130359649658 1.8941409587860107 -0.523429811000824 25.0 3 -0.08376158028841019
-3.0203914642333984 2.113330125808716 0.45262277126312256 3.0 11 -0.08375927805900574
-2.7126543521881104 1.898714303970337 -0.4065561592578888 52.0 4 -0.08375696837902069
-3.1763968467712402 2.2241368293762207 0.6141617894172668 63.0 12 -0.08375466614961624
-3.206625461578369 2.2461373805999756 -0.3425220847129822 41.0 5 -0.08375236392021179
-3.175814390182495 2.224555253982544 0.7536956071853638 60.0 13 -0.08375006169080734
-3.2353339195251465 2.26708722114563 -0.20704105496406555 55.0 6 -0.0837477520108223
-3.165926694869995 2.2192766666412354 0.8926058411598206 60.0 14 -0.08374544978141785
-2.8013408184051514 1.9644356966018677 -0.059722136706113815 62.0 7 -0.0837431475520134
-3.1424665451049805 2.2044665813446045 1.028546929359436 76.0 15 -0.08374084532260895
-2.5756547451019287 1.811543345451355 -0.8437501192092896 6.0 0 -0.08372011035680771
-3.1367897987365723 2.207026720046997 0.06694743037223816 14.0 8 -0.08371780067682266
-2.9162487983703613 2.052617073059082 -0.8233208656311035 5.0 1 -0.08371549844741821
-3.032954216003418 2.134760856628418 0.19437576830387115 3.0 9 -0.08371319621801376
-3.2923688888549805 2.318209409713745 -0.7826985716819763 27.0 2 -0.08371089398860931
-3.0248165130615234 2.1306111812591553 0.32369643449783325 2.0 10 -0.08370858430862427
-3.135873794555664 2.209657669067383 -0.6075915694236755 46.0 3 -0.08370628207921982
-3.0162417888641357 2.1261470317840576 0.4531102478504181 3.0 11 -0.08370397984981537
-2.939621686935425 2.072906732559204 -0.4416545331478119 32.0 4 -0.08370167762041092
-3.1770758628845215 2.2403502464294434 0.615726113319397 62.0 12 -0.08369936794042587
-3.2252085208892822 2.2751340866088867 -0.3453110456466675 48.0 5 -0.08369706571102142
-3.171238660812378 2.2378907203674316 0.7544588446617126 61.0 13 -0.08369476348161697
-3.227400064468384 2.278367757797241 -0.20704105496406555 57.0 6 -0.08369246125221252
-3.1693031787872314 2.2381834983825684 0.8957551121711731 61.0 14 -0.08369015157222748
-2.804611921310425 1.9806360006332397 -0.05993156507611275 82.0 7 -0.08368784934282303
-3.150916814804077 2.2260220050811768 1.0337233543395996 74.0 15 -0.08368554711341858
-2.5693156719207764 1.8205230236053467 -0.8437501192092896 6.0 0 -0.08366481214761734
-3.160454273223877 2.239382266998291 0.06761062145233154 47.0 8 -0.08366250991821289
-2.9014766216278076 2.0566420555114746 -0.8210713863372803 4.0 1 -0.08366020023822784
-3.032001256942749 2.1499552726745605 0.1947944462299347 4.0 9 -0.0836578980088234
-3.2954657077789307 2.337639093399048 -0.785369873046875 17.0 2 -0.08365559577941895
-3.0238595008850098 2.1457695960998535 0.3243936598300934 4.0 10 -0.0836532935500145
-3.2525744438171387 2.3080687522888184 -0.6316824555397034 53.0 3 -0.08365098387002945
-3.002699851989746 2.1315414905548096 0.4521353244781494 3.0 11 -0.083648681640625
-3.230536937713623 2.2941253185272217 -0.48650243878364563 38.0 4 -0.08364637941122055
-3.18533992767334 2.262866735458374 0.618854820728302 61.0 12 -0.0836440771818161
-3.2286159992218018 2.294456720352173 -0.3465312123298645 45.0 5 -0.08364176750183105
-3.1830034255981445 2.2620418071746826 0.7590382099151611 60.0 13 -0.0836394652724266
-3.2295944690704346 2.2960004806518555 -0.20766909420490265 55.0 6 -0.08363716304302216
-3.163451671600342 2.2498104572296143 0.8962050676345825 60.0 14 -0.0836348608136177
-2.791163444519043 1.9857767820358276 -0.05979194492101669 65.0 7 -0.08363255858421326
-3.1588664054870605 2.2482101917266846 1.0388997793197632 64.0 15 -0.08363024890422821
-2.575523853302002 1.8384597301483154 -0.8478912711143494 6.0 0 -0.08354783058166504
-3.1994192600250244 2.284651517868042 0.06862286478281021 42.0 8 -0.08354552835226059
-2.895505428314209 2.068394660949707 -0.8215212821960449 4.0 1 -0.08354322612285614
-3.0306007862091064 2.165698766708374 0.19521313905715942 4.0 9 -0.0835409164428711
-3.2856884002685547 2.347986936569214 -0.784988284111023 13.0 2 -0.08353861421346664
-3.0341804027557373 2.1690568923950195 0.3263110816478729 2.0 10 -0.0835363119840622
-3.247307300567627 2.322272300720215 -0.6323081851005554 49.0 3 -0.08353400975465775
-3.0303852558135986 2.1679434776306152 0.45749756693840027 3.0 11 -0.0835317000746727
-3.2285637855529785 2.3105714321136475 -0.4874773919582367 43.0 4 -0.08352939784526825
-3.1818437576293945 2.27797532081604 0.6197934150695801 60.0 12 -0.0835270956158638
-3.239621877670288 2.3201968669891357 -0.3486229479312897 45.0 5 -0.08352479338645935
-3.1938445568084717 2.2874114513397217 0.7636176943778992 57.0 13 -0.0835224837064743
-3.230898380279541 2.314802408218384 -0.20829713344573975 53.0 6 -0.08352018147706985
-3.1646888256073 2.268200635910034 0.8989045023918152 57.0 14 -0.0835178792476654
-2.7854912281036377 1.9971588850021362 -0.05982685089111328 58.0 7 -0.08351557701826096
-3.167872905731201 2.27215838432312 1.0445936918258667 63.0 15 -0.08351326733827591
-2.562495470046997 1.8433746099472046 -0.8458206653594971 6.0 0 -0.08349253237247467
-3.204411268234253 2.305147647857666 0.06890209764242172 44.0 8 -0.08349023014307022
-2.8898494243621826 2.079627752304077 -0.8219712376594543 4.0 1 -0.08348792791366577
-3.039231777191162 2.1879332065582275 0.19625985622406006 3.0 9 -0.08348562568426132
-3.2770605087280273 2.360013723373413 -0.784988284111023 12.0 2 -0.08348331600427628
-3.043992519378662 2.1929738521575928 0.32822853326797485 2.0 10 -0.08348101377487183
-3.253196954727173 2.344553232192993 -0.6351240277290344 48.0 3 -0.08347871154546738
-3.0356831550598145 2.1877927780151367 0.4594474732875824 3.0 11 -0.08347640931606293
-3.2269198894500732 2.3264713287353516 -0.48845240473747253 42.0 4 -0.08347409963607788
-3.180281162261963 2.2936904430389404 0.621044933795929 58.0 12 -0.08347179740667343
-3.228271722793579 2.32915997505188 -0.3482743501663208 42.0 5 -0.08346949517726898
-3.19339919090271 2.3048460483551025 0.7655256986618042 55.0 13 -0.08346719294786453
-3.241823673248291 2.34065842628479 -0.20955318212509155 50.0 6 -0.08346488326787949
-3.1721510887145996 2.291195869445801 0.9034035205841064 57.0 14 -0.08346258103847504
-2.7898504734039307 2.015065908432007 -0.0600711815059185 62.0 7 -0.08346027880907059
-3.1599228382110596 2.2832016944885254 1.0445936918258667 63.0 15 -0.08345797657966614
-2.5435307025909424 1.8432393074035645 -0.841679573059082 6.0 0 -0.0834372416138649
-3.2024168968200684 2.3215718269348145 0.06904172152280807 44.0 8 -0.08343493193387985
-2.8948280811309814 2.099358081817627 -0.8255704045295715 4.0 1 -0.0834326297044754
-3.0538251399993896 2.215477705001831 0.19772526621818542 3.0 9 -0.08343032747507095
-3.2688026428222656 2.37143874168396 -0.784988284111023 8.0 2 -0.0834280252456665
-3.039543390274048 2.2059273719787598 0.3285771608352661 2.0 10 -0.08342571556568146
-3.246591567993164 2.357055425643921 -0.6354368925094604 49.0 3 -0.08342341333627701
-3.0469181537628174 2.212902545928955 0.4623723328113556 3.0 11 -0.08342111110687256
-3.244065999984741 2.356952428817749 -0.492352157831192 45.0 4 -0.08341880887746811
-3.1878323554992676 2.3169450759887695 0.6241735816001892 58.0 12 -0.08341649919748306
-3.229792356491089 2.347442150115967 -0.3493202328681946 41.0 5 -0.08341419696807861
-3.183746337890625 2.3148248195648193 0.7651441097259521 57.0 13 -0.08341189473867416
-3.2433249950408936 2.3590095043182373 -0.21018122136592865 46.0 6 -0.08340959250926971
-3.1767404079437256 2.3114261627197266 0.9070026874542236 60.0 14 -0.08340729027986526
-2.7953805923461914 2.03469181060791 -0.06035042181611061 63.0 7 -0.08340498059988022
-3.167149782180786 2.306140422821045 1.0497701168060303 60.0 15 -0.08340267837047577
-2.543323040008545 1.856662392616272 -0.8437501192092896 6.0 0 -0.08338194340467453
-3.197523593902588 2.335095167160034 0.06911153346300125 44.0 8 -0.08337964117527008
-2.871746778488159 2.097954750061035 -0.8210713863372803 3.0 1 -0.08337733149528503
-3.0686490535736084 2.242621898651123 0.1991906762123108 3.0 9 -0.08337502926588058
-3.273185968399048 2.3921010494232178 -0.7880411744117737 8.0 2 -0.08337272703647614
-3.0446925163269043 2.2259304523468018 0.32997164130210876 2.0 10 -0.08337042480707169
-3.2447218894958496 2.3730380535125732 -0.6366883516311646 49.0 3 -0.08336811512708664
-3.0600016117095947 2.2387633323669434 0.46554091572761536 3.0 11 -0.08336581289768219
-3.2566442489624023 2.38350248336792 -0.49552077054977417 33.0 4 -0.08336351066827774
-3.219571113586426 2.3572323322296143 0.6319952607154846 75.0 12 -0.08336120843887329
-3.171743392944336 2.3222148418426514 -0.34391653537750244 34.0 5 -0.08335890620946884
-3.204155683517456 2.346806049346924 0.7720131874084473 67.0 13 -0.0833565965294838
-3.2302379608154297 2.366774320602417 -0.2098672091960907 33.0 6 -0.08335429430007935
-3.228379011154175 2.3662784099578857 0.9240990281105042 76.0 14 -0.0833519920706749
-2.7995493412017822 2.0527148246765137 -0.06059475615620613 67.0 7 -0.08334968984127045
-3.1964664459228516 2.3446033000946045 1.0621933937072754 79.0 15 -0.0833473801612854
-2.546164035797119 1.8723965883255005 -0.8468559384346008 6.0 0 -0.08332664519548416
-3.2006285190582275 2.35453724861145 0.06935586780309677 45.0 8 -0.08332434296607971
-2.873823881149292 2.114895820617676 -0.8237708210945129 3.0 1 -0.08332204073667526
-3.057584762573242 2.2509524822235107 0.19898132979869843 3.0 9 -0.08331973105669022
-3.274301290512085 2.410496234893799 -0.7903308868408203 8.0 2 -0.08331742882728577
-3.038508176803589 2.2377262115478516 0.3301459550857544 2.0 10 -0.08331512659788132
-3.250732421875 2.3948941230773926 -0.6395041942596436 48.0 3 -0.08331282436847687
-3.0777368545532227 2.2682740688323975 0.469440758228302 1.0 11 -0.08331052213907242
-3.2546956539154053 2.3995683193206787 -0.4964957535266876 12.0 4 -0.08330821245908737
-3.238349437713623 2.3883891105651855 0.6373141407966614 70.0 12 -0.08330591022968292
-3.243790626525879 2.392402172088623 -0.3526321053504944 52.0 5 -0.08330360800027847
-3.2307004928588867 2.3836185932159424 0.7804087996482849 71.0 13 -0.08330130577087402
-3.2299909591674805 2.3839657306671143 -0.21039055287837982 19.0 6 -0.08329899609088898
-3.2310731410980225 2.385636568069458 0.9272482991218567 79.0 14 -0.08329669386148453
-2.8148863315582275 2.0791068077087402 -0.06108342483639717 67.0 7 -0.08329439163208008
-3.2037999629974365 2.367227077484131 1.0673696994781494 87.0 15 -0.08329208940267563
-2.5396125316619873 1.8812730312347412 -0.8468559384346008 6.0 0 -0.08327134698629379
-3.206850290298462 2.3764095306396484 0.06967000663280487 44.0 8 -0.08326904475688934
-2.8601620197296143 2.120272636413574 -0.8219712376594543 4.0 1 -0.0832667425274849
-3.049708604812622 2.2616119384765625 0.19898132979869843 3.0 9 -0.08326444029808044
-3.2453665733337402 2.4067084789276123 -0.785369873046875 9.0 2 -0.083262138068676
-3.0482802391052246 2.261376142501831 0.33206337690353394 2.0 10 -0.08325982838869095
-3.2645599842071533 2.422708511352539 -0.6438843607902527 48.0 3 -0.0832575261592865
-3.0857388973236084 2.2908363342285156 0.47187814116477966 1.0 11 -0.08325522392988205
-3.2478930950164795 2.412097930908203 -0.4967394769191742 42.0 4 -0.0832529217004776
-3.2410922050476074 2.4079248905181885 0.6395041942596436 73.0 12 -0.08325061202049255
-3.246615409851074 2.4120283126831055 -0.3538523316383362 46.0 5 -0.0832483097910881
-3.230238914489746 2.4007368087768555 0.7823169827461243 67.0 13 -0.08324600756168365
-3.2200472354888916 2.3940343856811523 -0.21028588712215424 11.0 6 -0.0832437053322792
-3.189889430999756 2.3724777698516846 0.9178004264831543 58.0 14 -0.08324139565229416
-2.8027987480163574 2.085338830947876 -0.060978710651397705 70.0 7 -0.08323909342288971
-3.1955173015594482 2.3783960342407227 1.0673696994781494 73.0 15 -0.08323679119348526
-2.5299339294433594 1.8878154754638672 -0.8458206653594971 6.0 0 -0.08321605622768402
-3.216162919998169 2.400747537612915 0.07005396485328674 19.0 8 -0.08321375399827957
-2.855865478515625 2.1325759887695312 -0.8228710293769836 3.0 1 -0.08321144431829453
-3.0741982460021973 2.2956128120422363 0.2010747641324997 3.0 9 -0.08320914208889008
-3.2558202743530273 2.432121515274048 -0.7899492979049683 9.0 2 -0.08320683985948563
-3.04036808013916 2.272002935409546 0.33206337690353394 2.0 10 -0.08320453763008118
-3.2624120712280273 2.4388203620910645 -0.6451358199119568 48.0 3 -0.08320222795009613
-3.189004898071289 2.384812355041504 0.4889398217201233 1.0 11 -0.08319992572069168
-3.2537598609924316 2.434122085571289 -0.49893316626548767 48.0 4 -0.08319762349128723
-3.237835168838501 2.422208786010742 0.6404427886009216 70.0 12 -0.08319532126188278
