# .PCD v0.7 - Point Cloud Data file format
VERSION 0.7
FIELDS x y z intensity ring time
SIZE 4 4 4 4 4 4
TYPE F F F F F F
COUNT 1 1 1 1 1 1
WIDTH 534
HEIGHT 1
VIEWPOINT 0 0 0 1 0 0 0
POINTS 534
DATA ascii
-1.6578582525253296 -0.312057226896286 -0.2671900987625122 20.0 3 -0.04750790446996689
-2.9068381786346436 -0.5466263890266418 0.36317068338394165 78.0 11 -0.04750559851527214
-2.8932766914367676 -0.5435526967048645 -0.3614645004272461 48.0 4 -0.04750329628586769
-2.9160985946655273 -0.5473140478134155 0.46992918848991394 87.0 12 -0.04750099033117294
-2.8785507678985596 -0.540266752243042 -0.25623786449432373 61.0 5 -0.047498688101768494
-2.8886501789093018 -0.5416404604911804 0.571282148361206 61.0 13 -0.047496385872364044
-2.475484848022461 -0.46372148394584656 -0.13199129700660706 37.0 6 -0.047494079917669296
-2.886636734008789 -0.5402199625968933 0.6780025362968445 81.0 14 -0.04749177768826485
-2.6005358695983887 -0.4862072169780731 -0.046179067343473434 6.0 7 -0.0474894717335701
-2.8845951557159424 -0.5387951731681824 0.7862922549247742 50.0 15 -0.04748716950416565
-1.6563127040863037 -0.3072785437107086 -0.4513804316520691 27.0 0 -0.04746643081307411
-2.609161138534546 -0.4835796356201172 0.04631868749856949 24.0 8 -0.04746412858366966
-1.6229963302612305 -0.3005117177963257 -0.3810671269893646 24.0 1 -0.047461822628974915
-2.639537811279297 -0.48825669288635254 0.14067906141281128 10.0 9 -0.047459520399570465
-2.6566977500915527 -0.49095138907432556 0.2363663762807846 8.0 10 -0.04745491221547127
-1.639512062072754 -0.3026820123195648 -0.26406142115592957 20.0 3 -0.04745260626077652
-2.912632942199707 -0.53719562292099 0.3636581599712372 79.0 11 -0.04745030403137207
-2.9238195419311523 -0.5382043719291687 0.4708678126335144 93.0 12 -0.04744569584727287
-2.892453908920288 -0.5319080948829651 0.5716637372970581 64.0 13 -0.047441087663173676
-2.45940899848938 -0.4518301486968994 -0.131049245595932 25.0 6 -0.047438785433769226
-2.9019219875335693 -0.532602846622467 0.681151807308197 81.0 14 -0.04743647947907448
-2.6061511039733887 -0.4778479039669037 -0.04624887555837631 6.0 7 -0.04743417724967003
-2.886458158493042 -0.5287233591079712 0.7862922549247742 43.0 15 -0.04743187129497528
-1.6345672607421875 -0.29734599590301514 -0.44516876339912415 25.0 0 -0.04741113632917404
-2.608865976333618 -0.4741113781929016 0.0462837815284729 27.0 8 -0.047408830374479294
-1.6048613786697388 -0.2913634777069092 -0.376568078994751 20.0 1 -0.047406528145074844
-2.639260768890381 -0.4786834716796875 0.1405743956565857 11.0 9 -0.047404222190380096
-2.6662368774414062 -0.48309558629989624 0.23706360161304474 8.0 10 -0.0473996177315712
-1.6308395862579346 -0.2951979339122772 -0.26249706745147705 24.0 3 -0.04739731177687645
-2.914490222930908 -0.5270259380340576 0.3636581599712372 78.0 11 -0.047395009547472
-1.6350570917129517 -0.295371949672699 -0.2040092945098877 7.0 4 -0.04739270359277725
-2.9159607887268066 -0.5262408256530762 0.4693034589290619 91.0 12 -0.0473904013633728
-1.6470013856887817 -0.29723289608955383 -0.1464216411113739 2.0 5 -0.047388095408678055
-2.905885696411133 -0.5238989591598511 0.5739535093307495 80.0 13 -0.047385793179273605
-2.4550743103027344 -0.4421803057193756 -0.13073523342609406 7.0 6 -0.04738348722457886
-2.894174098968506 -0.5207438468933105 0.6789023280143738 68.0 14 -0.04738118499517441
-2.6078028678894043 -0.4687483608722687 -0.04624887555837631 6.0 7 -0.04737887904047966
-2.8863847255706787 -0.5183029770851135 0.7857747077941895 40.0 15 -0.04737657681107521
-1.6051656007766724 -0.28621259331703186 -0.43688657879829407 19.0 0 -0.04735584184527397
-2.6203484535217285 -0.4667552411556244 0.04645830765366554 31.0 8 -0.047353535890579224
-1.603950023651123 -0.28541824221611023 -0.37611818313598633 26.0 1 -0.047351233661174774
-2.6409153938293457 -0.46946775913238525 0.1405743956565857 10.0 9 -0.047348927706480026
-1.6256110668182373 -0.288980096578598 -0.3209407329559326 0.0 2 -0.04734662547707558
-2.6639838218688965 -0.4730888903141022 0.23671498894691467 8.0 10 -0.04734431952238083
-1.6085200309753418 -0.28536272048950195 -0.25874263048171997 17.0 3 -0.04734201729297638
-2.918266534805298 -0.5171955823898315 0.36390188336372375 85.0 11 -0.04733971133828163
-1.6048030853271484 -0.28412556648254395 -0.20010948181152344 32.0 4 -0.04733740910887718
-2.9080538749694824 -0.5143387317657471 0.46773913502693176 84.0 12 -0.047335103154182434
-1.6205618381500244 -0.28662389516830444 -0.14398127794265747 16.0 5 -0.047332800924777985
-2.923163414001465 -0.5164850354194641 0.577006459236145 82.0 13 -0.04733049497008324
-1.6049542427062988 -0.2832857668399811 -0.08541228622198105 0.0 6 -0.04732819274067879
-2.8998122215270996 -0.5113154649734497 0.6798021197319031 67.0 14 -0.04732588678598404
-2.5818521976470947 -0.45478591322898865 -0.04576021060347557 6.0 7 -0.04732358455657959
-2.880565881729126 -0.5068852305412292 0.7837041020393372 31.0 15 -0.04732127860188484
-1.5985426902770996 -0.27927783131599426 -0.43481600284576416 27.0 0 -0.0473005436360836
-2.612112045288086 -0.4558871388435364 0.0462837815284729 33.0 8 -0.04729824140667915
-1.6106959581375122 -0.2808217704296112 -0.37746790051460266 30.0 1 -0.047295935451984406
-2.654344081878662 -0.4623025357723236 0.1412024199962616 9.0 9 -0.047293633222579956
-1.6266100406646729 -0.2833038568496704 -0.3209407329559326 0.0 2 -0.04729132726788521
-2.6577672958374023 -0.4624215066432953 0.23601774871349335 8.0 10 -0.04728902503848076
-1.59199059009552 -0.2767017185688019 -0.25592681765556335 21.0 3 -0.04728671908378601
-2.9239659309387207 -0.5076848864555359 0.3643893897533417 85.0 11 -0.04728441685438156
-1.609696865081787 -0.2792004644870758 -0.20059694349765778 21.0 4 -0.04728211089968681
-2.91567063331604 -0.5051962733268738 0.46867769956588745 88.0 12 -0.047279808670282364
-1.6097737550735474 -0.2789244055747986 -0.14293542504310608 23.0 5 -0.047277502715587616
-2.913341522216797 -0.504269003868103 0.5747166872024536 83.0 13 -0.047275200486183167
-1.645294427871704 -0.28448715806007385 -0.08750572800636292 24.0 6 -0.04727289453148842
-2.8919777870178223 -0.4995315670967102 0.6775525808334351 53.0 14 -0.04727059230208397
-2.8785102367401123 -0.49616995453834534 0.7826688289642334 27.0 15 -0.04726598411798477
-1.595699667930603 -0.2730448842048645 -0.4337807595729828 29.0 0 -0.04724524915218353
-2.6038320064544678 -0.44508105516433716 0.04610925912857056 31.0 8 -0.047242943197488785
-1.5924570560455322 -0.27191755175590515 -0.3729688823223114 37.0 1 -0.047240640968084335
-2.6559414863586426 -0.4530348777770996 0.1412024199962616 8.0 9 -0.04723833501338959
-1.6275888681411743 -0.27762454748153687 -0.3209407329559326 0.0 2 -0.04723603278398514
-2.65936541557312 -0.45314064621925354 0.23601774871349335 8.0 10 -0.04723372682929039
-1.5832098722457886 -0.26948556303977966 -0.25436246395111084 27.0 3 -0.04723142459988594
-2.919849395751953 -0.4964776337146759 0.3636581599712372 87.0 11 -0.04722911864519119
-1.5813058614730835 -0.26859354972839355 -0.19694086909294128 20.0 4 -0.04722681641578674
-2.9291017055511475 -0.49699825048446655 0.470554918050766 77.0 12 -0.047224510461091995
-1.5871657133102417 -0.26930391788482666 -0.14084367454051971 32.0 5 -0.047222208231687546
-2.907341241836548 -0.4927847385406494 0.5731902718544006 87.0 13 -0.0472199022769928
-1.6265851259231567 -0.27540838718414307 -0.08645901083946228 32.0 6 -0.04721760004758835
-2.9052326679229736 -0.49138349294662476 0.6802520155906677 42.0 14 -0.0472152978181839
-1.59711754322052 -0.26984521746635437 -0.028272898867726326 3.0 7 -0.04721299186348915
-2.878319501876831 -0.485798180103302 0.7821511626243591 24.0 15 -0.0472106896340847
-1.6023588180541992 -0.2684306800365448 -0.43533363938331604 40.0 0 -0.047189950942993164
-2.6132588386535645 -0.4373093843460083 0.04624887555837631 31.0 8 -0.047187648713588715
-1.576097846031189 -0.26346585154533386 -0.3689197599887848 40.0 1 -0.04718534275889397
-2.6476571559906006 -0.44211632013320923 0.14067906141281128 7.0 9 -0.04718304052948952
-1.5975651741027832 -0.2667677700519562 -0.314834862947464 0.0 2 -0.04718073457479477
-2.6648614406585693 -0.44451048970222473 0.2363663762807846 8.0 10 -0.04717843234539032
-1.582192301750183 -0.2636331617832184 -0.2540495991706848 27.0 3 -0.04717612639069557
-2.911773920059204 -0.48465201258659363 0.36243945360183716 85.0 11 -0.04717382416129112
-1.5626516342163086 -0.2598162293434143 -0.19450348615646362 26.0 4 -0.047171518206596375
-2.930818557739258 -0.4867713451385498 0.470554918050766 73.0 12 -0.047169215977191925
-1.5822455883026123 -0.26250654458999634 -0.14032074809074402 26.0 5 -0.047166913747787476
-2.905170202255249 -0.4819898009300232 0.5724270343780518 87.0 13 -0.04716460779309273
-1.6058624982833862 -0.2661368250846863 -0.08530762046575546 38.0 6 -0.04716230556368828
-2.8953945636749268 -0.47933027148246765 0.6775525808334351 28.0 14 -0.04715999960899353
-1.5842393636703491 -0.2619851231575012 -0.028028564527630806 42.0 7 -0.04715769737958908
-2.887622117996216 -0.47700735926628113 0.7842217683792114 17.0 15 -0.04715539142489433
-1.607144832611084 -0.26318028569221497 -0.4363689422607422 51.0 0 -0.047134656459093094
-2.626610040664673 -0.4301242530345917 0.04645830765366554 16.0 8 -0.047132350504398346
-1.5808541774749756 -0.25859174132347107 -0.3698195517063141 45.0 1 -0.047130048274993896
-2.6570687294006348 -0.43415912985801697 0.141097754240036 1.0 9 -0.04712774232029915
-1.5539668798446655 -0.2536366879940033 -0.3060576617717743 1.0 2 -0.0471254400908947
-2.699901819229126 -0.4401911497116089 0.23932965099811554 1.0 10 -0.04712313786149025
-1.5889972448349 -0.25878456234931946 -0.2549882233142853 36.0 3 -0.0471208319067955
-2.9271626472473145 -0.47671860456466675 0.3641456365585327 54.0 11 -0.04711852967739105
-1.5517929792404175 -0.25244784355163574 -0.19304105639457703 25.0 4 -0.047116223722696304
-2.9208009243011475 -0.4746367335319519 0.46867769956588745 58.0 12 -0.047113921493291855
-1.5595523118972778 -0.2531510293483734 -0.13822901248931885 27.0 5 -0.04711161553859711
-2.9185447692871094 -0.47322458028793335 0.5747166872024536 85.0 13 -0.04710931330919266
-1.587111473083496 -0.25705596804618835 -0.08426090329885483 56.0 6 -0.04710700735449791
-2.8913607597351074 -0.4677804708480835 0.6762028932571411 26.0 14 -0.04710470512509346
-1.5634299516677856 -0.25294041633605957 -0.02764461189508438 52.0 7 -0.04710239917039871
-2.881640911102295 -0.46569186449050903 0.7821511626243591 13.0 15 -0.04710009694099426
-1.5927934646606445 -0.25512436032295227 -0.43222782015800476 54.0 0 -0.047079358249902725
-1.587564468383789 -0.2537184953689575 -0.3711692690849304 60.0 1 -0.047074753791093826
-1.5777851343154907 -0.252155601978302 0.08373753726482391 0.0 9 -0.04707244783639908
-1.5742298364639282 -0.2513056695461273 -0.3098738193511963 50.0 2 -0.04707014560699463
-1.6232142448425293 -0.25883451104164124 0.14380697906017303 0.0 10 -0.04706783965229988
-1.57818603515625 -0.2513723373413086 -0.25311097502708435 42.0 3 -0.04706553742289543
-1.5487868785858154 -0.24613502621650696 -0.1925535798072815 25.0 4 -0.047060929238796234
-2.9224398136138916 -0.4644375741481781 0.46867769956588745 50.0 12 -0.047058623284101486
-1.5427168607711792 -0.24489432573318481 -0.13666020333766937 32.0 5 -0.04705632105469704
-2.9221179485321045 -0.4633414149284363 0.5750983357429504 78.0 13 -0.04705401510000229
-1.568272352218628 -0.24838989973068237 -0.0832141786813736 31.0 6 -0.04705171287059784
-2.8968257904052734 -0.4582938551902771 0.6771027445793152 16.0 14 -0.04704940691590309
-1.550477385520935 -0.24529409408569336 -0.02740027755498886 43.0 7 -0.04704710468649864
-2.8794326782226562 -0.4550277292728424 0.7811158895492554 12.0 15 -0.047044798731803894
-1.5860399007797241 -0.24836735427379608 -0.43015727400779724 56.0 0 -0.047024063766002655
-1.540982723236084 -0.24131159484386444 0.027225753292441368 19.0 8 -0.047021761536598206
-1.592247724533081 -0.24905477464199066 -0.3720690608024597 59.0 1 -0.04701945558190346
-1.5747090578079224 -0.24602989852428436 0.08352819085121155 27.0 9 -0.04701715335249901
-1.5867362022399902 -0.24762532114982605 -0.3121635317802429 62.0 2 -0.04701484739780426
-1.5571749210357666 -0.24273361265659332 0.1378803700208664 41.0 10 -0.04701254516839981
-1.5712038278579712 -0.24492044746875763 -0.25185951590538025 55.0 3 -0.04701023921370506
-1.5554368495941162 -0.24218465387821198 0.1932847946882248 9.0 11 -0.04700793698430061
-1.5535175800323486 -0.24160775542259216 -0.19304105639457703 27.0 4 -0.047005631029605865
-2.929899215698242 -0.4551430940628052 0.4696163237094879 51.0 12 -0.047003328800201416
-1.5278116464614868 -0.23706410825252533 -0.13526570796966553 30.0 5 -0.04700102284550667
-2.9197585582733154 -0.45304667949676514 0.5743350982666016 81.0 13 -0.04699872061610222
-1.5631663799285889 -0.24227020144462585 -0.08290016651153564 30.0 6 -0.04699641466140747
-2.8944778442382812 -0.44808870553970337 0.6762028932571411 13.0 14 -0.04699411243200302
-1.549347996711731 -0.23957517743110657 -0.027365373447537422 30.0 7 -0.04699180647730827
-2.873366594314575 -0.4437935948371887 0.7790454030036926 10.0 15 -0.046989504247903824
-1.5906740427017212 -0.24369151890277863 -0.431192547082901 47.0 0 -0.046968769282102585
-1.547745704650879 -0.2368384599685669 0.027330469340085983 32.0 8 -0.04696646332740784
-1.58925461769104 -0.2429063767194748 -0.3711692690849304 46.0 1 -0.04696416109800339
-1.5656863451004028 -0.23902450501918793 0.08300483226776123 14.0 9 -0.04696185514330864
-1.5875486135482788 -0.2423620969057083 -0.3121635317802429 61.0 2 -0.04695955291390419
-1.5402448177337646 -0.23486541211605072 0.1363115906715393 22.0 10 -0.04695724695920944
-1.5661906003952026 -0.2385420948266983 -0.2509209215641022 66.0 3 -0.04695494472980499
-1.5327224731445312 -0.2331709861755371 0.1903599202632904 21.0 11 -0.046952638775110245
-1.564164400100708 -0.2376745194196701 -0.19425974786281586 37.0 4 -0.046950336545705795
-2.939282178878784 -0.44609934091567993 0.4708678126335144 40.0 12 -0.04694803059101105
-1.5345393419265747 -0.23262542486190796 -0.13578864932060242 35.0 5 -0.0469457283616066
-2.9193809032440186 -0.442557692527771 0.5739535093307495 75.0 13 -0.04694342240691185
-1.5383305549621582 -0.23292513191699982 -0.08153942972421646 29.0 6 -0.0469411201775074
-2.9037318229675293 -0.4391486346721649 0.6780025362968445 10.0 14 -0.04693881422281265
-1.542265772819519 -0.23297032713890076 -0.027225753292441368 37.0 7 -0.0469365119934082
-2.872987985610962 -0.4334726929664612 0.7785277366638184 8.0 15 -0.046934209764003754
-1.595377802848816 -0.23843084275722504 -0.43222782015800476 42.0 0 -0.046913471072912216
-1.5327411890029907 -0.22906973958015442 0.027051230892539024 29.0 8 -0.04691116884350777
-1.5843106508255005 -0.23649419844150543 -0.3698195517063141 47.0 1 -0.04690886288881302
-1.5388550758361816 -0.2294347584247589 0.08153942972421646 15.0 9 -0.04690656065940857
-1.5923099517822266 -0.2371201366186142 -0.3129267692565918 51.0 2 -0.04690425470471382
-1.5391243696212769 -0.2289254069328308 0.13613726198673248 27.0 10 -0.04690195247530937
-1.5611926317214966 -0.23192889988422394 -0.2499822974205017 46.0 3 -0.046899646520614624
-1.5197824239730835 -0.2257770448923111 0.18865376710891724 22.0 11 -0.046897344291210175
-1.5473121404647827 -0.2295912206172943 -0.19206610321998596 42.0 4 -0.04689503833651543
-2.9330053329467773 -0.43467816710472107 0.4696163237094879 27.0 12 -0.04689273610711098
-1.5392838716506958 -0.2278505265712738 -0.13613726198673248 52.0 5 -0.04689043015241623
-2.924867630004883 -0.43242886662483215 0.5747166872024536 61.0 13 -0.04688812792301178
-1.5292948484420776 -0.22582682967185974 -0.08101607114076614 30.0 6 -0.04688582569360733
-2.8956825733184814 -0.4270804822444916 0.6757529973983765 8.0 14 -0.04688351973891258
-1.5292216539382935 -0.22554293274879456 -0.026981420814990997 37.0 7 -0.04688121750950813
-2.884039878845215 -0.4248497784137726 0.7811158895492554 7.0 15 -0.046878911554813385
-1.603846788406372 -0.23397594690322876 -0.4342983663082123 42.0 0 -0.046858176589012146
-1.5216976404190063 -0.2217208296060562 0.026841802522540092 36.0 8 -0.0468558706343174
-1.5909521579742432 -0.23152770102024078 -0.3711692690849304 43.0 1 -0.04685356840491295
-1.5278269052505493 -0.2220689356327057 0.08091139793395996 17.0 9 -0.0468512624502182
-1.575642466545105 -0.2290189117193222 -0.30949220061302185 49.0 2 -0.04684896022081375
-1.532027244567871 -0.22240683436393738 0.13544002175331116 29.0 10 -0.046846654266119
-1.5717672109603882 -0.22789548337459564 -0.2515466511249542 45.0 3 -0.046844352036714554
-1.5245288610458374 -0.2207745760679245 0.18914122879505157 25.0 11 -0.046842049807310104
-1.5501078367233276 -0.2242029905319214 -0.19230984151363373 41.0 4 -0.046839743852615356
-2.92871356010437 -0.42307791113853455 0.46867769956588745 18.0 12 -0.04683744162321091
-1.5440137386322021 -0.22304610908031464 -0.13648588955402374 50.0 5 -0.04683513566851616
-2.9244163036346436 -0.42193612456321716 0.5743350982666016 60.0 13 -0.04683283343911171
-1.5360043048858643 -0.22134140133857727 -0.0813300833106041 44.0 6 -0.04683052748441696
-2.8990843296051025 -0.41724827885627747 0.6762028932571411 7.0 14 -0.04682822525501251
-1.5201412439346313 -0.21851424872875214 -0.026806894689798355 40.0 7 -0.046825919300317764
-2.889402151107788 -0.4148246943950653 0.7821511626243591 7.0 15 -0.046823617070913315
-1.6046537160873413 -0.2283763736486435 -0.4342983663082123 43.0 0 -0.04680287837982178
-1.5264219045639038 -0.21697017550468445 0.02691161073744297 36.0 8 -0.04680057615041733
-1.595609426498413 -0.2265206128358841 -0.3720690608024597 45.0 1 -0.04679827392101288
-1.5246376991271973 -0.21617403626441956 0.0807020515203476 17.0 9 -0.04679596796631813
-1.578376054763794 -0.22379344701766968 -0.3098738193511963 51.0 2 -0.04679366573691368
-1.5229307413101196 -0.21566052734851837 0.1345684677362442 30.0 10 -0.04679135978221893
-1.578420877456665 -0.22323743999004364 -0.2524852454662323 45.0 3 -0.046789057552814484
-1.5115312337875366 -0.21350812911987305 0.1874350756406784 24.0 11 -0.046786751598119736
-1.556777834892273 -0.21962223947048187 -0.19304105639457703 35.0 4 -0.046784449368715286
-2.926260471343994 -0.4123009443283081 0.4680519700050354 13.0 12 -0.04678214341402054
-1.542810082435608 -0.21737711131572723 -0.1363115906715393 49.0 5 -0.04677984118461609
-2.9375357627868652 -0.41336676478385925 0.5766248106956482 55.0 13 -0.04677753522992134
-1.538745403289795 -0.21625669300556183 -0.08143475651741028 43.0 6 -0.04677523300051689
-2.892803907394409 -0.40604251623153687 0.6744033098220825 3.0 14 -0.046772927045822144
-1.5208946466445923 -0.21320660412311554 -0.026806894689798355 43.0 7 -0.046770624816417694
-2.8850927352905273 -0.4039332866668701 0.7805982232093811 6.0 15 -0.046768318861722946
-1.601613998413086 -0.2222425937652588 -0.4332630932331085 38.0 0 -0.04674758389592171
-1.5152854919433594 -0.2099936157464981 0.02670218236744404 38.0 8 -0.04674528166651726
-1.604111671447754 -0.2220185250043869 -0.3738686740398407 44.0 1 -0.04674297571182251
-1.5332967042922974 -0.2119446098804474 0.08112073689699173 16.0 9 -0.04674067348241806
-1.5908162593841553 -0.21989542245864868 -0.3121635317802429 47.0 2 -0.04673836752772331
-1.5197269916534424 -0.20979823172092438 0.13421984016895294 34.0 10 -0.04673606529831886
-1.5811474323272705 -0.21799612045288086 -0.2527981102466583 49.0 3 -0.046733759343624115
-1.5162004232406616 -0.20877209305763245 0.18792253732681274 29.0 11 -0.046731457114219666
-1.5595016479492188 -0.21445710957050323 -0.1932847946882248 29.0 4 -0.04672915115952492
-2.9276819229125977 -0.4020838141441345 0.4680519700050354 11.0 12 -0.04672684893012047
-1.545533299446106 -0.21226142346858978 -0.13648588955402374 43.0 5 -0.04672454297542572
-2.9370157718658447 -0.4028434753417969 0.5762432217597961 42.0 13 -0.04672224074602127
-1.541469693183899 -0.21115516126155853 -0.08153942972421646 45.0 6 -0.04671993479132652
-2.9019267559051514 -0.39699870347976685 0.6762028932571411 2.0 14 -0.04671763256192207
-1.5196483135223389 -0.2076256424188614 -0.026771990582346916 50.0 7 -0.046715326607227325
-2.9017980098724365 -0.3959493637084961 0.7847393751144409 5.0 15 -0.046713024377822876
-1.6004656553268433 -0.21639131009578705 -0.43274545669555664 34.0 0 -0.04669228941202164
-1.5001554489135742 -0.20256225764751434 0.02642294391989708 41.0 8 -0.04668998345732689
-1.5913580656051636 -0.2145947366952896 -0.37071937322616577 36.0 1 -0.04668768122792244
-1.5360065698623657 -0.20685727894306183 0.08122541010379791 18.0 9 -0.04668537527322769
-1.5876827239990234 -0.21381661295890808 -0.31140029430389404 43.0 2 -0.04668307304382324
-1.5125516653060913 -0.20342975854873657 0.13352259993553162 40.0 10 -0.046680767089128494
-1.570151925086975 -0.21089808642864227 -0.2509209215641022 45.0 3 -0.046678464859724045
-1.507082462310791 -0.20215868949890137 0.1867038458585739 33.0 11 -0.0466761589050293
-1.5720458030700684 -0.21059352159500122 -0.1947472244501114 34.0 4 -0.04667385667562485
-2.932983160018921 -0.3923862874507904 0.46867769956588745 9.0 12 -0.0466715507209301
-1.5502142906188965 -0.20739391446113586 -0.136834517121315 45.0 5 -0.04666924849152565
-2.9228365421295166 -0.39050886034965515 0.5731902718544006 35.0 13 -0.0466669425368309
-1.540217638015747 -0.20550893247127533 -0.08143475651741028 39.0 6 -0.04666464030742645
-2.9110214710235596 -0.38789618015289307 0.6780025362968445 2.0 14 -0.046662334352731705
-1.5302749872207642 -0.2036387026309967 -0.02694651484489441 45.0 7 -0.046660032123327255
-2.8993327617645264 -0.38530871272087097 0.7837041020393372 4.0 15 -0.04665772616863251
-1.6202898025512695 -0.21389079093933105 -0.43792182207107544 28.0 0 -0.04660320281982422
-1.514662265777588 -0.1996781826019287 0.0266672782599926 45.0 8 -0.04660090059041977
-1.595888614654541 -0.21010254323482513 -0.37161916494369507 30.0 1 -0.04659859463572502
-1.5267478227615356 -0.20072929561138153 0.0807020515203476 20.0 9 -0.04659629240632057
-1.5922396183013916 -0.20933984220027924 -0.3121635317802429 36.0 2 -0.046593986451625824
-1.5151586532592773 -0.1989366114139557 0.13369689881801605 44.0 10 -0.046591684222221375
-1.576682686805725 -0.20673426985740662 -0.25185951590538025 42.0 3 -0.04658937826752663
-1.5018051862716675 -0.19665011763572693 0.18597263097763062 34.0 11 -0.04658707603812218
-1.5589213371276855 -0.20385196805000305 -0.19304105639457703 28.0 4 -0.04658477008342743
-2.9459543228149414 -0.38470402359962463 0.470554918050766 7.0 12 -0.04658246785402298
-1.556785225868225 -0.20329628884792328 -0.1373574435710907 39.0 5 -0.04658016189932823
-2.931835889816284 -0.3823406994342804 0.5747166872024536 26.0 13 -0.04657785966992378
-1.546797275543213 -0.2014429122209549 -0.08174876868724823 28.0 6 -0.046575553715229034
-2.916090726852417 -0.37925153970718384 0.6789023280143738 2.0 14 -0.046573251485824585
-1.5428054332733154 -0.20037581026554108 -0.02715594507753849 44.0 7 -0.04657094553112984
-2.900528907775879 -0.3761981725692749 0.7837041020393372 4.0 15 -0.04656864330172539
-1.6229428052902222 -0.20847973227500916 -0.4384394884109497 23.0 0 -0.04654790833592415
-1.5193169116973877 -0.19489829242229462 0.026737086474895477 42.0 8 -0.0465456023812294
-1.6024110317230225 -0.20527374744415283 -0.3729688823223114 26.0 1 -0.04654330015182495
-1.529420256614685 -0.19565211236476898 0.08080672472715378 18.0 9 -0.0465409941971302
-1.5949079990386963 -0.20402967929840088 -0.31254515051841736 31.0 2 -0.046538691967725754
-1.5217729806900024 -0.1944035142660141 0.13421984016895294 47.0 10 -0.046536386013031006
-1.58327317237854 -0.2019796371459961 -0.2527981102466583 37.0 3 -0.046534083783626556
-1.5064209699630737 -0.1919083446264267 0.18646010756492615 41.0 11 -0.04653177782893181
-1.567500352859497 -0.19941109418869019 -0.19401602447032928 25.0 4 -0.04652947559952736
-2.9335618019104004 -0.37267640233039856 0.4683648645877838 4.0 12 -0.04652716964483261
-1.5594617128372192 -0.19811227917671204 -0.13753175735473633 41.0 5 -0.04652486741542816
-2.927309513092041 -0.37136298418045044 0.5735718607902527 16.0 13 -0.046522561460733414
-1.5435281991958618 -0.19554027915000916 -0.08153942972421646 23.0 6 -0.046520259231328964
-2.901930093765259 -0.3671141564846039 0.6753031015396118 1.0 14 -0.046517953276634216
-1.521672248840332 -0.19223186373710632 -0.026771990582346916 36.0 7 -0.04651565104722977
-2.9018242359161377 -0.36607107520103455 0.7837041020393372 5.0 15 -0.04651334509253502
-1.6198266744613647 -0.20233476161956787 -0.43740418553352356 21.0 0 -0.04649261012673378
-1.5199880599975586 -0.18959401547908783 0.026737086474895477 30.0 8 -0.04649030789732933
-1.612786889076233 -0.20088334381580353 -0.37521839141845703 22.0 1 -0.04648800194263458
-1.53603994846344 -0.1910513937473297 0.08112073689699173 14.0 9 -0.04648569971323013
-1.6014553308486938 -0.19918771088123322 -0.3136900067329407 29.0 2 -0.046483393758535385
-1.5125561952590942 -0.187862828373909 0.133348286151886 49.0 10 -0.046481091529130936
-1.589849591255188 -0.1971810907125473 -0.2537367343902588 30.0 3 -0.04647878557443619
-1.5110217332839966 -0.18713635206222534 0.18694758415222168 45.0 11 -0.04647648334503174
-1.574096918106079 -0.19466951489448547 -0.1947472244501114 19.0 4 -0.04647417739033699
-2.936805009841919 -0.36267605423927307 0.46867769956588745 3.0 12 -0.04647187516093254
-1.548313021659851 -0.1909317523241043 -0.13648588955402374 34.0 5 -0.04646956920623779
-2.934433698654175 -0.3618625998497009 0.5747166872024536 13.0 13 -0.046467266976833344
-1.5501482486724854 -0.1908837854862213 -0.08185344934463501 27.0 6 -0.046464961022138596
-2.934140682220459 -0.3607875108718872 0.6825015544891357 1.0 14 -0.046462658792734146
-1.5282883644104004 -0.18765012919902802 -0.02687670662999153 36.0 7 -0.0464603565633297
-2.895414352416992 -0.3549997806549072 0.7816335558891296 4.0 15 -0.04645805060863495
-1.62631094455719 -0.19709330797195435 -0.4389571249485016 18.0 0 -0.04643731564283371
-1.5107147693634033 -0.1830841600894928 0.026562562212347984 28.0 8 -0.04643500968813896
-1.6192820072174072 -0.19595472514629364 -0.376568078994751 20.0 1 -0.04643270745873451
-1.5466116666793823 -0.1868867576122284 0.08164409548044205 11.0 9 -0.046430401504039764
-1.590479850769043 -0.19190602004528046 -0.31140029430389404 22.0 2 -0.046428099274635315
-1.5251030921936035 -0.18374767899513245 0.13439415395259857 45.0 10 -0.04642579331994057
-1.5944840908050537 -0.1918245404958725 -0.25436246395111084 30.0 3 -0.04642349109053612
-1.5195492506027222 -0.182809516787529 0.18792253732681274 47.0 11 -0.04642118513584137
-1.5826506614685059 -0.19012072682380676 -0.19572217762470245 17.0 4 -0.04641888290643692
-2.947859764099121 -0.353598028421402 0.47024205327033997 2.0 12 -0.04641658067703247
-1.554904580116272 -0.18623711168766022 -0.13700881600379944 29.0 5 -0.04641427472233772
-2.9220945835113525 -0.34947359561920166 0.5720453858375549 10.0 13 -0.04641197249293327
-1.5647196769714355 -0.18685834109783173 -0.0825861468911171 22.0 6 -0.046409666538238525
-2.9315733909606934 -0.3495693802833557 0.6816017627716064 1.0 14 -0.046407364308834076
-1.5448191165924072 -0.18420875072479248 -0.02715594507753849 29.0 7 -0.04640505835413933
-2.9081456661224365 -0.34626108407974243 0.7847393751144409 4.0 15 -0.04640275612473488
-1.6269890069961548 -0.19141517579555511 -0.4389571249485016 15.0 0 -0.04638201743364334
-1.5054173469543457 -0.17684592306613922 0.02645784802734852 25.0 8 -0.04637971520423889
-1.6161185503005981 -0.18956437706947327 -0.3756682872772217 18.0 1 -0.046377409249544144
-1.5512219667434692 -0.18195226788520813 0.08185344934463501 8.0 9 -0.046375107020139694
-1.6106393337249756 -0.18863673508167267 -0.3152164816856384 20.0 2 -0.046372801065444946
-1.5296930074691772 -0.17888575792312622 0.13474278151988983 37.0 10 -0.0463704988360405
-1.583371639251709 -0.18488293886184692 -0.2524852454662323 24.0 3 -0.04636819660663605
-1.5064070224761963 -0.175629660487175 0.18621638417243958 34.0 11 -0.0463658906519413
-1.5931957960128784 -0.18546640872955322 -0.19694086909294128 14.0 4 -0.04636358842253685
-2.9451518058776855 -0.3428497016429901 0.4696163237094879 2.0 12 -0.0463612824678421
-1.5654405355453491 -0.18195848166942596 -0.1378803700208664 21.0 5 -0.04635898023843765
-2.91939640045166 -0.33881875872612 0.571282148361206 7.0 13 -0.046356674283742905
-1.5554423332214355 -0.18024611473083496 -0.08206278830766678 21.0 6 -0.046354372054338455
-2.9366471767425537 -0.3397820293903351 0.6825015544891357 1.0 14 -0.04635206609964371
-1.549425482749939 -0.17927484214305878 -0.027225753292441368 30.0 7 -0.04634976387023926
-2.897822380065918 -0.3347766399383545 0.7816335558891296 3.0 15 -0.04634745791554451
-1.6372441053390503 -0.18683022260665894 -0.441545307636261 12.0 0 -0.04632672294974327
-1.5278503894805908 -0.17434702813625336 0.026841802522540092 29.0 8 -0.04632441699504852
-1.6186745166778564 -0.18442462384700775 -0.37611818313598633 15.0 1 -0.046322114765644073
-1.5538320541381836 -0.17676208913326263 0.0819581151008606 7.0 9 -0.046319812536239624
-1.6112879514694214 -0.18301373720169067 -0.3152164816856384 17.0 2 -0.046317506581544876
-1.538226842880249 -0.17444302141666412 0.13544002175331116 36.0 10 -0.04631520435214043
-1.601641297340393 -0.1816345453262329 -0.2553010880947113 22.0 3 -0.04631289839744568
-1.50895357131958 -0.1708565503358841 0.18646010756492615 29.0 11 -0.04631059616804123
-1.5799944400787354 -0.1786211133003235 -0.19523471593856812 11.0 4 -0.04630829021334648
-2.936516046524048 -0.3314592242240906 0.4680519700050354 1.0 12 -0.04630598798394203
-1.5720057487487793 -0.177162304520607 -0.13840331137180328 16.0 5 -0.046303682029247284
-2.926356554031372 -0.3297952711582184 0.5724270343780518 7.0 13 -0.046301379799842834
-1.560001015663147 -0.17553368210792542 -0.08227212727069855 15.0 6 -0.04629907384514809
-2.9455039501190186 -0.3309120237827301 0.6843011379241943 1.0 14 -0.04629677161574364
-1.5540164709091187 -0.17431101202964783 -0.027295565232634544 22.0 7 -0.04629446566104889
-2.922011375427246 -0.327239990234375 0.7878451943397522 3.0 15 -0.04629216343164444
-1.6436151266098022 -0.182037815451622 -0.443098247051239 11.0 0 -0.0462714284658432
-1.532424807548523 -0.16945192217826843 0.02691161073744297 23.0 8 -0.04626912251114845
-1.6289931535720825 -0.17984244227409363 -0.37836769223213196 12.0 1 -0.046266820281744
-1.5544395446777344 -0.17133744060993195 0.0819581151008606 7.0 9 -0.046264514327049255
-1.611885905265808 -0.1776694506406784 -0.3152164816856384 17.0 2 -0.046262212097644806
-1.5368164777755737 -0.169123113155365 0.13526570796966553 31.0 10 -0.04625990614295006
-1.60030198097229 -0.17582689225673676 -0.2549882233142853 19.0 3 -0.04625760391354561
-1.517433762550354 -0.16645441949367523 0.1874350756406784 30.0 11 -0.04625529795885086
-1.5865280628204346 -0.17375309765338898 -0.19596591591835022 10.0 4 -0.04625299572944641
-2.9278368949890137 -0.320133239030838 0.4664876163005829 1.0 12 -0.04625068977475166
-1.5904099941253662 -0.17389735579490662 -0.13997212052345276 13.0 5 -0.046248387545347214
-2.9313933849334717 -0.3200050890445709 0.5731902718544006 7.0 13 -0.046246081590652466
-1.564575433731079 -0.17051994800567627 -0.08248147368431091 9.0 6 -0.046243779361248016
-2.9582650661468506 -0.32189300656318665 0.687000572681427 1.0 14 -0.04624147340655327
-1.5526273250579834 -0.1686694175004959 -0.027260659262537956 16.0 7 -0.04623917117714882
-2.93850040435791 -0.31870460510253906 0.791986346244812 3.0 15 -0.04623686522245407
-1.6403987407684326 -0.17588748037815094 -0.44206294417381287 8.0 0 -0.04621613025665283
-1.544937014579773 -0.16537874937057495 0.027121039107441902 18.0 8 -0.04621382802724838
-1.647050380706787 -0.17601919174194336 -0.38241681456565857 10.0 1 -0.046211522072553635
-1.5590001344680786 -0.16633374989032745 0.08216746151447296 7.0 9 -0.046209219843149185
-1.6046876907348633 -0.17120827734470367 -0.3136900067329407 12.0 2 -0.04620691388845444
-1.5354162454605103 -0.16354651749134064 0.1350913941860199 27.0 10 -0.04620461165904999
-1.6166201829910278 -0.1719111204147339 -0.2574911415576935 15.0 3 -0.04620230570435524
-1.5259015560150146 -0.16199442744255066 0.18841002881526947 25.0 11 -0.04620000347495079
-1.602917194366455 -0.1698877513408661 -0.19791583716869354 9.0 4 -0.04619769752025604
-2.9446518421173096 -0.31157469749450684 0.46899059414863586 1.0 12 -0.04619539529085159
-1.5850632190704346 -0.1677161157131195 -0.13944917917251587 10.0 5 -0.046193089336156845
-2.9344446659088135 -0.30997613072395325 0.5735718607902527 3.0 13 -0.046190787106752396
-1.573106050491333 -0.16589534282684326 -0.08290016651153564 8.0 6 -0.04618848115205765
-2.947742462158203 -0.31034114956855774 0.6843011379241943 1.0 14 -0.0461861789226532
-1.5372968912124634 -0.16157644987106323 -0.026981420814990997 10.0 7 -0.04618387669324875
-2.9319097995758057 -0.307638943195343 0.7899157404899597 3.0 15 -0.046181570738554
-1.6486889123916626 -0.17095690965652466 -0.4441334903240204 7.0 0 -0.04616083577275276
-1.5295923948287964 -0.1583380103111267 0.026841802522540092 11.0 8 -0.046158529818058014
-1.65153169631958 -0.17066942155361176 -0.38331663608551025 8.0 1 -0.046156227588653564
-1.5635448694229126 -0.16130070388317108 0.08237680792808533 5.0 9 -0.046153921633958817
-1.6306630373001099 -0.16822484135627747 -0.3186510503292084 10.0 2 -0.04615161940455437
-1.5399415493011475 -0.15859447419643402 0.13544002175331116 23.0 10 -0.04614931344985962
-1.6113154888153076 -0.16566090285778046 -0.2565525472164154 14.0 3 -0.04614701122045517
-1.544230341911316 -0.1584910899400711 0.19060367345809937 21.0 11 -0.04614470526576042
-1.6133742332458496 -0.16530348360538483 -0.19913452863693237 7.0 4 -0.04614240303635597
-2.9693031311035156 -0.30370521545410156 0.47274500131607056 1.0 12 -0.046140097081661224
-1.6014955043792725 -0.1638036072254181 -0.14084367454051971 9.0 5 -0.046137794852256775
-2.927696704864502 -0.29893332719802856 0.5720453858375549 3.0 13 -0.046135492622852325
-1.585597276687622 -0.1616186648607254 -0.08352819085121155 7.0 6 -0.04613318666815758
-2.975950002670288 -0.3028107285499573 0.690599799156189 1.0 14 -0.04613088443875313
-1.5597355365753174 -0.15843217074871063 -0.027365373447537422 9.0 7 -0.04612857848405838
-2.9483418464660645 -0.2989625036716461 0.7940568327903748 3.0 15 -0.04612627625465393
-1.6646535396575928 -0.16674154996871948 -0.4482746124267578 6.0 0 -0.04610553756356239
-1.5261561870574951 -0.15259981155395508 0.026771990582346916 9.0 8 -0.046103235334157944
-1.644360899925232 -0.16412882506847382 -0.3815170228481293 7.0 1 -0.046100929379463196
-1.5760228633880615 -0.157030388712883 0.08300483226776123 2.0 9 -0.046098627150058746
-1.6410082578659058 -0.16350534558296204 -0.3205591142177582 8.0 2 -0.046096321195364
-1.5365206003189087 -0.15282367169857025 0.1350913941860199 18.0 10 -0.04609401896595955
-1.6118841171264648 -0.1600349247455597 -0.2565525472164154 11.0 3 -0.0460917130112648
-1.536872386932373 -0.15231694281101227 0.1896287202835083 17.0 11 -0.04608941078186035
-1.6139414310455322 -0.15967069566249847 -0.19913452863693237 7.0 4 -0.0460871085524559
-2.9900031089782715 -0.2952798008918762 0.4758736789226532 1.0 12 -0.046084802597761154
-1.5901610851287842 -0.15703745186328888 -0.13979780673980713 8.0 5 -0.046082500368356705
-2.9404449462890625 -0.28986820578575134 0.5743350982666016 2.0 13 -0.04608019441366196
-1.5702505111694336 -0.15451812744140625 -0.08269082009792328 6.0 6 -0.04607789218425751
-2.9769890308380127 -0.29242080450057983 0.690599799156189 1.0 14 -0.04607558622956276
-1.5562987327575684 -0.15259675681591034 -0.027295565232634544 7.0 7 -0.04607328400015831
-2.9474451541900635 -0.28848010301589966 0.7935392260551453 4.0 15 -0.04607097804546356
-1.6748398542404175 -0.1618589162826538 -0.4508627951145172 5.0 0 -0.04605024307966232
-1.5426032543182373 -0.14880764484405518 0.027051230892539024 7.0 8 -0.046047937124967575
-1.6449238061904907 -0.15838828682899475 -0.3815170228481293 7.0 1 -0.046045634895563126
-1.5805374383926392 -0.151910200715065 0.0832141786813736 1.0 9 -0.04604332894086838
-1.6396147012710571 -0.15758827328681946 -0.32017752528190613 7.0 2 -0.04604102671146393
-1.5588607788085938 -0.14955221116542816 0.13700881600379944 14.0 10 -0.04603872448205948
-1.6222647428512573 -0.1553492546081543 -0.2581169009208679 8.0 3 -0.04603641852736473
-1.5196099281311035 -0.1452513486146927 0.1874350756406784 11.0 11 -0.04603411629796028
-1.6184412240982056 -0.1544126719236374 -0.1996220052242279 6.0 4 -0.04603181034326553
-2.971350908279419 -0.2829688489437103 0.47274500131607056 1.0 12 -0.046029508113861084
-1.600616693496704 -0.15243054926395416 -0.14066936075687408 7.0 5 -0.046027202159166336
-2.931666612625122 -0.278673380613327 0.5724270343780518 2.0 13 -0.04602489992976189
-1.5687919855117798 -0.14884692430496216 -0.0825861468911171 3.0 6 -0.04602259397506714
-2.9624710083007812 -0.28055816888809204 0.687000572681427 1.0 14 -0.04602029174566269
-1.5608035326004028 -0.1475396603345871 -0.027365373447537422 6.0 7 -0.04601798579096794
-2.9465105533599854 -0.27800828218460083 0.793021559715271 3.0 15 -0.04601568356156349
-1.6869357824325562 -0.1570862978696823 -0.4539686143398285 5.0 0 -0.04599494859576225
-1.547095537185669 -0.14379213750362396 0.027121039107441902 5.0 8 -0.045992642641067505
-1.6629303693771362 -0.15426547825336456 -0.3855661451816559 6.0 1 -0.045990340411663055
-1.5830469131469727 -0.14657627046108246 0.08331885188817978 1.0 9 -0.04598803445696831
-1.6284254789352417 -0.1507779210805893 -0.3178878128528595 5.0 2 -0.04598573222756386
-1.5573893785476685 -0.1439264714717865 0.136834517121315 9.0 10 -0.04598342627286911
-1.6326321363449097 -0.15059269964694977 -0.25968125462532043 7.0 3 -0.04598112404346466
-1.537898302078247 -0.14158383011817932 0.1896287202835083 9.0 11 -0.04597881808876991
-1.6130399703979492 -0.14821773767471313 -0.1988907903432846 4.0 4 -0.04597651585936546
-2.972320556640625 -0.2725951075553894 0.47274500131607056 1.0 12 -0.045974209904670715
-1.605107069015503 -0.14720630645751953 -0.14101798832416534 6.0 5 -0.045971907675266266
-2.942397117614746 -0.26933297514915466 0.5743350982666016 1.0 13 -0.04596960172057152
-1.5951586961746216 -0.14573247730731964 -0.08394688367843628 2.0 6 -0.04596729949116707
-2.9789578914642334 -0.2716310918331146 0.690599799156189 1.0 14 -0.04596499353647232
-1.5613090991973877 -0.14209014177322388 -0.027365373447537422 4.0 7 -0.04596269130706787
-2.9628546237945557 -0.2691192924976349 0.7971627116203308 3.0 15 -0.04596038535237312
-1.6817013025283813 -0.15067997574806213 -0.45241570472717285 2.0 0 -0.045939650386571884
-1.561530351638794 -0.13963760435581207 0.027365373447537422 4.0 8 -0.045937348157167435
-1.6634587049484253 -0.1484597772359848 -0.3855661451816559 4.0 1 -0.04593504220247269
-1.5775808095932007 -0.14051787555217743 0.08300483226776123 1.0 9 -0.04593273997306824
-1.6387195587158203 -0.14596359431743622 -0.3197959065437317 5.0 2 -0.04593043401837349
-1.5678051710128784 -0.1393713504076004 0.13770607113838196 8.0 10 -0.04592813178896904
-1.6311804056167603 -0.1447182148694992 -0.2593683898448944 6.0 3 -0.04592582583427429
-1.534428358078003 -0.1358644962310791 0.18914122879505157 7.0 11 -0.04592352360486984
-1.6214572191238403 -0.14328517019748688 -0.19986574351787567 2.0 4 -0.045921217650175095
-2.969318389892578 -0.26187095046043396 0.4721192717552185 1.0 12 -0.045918915420770645
-1.593703031539917 -0.14055228233337402 -0.13997212052345276 4.0 5 -0.0459166094660759
-2.966787576675415 -0.26112523674964905 0.5789145231246948 1.0 13 -0.04591430723667145
-1.5976473093032837 -0.14033818244934082 -0.08405155688524246 1.0 6 -0.0459120012819767
-2.9798879623413086 -0.26123085618019104 0.690599799156189 1.0 14 -0.04590969905257225
-1.541874647140503 -0.134896382689476 -0.027016324922442436 2.0 7 -0.0459073930978775
-2.9483795166015625 -0.2574317157268524 0.793021559715271 4.0 15 -0.04590509086847305
-1.6783677339553833 -0.1444770246744156 -0.4513804316520691 2.0 0 -0.045884355902671814
-1.5699776411056519 -0.13487058877944946 0.027504993602633476 2.0 8 -0.045882049947977066
-1.6853245496749878 -0.14448368549346924 -0.3905150592327118 2.0 1 -0.04587974771857262
-1.6039315462112427 -0.13722346723079681 0.08436556905508041 0.0 9 -0.04587744176387787
-1.6607362031936646 -0.14208334684371948 -0.3239936828613281 3.0 2 -0.04587513953447342
-1.5603413581848145 -0.13321982324123383 0.13700881600379944 7.0 10 -0.04587283357977867
-1.6415166854858398 -0.1398622989654541 -0.26093271374702454 5.0 3 -0.04587053135037422
-1.544783115386963 -0.1313483715057373 0.1903599202632904 6.0 11 -0.045868225395679474
-1.6160134077072144 -0.1371208131313324 -0.19913452863693237 2.0 4 -0.045865923166275024
-2.9938344955444336 -0.2535037398338318 0.4758736789226532 1.0 12 -0.045863617211580276
-1.6100661754608154 -0.13633278012275696 -0.1413666158914566 3.0 5 -0.04586131498217583
-2.959855794906616 -0.2501070499420166 0.5773880481719971 1.0 13 -0.04585900902748108
-1.6021078824996948 -0.13509608805179596 -0.08426090329885483 0.0 6 -0.04585670679807663
-2.9807817935943604 -0.25082671642303467 0.690599799156189 1.0 14 -0.04585440456867218
-1.5622628927230835 -0.1311870515346527 -0.027365373447537422 2.0 7 -0.04585209861397743
-2.9415600299835205 -0.24649301171302795 0.7909510731697083 6.0 15 -0.04584979638457298
-1.6961896419525146 -0.14004819095134735 -0.4560391902923584 1.0 0 -0.045829057693481445
-1.5525023937225342 -0.12791204452514648 0.02719084918498993 1.0 8 -0.045826755464076996
-1.6819343566894531 -0.13828012347221375 -0.3896152675151825 2.0 1 -0.04582444950938225
-1.600419521331787 -0.13129720091819763 0.08415622264146805 0.0 9 -0.0458221472799778
-1.6592652797698975 -0.1361248642206192 -0.3236120641231537 2.0 2 -0.04581984132528305
-1.5746971368789673 -0.12891067564487457 0.13822901248931885 6.0 10 -0.0458175390958786
-1.6321508884429932 -0.13332690298557281 -0.2593683898448944 4.0 3 -0.04581523314118385
-1.5274254083633423 -0.12450376152992249 0.1881662756204605 4.0 11 -0.045812930911779404
-1.6323107481002808 -0.13276681303977966 -0.2010844349861145 1.0 4 -0.045810624957084656
-2.978950023651123 -0.24177400767803192 0.473370760679245 1.0 12 -0.045808322727680206
-1.5966538190841675 -0.12930524349212646 -0.1401464343070984 2.0 5 -0.04580602049827576
-2.9607110023498535 -0.23977361619472504 0.5773880481719971 1.0 13 -0.04580371454358101
-1.6065510511398315 -0.1298249512910843 -0.0844702422618866 0.0 6 -0.04580141231417656
-2.9816389083862305 -0.24042093753814697 0.690599799156189 1.0 14 -0.04579910635948181
-1.5527451038360596 -0.12493102997541428 -0.02719084918498993 1.0 7 -0.04579680413007736
-2.948179244995117 -0.2366865575313568 0.7925038933753967 7.0 15 -0.045794498175382614
-1.7120983600616455 -0.13504603505134583 -0.46018028259277344 1.0 0 -0.045773763209581375
-1.5768613815307617 -0.12437888234853745 0.027609705924987793 0.0 8 -0.04577145725488663
-1.699891448020935 -0.1337842494249344 -0.3936643898487091 0.0 1 -0.04576915502548218
-1.6008682250976562 -0.12571023404598236 0.08415622264146805 0.0 9 -0.04576684907078743
-1.6754112243652344 -0.131269633769989 -0.3266650140285492 2.0 2 -0.04576454684138298
-1.5831043720245361 -0.12375897169113159 0.13892625272274017 5.0 10 -0.04576224461197853
-1.648383617401123 -0.12857311964035034 -0.2618713080883026 1.0 3 -0.04575993865728378
-1.5417042970657349 -0.12025218456983566 0.18987245857715607 2.0 11 -0.045757636427879333
-1.6327643394470215 -0.12706774473190308 -0.2010844349861145 0.0 4 -0.045755330473184586
-2.9896233081817627 -0.23213861882686615 0.4749351143836975 1.0 12 -0.045753028243780136
-1.6090141534805298 -0.12465480715036392 -0.14119230210781097 1.0 5 -0.04575072228908539
-2.9615697860717773 -0.22892041504383087 0.5773880481719971 1.0 13 -0.04574842005968094
-1.6189641952514648 -0.12485680729150772 -0.0850982740521431 0.0 6 -0.04574611410498619
-2.9825000762939453 -0.22949102520942688 0.690599799156189 1.0 14 -0.04574381187558174
-1.563140630722046 -0.12027719616889954 -0.027365373447537422 0.0 7 -0.04574150592088699
-2.9528400897979736 -0.22669042646884918 0.7935392260551453 7.0 15 -0.045739203691482544
-1.7279704809188843 -0.1302298754453659 -0.4643213748931885 0.0 0 -0.045718465000391006
-1.5852829217910767 -0.1191982701420784 0.027749326080083847 0.0 8 -0.04571616277098656
-1.7081433534622192 -0.12813642621040344 -0.3954640030860901 0.0 1 -0.04571386054158211
-1.641152024269104 -0.12282263487577438 0.08624966442584991 0.0 9 -0.04571155458688736
-1.6778169870376587 -0.12556661665439606 -0.32704663276672363 0.0 2 -0.04570925235748291
-1.577566146850586 -0.1177874431014061 0.13840331137180328 2.0 10 -0.04570694640278816
-1.6468524932861328 -0.12267162650823593 -0.2615584433078766 1.0 3 -0.04570464417338371
-1.5579718351364136 -0.11577726155519485 0.1918223649263382 2.0 11 -0.045702338218688965
-1.625300407409668 -0.12049541622400284 -0.20010948181152344 0.0 4 -0.045700035989284515
-2.9707536697387695 -0.21972313523292542 0.4718063771724701 3.0 12 -0.04569773003458977
-1.641230821609497 -0.12138884514570236 -0.14398127794265747 0.0 5 -0.04569542780518532
-2.9545187950134277 -0.21800322830677032 0.5758615732192993 1.0 13 -0.04569312185049057
-1.6154065132141113 -0.11891151964664459 -0.08488892763853073 0.0 6 -0.04569081962108612
-2.983283042907715 -0.2190786749124527 0.690599799156189 1.0 14 -0.04568851366639137
-1.6114355325698853 -0.11805371195077896 -0.0282030887901783 0.0 7 -0.04568621143698692
-2.969064712524414 -0.21699266135692596 0.7976803779602051 9.0 15 -0.045683905482292175
-1.739975929260254 -0.12502846121788025 -0.46742722392082214 0.0 0 -0.045663170516490936
-1.6255810260772705 -0.11652331054210663 0.02844742313027382 0.0 8 -0.04566086828708649
-1.7435681819915771 -0.1246744692325592 -0.4035622179508209 0.0 1 -0.04565856233239174
-1.6415706872940063 -0.11709355562925339 0.08624966442584991 0.0 9 -0.04565626010298729
-1.6743284463882446 -0.11943016946315765 -0.32628339529037476 0.0 2 -0.04565395414829254
-1.5680309534072876 -0.11157289892435074 0.13753175735473633 1.0 10 -0.04565165191888809
-1.6650044918060303 -0.11818058043718338 -0.2643742859363556 1.0 3 -0.045649345964193344
-1.5900485515594482 -0.11258138716220856 0.19572217762470245 1.0 11 -0.045647043734788895
-1.7049174308776855 -0.12041591107845306 -0.20985902845859528 0.0 4 -0.04564473778009415
-2.967561721801758 -0.20907346904277802 0.47118064761161804 3.0 12 -0.0456424355506897
-1.6416445970535278 -0.1156587079167366 -0.14398127794265747 0.0 5 -0.04564012959599495
-2.9591786861419678 -0.20796388387680054 0.5766248106956482 1.0 13 -0.0456378273665905
-1.6835522651672363 -0.11802108585834503 -0.08844777196645737 0.0 6 -0.04563552141189575
-2.972365617752075 -0.20784804224967957 0.6879003643989563 1.0 14 -0.0456332191824913
-1.6038583517074585 -0.11187142133712769 -0.028063468635082245 0.0 7 -0.045630913227796555
-2.9543864727020264 -0.2055552899837494 0.7935392260551453 10.0 15 -0.045628610998392105
-1.7172733545303345 -0.11737322807312012 -0.4612155556678772 0.0 0 -0.045607876032590866
-1.633958101272583 -0.11139224469661713 0.028587043285369873 0.0 8 -0.04560557007789612
-1.7362158298492432 -0.11805865913629532 -0.40176263451576233 1.0 1 -0.04560326784849167
