# .PCD v0.7 - Point Cloud Data file format
VERSION 0.7
FIELDS x y z intensity ring time
SIZE 4 4 4 4 4 4
TYPE F F F F F F
COUNT 1 1 1 1 1 1
WIDTH 553
HEIGHT 1
VIEWPOINT 0 0 0 1 0 0 0
POINTS 553
DATA ascii
-3.701669692993164 6.309344291687012 0.8981771469116211 78.0 11 -0.06408683210611343
-3.691450595855713 6.294443130493164 1.1557379961013794 37.0 12 -0.06408222019672394
-2.779005765914917 4.74049186706543 -0.48075106739997864 11.0 5 -0.06407991796731949
-3.664628028869629 6.253708362579346 1.4089336395263672 45.0 13 -0.06407761573791504
-2.649878978729248 4.523842811584473 -0.274763822555542 73.0 6 -0.06407530605792999
-3.6471848487854004 6.22892427444458 1.6664375066757202 57.0 14 -0.06407300382852554
-2.6775805950164795 4.572964668273926 -0.09249775111675262 40.0 7 -0.0640707015991211
-3.623281955718994 6.190577983856201 1.9219902753829956 22.0 15 -0.06406839936971664
-1.6724865436553955 2.8667099475860596 -0.8893022537231445 5.0 0 -0.0640476644039154
-2.6885335445404053 4.608255386352539 0.09312604367733002 12.0 8 -0.06404535472393036
-1.8858932256698608 3.2337939739227295 -0.864262044429779 3.0 1 -0.06404305249452591
-2.7248916625976562 4.674322128295898 0.2835562229156494 1.0 9 -0.06404075026512146
-2.149867296218872 3.6893959045410156 -0.8300192356109619 1.0 2 -0.06403844803571701
-3.701382637023926 6.354506969451904 0.6433836817741394 88.0 10 -0.06403613835573196
-2.516446828842163 4.320217609405518 -0.7918713688850403 1.0 3 -0.06403383612632751
-3.686721086502075 6.331876754760742 0.8996396064758301 78.0 11 -0.06403153389692307
-3.0225844383239746 5.193318843841553 -0.7377970814704895 1.0 4 -0.06402923166751862
-3.687338352203369 6.3380231857299805 1.1613695621490479 73.0 12 -0.06402692198753357
-2.988806962966919 5.139408111572266 -0.5201454758644104 26.0 5 -0.06402461975812912
-3.6754543781280518 6.320134162902832 1.4211454391479492 100.0 13 -0.06402231752872467
-2.6639721393585205 4.582678318023682 -0.2777992784976959 70.0 6 -0.06402001529932022
-3.6539244651794434 6.288161754608154 1.67903470993042 61.0 14 -0.06401771306991577
-2.5732176303863525 4.430116653442383 -0.08942613005638123 53.0 7 -0.06401540338993073
-3.632692337036133 6.256649017333984 1.9385546445846558 27.0 15 -0.06401310116052628
-1.6581319570541382 2.8638808727264404 -0.8867141008377075 5.0 0 -0.06399236619472504
-2.6784420013427734 4.627995491027832 0.09333546459674835 8.0 8 -0.06399006396532059
-1.8784962892532349 3.2471048831939697 -0.8660616278648376 3.0 1 -0.06398775428533554
-2.9855144023895264 5.162732124328613 0.3125503659248352 1.0 9 -0.06398545205593109
-2.1317245960235596 3.686307191848755 -0.8277294635772705 1.0 2 -0.06398314982652664
-3.6683225631713867 6.346047401428223 0.6412919163703918 91.0 10 -0.06398084759712219
-2.503326654434204 4.332396984100342 -0.7924971580505371 1.0 3 -0.06397853791713715
-3.6576478481292725 6.3326735496521 0.8979334235191345 70.0 11 -0.0639762356877327
-2.9925262928009033 5.183208465576172 -0.7348722219467163 3.0 4 -0.06397393345832825
-3.648404836654663 6.321771621704102 1.1560508012771606 61.0 12 -0.0639716312289238
-2.9687583446502686 5.144114971160889 -0.5196225643157959 35.0 5 -0.06396932899951935
-3.6484663486480713 6.324420928955078 1.4192373752593994 97.0 13 -0.0639670193195343
-2.6738994121551514 4.636935710906982 -0.2805207371711731 50.0 6 -0.06396471709012985
-3.5910768508911133 6.229968547821045 1.6601388454437256 46.0 14 -0.0639624148607254
-2.564727306365967 4.451199531555176 -0.08967046439647675 55.0 7 -0.06396011263132095
-3.6272196769714355 6.297750473022461 1.9473545551300049 29.0 15 -0.06395780295133591
-1.6442757844924927 2.8629510402679443 -0.8846435546875 5.0 0 -0.06393706798553467
-2.6642611026763916 4.640786170959473 0.09340527653694153 6.0 8 -0.06393476575613022
-1.8700608015060425 3.2587125301361084 -0.8674113154411316 3.0 1 -0.06393246352672577
-2.960516929626465 5.1609954833984375 0.31181764602661133 6.0 9 -0.06393016129732132
-2.124704360961914 3.703944206237793 -0.8300192356109619 1.0 2 -0.06392785161733627
-3.6362392902374268 6.34152889251709 0.6395488381385803 88.0 10 -0.06392554938793182
-2.4980125427246094 4.358246803283691 -0.7956258058547974 1.0 3 -0.06392324715852737
-3.631571054458618 6.338513374328613 0.8969584107398987 70.0 11 -0.06392094492912292
-2.9852683544158936 5.212571144104004 -0.7375533580780029 3.0 4 -0.06391863524913788
-3.6243538856506348 6.331038951873779 1.1554250717163086 56.0 12 -0.06391633301973343
-2.9824607372283936 5.209776878356934 -0.5252004861831665 10.0 5 -0.06391403079032898
-3.6175906658172607 6.321783542633057 1.4158028364181519 87.0 13 -0.06391172856092453
-3.6031646728515625 6.301675796508789 1.6758854389190674 77.0 14 -0.06390711665153503
-2.5541343688964844 4.468806743621826 -0.08984498679637909 53.0 7 -0.06390481442213058
-3.596590995788574 6.295277118682861 1.9426958560943604 30.0 15 -0.06390251219272614
-1.6400090456008911 2.8787448406219482 -0.8877493143081665 5.0 0 -0.0638817772269249
-2.667837619781494 4.684811115264893 0.0941033735871315 6.0 8 -0.06387946754693985
-1.8519268035888672 3.2533650398254395 -0.864262044429779 3.0 1 -0.0638771653175354
-2.9326047897338867 5.153939247131348 0.3107709288597107 33.0 9 -0.06387486308813095
-2.115645170211792 3.7181642055511475 -0.8315456509590149 2.0 2 -0.0638725608587265
-3.610142469406128 6.347255229949951 0.6388515830039978 82.0 10 -0.06387025117874146
-2.473021984100342 4.349766731262207 -0.7924971580505371 1.0 3 -0.063867948949337
-3.6015753746032715 6.337346076965332 0.8950085043907166 66.0 11 -0.06386564671993256
-2.971958637237549 5.231589317321777 -0.7387720346450806 1.0 4 -0.0638633444905281
-3.600282907485962 6.340215682983398 1.1547993421554565 55.0 12 -0.06386103481054306
-3.0695271492004395 5.405537128448486 -0.5438517928123474 20.0 5 -0.06385873258113861
-3.590653896331787 6.325836658477783 1.413894772529602 90.0 13 -0.06385643035173416
-2.555715560913086 4.504359245300293 -0.27141430974006653 1.0 6 -0.06385412812232971
-3.596529245376587 6.341335296630859 1.6830838918685913 100.0 14 -0.06385181844234467
-2.5503532886505127 4.498570919036865 -0.09026385098695755 77.0 7 -0.06384951621294022
-3.569833278656006 6.2993879318237305 1.9401075839996338 45.0 15 -0.06384721398353577
-1.6251988410949707 2.876042127609253 -0.8851611614227295 4.0 0 -0.06382647901773453
-2.6662192344665527 4.720212936401367 0.09462694823741913 2.0 8 -0.06382417678833008
-1.841516375541687 3.261507034301758 -0.8647118806838989 3.0 1 -0.06382186710834503
-3.5831191539764404 6.348645210266113 0.3820525109767914 5.0 9 -0.06381956487894058
-2.1007239818573 3.722106456756592 -0.830782413482666 1.0 2 -0.06381726264953613
-3.5850257873535156 6.354613780975342 0.6383286714553833 81.0 10 -0.06381496042013168
-2.4655845165252686 4.372138500213623 -0.7950000762939453 1.0 3 -0.06381265074014664
-3.5716350078582764 6.336044788360596 0.8930586576461792 68.0 11 -0.06381034851074219
-3.5742502212524414 6.345860958099365 1.1535478830337524 58.0 12 -0.06380574405193329
-3.077037811279297 5.463090896606445 -0.548558235168457 18.0 5 -0.06380343437194824
-3.567589044570923 6.336620330810547 1.41351318359375 85.0 13 -0.06380113214254379
-2.565443754196167 4.558507919311523 -0.2741357684135437 1.0 6 -0.06379882991313934
-3.5562164783477783 6.321581840515137 1.6745357513427734 100.0 14 -0.0637965276837349
-2.543456554412842 4.523131847381592 -0.09057798981666565 70.0 7 -0.06379422545433044
-3.547820806503296 6.311811447143555 1.9401075839996338 45.0 15 -0.0637919157743454
-1.616094946861267 2.883382558822632 -0.8856788277626038 6.0 0 -0.0637655258178711
-2.656569242477417 4.741702079772949 0.09487128257751465 8.0 8 -0.06376322358846664
-1.8367865085601807 3.2798166275024414 -0.867861270904541 3.0 1 -0.0637609213590622
-3.545328140258789 6.333228588104248 0.38037776947021484 5.0 9 -0.06375861167907715
-2.085151195526123 3.7263543605804443 -0.8300192356109619 1.0 2 -0.0637563094496727
-3.555040121078491 6.35317850112915 0.6369341611862183 81.0 10 -0.06375400722026825
-2.4599521160125732 4.397957801818848 -0.7981287240982056 1.0 3 -0.0637517049908638
-3.54465389251709 6.339809417724609 0.8918399214744568 61.0 11 -0.06374939531087875
-3.543407917022705 6.342777252197266 1.1507320404052734 60.0 12 -0.06374479085206985
-3.087108612060547 5.528257369995117 -0.5539618730545044 28.0 5 -0.0637424886226654
-3.5366833209991455 6.335940361022949 1.410460114479065 85.0 13 -0.06374017894268036
-2.556504964828491 4.581831932067871 -0.2749731242656708 1.0 6 -0.06373787671327591
-3.5236849784851074 6.3152360916137695 1.6695868968963623 100.0 14 -0.06373557448387146
-2.5227835178375244 4.523250579833984 -0.0904034674167633 67.0 7 -0.06373327225446701
-3.523883819580078 6.320784091949463 1.9390723705291748 45.0 15 -0.06373096257448196
-1.6149001121520996 2.906172752380371 -0.8908551931381226 5.0 0 -0.06371022760868073
-2.536245346069336 4.566106796264648 0.09117137640714645 1.0 8 -0.06370792537927628
-1.8238061666488647 3.2848236560821533 -0.8674113154411316 3.0 1 -0.06370562314987183
-3.5133676528930664 6.3304643630981445 0.3794357180595398 4.0 9 -0.06370332092046738
-2.0752880573272705 3.7408392429351807 -0.8315456509590149 1.0 2 -0.06370101124048233
-3.530762195587158 6.364424228668213 0.6367598176002502 85.0 10 -0.06369870901107788
-2.4399831295013428 4.4000349044799805 -0.7968772649765015 1.0 3 -0.06369640678167343
-3.5213918685913086 6.35275936126709 0.8918399214744568 68.0 11 -0.06369410455226898
-3.5124781131744385 6.341897964477539 1.1482291221618652 60.0 12 -0.06368949264287949
-3.0822646617889404 5.56742525100708 -0.5567508935928345 13.0 5 -0.06368719041347504
-3.511537551879883 6.345424175262451 1.4096969366073608 87.0 13 -0.06368488818407059
-2.6035001277923584 4.706519603729248 -0.2818814814090729 1.0 6 -0.06368257850408554
-3.5005133152008057 6.3281097412109375 1.6695868968963623 100.0 14 -0.06368027627468109
-2.50425124168396 4.528967380523682 -0.09033365547657013 60.0 7 -0.06367797404527664
-3.4838733673095703 6.30322265625 1.9297548532485962 27.0 15 -0.06367567181587219
-1.5967795848846436 2.89853572845459 -0.8867141008377075 5.0 0 -0.06365493685007095
-2.546501874923706 4.624417781829834 0.09214870631694794 1.0 8 -0.06365262717008591
-1.809875726699829 3.288071393966675 -0.8665115237236023 3.0 1 -0.06365032494068146
-3.495102643966675 6.3496880531311035 0.3798544108867645 5.0 9 -0.06364802271127701
-2.0584328174591064 3.741179943084717 -0.8300192356109619 1.0 2 -0.06364572048187256
-3.495891809463501 6.356372356414795 0.6346681118011475 84.0 10 -0.06364341080188751
-2.42574405670166 4.412409782409668 -0.7975029945373535 1.0 3 -0.06364110857248306
-3.4942615032196045 6.358663558959961 0.8908649682998657 57.0 11 -0.06363880634307861
-2.617713451385498 4.76554012298584 -0.6676003336906433 1.0 4 -0.06363650411367416
-3.4874675273895264 6.348925590515137 1.1472904682159424 61.0 12 -0.06363419443368912
-3.0666487216949463 5.585135459899902 -0.557448148727417 6.0 5 -0.06363189220428467
-3.484644651412964 6.349037170410156 1.407788872718811 90.0 13 -0.06362958997488022
-2.6005032062530518 4.74009370803833 -0.28334689140319824 1.0 6 -0.06362728774547577
-3.4754233360290527 6.337479114532471 1.6686869859695435 100.0 14 -0.06362498551607132
-2.499005079269409 4.556967735290527 -0.090717613697052 56.0 7 -0.06362267583608627
-3.4423506259918213 6.2797698974609375 1.918884515762329 32.0 15 -0.06362037360668182
-1.5903576612472534 2.9108729362487793 -0.888784646987915 5.0 0 -0.06359963864088058
-2.5119781494140625 4.597738742828369 0.09145060926675797 6.0 8 -0.06359733641147614
-1.8036315441131592 3.3026070594787598 -0.8687610626220703 3.0 1 -0.06359502673149109
-3.467172861099243 6.35133171081543 0.3792263865470886 5.0 9 -0.06359272450208664
-2.049123525619507 3.755235433578491 -0.8315456509590149 1.0 2 -0.06359042227268219
-3.4736807346343994 6.368537902832031 0.6346681118011475 85.0 10 -0.06358812004327774
-2.4129891395568848 4.423899173736572 -0.7981287240982056 1.0 3 -0.0635858103632927
-3.464601993560791 6.3545308113098145 0.888671338558197 59.0 11 -0.06358350813388824
-2.5790982246398926 4.73236083984375 -0.6617506146430969 1.0 4 -0.0635812059044838
-3.463392972946167 6.3575921058654785 1.1466647386550903 61.0 12 -0.06357890367507935
-3.055708408355713 5.611555099487305 -0.5590169429779053 6.0 5 -0.0635766014456749
-3.4541807174682617 6.343316555023193 1.4039726257324219 92.0 13 -0.06357429176568985
-3.4506611824035645 6.342123031616211 1.6668874025344849 100.0 14 -0.06356968730688095
-2.486903190612793 4.572690010070801 -0.09085723012685776 61.0 7 -0.0635673850774765
-3.427788734436035 6.305325984954834 1.9230256080627441 28.0 15 -0.06356507539749146
-1.583457112312317 2.9212262630462646 -0.8903375267982483 4.0 0 -0.06354434043169022
-2.504486560821533 4.6223039627075195 0.09176475554704666 3.0 8 -0.06354203820228577
-1.7902368307113647 3.305455446243286 -0.867861270904541 3.0 1 -0.06353973597288132
-3.432777166366577 6.338207244873047 0.37776097655296326 4.0 9 -0.06353742629289627
-2.04974365234375 3.7861809730529785 -0.836888313293457 1.0 2 -0.06353512406349182
-3.444958209991455 6.366003036499023 0.6332736015319824 85.0 10 -0.06353282183408737
-2.3994128704071045 4.435769081115723 -0.7987545132637024 1.0 3 -0.06353051960468292
-3.4329593181610107 6.349123477935791 0.886233925819397 57.0 11 -0.06352821737527847
-2.59842848777771 4.807696342468262 -0.6710126399993896 1.0 4 -0.06352590769529343
-3.4385359287261963 6.362090587615967 1.1454132795333862 61.0 12 -0.06352360546588898
-3.043713331222534 5.633927345275879 -0.5602371096611023 6.0 5 -0.06352130323648453
-3.4282870292663574 6.348424911499023 1.4024461507797241 95.0 13 -0.06351900100708008
-2.6023342609405518 4.820956230163574 -0.28711506724357605 1.0 6 -0.06351669132709503
-3.420175075531006 6.338694095611572 1.6628382205963135 100.0 14 -0.06351438909769058
-2.4821720123291016 4.600269794464111 -0.09124118089675903 63.0 7 -0.06351208686828613
-3.4068617820739746 6.316658020019531 1.9230256080627441 38.0 15 -0.06350978463888168
-1.5750805139541626 2.9301388263702393 -0.8913728594779968 6.0 0 -0.06348904222249985
-2.5099751949310303 4.669332981109619 0.09253265708684921 5.0 8 -0.0634867399930954
-1.7728080749511719 3.2993578910827637 -0.8647118806838989 3.0 1 -0.06348443776369095
-3.3964576721191406 6.323757171630859 0.3761908710002899 5.0 9 -0.0634821355342865
-2.0290865898132324 3.7794747352600098 -0.8338353633880615 1.0 2 -0.06347983330488205
-3.424598217010498 6.381501197814941 0.6336222290992737 82.0 10 -0.063477523624897
-2.379084348678589 4.433258533477783 -0.7968772649765015 1.0 3 -0.06347522139549255
-3.41001033782959 6.356973171234131 0.885746419429779 59.0 11 -0.0634729191660881
-2.8976597785949707 5.404108047485352 -0.7529088854789734 1.0 4 -0.06347061693668365
-3.4069736003875732 6.356644630432129 1.142284631729126 61.0 12 -0.06346830725669861
-3.0193252563476562 5.635735511779785 -0.5593655109405518 6.0 5 -0.06346600502729416
-3.405363082885742 6.356296539306641 1.40168297290802 92.0 13 -0.06346370279788971
-2.586331844329834 4.829559803009033 -0.28711506724357605 1.0 6 -0.06346140056848526
-3.395456075668335 6.3431291580200195 1.6610386371612549 100.0 14 -0.06345909088850021
-2.460437297821045 4.59832763671875 -0.0910317525267601 56.0 7 -0.06345678865909576
-3.3838791847229004 6.326808929443359 1.9225080013275146 45.0 15 -0.06345448642969131
-1.5608091354370117 2.9268229007720947 -0.888784646987915 5.0 0 -0.06343375146389008
-2.5049474239349365 4.699242115020752 0.09295151382684708 5.0 8 -0.06343144923448563
-1.7676959037780762 3.3175644874572754 -0.867861270904541 3.0 1 -0.06342913955450058
-3.371544361114502 6.330286502838135 0.37587687373161316 5.0 9 -0.06342683732509613
-2.025770425796509 3.803511381149292 -0.8376515507698059 1.0 2 -0.06342453509569168
-3.3940558433532715 6.375235080718994 0.6318791508674622 85.0 10 -0.06342223286628723
-2.372875928878784 4.458974361419678 -0.8000059723854065 1.0 3 -0.06341992318630219
-3.3859336376190186 6.365333557128906 0.8852589726448059 57.0 11 -0.06341762095689774
-3.3792028427124023 6.358031749725342 1.1404074430465698 65.0 12 -0.06341301649808884
-2.99033260345459 5.6263651847839355 -0.557448148727417 3.0 5 -0.06341070681810379
-3.3813109397888184 6.364677906036377 1.400919795036316 92.0 13 -0.06340840458869934
-2.5694587230682373 4.838558197021484 -0.28711506724357605 1.0 6 -0.06340610235929489
-3.3678128719329834 6.3446149826049805 1.658339262008667 100.0 14 -0.06340380012989044
-2.4603054523468018 4.636917591094971 -0.0916251391172409 67.0 7 -0.0634014904499054
-3.3545339107513428 6.324928283691406 1.91836678981781 45.0 15 -0.06339918822050095
-1.5496805906295776 2.9305453300476074 -0.8882669806480408 5.0 0 -0.06337845325469971
-2.4492812156677246 4.633704662322998 0.09148551523685455 47.0 8 -0.06337615102529526
-1.7624778747558594 3.335775375366211 -0.8710105419158936 3.0 1 -0.06337384879589081
-3.3456974029541016 6.334951877593994 0.3754581809043884 5.0 9 -0.06337153911590576
-2.0033135414123535 3.793198585510254 -0.8338353633880615 1.0 2 -0.06336923688650131
-3.3634116649627686 6.371185302734375 0.6303102970123291 90.0 10 -0.06336693465709686
-2.357297658920288 4.467229843139648 -0.8000059723854065 1.0 3 -0.06336463242769241
-3.36091685295105 6.371845722198486 0.8845278024673462 56.0 11 -0.06336232274770737
-3.354227066040039 6.3645453453063965 1.139468789100647 63.0 12 -0.06335771828889847
-2.9818227291107178 5.657919406890869 -0.5595398545265198 3.0 5 -0.06335541605949402
-3.3517515659332275 6.362547397613525 1.3978667259216309 95.0 13 -0.06335310637950897
-2.5711638927459717 4.882843017578125 -0.2892085313796997 1.0 6 -0.06335080415010452
-3.3420162200927734 6.349433422088623 1.6565396785736084 100.0 14 -0.06334850192070007
-2.4496898651123047 4.6560959815979 -0.09183456003665924 62.0 7 -0.06334619969129562
-3.3324337005615234 6.336600303649902 1.91836678981781 34.0 15 -0.06334389746189117
-1.543926477432251 2.9444918632507324 -0.8908551931381226 5.0 0 -0.06332315504550934
-2.4247360229492188 4.626286506652832 0.09117137640714645 53.0 8 -0.06332085281610489
-1.7444918155670166 3.329824447631836 -0.867861270904541 3.0 1 -0.06331855058670044
-3.3198561668395996 6.339515686035156 0.3750394880771637 5.0 9 -0.06331624835729599
-2.011918306350708 3.841909885406494 -0.842994213104248 1.0 2 -0.06331393867731094
-3.339301824569702 6.37935733795166 0.6299616694450378 81.0 10 -0.0633116364479065
-2.341688632965088 4.475431442260742 -0.8000059723854065 1.0 3 -0.06330933421850204
-3.3303725719451904 6.367708206176758 0.8823341131210327 57.0 11 -0.0633070319890976
-2.859302282333374 5.4693403244018555 -0.7577836513519287 1.0 4 -0.06330472230911255
-3.328328847885132 6.369212627410889 1.1382173299789429 63.0 12 -0.0633024200797081
-2.9768173694610596 5.696547031402588 -0.5623288154602051 6.0 5 -0.06330011785030365
-3.3204333782196045 6.356805801391602 1.3940505981445312 97.0 13 -0.0632978156208992
-2.5873827934265137 4.95552396774292 -0.2929767072200775 1.0 6 -0.06329551339149475
-3.3198306560516357 6.3610615730285645 1.6565396785736084 100.0 14 -0.0632932037115097
-2.4491467475891113 4.694758892059326 -0.09242794662714005 100.0 7 -0.06329090148210526
-3.3022570610046387 6.33277702331543 1.9137080907821655 24.0 15 -0.0632885992527008
-1.5354217290878296 2.9532909393310547 -0.8918904662132263 5.0 0 -0.06326786428689957
-2.4297821521759033 4.675532817840576 0.0919741839170456 46.0 8 -0.06326555460691452
-1.7373502254486084 3.3445401191711426 -0.8701107501983643 3.0 1 -0.06326325237751007
-3.2885046005249023 6.333339691162109 0.37399277091026306 5.0 9 -0.06326095014810562
-3.3124256134033203 6.382132530212402 0.6290901303291321 85.0 10 -0.06325633823871613
-2.3296895027160645 4.4905924797058105 -0.8012574315071106 1.0 3 -0.06325403600931168
-3.3008155822753906 6.3651957511901855 0.8803842067718506 59.0 11 -0.06325173377990723
-2.8401942253112793 5.479287147521973 -0.7577836513519287 1.0 4 -0.06324943155050278
-3.3024392127990723 6.373777389526367 1.1369657516479492 63.0 12 -0.06324712932109833
-2.9789113998413086 5.749361515045166 -0.5665123462677002 1.0 5 -0.06324481964111328
-3.2928078174591064 6.3578972816467285 1.3917608261108398 97.0 13 -0.06324251741170883
-2.564560890197754 4.953883171081543 -0.2923486828804016 1.0 6 -0.06324021518230438
-3.2904396057128906 6.358766078948975 1.6529405117034912 100.0 14 -0.06323791295289993
-2.4309074878692627 4.699726104736328 -0.09235813468694687 53.0 7 -0.06323560327291489
-3.2774710655212402 6.33911657333374 1.912155270576477 26.0 15 -0.06323330104351044
-1.5259878635406494 2.960350275039673 -0.8924081325531006 5.0 0 -0.0632125660777092
-2.4281022548675537 4.712426662445068 0.09253265708684921 61.0 8 -0.06321026384830475
-1.7265563011169434 3.3523168563842773 -0.8705606460571289 3.0 1 -0.0632079541683197
-3.257423162460327 6.324678897857666 0.37284138798713684 5.0 9 -0.06320565193891525
-3.2883055210113525 6.390111923217773 0.6287415027618408 85.0 10 -0.06320104748010635
-3.274944543838501 6.3696184158325195 0.8794092535972595 59.0 11 -0.06319643557071686
-3.2713568210601807 6.365365028381348 1.1335242986679077 61.0 12 -0.06319183111190796
-3.2705929279327393 6.369353771209717 1.3917608261108398 95.0 13 -0.06318721920251846
-3.2531495094299316 6.338105201721191 -0.37336474657058716 9.0 6 -0.06318491697311401
-3.261108160018921 6.356341361999512 1.6493412256240845 100.0 14 -0.06318261474370956
-2.406179904937744 4.689970016479492 -0.09200908988714218 63.0 7 -0.06318031251430511
-3.2555480003356934 6.348231792449951 1.911637544631958 30.0 15 -0.06317800283432007
-1.5130081176757812 2.9604978561401367 -0.8908551931381226 5.0 0 -0.06315726786851883
-2.421560525894165 4.738259315490723 0.0928817018866539 59.0 8 -0.06315496563911438
-1.7189769744873047 3.3649654388427734 -0.8723602890968323 3.0 1 -0.06315266340970993
-3.2362356185913086 6.337789058685303 0.3729460537433624 5.0 9 -0.06315036118030548
-3.2560181617736816 6.382030487060547 0.6268240809440613 78.0 10 -0.06314574927091599
-3.2520015239715576 6.376905918121338 0.8789218068122864 59.0 11 -0.06314114481210709
-3.2455286979675293 6.369706153869629 1.1322728395462036 61.0 12 -0.06313653290271759
-3.2494547367095947 6.380163669586182 1.3917608261108398 97.0 13 -0.06313192844390869
-3.242082118988037 6.368435859680176 -0.3745161294937134 66.0 6 -0.06312961876392365
-3.2391293048858643 6.365383148193359 1.6488913297653198 100.0 14 -0.0631273165345192
-2.37800931930542 4.675169467926025 -0.09155532717704773 55.0 7 -0.06312501430511475
-3.226365804672241 6.345779895782471 1.907496452331543 32.0 15 -0.0631227120757103
-1.5066769123077393 2.972391128540039 -0.8929257392883301 5.0 0 -0.06310197710990906
-2.4086227416992188 4.753818511962891 0.09302133321762085 48.0 8 -0.06309966742992401
-1.7081000804901123 3.3726842403411865 -0.8728101253509521 3.0 1 -0.06309736520051956
-3.208681583404541 6.338354587554932 0.3723180294036865 5.0 9 -0.06309506297111511
-3.2276415824890137 6.378569602966309 0.6254295706748962 76.0 10 -0.06309045106172562
-3.227928876876831 6.384675979614258 0.8784343004226685 63.0 11 -0.06308584660291672
-3.2206008434295654 6.375707149505615 1.1313341856002808 63.0 12 -0.06308123469352722
-3.220083236694336 6.377448081970215 1.3887079954147339 95.0 13 -0.06307663023471832
-3.2116219997406006 6.366212368011475 1.646191954612732 100.0 14 -0.06307201832532883
-2.349069118499756 4.658445358276367 -0.09106665849685669 16.0 7 -0.06306971609592438
-3.1981067657470703 6.344928741455078 1.9038729667663574 35.0 15 -0.06306741386651993
-1.489701747894287 2.9658093452453613 -0.8893022537231445 5.0 0 -0.06304667890071869
-1.6866992712020874 3.359468460083008 -0.867861270904541 3.0 1 -0.0630420669913292
-3.1883273124694824 6.353087425231934 0.3725273907184601 6.0 9 -0.06303976476192474
-1.110926628112793 2.2146055698394775 -0.4816019535064697 9.0 2 -0.0630374625325203
-3.2042396068573 6.390357494354248 0.6254295706748962 78.0 10 -0.06303516030311584
-3.1993978023529053 6.383481502532959 0.8767281174659729 73.0 11 -0.06303054839372635
-3.195673704147339 6.381610870361328 1.130395531654358 61.0 12 -0.06302594393491745
-3.1861469745635986 6.368137359619141 1.384128451347351 95.0 13 -0.06302133202552795
-3.185654640197754 6.372711181640625 1.6448421478271484 100.0 14 -0.06301672756671906
-3.1733503341674805 6.350868225097656 1.9023200273513794 39.0 15 -0.06301211565732956
-1.487950086593628 2.9882850646972656 -0.8944786190986633 5.0 0 -0.06299138069152832
-1.678715705871582 3.3743512630462646 -0.8701107501983643 3.0 1 -0.06298677623271942
-3.1587939262390137 6.352213382720947 0.3717946708202362 7.0 9 -0.06298446655273438
-1.1066854000091553 2.2255020141601562 -0.4831283986568451 82.0 2 -0.06298216432332993
-3.1801414489746094 6.397934436798096 0.6250810027122498 76.0 10 -0.06297986209392548
-3.168031692504883 6.379165172576904 0.8745344281196594 75.0 11 -0.06297525018453598
-3.1713829040527344 6.391511917114258 1.1300827264785767 60.0 12 -0.06297064572572708
-3.1621522903442383 6.375703811645508 1.383365273475647 95.0 13 -0.06296604126691818
-3.1556012630462646 6.368077754974365 1.6407930850982666 100.0 14 -0.06296142935752869
-3.148339033126831 6.358993053436279 1.9012846946716309 43.0 15 -0.06295682489871979
-1.4749455451965332 2.9882638454437256 -0.8929257392883301 5.0 0 -0.06293608248233795
-1.6720972061157227 3.3906776905059814 -0.8728101253509521 3.0 1 -0.06293147802352905
-3.1268887519836426 6.343493461608887 0.37064328789711 9.0 9 -0.0629291757941246
-1.0919665098190308 2.215263605117798 -0.4800754487514496 80.0 2 -0.06292687356472015
-3.1560261249542236 6.405423164367676 0.6247323155403137 78.0 10 -0.06292456388473511
-1.0813485383987427 2.195655345916748 -0.3876446485519409 1.0 3 -0.06292226165533066
-3.143115997314453 6.384840965270996 0.8738033175468445 76.0 11 -0.06291995942592621
-3.1394641399383545 6.383044242858887 1.1266411542892456 61.0 12 -0.06291534751653671
-3.1398792266845703 6.386702537536621 1.383365273475647 95.0 13 -0.06291074305772781
-3.129058837890625 6.3703083992004395 1.6385436058044434 100.0 14 -0.06290613114833832
-3.1227169036865234 6.36300802230835 1.899214267730713 45.0 15 -0.06290152668952942
-1.4645062685012817 2.993393659591675 -0.8929257392883301 5.0 0 -0.06288079172372818
-1.6542614698410034 3.384237766265869 -0.8696608543395996 3.0 1 -0.06287617981433868
-3.1049599647521973 6.3520331382751465 0.3705386221408844 10.0 9 -0.06287387758493423
-1.0790565013885498 2.2084779739379883 -0.47778576612472534 71.0 2 -0.06287157535552979
-3.1249024868011475 6.398498058319092 0.6229892373085022 81.0 10 -0.06286927312612534
-1.0996752977371216 2.252671003341675 -0.39703071117401123 1.0 3 -0.06286696344614029
-3.1164581775665283 6.386852741241455 0.8725845813751221 69.0 11 -0.06286466121673584
-1.0868884325027466 2.228452444076538 -0.30442965030670166 1.0 4 -0.06286235898733139
-3.1113507747650146 6.379217147827148 1.1241382360458374 58.0 12 -0.06286005675792694
-3.1141276359558105 6.390563488006592 1.3818389177322388 92.0 13 -0.06285544484853745
-3.1076574325561523 6.3829426765441895 1.638993501663208 100.0 14 -0.06285084038972855
-3.0973737239837646 6.36464262008667 1.8966261148452759 45.0 15 -0.06284622848033905
-1.4574207067489624 3.0054402351379395 -0.8949962854385376 5.0 0 -0.06282549351453781
-1.648128867149353 3.4002270698547363 -0.8723602890968323 3.0 1 -0.06282088905572891
-3.0792834758758545 6.355644226074219 0.37011992931365967 14.0 9 -0.06281857937574387
-1.0687731504440308 2.20693039894104 -0.476640909910202 78.0 2 -0.06281627714633942
-3.096473217010498 6.396812915802002 0.6217690706253052 85.0 10 -0.06281397491693497
-1.1025265455245972 2.277641534805298 -0.4007851481437683 2.0 3 -0.06281167268753052
-3.097853660583496 6.4025139808654785 0.8733158111572266 73.0 11 -0.06280936300754547
-1.0777645111083984 2.2284703254699707 -0.30394217371940613 1.0 4 -0.06280706077814102
-3.087345838546753 6.386481285095215 1.1235123872756958 58.0 12 -0.06280475854873657
-3.087791919708252 6.390250205993652 1.3795491456985474 92.0 13 -0.06280014663934708
-1.0814588069915771 2.2390990257263184 -0.13031654059886932 1.0 6 -0.06279784440994263
-3.0822360515594482 6.384439945220947 1.6367440223693848 100.0 14 -0.06279554218053818
-1.037672758102417 2.1503586769104004 -0.041676346212625504 1.0 7 -0.06279323995113373
-3.0667436122894287 6.358016014099121 1.8914496898651123 46.0 15 -0.06279093027114868
-1.4440969228744507 3.003293037414551 -0.8929257392883301 5.0 0 -0.06277019530534744
-1.020434021949768 2.1231486797332764 0.041117873042821884 1.0 8 -0.062767893075943
-1.6404697895050049 3.4147417545318604 -0.8746097683906555 3.0 1 -0.06276559084653854
-3.062268018722534 6.377155780792236 0.37074795365333557 23.0 9 -0.0627632886171341
-1.062299132347107 2.2122318744659424 -0.4770224988460541 75.0 2 -0.06276097893714905
-3.0769693851470947 6.410638332366943 0.6221176981925964 85.0 10 -0.0627586767077446
-1.0860251188278198 2.2636659145355225 -0.3976564407348633 2.0 3 -0.06275637447834015
-3.0660452842712402 6.393598556518555 0.8706346750259399 71.0 11 -0.0627540722489357
-1.059683084487915 2.210737705230713 -0.30101728439331055 1.0 4 -0.06275176256895065
-3.0667426586151123 6.400781631469727 1.1241382360458374 61.0 12 -0.0627494603395462
-1.088156819343567 2.2711570262908936 -0.22032971680164337 1.0 5 -0.06274715811014175
-3.0586841106414795 6.386822700500488 1.3764961957931519 92.0 13 -0.0627448558807373
-1.0529401302337646 2.199624538421631 -0.12780441343784332 1.0 6 -0.06274254620075226
-3.0574092864990234 6.389885425567627 1.6353943347930908 100.0 14 -0.06274024397134781
-3.0749521255493164 6.4294304847717285 -0.12440074980258942 1.0 7 -0.06273794174194336
-3.044532537460327 6.36868143081665 1.8914496898651123 47.0 15 -0.06273563951253891
-1.43692946434021 3.0152909755706787 -0.8949962854385376 5.0 0 -0.06271490454673767
-1.0130161046981812 2.1266980171203613 0.041117873042821884 1.0 8 -0.06271259486675262
-1.6285392045974731 3.420447826385498 -0.8746097683906555 3.0 1 -0.06271029263734818
-3.0588722229003906 6.427481651306152 0.373050719499588 40.0 9 -0.06270799040794373
-1.0545709133148193 2.2159264087677 -0.4770224988460541 71.0 2 -0.06270568817853928
-3.0545716285705566 6.421340465545654 0.6221176981925964 91.0 10 -0.06270337849855423
-1.0781162977218628 2.2674431800842285 -0.3976564407348633 2.0 3 -0.06270107626914978
-3.0385942459106445 6.393505573272705 0.869172215461731 73.0 11 -0.06269877403974533
-1.0519590377807617 2.214423418045044 -0.30101728439331055 1.0 4 -0.06269647181034088
-3.043531894683838 6.409664630889893 1.1238253116607666 60.0 12 -0.06269416213035583
-2.8902769088745117 6.086909770965576 -0.5895214676856995 1.0 5 -0.06269185990095139
-3.0346860885620117 6.393914222717285 1.3757330179214478 90.0 13 -0.06268955767154694
-1.0418307781219482 2.19606876373291 -0.1273857206106186 1.0 6 -0.06268725544214249
-3.028404474258423 6.386433124542236 1.631795048713684 100.0 14 -0.06268495321273804
-3.0165164470672607 6.364232540130615 -0.1229347512125969 1.0 7 -0.06268264353275299
-3.020627021789551 6.375779151916504 1.8904143571853638 47.0 15 -0.06268034130334854
-1.4321695566177368 3.0325164794921875 -0.8986197710037231 6.0 0 -0.0626596063375473
-1.0055867433547974 2.130221128463745 0.041117873042821884 1.0 8 -0.06265730410814285
-1.6082746982574463 3.408487319946289 -0.8701107501983643 3.0 1 -0.0626549944281578
-3.032155990600586 6.429089069366455 0.3725273907184601 46.0 9 -0.06265269219875336
-1.0359419584274292 2.1965105533599854 -0.47206148505210876 53.0 2 -0.06265038996934891
-3.03044056892395 6.428358554840088 0.6217690706253052 88.0 10 -0.06264808773994446
-1.0769314765930176 2.2854881286621094 -0.40015941858291626 2.0 3 -0.06264577805995941
-3.0162596702575684 6.404072284698486 0.869172215461731 75.0 11 -0.06264347583055496
-1.049296498298645 2.2288577556610107 -0.30247974395751953 1.0 4 -0.06264117360115051
-3.0118889808654785 6.40058708190918 1.1203837394714355 61.0 12 -0.06263887137174606
-1.0722745656967163 2.278698682785034 -0.22032971680164337 1.0 5 -0.06263656914234161
-3.014021158218384 6.408020973205566 1.3764961957931519 90.0 13 -0.06263425946235657
-1.0307601690292358 2.1924619674682617 -0.12696704268455505 1.0 6 -0.06263195723295212
-3.002779245376587 6.3899102210998535 1.6299954652786255 100.0 14 -0.06262965500354767
-2.944974660873413 6.269744396209717 -0.12091027200222015 1.0 7 -0.06262735277414322
-2.9967124462127686 6.382786273956299 1.8893790245056152 47.0 15 -0.06262504309415817
-1.4150235652923584 3.0234999656677246 -0.8944786190986633 6.0 0 -0.06260430812835693
-0.9981452822685242 2.1337177753448486 0.041117873042821884 1.0 8 -0.06260200589895248
-1.610399842262268 3.4440901279449463 -0.8777590990066528 3.0 1 -0.06259970366954803
-3.00715708732605 6.434206008911133 0.37221336364746094 16.0 9 -0.06259740144014359
-1.0299303531646729 2.2036707401275635 -0.47282472252845764 38.0 2 -0.06259509176015854
-2.9978644847869873 6.417235374450684 0.6196773052215576 93.0 10 -0.06259278953075409
-1.0572457313537598 2.2641756534576416 -0.39577925205230713 2.0 3 -0.06259048730134964
-2.9930458068847656 6.412764072418213 0.8689284920692444 76.0 11 -0.06258818507194519
-1.0616525411605835 2.275681972503662 -0.3083294630050659 1.0 4 -0.06258587539196014
-2.984517812728882 6.400320529937744 1.1185065507888794 61.0 12 -0.0625835731625557
-1.064313292503357 2.2824277877807617 -0.22032971680164337 1.0 5 -0.06258127093315125
-2.9891445636749268 6.413165092468262 1.3753513097763062 87.0 13 -0.0625789687037468
-2.8668763637542725 6.153636932373047 -0.35577985644340515 1.0 6 -0.06257665902376175
-2.976341485977173 6.391520977020264 1.6277459859848022 100.0 14 -0.0625743567943573
-1.0159862041473389 2.182766914367676 -0.04202539846301079 1.0 7 -0.06257205456495285
-2.96626615524292 6.3756914138793945 1.8842027187347412 47.0 15 -0.0625697523355484
-1.403648853302002 3.0266683101654053 -0.8939610123634338 6.0 0 -0.06254901736974716
-0.9906905889511108 2.1371893882751465 0.041117873042821884 1.0 8 -0.06254670768976212
-1.6024633646011353 3.4585318565368652 -0.8800085783004761 3.0 1 -0.06254440546035767
-1.0197571516036987 2.2019078731536865 -0.4716798663139343 22.0 2 -0.06253980100154877
-2.9687485694885254 6.4131975173950195 0.6182828545570374 93.0 10 -0.06253749132156372
-1.0526543855667114 2.2750229835510254 -0.39703071117401123 1.0 3 -0.06253518909215927
-2.964811325073242 6.410560131072998 0.8672223091125488 71.0 11 -0.06253288686275482
-2.9621596336364746 6.410698890686035 1.1185065507888794 61.0 12 -0.06252827495336533
-2.826378583908081 6.116841793060303 -0.5895214676856995 1.0 5 -0.06252597272396088
-2.960979700088501 6.411083221435547 1.3726799488067627 92.0 13 -0.06252367049455643
-2.818589210510254 6.105579853057861 -0.3524303436279297 1.0 6 -0.06252136826515198
-2.9540140628814697 6.4018707275390625 1.6277459859848022 100.0 14 -0.06251905858516693
-0.9916108846664429 2.149982213973999 -0.04132729768753052 1.0 7 -0.06251675635576248
-2.939138650894165 6.375481605529785 1.8810968399047852 47.0 15 -0.06251445412635803
-1.393075942993164 3.0315492153167725 -0.8939610123634338 5.0 0 -0.06249371916055679
-0.9832237958908081 2.140634775161743 0.041117873042821884 1.0 8 -0.062491413205862045
-1.5822510719299316 3.4463939666748047 -0.8755095601081848 3.0 1 -0.062489110976457596
-1.0071521997451782 2.1947474479675293 -0.4693901240825653 7.0 2 -0.0624845027923584
-2.9463424682617188 6.423521518707275 0.6182828545570374 91.0 10 -0.06248219683766365
-1.0389443635940552 2.2661139965057373 -0.39484065771102905 2.0 3 -0.0624798946082592
-2.9399361610412598 6.415455341339111 0.8664910793304443 69.0 11 -0.06247758865356445
-1.0672316551208496 2.329962730407715 -0.31466665863990784 1.0 4 -0.062475286424160004
-2.93729829788208 6.4156107902526855 1.117568016052246 63.0 12 -0.062472980469465256
-2.798375368118286 6.112176895141602 -0.5881268978118896 1.0 5 -0.062470678240060806
-2.9287805557250977 6.399956703186035 1.368100643157959 95.0 13 -0.06246837228536606
-2.7922730445861816 6.1044840812683105 -0.3518023192882538 1.0 6 -0.06246607005596161
-2.930840015411377 6.410369873046875 1.627295970916748 100.0 14 -0.06246376410126686
-2.869184732437134 6.278413772583008 -0.12049141526222229 1.0 7 -0.06246146187186241
-2.9152591228485107 6.38218879699707 1.8800616264343262 47.0 15 -0.062459155917167664
-1.3856865167617798 3.043426752090454 -0.8960315585136414 5.0 0 -0.06247138977050781
-0.9757460355758667 2.1440536975860596 0.041117873042821884 1.0 8 -0.06246908754110336
-1.5734378099441528 3.458991527557373 -0.8773091435432434 3.0 1 -0.062466781586408615
-0.9705029726028442 2.1345086097717285 0.1228848323225975 1.0 9 -0.062464479357004166
-0.9937964081764221 2.185739755630493 -0.4667188227176666 1.0 2 -0.06246217340230942
-2.9255526065826416 6.437394618988037 0.6186314821243286 55.0 10 -0.06245987117290497
-1.0400139093399048 2.289510488510132 -0.39828217029571533 2.0 3 -0.06245756521821022
-2.9101366996765137 6.409412384033203 0.8642974495887756 73.0 11 -0.06245526298880577
-1.0590925216674805 2.3336734771728516 -0.31466665863990784 1.0 4 -0.06245295703411102
-2.9157001972198486 6.427624702453613 1.1178808212280273 65.0 12 -0.062450654804706573
-1.0189545154571533 2.246272325515747 -0.21579761803150177 1.0 5 -0.062448348850011826
-2.9080424308776855 6.413717746734619 1.368863821029663 95.0 13 -0.062446046620607376
-2.770948648452759 6.114193439483643 -0.3518023192882538 1.0 6 -0.06244374066591263
-2.901207447052002 6.4045867919921875 1.6232469081878662 100.0 14 -0.06244143843650818
-2.8505489826202393 6.29567813873291 -0.12063103169202805 1.0 7 -0.06243913248181343
-2.8929648399353027 6.392325401306152 1.8800616264343262 47.0 15 -0.06243683025240898
-1.3798214197158813 3.0588104724884033 -0.8991374373435974 5.0 0 -0.06241609528660774
-0.9567490816116333 2.121924877166748 0.040629200637340546 1.0 8 -0.062413789331912994
-1.564557671546936 3.471569061279297 -0.8791087865829468 3.0 1 -0.062411487102508545
-0.9187498092651367 2.0395476818084717 0.117232546210289 2.0 9 -0.0624091811478138
-0.974872350692749 2.164135217666626 -0.4613761901855469 1.0 2 -0.06240687891840935
-1.0149916410446167 2.255298614501953 -0.391711950302124 2.0 3 -0.06240227073431015
-2.889375925064087 6.423151016235352 0.8647848963737488 71.0 11 -0.0623999647796154
-1.0102379322052002 2.246830940246582 -0.30247974395751953 1.0 4 -0.06239766255021095
-2.8843400478363037 6.417943000793457 1.1144392490386963 63.0 12 -0.062395356595516205
-1.032342791557312 2.297065019607544 -0.22032971680164337 1.0 5 -0.062393054366111755
-2.8840291500091553 6.420247554779053 1.368100643157959 97.0 13 -0.06239074841141701
-2.7512269020080566 6.127472400665283 -0.35201168060302734 1.0 6 -0.06238844618201256
-2.8716506958007812 6.398674011230469 1.6191978454589844 100.0 14 -0.06238614022731781
-0.9919582009315491 2.2113358974456787 -0.0423046313226223 1.0 7 -0.06238383799791336
-2.8690543174743652 6.398858547210693 1.8790262937545776 46.0 15 -0.06238153204321861
-1.364405632019043 3.0530264377593994 -0.8960315585136414 5.0 0 -0.062360797077417374
-0.9411799907684326 2.1069936752319336 0.04028015583753586 1.0 8 -0.062358494848012924
-1.5540196895599365 3.4805679321289062 -0.8800085783004761 3.0 1 -0.062356188893318176
-0.9108103513717651 2.0409188270568848 0.11712788045406342 5.0 9 -0.06235388666391373
-0.9689117670059204 2.1711108684539795 -0.46213942766189575 1.0 2 -0.06235158070921898
-1.0240048170089722 2.296715497970581 -0.39828217029571533 2.0 3 -0.06234697252511978
-2.863703489303589 6.425946235656738 0.8638100028038025 69.0 11 -0.06234467029571533
-1.0427746772766113 2.341010332107544 -0.31466665863990784 1.0 4 -0.062342364341020584
-2.857900619506836 6.418949604034424 1.1128748655319214 65.0 12 -0.062340062111616135
-2.7406978607177734 6.155708312988281 -0.5895214676856995 1.0 5 -0.06233775615692139
-2.8615989685058594 6.430276393890381 1.368100643157959 97.0 13 -0.06233545392751694
-0.9781244993209839 2.1989688873291016 -0.12612967193126678 1.0 6 -0.06233314797282219
-2.846924066543579 6.403316497802734 1.6178481578826904 100.0 14 -0.06233084574341774
-0.9696162939071655 2.181891679763794 -0.041676346212625504 1.0 7 -0.06232854351401329
-2.8404252529144287 6.394711017608643 1.8748853206634521 47.0 15 -0.06232623755931854
-1.3560869693756104 3.0630695819854736 -0.8975844979286194 5.0 0 -0.0623055025935173
-0.9338199496269226 2.1102659702301025 0.04028015583753586 1.0 8 -0.062303196638822556
-1.549742579460144 3.503793716430664 -0.8845075964927673 3.0 1 -0.062300894409418106
-0.9069114327430725 2.0513923168182373 0.11754656583070755 9.0 9 -0.06229858845472336
-0.9518017172813416 2.1529319286346436 -0.4575599730014801 1.0 2 -0.06229628622531891
-0.934944212436676 2.11579966545105 0.2023756206035614 1.0 10 -0.06229398027062416
-1.0095973014831543 2.285820245742798 -0.39577925205230713 2.0 3 -0.06229167804121971
-2.8388514518737793 6.430454254150391 0.863078773021698 69.0 11 -0.06228937208652496
-1.002541422843933 2.2719905376434326 -0.3049171268939972 1.0 4 -0.062287069857120514
-2.834681272506714 6.427079200744629 1.1125620603561401 67.0 12 -0.062284767627716064
-2.7031147480010986 6.128777980804443 -0.5860351920127869 1.0 5 -0.062282461673021317
-2.8312175273895264 6.4222612380981445 1.3642843961715698 100.0 13 -0.06228015944361687
-0.9817169904708862 2.2279579639434814 -0.12759508192539215 1.0 6 -0.06227785348892212
-2.8253417015075684 6.414997577667236 1.6182979345321655 100.0 14 -0.06227555125951767
-2.757073402404785 6.262956142425537 -0.11944427341222763 1.0 7 -0.06227324530482292
-2.814972162246704 6.397514820098877 1.8728147745132446 46.0 15 -0.06227094307541847
-1.3438355922698975 3.0642459392547607 -0.8965492248535156 4.0 0 -0.062250204384326935
-0.9296587705612183 2.1208391189575195 0.04041977599263191 1.0 8 -0.062247902154922485
-1.5273351669311523 3.485978126525879 -0.8786588907241821 3.0 1 -0.06224559620022774
-0.8981432318687439 2.050886392593384 0.11733722686767578 8.0 9 -0.06224329397082329
-0.9490065574645996 2.1670312881469727 -0.45984968543052673 1.0 2 -0.06224098801612854
-0.901986837387085 2.0606443881988525 0.1967976689338684 1.0 10 -0.06223868578672409
-1.0071539878845215 2.3019988536834717 -0.3979693353176117 2.0 3 -0.06223638355731964
-2.810026168823242 6.425773620605469 0.8611288666725159 69.0 11 -0.06223407760262489
-2.810645818710327 6.433314800262451 1.111936330795288 67.0 12 -0.062229469418525696
-1.0082310438156128 2.3077499866485596 -0.22032971680164337 1.0 5 -0.062227167189121246
-2.800926923751831 6.414112567901611 1.3604681491851807 100.0 13 -0.0622248612344265
-0.9611510038375854 2.202082872390747 -0.12592032551765442 1.0 6 -0.06222255900502205
-2.8021509647369385 6.423035621643066 1.6178481578826904 100.0 14 -0.0622202530503273
-0.9479659199714661 2.1739439964294434 -0.041397109627723694 1.0 7 -0.06221795082092285
-2.7926249504089355 6.407301425933838 1.8728147745132446 46.0 15 -0.062215644866228104
-1.3400577306747437 3.0848653316497803 -0.9012079238891602 5.0 0 -0.062194909900426865
-0.9222504496574402 2.1240711212158203 0.04041977599263191 1.0 8 -0.06219260394573212
-1.5182615518569946 3.498438596725464 -0.8804585337638855 4.0 1 -0.06219030171632767
-0.887799084186554 2.046679973602295 0.11691854149103165 6.0 9 -0.06218799948692322
-0.9336231350898743 2.152320146560669 -0.45603352785110474 1.0 2 -0.06218569353222847
-0.8963738679885864 2.0674359798431396 0.19714628159999847 1.0 10 -0.06218339130282402
-0.9991129040718079 2.3055002689361572 -0.3979693353176117 2.0 3 -0.06218108534812927
-2.7828433513641357 6.424614906311035 0.8596664071083069 69.0 11 -0.06217878311872482
-0.9693043231964111 2.2388570308685303 -0.29955488443374634 1.0 4 -0.062176477164030075
-2.7897427082061768 6.446712493896484 1.1125620603561401 67.0 12 -0.062174174934625626
-0.9843443632125854 2.2746846675872803 -0.21684348583221436 1.0 5 -0.06217186897993088
-2.7769601345062256 6.420247554779053 1.3597049713134766 100.0 13 -0.06216956675052643
-0.9518738389015198 2.2017579078674316 -0.12571097910404205 1.0 6 -0.06216726079583168
-2.771984815597534 6.414888858795166 1.6133490800857544 100.0 14 -0.06216495856642723
-2.729140281677246 6.318767070770264 -0.120142363011837 1.0 7 -0.06216265261173248
-2.7656495571136475 6.406368255615234 1.8697088956832886 47.0 15 -0.06216035038232803
-1.3308075666427612 3.093073844909668 -0.9022431969642639 5.0 0 -0.062139615416526794
-0.9053507447242737 2.1052327156066895 0.04000091552734375 1.0 8 -0.062137309461832047
-1.5114281177520752 3.516248941421509 -0.883607804775238 5.0 1 -0.0621350072324276
-0.8743416666984558 2.035086154937744 0.11608116328716278 2.0 9 -0.06213270127773285
-0.932303786277771 2.169996738433838 -0.45908647775650024 1.0 2 -0.0621303990483284
-0.8875798583030701 2.0668907165527344 0.1967976689338684 1.0 10 -0.06212809309363365
-0.9856056571006775 2.296266794204712 -0.39577925205230713 2.0 3 -0.0621257908642292
-2.759615898132324 6.432466506958008 0.8594226837158203 69.0 11 -0.062123484909534454
-0.9896477460861206 2.30790638923645 -0.3083294630050659 1.0 4 -0.062121182680130005
-2.757885217666626 6.434622287750244 1.1088075637817383 67.0 12 -0.06211887672543526
-0.9716893434524536 2.2671189308166504 -0.21579761803150177 1.0 5 -0.06211657449603081
-2.754530668258667 6.42990255355835 1.3597049713134766 100.0 13 -0.06211426854133606
-0.9441819190979004 2.2050673961639404 -0.12571097910404205 1.0 6 -0.06211196631193161
-2.748807191848755 6.42273473739624 1.6128991842269897 100.0 14 -0.06210966035723686
-2.6992008686065674 6.309870719909668 -0.11979331821203232 1.0 7 -0.06210735812783241
-2.7447874546051025 6.4195356369018555 1.8707441091537476 46.0 15 -0.062105052173137665
-1.3154593706130981 3.0870368480682373 -0.8991374373435974 5.0 0 -0.062084317207336426
-0.9011304378509521 2.115739583969116 0.040140535682439804 2.0 8 -0.062082014977931976
-1.4945640563964844 3.5107457637786865 -0.8809083700180054 4.0 1 -0.06207970902323723
-0.8719249367713928 2.049152374267578 0.11670918762683868 2.0 9 -0.06207740679383278
-0.9124249815940857 2.1443333625793457 -0.45298057794570923 1.0 2 -0.06207510083913803
-0.8803591132164001 2.069976568222046 0.1967976689338684 1.0 10 -0.06207279860973358
-0.9822202920913696 2.310600996017456 -0.3976564407348633 2.0 3 -0.062070492655038834
-2.7355942726135254 6.438405513763428 0.8589351773262024 63.0 11 -0.062068190425634384
-0.9458909034729004 2.2272980213165283 -0.2971175014972687 1.0 4 -0.062065884470939636
-2.7307746410369873 6.433300495147705 1.1069303750991821 67.0 12 -0.06206358224153519
-0.968440055847168 2.281501054763794 -0.21684348583221436 1.0 5 -0.06206127628684044
-2.7320706844329834 6.439477920532227 1.3597049713134766 100.0 13 -0.06205897405743599
-0.931800901889801 2.197316884994507 -0.12508295476436615 1.0 6 -0.06205666810274124
-2.72333025932312 6.425112724304199 1.6110994815826416 100.0 14 -0.06205436587333679
-2.659998655319214 6.278745651245117 -0.11902540922164917 1.0 7 -0.06205206364393234
-2.7148308753967285 6.411288261413574 1.865567684173584 47.0 15 -0.062049757689237595
-1.3016717433929443 3.0844898223876953 -0.8970668315887451 5.0 0 -0.062029022723436356
-0.8828597068786621 2.0930769443511963 0.039651867002248764 2.0 8 -0.06202671676874161
-1.4800297021865845 3.510554075241089 -0.8795586824417114 3.0 1 -0.06202441453933716
