# .PCD v0.7 - Point Cloud Data file format
VERSION 0.7
FIELDS x y z intensity ring time
SIZE 4 4 4 4 4 4
TYPE F F F F F F
COUNT 1 1 1 1 1 1
WIDTH 541
HEIGHT 1
VIEWPOINT 0 0 0 1 0 0 0
POINTS 541
DATA ascii
3.7115583419799805 -0.2829824984073639 0.7235477566719055 90.0 13 -0.03498533368110657
2.3718202114105225 -0.18125243484973907 -0.12466426193714142 21.0 6 -0.03498303145170212
3.6995649337768555 -0.2833670377731323 0.8566136360168457 97.0 14 -0.03498072549700737
2.268976926803589 -0.17418991029262543 -0.03972167521715164 27.0 7 -0.03497842326760292
3.6924448013305664 -0.2841181457042694 0.9923122525215149 108.0 15 -0.03497611731290817
2.0588676929473877 -0.16095173358917236 -0.5533550977706909 55.0 0 -0.034955382347106934
2.27667498588562 -0.17837859690189362 0.039861299097537994 9.0 8 -0.034953080117702484
2.1448068618774414 -0.16842329502105713 -0.4966919720172882 70.0 1 -0.034950774163007736
2.3375539779663086 -0.18396949768066406 0.1228848323225975 1.0 9 -0.03494847193360329
2.1470508575439453 -0.1689765900373459 -0.41863495111465454 68.0 2 -0.03494616597890854
3.646700382232666 -0.2876419723033905 0.3200358748435974 99.0 10 -0.03494386374950409
2.154340982437134 -0.170306995511055 -0.3422786593437195 77.0 3 -0.03494155779480934
3.6688642501831055 -0.29067885875701904 0.45189157128334045 100.0 11 -0.03493925556540489
2.008546829223633 -0.1594870537519455 -0.24739480018615723 54.0 4 -0.034936949610710144
3.676405668258667 -0.29256775975227356 0.584126353263855 96.0 12 -0.034934647381305695
2.0317909717559814 -0.16168959438800812 -0.17832063138484955 58.0 5 -0.03493234142661095
3.6909773349761963 -0.2943756580352783 0.7197315692901611 92.0 13 -0.0349300391972065
2.379136800765991 -0.19016705453395844 -0.12508295476436615 41.0 6 -0.03492773324251175
3.7063233852386475 -0.2969016134738922 0.8584132790565491 97.0 14 -0.0349254310131073
3.68757963180542 -0.29669561982154846 0.9912769794464111 113.0 15 -0.0349208228290081
2.0621445178985596 -0.1684521585702896 -0.5543904304504395 55.0 0 -0.03490008786320686
2.303940773010254 -0.18860875070095062 0.040349964052438736 3.0 8 -0.034897781908512115
2.124783515930176 -0.1743156760931015 -0.49219295382499695 72.0 1 -0.034895479679107666
2.368746280670166 -0.19474640488624573 0.12455958873033524 1.0 9 -0.03489317372441292
2.1464481353759766 -0.17647016048431396 -0.41863495111465454 66.0 2 -0.03489087149500847
3.661559820175171 -0.3016783893108368 0.32143038511276245 96.0 10 -0.03488856554031372
2.143890380859375 -0.17701327800750732 -0.34071433544158936 73.0 3 -0.03488626331090927
3.659914016723633 -0.3028290569782257 0.4509166181087494 100.0 11 -0.03488395735621452
2.0218260288238525 -0.16764546930789948 -0.2491009682416916 78.0 4 -0.034881655126810074
3.6832363605499268 -0.3060533404350281 0.5853778123855591 93.0 12 -0.034879349172115326
2.0451130867004395 -0.16993577778339386 -0.17954082787036896 51.0 5 -0.034877046942710876
3.6840579509735107 -0.3067690432071686 0.7185867428779602 89.0 13 -0.03487474471330643
2.3585550785064697 -0.1968098133802414 -0.12403623014688492 26.0 6 -0.03487243875861168
3.7130322456359863 -0.3104868531227112 0.8602128624916077 100.0 14 -0.03487013652920723
3.626734972000122 -0.30390799045562744 -0.06352675706148148 71.0 7 -0.03486783057451248
3.6980719566345215 -0.3105357587337494 0.9943828582763672 108.0 15 -0.03486552834510803
2.0634686946868896 -0.17581334710121155 -0.554908037185669 57.0 0 -0.034844789654016495
2.3331549167633057 -0.1992015689611435 0.040873534977436066 2.0 8 -0.034842487424612045
2.1183371543884277 -0.18123312294483185 -0.4908432364463806 68.0 1 -0.0348401814699173
3.657545804977417 -0.313562273979187 0.19238698482513428 74.0 9 -0.03483787924051285
2.1458189487457275 -0.18396157026290894 -0.41863495111465454 78.0 2 -0.0348355732858181
3.670409679412842 -0.31531038880348206 0.3223019242286682 100.0 10 -0.03483327105641365
2.1570358276367188 -0.18568171560764313 -0.34290438890457153 86.0 3 -0.0348309651017189
3.65883469581604 -0.31560268998146057 0.4509166181087494 100.0 11 -0.03482866287231445
2.025183916091919 -0.17504383623600006 -0.24958842992782593 85.0 4 -0.034826360642910004
3.6900177001953125 -0.31959018111228943 0.586629331111908 96.0 12 -0.034824054688215256
2.0584020614624023 -0.17827695608139038 -0.18076100945472717 50.0 5 -0.034821752458810806
3.692744255065918 -0.32047566771507263 0.72049480676651 92.0 13 -0.03481944650411606
2.3538742065429688 -0.2046954333782196 -0.12382689118385315 22.0 6 -0.03481714427471161
3.702219009399414 -0.32260003685951233 0.8579633831977844 100.0 14 -0.03481483832001686
3.659518003463745 -0.3195227086544037 -0.06412014365196228 100.0 7 -0.03481253609061241
3.7046635150909424 -0.3241160213947296 0.9964533448219299 108.0 15 -0.034810230135917664
2.0724639892578125 -0.18386875092983246 -0.5574962496757507 55.0 0 -0.034789495170116425
3.637101173400879 -0.32332295179367065 0.06373618543148041 60.0 8 -0.03478718921542168
2.1215736865997314 -0.18897217512130737 -0.4917430281639099 66.0 1 -0.03478488698601723
3.6663758754730225 -0.327215313911438 0.1929103434085846 100.0 9 -0.03478258103132248
2.1314752101898193 -0.19022908806800842 -0.41596361994743347 86.0 2 -0.03478027880191803
3.6593644618988037 -0.32723331451416016 0.32143038511276245 99.0 10 -0.03477797657251358
2.158341884613037 -0.19338631629943848 -0.34321725368499756 58.0 3 -0.03477567061781883
3.665619134902954 -0.3290824890136719 0.45189157128334045 100.0 11 -0.03477336838841438
2.020606279373169 -0.18175628781318665 -0.2491009682416916 73.0 4 -0.034771062433719635
3.6869120597839355 -0.33229148387908936 0.5863164663314819 98.0 12 -0.034768760204315186
2.0736422538757324 -0.18689179420471191 -0.18215550482273102 58.0 5 -0.03476645424962044
3.6994240283966064 -0.3340700566768646 0.7220212817192078 92.0 13 -0.03476415202021599
2.3272864818573 -0.2105710655450821 -0.12246615439653397 8.0 6 -0.03476184606552124
3.6952478885650635 -0.3349933326244354 0.8566136360168457 91.0 14 -0.03475954383611679
3.6364738941192627 -0.3303050994873047 -0.06373618543148041 100.0 7 -0.03475723788142204
3.707357168197632 -0.33739590644836426 0.9974886178970337 106.0 15 -0.03475493565201759
2.066038131713867 -0.19056951999664307 -0.5559433102607727 57.0 0 -0.034734200686216354
3.6319680213928223 -0.3356488049030304 0.06366638094186783 52.0 8 -0.034731894731521606
2.11702036857605 -0.19601738452911377 -0.4908432364463806 68.0 1 -0.03472959250211716
3.6552674770355225 -0.33908891677856445 0.19238698482513428 88.0 9 -0.03472728654742241
2.122978925704956 -0.19694280624389648 -0.4144371747970581 75.0 2 -0.03472498431801796
3.66613507270813 -0.34074243903160095 0.3221276104450226 96.0 10 -0.03472267836332321
2.208792209625244 -0.20568113029003143 -0.3513518273830414 78.0 3 -0.03472037613391876
3.6664247512817383 -0.34206029772758484 0.4521353244781494 100.0 11 -0.034718070179224014
2.0219357013702393 -0.18899312615394592 -0.24934469163417816 67.0 4 -0.034715767949819565
3.6798295974731445 -0.3446066081523895 0.5853778123855591 96.0 12 -0.03471346199512482
2.072977304458618 -0.19412901997566223 -0.18215550482273102 80.0 5 -0.03471115976572037
3.7021446228027344 -0.3473481833934784 0.7227845191955566 90.0 13 -0.03470885381102562
2.276825189590454 -0.21402058005332947 -0.11984935402870178 25.0 6 -0.03470655158162117
3.707637310028076 -0.34916916489601135 0.8597630262374878 100.0 14 -0.03470424562692642
3.6273353099823 -0.3422453999519348 -0.06359656900167465 93.0 7 -0.03470194339752197
3.70231032371521 -0.34997138381004333 0.9964533448219299 108.0 15 -0.034699637442827225
2.0653605461120605 -0.19778019189834595 -0.5559433102607727 57.0 0 -0.034678902477025986
3.620821475982666 -0.34736987948417664 0.06349185854196548 54.0 8 -0.034676600247621536
2.1143832206726074 -0.20321950316429138 -0.4903933107852936 77.0 1 -0.03467429429292679
3.6620140075683594 -0.35261183977127075 0.1928056925535202 88.0 9 -0.03467199206352234
2.14377498626709 -0.20642204582691193 -0.41863495111465454 53.0 2 -0.03466968610882759
3.6569907665252686 -0.3527723252773285 0.32143038511276245 99.0 10 -0.03466738387942314
2.2100272178649902 -0.21358004212379456 -0.3516647219657898 86.0 3 -0.034665077924728394
3.6731116771698 -0.3556215763092041 0.4531102478504181 100.0 11 -0.034662775695323944
2.056828737258911 -0.19949942827224731 -0.25373199582099915 55.0 4 -0.034660469740629196
3.6825363636016846 -0.35783159732818604 0.5860036015510559 93.0 12 -0.03465816751122475
2.070303440093994 -0.2011711299419403 -0.1819811910390854 63.0 5 -0.03465586155653
3.7009098529815674 -0.3602689802646637 0.7227845191955566 92.0 13 -0.03465355932712555
2.2681124210357666 -0.2211914211511612 -0.11943066120147705 49.0 6 -0.0346512533724308
3.719972610473633 -0.3634355366230011 0.8629122972488403 100.0 14 -0.03464895114302635
3.632089138031006 -0.35548943281173706 -0.06370127946138382 96.0 7 -0.034646645188331604
3.697220802307129 -0.3625156581401825 0.9954180717468262 108.0 15 -0.034644342958927155
2.070424795150757 -0.2055610567331314 -0.5574962496757507 55.0 0 -0.034623607993125916
3.6295363903045654 -0.3609963655471802 0.06366638094186783 61.0 8 -0.03462130203843117
2.1097829341888428 -0.21021245419979095 -0.4894935190677643 72.0 1 -0.03461899980902672
3.6706979274749756 -0.366384357213974 0.19332905113697052 94.0 9 -0.03461669385433197
2.193833351135254 -0.21897368133068085 -0.42855700850486755 99.0 2 -0.03461439162492752
3.6676318645477295 -0.3667248785495758 0.32247623801231384 99.0 10 -0.03461208567023277
2.183716297149658 -0.21873372793197632 -0.3475974202156067 71.0 3 -0.03460978344082832
3.6718478202819824 -0.36844098567962646 0.4531102478504181 100.0 11 -0.034607477486133575
2.0798215866088867 -0.20906034111976624 -0.25665685534477234 54.0 4 -0.034605175256729126
3.6930575370788574 -0.37187135219573975 0.5878807902336121 96.0 12 -0.03460286930203438
2.087430238723755 -0.21019317209720612 -0.18355000019073486 46.0 5 -0.03460056707262993
3.699629545211792 -0.3731853663921356 0.7227845191955566 90.0 13 -0.03459826111793518
2.2653396129608154 -0.22890649735927582 -0.11932599544525146 67.0 6 -0.03459595888853073
3.726436138153076 -0.37720343470573425 0.8647118806838989 100.0 14 -0.03459365665912628
3.634805202484131 -0.36856910586357117 -0.06377109885215759 98.0 7 -0.034591350704431534
3.699777126312256 -0.37580960988998413 0.9964533448219299 106.0 15 -0.034589048475027084
2.0716164112091064 -0.21298451721668243 -0.558013916015625 54.0 0 -0.03456830978393555
3.6342217922210693 -0.37427818775177 0.06377109885215759 80.0 8 -0.0345660075545311
2.1051595211029053 -0.21717572212219238 -0.488593727350235 70.0 1 -0.03456370159983635
3.661515951156616 -0.3777349889278412 0.1929103434085846 91.0 9 -0.0345613993704319
2.187197208404541 -0.22602485120296478 -0.42741215229034424 86.0 2 -0.03455909341573715
3.670293092727661 -0.3799353241920471 0.3228248655796051 99.0 10 -0.0345567911863327
2.206517219543457 -0.22879984974861145 -0.3513518273830414 62.0 3 -0.034554485231637955
3.666590452194214 -0.38084566593170166 0.45262277126312256 100.0 11 -0.034552183002233505
2.087014675140381 -0.21677644550800323 -0.2576318085193634 47.0 4 -0.03454987704753876
3.6937687397003174 -0.38432034850120544 0.5881936550140381 91.0 12 -0.03454757481813431
2.102537155151367 -0.21913065016269684 -0.1849444955587387 56.0 5 -0.03454527258872986
3.7002573013305664 -0.38630110025405884 0.7231661081314087 86.0 13 -0.03454296663403511
2.2446625232696533 -0.23473529517650604 -0.11827926337718964 58.0 6 -0.03454066440463066
3.713536262512207 -0.38834258913993835 0.862012505531311 100.0 14 -0.03453835844993591
3.637540578842163 -0.381037175655365 -0.06384090334177017 100.0 7 -0.034536056220531464
3.710038185119629 -0.3892860412597656 0.999559223651886 108.0 15 -0.034533750265836716
2.078583002090454 -0.22066885232925415 -0.5600844025611877 49.0 0 -0.03451301530003548
3.6448912620544434 -0.38759633898735046 0.06398051977157593 79.0 8 -0.03451070934534073
2.1412453651428223 -0.22807717323303223 -0.49714183807373047 55.0 1 -0.03450840711593628
3.652299165725708 -0.38902878761291504 0.19249166548252106 91.0 9 -0.03450610116124153
2.184483528137207 -0.2330683320760727 -0.4270305633544922 78.0 2 -0.03450379893183708
3.6729750633239746 -0.39252781867980957 0.32317349314689636 99.0 10 -0.03450149670243263
2.211639165878296 -0.23674644529819489 -0.35229045152664185 55.0 3 -0.034499190747737885
3.669254779815674 -0.39342570304870605 0.4531102478504181 100.0 11 -0.034496888518333435
2.0961532592773438 -0.2247542291879654 -0.2588505148887634 32.0 4 -0.03449458256363869
3.692474126815796 -0.3965671956539154 0.5881936550140381 91.0 12 -0.03449228033423424
2.10972261428833 -0.22695408761501312 -0.18564173579216003 67.0 5 -0.03448997437953949
3.7126193046569824 -0.40004175901412964 0.7258374691009521 90.0 13 -0.03448767215013504
2.2399001121520996 -0.24174894392490387 -0.11806992441415787 49.0 6 -0.03448536619544029
3.7122278213500977 -0.40065500140190125 0.862012505531311 97.0 14 -0.03448306396603584
3.6342687606811523 -0.39288270473480225 -0.06380599737167358 90.0 7 -0.034480758011341095
3.716409206390381 -0.40241870284080505 1.0016297101974487 111.0 15 -0.034478455781936646
2.0797603130340576 -0.22777079045772552 -0.560602068901062 45.0 0 -0.03445771709084511
3.6515371799468994 -0.40055331587791443 0.06412014365196228 76.0 8 -0.03445541486144066
2.1714706420898438 -0.2385818064212799 -0.5043402910232544 78.0 1 -0.03445311263203621
3.6608450412750244 -0.4028676450252533 0.19301502406597137 88.0 9 -0.03445080667734146
2.171989917755127 -0.23902253806591034 -0.42474085092544556 47.0 2 -0.03444850444793701
3.6716532707214355 -0.40470564365386963 0.32317349314689636 96.0 10 -0.034446198493242264
2.22851300239563 -0.24603010714054108 -0.35510629415512085 62.0 3 -0.034443896263837814
3.6797685623168945 -0.4069002866744995 0.4545727074146271 100.0 11 -0.034441590309143066
2.1545467376708984 -0.2386254221200943 -0.2661626636981964 42.0 4 -0.03443928807973862
3.689103841781616 -0.4092361629009247 0.5878807902336121 93.0 12 -0.03443698212504387
2.110938787460327 -0.2341686338186264 -0.18581604957580566 61.0 5 -0.03443467989563942
3.713223695755005 -0.4125678241252899 0.7262190580368042 86.0 13 -0.03443237394094467
2.2470264434814453 -0.25005900859832764 -0.1184886172413826 58.0 6 -0.03443007171154022
3.7146801948547363 -0.4140423834323883 0.8629122972488403 97.0 14 -0.034427765756845474
3.630887985229492 -0.4053444266319275 -0.06377109885215759 98.0 7 -0.034425463527441025
3.7111423015594482 -0.414959579706192 1.0005944967269897 108.0 15 -0.03442315757274628
2.1154251098632812 -0.23915241658687592 -0.5704371929168701 57.0 0 -0.03440242260694504
3.6461424827575684 -0.4128471612930298 0.0640503317117691 79.0 8 -0.03440012037754059
2.1783697605133057 -0.2470385581254959 -0.506139874458313 63.0 1 -0.03439781442284584
3.6733081340789795 -0.4172217547893524 0.19374772906303406 94.0 9 -0.03439551219344139
2.2004029750823975 -0.24992620944976807 -0.43046510219573975 44.0 2 -0.03439320623874664
3.6721980571746826 -0.41774487495422363 0.323347806930542 100.0 10 -0.034390904009342194
2.2296032905578613 -0.2540311813354492 -0.3554191291332245 66.0 3 -0.034388598054647446
3.6822705268859863 -0.4201927185058594 0.4550601840019226 100.0 11 -0.034386295825242996
2.2227296829223633 -0.25403404235839844 -0.2746935188770294 60.0 4 -0.03438398987054825
3.6955032348632812 -0.42300957441329956 0.5891323089599609 93.0 12 -0.0343816876411438
2.1358413696289062 -0.24448128044605255 -0.18808208405971527 45.0 5 -0.03437938168644905
3.711761236190796 -0.4255269169807434 0.7262190580368042 89.0 13 -0.0343770794570446
2.23423433303833 -0.2565340995788574 -0.1178605854511261 50.0 6 -0.034374773502349854
3.7287001609802246 -0.42878755927085876 0.8665115237236023 100.0 14 -0.034372471272945404
3.6354105472564697 -0.4187024235725403 -0.06387580931186676 93.0 7 -0.034370165318250656
3.7096712589263916 -0.4279113709926605 1.0005944967269897 106.0 15 -0.03436786308884621
2.1433603763580322 -0.24989092350006104 -0.5782017707824707 69.0 0 -0.03434712812304497
3.644679307937622 -0.4255720376968384 0.0640503317117691 74.0 8 -0.03434482216835022
3.6738131046295166 -0.43027377128601074 0.19385240972042084 88.0 9 -0.03434021398425102
2.220966339111328 -0.26011762022972107 -0.43466290831565857 36.0 2 -0.03433791175484657
3.672696113586426 -0.43079280853271484 0.3235221207141876 96.0 10 -0.034335605800151825
2.234588623046875 -0.26250380277633667 -0.35635775327682495 69.0 3 -0.034333303570747375
3.680781364440918 -0.4330437183380127 0.4550601840019226 100.0 11 -0.03433099761605263
2.24942946434021 -0.26504331827163696 -0.27810585498809814 72.0 4 -0.03432869538664818
3.6959657669067383 -0.43613824248313904 0.5894451141357422 91.0 12 -0.03432638943195343
2.158674478530884 -0.2551139295101166 -0.19017383456230164 47.0 5 -0.03432408720254898
3.6985549926757812 -0.43709826469421387 0.7239293456077576 89.0 13 -0.03432178124785423
2.2372920513153076 -0.2648009657859802 -0.11806992441415787 48.0 6 -0.03431947901844978
3.725245475769043 -0.44157111644744873 0.8660616278648376 100.0 14 -0.034317173063755035
3.6378986835479736 -0.43186137080192566 -0.06394562125205994 93.0 7 -0.034314870834350586
3.7158281803131104 -0.4417702257633209 1.0026650428771973 106.0 15 -0.034312568604946136
2.148184061050415 -0.25843727588653564 -0.579754650592804 62.0 0 -0.0342918299138546
3.6471424102783203 -0.43876945972442627 0.06412014365196228 81.0 8 -0.03428952768445015
2.3004159927368164 -0.27715885639190674 -0.5349336266517639 1.0 1 -0.0342872217297554
3.672288656234741 -0.4430951476097107 0.19385240972042084 88.0 9 -0.03428491950035095
3.682960271835327 -0.4456871449947357 0.324567973613739 99.0 10 -0.034280311316251755
2.2375333309173584 -0.271167516708374 -0.356983482837677 48.0 3 -0.03427800536155701
3.6753058433532715 -0.445411741733551 0.4545727074146271 97.0 11 -0.03427570313215256
2.244549512863159 -0.2724153399467468 -0.2776183784008026 66.0 4 -0.03427339717745781
3.7061867713928223 -0.45046699047088623 0.5913223624229431 91.0 12 -0.03427109494805336
2.1755709648132324 -0.26481422781944275 -0.19174262881278992 39.0 5 -0.03426878899335861
3.704723358154297 -0.45160144567489624 0.7254558801651001 86.0 13 -0.03426648676395416
2.236306667327881 -0.27299928665161133 -0.11806992441415787 43.0 6 -0.03426418453454971
3.721667766571045 -0.4549854099750519 0.865611732006073 97.0 14 -0.034261878579854965
3.6462931632995605 -0.44577065110206604 -0.06412014365196228 100.0 7 -0.034259576350450516
3.7180986404418945 -0.4552077353000641 1.0037003755569458 108.0 15 -0.03425727039575577
2.1511034965515137 -0.26640915870666504 -0.5807899832725525 65.0 0 -0.03423653542995453
3.657416820526123 -0.45361071825027466 0.06432957202196121 84.0 8 -0.03423422947525978
2.280045747756958 -0.28318652510643005 -0.5304346084594727 1.0 1 -0.03423192724585533
3.6686580181121826 -0.45630529522895813 0.19374772906303406 91.0 9 -0.034229621291160583
2.367114543914795 -0.29442015290260315 -0.4636658728122711 1.0 2 -0.034227319061756134
3.6892902851104736 -0.4595254063606262 0.32526522874832153 96.0 10 -0.034225013107061386
2.2581353187561035 -0.2816658616065979 -0.36042505502700806 42.0 3 -0.03422271087765694
3.681527614593506 -0.4598636031150818 0.45554763078689575 100.0 11 -0.03422040864825249
2.2514147758483887 -0.2816257178783417 -0.2785933315753937 60.0 4 -0.03421810269355774
3.7005908489227295 -0.4635567367076874 0.5906966328620911 87.0 12 -0.03421580046415329
2.202310562133789 -0.27587375044822693 -0.19418299198150635 28.0 5 -0.03421349450945854
3.7148120403289795 -0.46599671244621277 0.727745532989502 86.0 13 -0.03421119228005409
2.2511935234069824 -0.2827953100204468 -0.11890730261802673 43.0 6 -0.034208886325359344
3.7200567722320557 -0.4679737389087677 0.865611732006073 97.0 14 -0.034206584095954895
3.640666961669922 -0.45863211154937744 -0.0640503317117691 100.0 7 -0.03420427814126015
3.727905035018921 -0.4702829420566559 1.0068061351776123 113.0 15 -0.0342019759118557
2.150160312652588 -0.2739163339138031 -0.5807899832725525 57.0 0 -0.03418123722076416
3.663745403289795 -0.467386931180954 0.06446918845176697 81.0 8 -0.03417893499135971
2.279043436050415 -0.29114362597465515 -0.5304346084594727 1.0 1 -0.03417663276195526
3.6710050106048584 -0.4696153998374939 0.19395707547664642 94.0 9 -0.03417432680726051
2.4167044162750244 -0.3091582655906677 -0.4735879600048065 1.0 2 -0.034172024577856064
3.681735038757324 -0.4716411232948303 0.32474228739738464 100.0 10 -0.034169718623161316
2.2688944339752197 -0.2910545766353607 -0.3623022735118866 12.0 3 -0.034167416393756866
3.6877758502960205 -0.47372347116470337 0.4565226137638092 100.0 11 -0.03416511043906212
2.2622313499450684 -0.2910025417804718 -0.2800557613372803 51.0 4 -0.03416280820965767
3.7028684616088867 -0.47697609663009644 0.5913223624229431 87.0 12 -0.03416050225496292
2.2131903171539307 -0.2850867807865143 -0.19522884488105774 32.0 5 -0.03415820002555847
3.720951795578003 -0.4799656867980957 0.7292720079421997 83.0 13 -0.034155894070863724
2.2541542053222656 -0.2911633849143982 -0.1191166415810585 32.0 6 -0.034153591841459274
3.7280638217926025 -0.4822061359882355 0.867861270904541 100.0 14 -0.034151285886764526
3.6390438079833984 -0.47133761644363403 -0.0640503317117691 100.0 7 -0.03414898365736008
3.7185773849487305 -0.48229897022247314 1.0047355890274048 106.0 15 -0.03414667770266533
2.158768653869629 -0.2826741933822632 -0.5833781957626343 19.0 0 -0.03412594273686409
3.654160737991333 -0.4791330099105835 0.06432957202196121 79.0 8 -0.03412364050745964
2.3746213912963867 -0.3117815852165222 -0.5529297590255737 1.0 1 -0.03412133455276489
3.685185194015503 -0.48450952768325806 0.1947944462299347 94.0 9 -0.03411903232336044
2.4156105518341064 -0.3175922632217407 -0.4735879600048065 1.0 2 -0.034116726368665695
3.678091287612915 -0.4842299222946167 0.324567973613739 99.0 10 -0.034114424139261246
2.328575611114502 -0.3069762587547302 -0.37200120091438293 1.0 3 -0.0341121181845665
3.6860997676849365 -0.4865933060646057 0.4565226137638092 100.0 11 -0.03410981595516205
2.278913736343384 -0.30123868584632874 -0.28224945068359375 32.0 4 -0.0341075100004673
3.703139066696167 -0.4901578426361084 0.5916352272033691 93.0 12 -0.03410520777106285
2.227982997894287 -0.29490208625793457 -0.19662334024906158 30.0 5 -0.0341029018163681
3.707576036453247 -0.4914035499095917 0.7269822955131531 85.0 13 -0.034100599586963654
2.26896333694458 -0.3011322617530823 -0.11995401978492737 27.0 6 -0.034098293632268906
3.726357936859131 -0.49521657824516296 0.867861270904541 94.0 14 -0.034095991402864456
3.6552164554595947 -0.4864114224910736 -0.0643644779920578 100.0 7 -0.03409368544816971
3.7168712615966797 -0.4952762722969055 1.0047355890274048 108.0 15 -0.03409138321876526
2.19989013671875 -0.29587307572364807 -0.5947661995887756 1.0 0 -0.03407064825296402
3.6564295291900635 -0.4924192428588867 0.06439937651157379 86.0 8 -0.03406834229826927
2.3155806064605713 -0.31225574016571045 -0.5394326448440552 1.0 1 -0.03406604006886482
3.6913888454437256 -0.4984392821788788 0.19521313905715942 100.0 9 -0.034063734114170074
2.3444454669952393 -0.31656479835510254 -0.45984968543052673 1.0 2 -0.034061431884765625
3.6862504482269287 -0.49840065836906433 0.32543954253196716 100.0 10 -0.03405912593007088
3.5959625244140625 -0.48683232069015503 -0.5747402906417847 1.0 3 -0.03405682370066643
3.6883130073547363 -0.4999905228614807 0.45701009035110474 100.0 11 -0.03405451774597168
3.7111926078796387 -0.5044113993644714 0.5931995511054993 100.0 12 -0.03404990956187248
2.2466824054718018 -0.3053606450557709 -0.1983664631843567 27.0 5 -0.03404760733246803
3.7136192321777344 -0.5054013729095459 0.7285087704658508 99.0 13 -0.034045301377773285
2.2718563079833984 -0.3095899224281311 -0.12016335874795914 12.0 6 -0.034042999148368835
3.7419841289520264 -0.5105921626091003 0.8719103336334229 100.0 14 -0.03404069319367409
3.663402557373047 -0.5005210041999817 -0.06453900039196014 100.0 7 -0.03403839096426964
3.722775936126709 -0.5092949271202087 1.0068061351776123 108.0 15 -0.03403608500957489
2.336630344390869 -0.3225717544555664 -0.6320361495018005 1.0 0 -0.030334949493408203
3.6546883583068848 -0.5051796436309814 0.06439937651157379 100.0 8 -0.030332645401358604
2.3067550659179688 -0.31926804780960083 -0.5376330614089966 1.0 1 -0.030330341309309006
3.687648057937622 -0.5110474228858948 0.19510845839977264 100.0 9 -0.030328037217259407
2.413334369659424 -0.3344484865665436 -0.4735879600048065 1.0 2 -0.03032573312520981
3.696329355239868 -0.5129081010818481 0.32648542523384094 100.0 10 -0.03032342903316021
3.609893560409546 -0.5015563368797302 -0.5772432088851929 60.0 3 -0.03032112494111061
3.6865451335906982 -0.5128620862960815 0.45701009035110474 100.0 11 -0.030318820849061012
3.637303113937378 -0.5066587924957275 -0.4509166181087494 100.0 4 -0.030316516757011414
3.7113654613494873 -0.517635703086853 0.5935124158859253 100.0 12 -0.030314212664961815
2.26533579826355 -0.31595340371131897 -0.2001095712184906 20.0 5 -0.030311908572912216
3.7137770652770996 -0.5186327695846558 0.7288904190063477 92.0 13 -0.030309606343507767
2.2984540462493896 -0.3213904798030853 -0.1216287761926651 1.0 6 -0.030307302251458168
3.7421090602874756 -0.5239211916923523 0.8723602890968323 100.0 14 -0.03030499815940857
3.667574167251587 -0.5141385197639465 -0.06464371830224991 100.0 7 -0.03030269406735897
3.728628158569336 -0.5233608484268188 1.0088766813278198 108.0 15 -0.030300389975309372
2.262805223464966 -0.32043328881263733 -0.6123659014701843 1.0 0 -0.030279653146862984
3.6608223915100098 -0.5190567374229431 0.06453900039196014 82.0 8 -0.030277349054813385
3.5963916778564453 -0.5105616450309753 -0.8386175632476807 30.0 1 -0.030275044962763786
3.6739773750305176 -0.5222302079200745 0.19448043406009674 76.0 9 -0.030272740870714188
3.6036505699157715 -0.5122337937355042 -0.7075197696685791 78.0 2 -0.03027043677866459
3.7004339694976807 -0.5266497135162354 0.32700833678245544 99.0 10 -0.03026813268661499
3.6218104362487793 -0.5161048769950867 -0.5794333219528198 92.0 3 -0.03026582859456539
3.682767152786255 -0.5254469513893127 0.4567663371562958 93.0 11 -0.030263526365160942
3.617825984954834 -0.5168256759643555 -0.4487229585647583 78.0 4 -0.030261222273111343
3.709536075592041 -0.5305876135826111 0.5935124158859253 73.0 12 -0.030258918181061745
2.295776128768921 -0.32837268710136414 -0.2028985619544983 1.0 5 -0.030256614089012146
3.723604679107666 -0.533263087272644 0.7311801314353943 60.0 13 -0.030254309996962547
3.6614742279052734 -0.5250174403190613 -0.19385240972042084 93.0 6 -0.03025200590491295
3.7363991737365723 -0.5364264845848083 0.8714604377746582 100.0 14 -0.03024970181286335
3.6400258541107178 -0.5232387185096741 -0.06418995559215546 79.0 7 -0.03024739772081375
3.726778507232666 -0.5363730192184448 1.0088766813278198 113.0 15 -0.030245093628764153
2.30755615234375 -0.3349909782409668 -0.6247891783714294 1.0 0 -0.030224356800317764
3.6589882373809814 -0.5318321585655212 0.06453900039196014 63.0 8 -0.030222052708268166
3.5984442234039307 -0.5236734747886658 -0.83951735496521 55.0 1 -0.030219748616218567
3.6702489852905273 -0.5341230630874634 0.19437576830387115 65.0 9 -0.030217446386814117
3.5921266078948975 -0.5233944058418274 -0.7056117057800293 68.0 2 -0.03021514229476452
3.6768863201141357 -0.5363996624946594 0.3250909149646759 71.0 10 -0.03021283820271492
3.6160776615142822 -0.5281732082366943 -0.5788075923919678 68.0 3 -0.03021053411066532
3.6730542182922363 -0.5371500849723816 0.4557913839817047 73.0 11 -0.030208230018615723
3.620020627975464 -0.5293943881988525 -0.44921043515205383 70.0 4 -0.030205925926566124
3.682347297668457 -0.5391655564308167 0.5894451141357422 62.0 12 -0.030203621834516525
3.642998456954956 -0.5340536832809448 -0.3221276104450226 67.0 5 -0.030201317742466927
3.7178356647491455 -0.5456873774528503 0.7304168343544006 66.0 13 -0.030199013650417328
3.663571357727051 -0.538375973701477 -0.194061741232872 78.0 6 -0.03019670955836773
3.7442405223846436 -0.5502305626869202 0.8737099766731262 100.0 14 -0.03019440546631813
3.6402487754821777 -0.5355976819992065 -0.06422485411167145 79.0 7 -0.030192101374268532
3.728801727294922 -0.5492916107177734 1.0099120140075684 113.0 15 -0.030189797282218933
3.5752575397491455 -0.5311365127563477 -0.9685009121894836 6.0 0 -0.030169062316417694
3.6473147869110107 -0.5424919128417969 0.0643644779920578 58.0 8 -0.030166758224368095
3.606325387954712 -0.5370386838912964 -0.841766893863678 56.0 1 -0.030164454132318497
3.678335189819336 -0.5477620959281921 0.19489912688732147 61.0 9 -0.030162150040268898
3.5981385707855225 -0.536461353302002 -0.707138180732727 66.0 2 -0.0301598459482193
3.679028272628784 -0.5491780042648315 0.32543954253196716 72.0 10 -0.0301575418561697
3.6064915657043457 -0.5389937162399292 -0.5775561332702637 68.0 3 -0.030155237764120102
3.6889216899871826 -0.5519712567329407 0.4579850137233734 73.0 11 -0.030152933672070503
3.626098155975342 -0.5425710082054138 -0.4501853883266449 68.0 4 -0.030150629580020905
3.6942138671875 -0.5534222722053528 0.5916352272033691 65.0 12 -0.030148325487971306
3.633326292037964 -0.5449492931365967 -0.32143038511276245 73.0 5 -0.030146021395921707
3.7101809978485107 -0.5571386218070984 0.7292720079421997 61.0 13 -0.03014371730387211
3.663741111755371 -0.5508188605308533 -0.1941664218902588 82.0 6 -0.03014141321182251
3.748176097869873 -0.5635130405426025 0.8750596642494202 100.0 14 -0.03013910911977291
3.6443850994110107 -0.5485591888427734 -0.06432957202196121 77.0 7 -0.030136805027723312
3.7231392860412598 -0.5610779523849487 1.0088766813278198 113.0 15 -0.030134500935673714
3.645495891571045 -0.5545838475227356 0.0643644779920578 59.0 8 -0.030111461877822876
3.596818685531616 -0.547821044921875 -0.8399673104286194 59.0 1 -0.030109157785773277
3.680349349975586 -0.5612005591392517 0.19510845839977264 61.0 9 -0.03010685369372368
3.605947732925415 -0.5504993796348572 -0.7090462446212769 63.0 2 -0.03010454960167408
3.677186965942383 -0.5613750219345093 0.32543954253196716 71.0 10 -0.03010224550962448
3.6085894107818604 -0.5515472292900085 -0.5781818628311157 68.0 3 -0.030099941417574883
3.6831462383270264 -0.5636005401611328 0.45749756693840027 75.0 11 -0.030097637325525284
3.6359550952911377 -0.5570287704467773 -0.4516478180885315 70.0 4 -0.030095333233475685
3.7000699043273926 -0.5675121545791626 0.5928866863250732 63.0 12 -0.030093029141426086
3.631401777267456 -0.5576286315917969 -0.32143038511276245 66.0 5 -0.030090725049376488
3.7043328285217285 -0.5694894790649414 0.7285087704658508 63.0 13 -0.03008842095732689
3.6440298557281494 -0.5608698725700378 -0.19322437047958374 79.0 6 -0.03008611686527729
3.7500386238098145 -0.5771861672401428 0.8759595155715942 100.0 14 -0.03008381277322769
3.6424479484558105 -0.5612772107124329 -0.06432957202196121 77.0 7 -0.030081508681178093
3.728794813156128 -0.5752488970756531 1.0109472274780273 115.0 15 -0.030079204589128494
3.6513419151306152 -0.5691734552383423 0.06450409442186356 58.0 8 -0.030056165531277657
3.5967118740081787 -0.5613007545471191 -0.8404171466827393 56.0 1 -0.030053861439228058
3.67826771736145 -0.5746859908103943 0.19510845839977264 61.0 9 -0.03005155734717846
3.6058456897735596 -0.5640155673027039 -0.7094278931617737 61.0 2 -0.03004925325512886
3.690852642059326 -0.5773121118545532 0.3268340229988098 70.0 10 -0.030046949163079262
3.618253469467163 -0.5666033625602722 -0.5800590515136719 66.0 3 -0.030044645071029663
3.677133798599243 -0.576481282711029 0.45701009035110474 73.0 11 -0.030042340978980064
3.629966974258423 -0.5697358846664429 -0.45116034150123596 64.0 4 -0.030040036886930466
3.711625099182129 -0.58321613073349 0.5950767993927002 62.0 12 -0.030037732794880867
3.6372063159942627 -0.5721730589866638 -0.3221276104450226 66.0 5 -0.03003542870283127
3.706099510192871 -0.5836736559867859 0.7292720079421997 61.0 13 -0.03003312461078167
3.645895481109619 -0.574844241142273 -0.1934337019920349 70.0 6 -0.03003082238137722
3.7459728717803955 -0.5906233191490173 0.8755095601081848 100.0 14 -0.03002851828932762
3.6660444736480713 -0.5786768794059753 -0.06478333473205566 74.0 7 -0.030026214197278023
3.7342944145202637 -0.5901179313659668 1.0130177736282349 113.0 15 -0.030023910105228424
2.016491413116455 -0.32154586911201477 -0.5471434593200684 1.0 0 -0.030003173276782036
3.6729278564453125 -0.5863353610038757 0.06492295116186142 44.0 8 -0.030000869184732437
3.615798234939575 -0.577862560749054 -0.8453661203384399 10.0 1 -0.02999856509268284
3.688072919845581 -0.5894132256507874 0.19573649764060974 27.0 9 -0.02999626100063324
3.6154868602752686 -0.5784599781036377 -0.7117176055908203 10.0 2 -0.02999395690858364
3.7083849906921387 -0.593986988067627 0.3285771608352661 45.0 10 -0.029991652816534042
3.6278553009033203 -0.5817376971244812 -0.5819362998008728 23.0 3 -0.029989348724484444
3.688715934753418 -0.5921573042869568 0.4587162435054779 24.0 11 -0.029987044632434845
5.9368672370910645 -0.9541206359863281 0.9523731470108032 63.0 12 -0.029982438310980797
3.6627261638641357 -0.5892965793609619 -0.324567973613739 11.0 5 -0.029980134218931198
3.7156689167022705 -0.5984798669815063 0.7315617203712463 64.0 13 -0.0299778301268816
3.7399353981018066 -0.6037279367446899 0.8746097683906555 97.0 14 -0.029973221942782402
3.743654251098633 -0.6049986481666565 1.016123652458191 113.0 15 -0.029968613758683205
2.0153567790985107 -0.3285827934741974 -0.5471434593200684 1.0 0 -0.029947876930236816
4.428839683532715 -0.7220758199691772 0.07832640409469604 18.0 8 -0.029945572838187218
4.3620219230651855 -0.711963415145874 -1.0203781127929688 15.0 1 -0.02994326874613762
4.448815822601318 -0.7269270420074463 0.2362445443868637 17.0 9 -0.02994096465408802
4.355509281158447 -0.7124614715576172 -0.8578773140907288 17.0 2 -0.02993866056203842
4.457378387451172 -0.729923665523529 0.3951641321182251 13.0 10 -0.029936358332633972
4.390076160430908 -0.7189024686813354 -0.7045809030532837 22.0 3 -0.029934054240584373
4.4546380043029785 -0.7302733063697815 0.5542618632316589 16.0 11 -0.029931750148534775
4.389867305755615 -0.7204418182373047 -0.5462184548377991 16.0 4 -0.029929446056485176
5.93350076675415 -0.974838376045227 0.9523731470108032 81.0 12 -0.029927141964435577
4.388057708740234 -0.7217180132865906 -0.3890632390975952 15.0 5 -0.02992483787238598
3.717538595199585 -0.6114355325698853 0.7323249578475952 63.0 13 -0.02992253378033638
4.438070774078369 -0.7307392954826355 -0.2357211709022522 23.0 6 -0.02992022968828678
3.741758346557617 -0.6167604923248291 0.8755095601081848 97.0 14 -0.029917925596237183
4.419552803039551 -0.7292748689651489 -0.07818678021430969 22.0 7 -0.029915621504187584
3.7338955402374268 -0.6168034076690674 1.0140531063079834 113.0 15 -0.029913317412137985
4.418401718139648 -0.7362161874771118 0.07818678021430969 21.0 8 -0.029890278354287148
4.349898815155029 -0.7255822420120239 -1.018128514289856 17.0 1 -0.02988797426223755
4.438371181488037 -0.7411360144615173 0.23582583665847778 20.0 9 -0.02988567017018795
4.343440532684326 -0.7252841591835022 -0.8559691905975342 20.0 2 -0.02988336607813835
4.439211368560791 -0.7420727610588074 0.39376962184906006 13.0 10 -0.029881061986088753
4.354418754577637 -0.7286797165870667 -0.6992621421813965 22.0 3 -0.029878757894039154
4.446188449859619 -0.7448346018791199 0.5535306334495544 16.0 11 -0.029876453801989555
4.387325763702393 -0.7357609272003174 -0.5462184548377991 17.0 4 -0.029874149709939957
5.926164627075195 -0.9948899745941162 0.9517473578453064 76.0 12 -0.029871845617890358
4.3797454833984375 -0.7352757453918457 -0.3885402977466583 16.0 5 -0.02986954152584076
3.715381383895874 -0.6244084239006042 0.7323249578475952 64.0 13 -0.02986723743379116
4.415797233581543 -0.742913007736206 -0.23467445373535156 30.0 6 -0.029864933341741562
3.7491910457611084 -0.6314361691474915 0.8777590990066528 100.0 14 -0.029862629249691963
4.418952465057373 -0.7450301647186279 -0.07822168618440628 30.0 7 -0.029860325157642365
3.7355294227600098 -0.6304763555526733 1.0150883197784424 117.0 15 -0.029858021065592766
2.013073682785034 -0.3422931730747223 -0.5471434593200684 1.0 0 -0.029837286099791527
4.402005672454834 -0.7492859959602356 0.07794244587421417 24.0 8 -0.029834982007741928
4.34157657623291 -0.7397798895835876 -1.016778826713562 20.0 1 -0.02983267791569233
4.433788299560547 -0.756288468837738 0.2357211709022522 25.0 9 -0.02983037382364273
4.346688270568848 -0.7414314150810242 -0.8571140170097351 23.0 2 -0.029828069731593132
4.430702209472656 -0.7565578818321228 0.39324668049812317 20.0 10 -0.029825765639543533
4.351848125457764 -0.7438750863075256 -0.6992621421813965 23.0 3 -0.029823461547493935
4.4416046142578125 -0.7600153088569641 0.5532869100570679 18.0 11 -0.029821157455444336
4.3827738761901855 -0.750735878944397 -0.5459746718406677 30.0 4 -0.029818853363394737
5.938231945037842 -1.0182409286499023 0.9542503952980042 81.0 12 -0.02981654927134514
4.381080150604248 -0.7512328624725342 -0.3888889253139496 30.0 5 -0.02981424517929554
3.705439329147339 -0.6360450983047485 0.7307984828948975 66.0 13 -0.02981194108724594
4.409240245819092 -0.7576460242271423 -0.234465092420578 37.0 6 -0.029809636995196342
3.7623283863067627 -0.6471623182296753 0.8813583254814148 100.0 14 -0.029807332903146744
4.422236919403076 -0.7614685893058777 -0.07832640409469604 31.0 7 -0.029805028811097145
3.7409210205078125 -0.6448245048522949 1.01715886592865 113.0 15 -0.029802724719047546
2.011866569519043 -0.3493179976940155 -0.5471434593200684 1.0 0 -0.029781989753246307
4.391482830047607 -0.763277530670166 0.07780282944440842 18.0 8 -0.02977968566119671
4.323608875274658 -0.7522579431533813 -1.0131796598434448 30.0 1 -0.02977738156914711
4.423251152038574 -0.7703899145126343 0.23530249297618866 24.0 9 -0.02977507747709751
4.336337566375732 -0.7552523612976074 -0.8555876016616821 37.0 2 -0.029772773385047913
4.426071643829346 -0.7716771960258484 0.3930723965167999 13.0 10 -0.029770469292998314
4.345333576202393 -0.7583820223808289 -0.6986364126205444 19.0 3 -0.029768165200948715
4.429147243499756 -0.7738065719604492 0.5520681738853455 16.0 11 -0.029765861108899117
4.362528324127197 -0.762952446937561 -0.5437811017036438 56.0 4 -0.029763557016849518
5.948261737823486 -1.0413475036621094 0.9564404487609863 74.0 12 -0.02976125292479992
4.376468181610107 -0.7661775350570679 -0.38871458172798157 41.0 5 -0.02975894883275032
3.7109317779541016 -0.6503312587738037 0.7323249578475952 66.0 13 -0.029756644740700722
4.402634143829346 -0.772342324256897 -0.23425576090812683 64.0 6 -0.029754340648651123
3.7504494190216064 -0.6586061120033264 0.8791087865829468 97.0 14 -0.029752038419246674
4.421521186828613 -0.7772465348243713 -0.07836130261421204 48.0 7 -0.029749734327197075
3.742452621459961 -0.6585484743118286 1.0181941986083984 113.0 15 -0.029747430235147476
2.0106348991394043 -0.35633862018585205 -0.5471434593200684 1.0 0 -0.029726693406701088
4.40257453918457 -0.7810472249984741 0.07804716378450394 60.0 8 -0.02972438931465149
4.336306571960449 -0.7700714468955994 -1.016778826713562 51.0 1 -0.02972208522260189
4.416601657867432 -0.7851260900497437 0.2350931316614151 70.0 9 -0.029719781130552292
4.32787561416626 -0.7693535685539246 -0.8544427156448364 66.0 2 -0.029717477038502693
4.4390435218811035 -0.7899147868156433 0.3944668769836426 37.0 10 -0.029715172946453094
4.342659950256348 -0.7735454440116882 -0.6986364126205444 17.0 3 -0.029712868854403496
4.422510623931885 -0.7885655164718628 0.5515806674957275 16.0 11 -0.029710564762353897
4.353975296020508 -0.7771293520927429 -0.5430498719215393 100.0 4 -0.0297082606703043
5.936812400817871 -1.060714840888977 0.9551889896392822 78.0 12 -0.0297059565782547
4.38357400894165 -0.7832017540931702 -0.3895861804485321 100.0 5 -0.02970365434885025
3.7202343940734863 -0.6653546094894409 0.7346146702766418 66.0 13 -0.02970135025680065
4.407775402069092 -0.789113461971283 -0.23467445373535156 100.0 6 -0.029699046164751053
3.7538821697235107 -0.6727247834205627 0.8804585337638855 100.0 14 -0.029696742072701454
4.401066780090332 -0.7894980907440186 -0.07804716378450394 88.0 7 -0.029694437980651855
3.751539707183838 -0.6736566424369812 1.021299958229065 113.0 15 -0.029692133888602257
4.294405460357666 -0.7765550017356873 -1.169344425201416 1.0 0 -0.02967139706015587
4.395885944366455 -0.7956979870796204 0.07797735929489136 48.0 8 -0.02966909296810627
4.327839374542236 -0.7841610908508301 -1.015429139137268 32.0 1 -0.02966678887605667
4.419729709625244 -0.8016074299812317 0.23540714383125305 42.0 9 -0.029664484784007072
4.323232173919678 -0.7841055989265442 -0.8540611267089844 37.0 2 -0.029662180691957474
4.428417682647705 -0.8039815425872803 0.39376962184906006 36.0 10 -0.029659876599907875
4.334102630615234 -0.7876399159431458 -0.6976977586746216 20.0 3 -0.029657574370503426
4.4197306632995605 -0.8039981126785278 0.5515806674957275 16.0 11 -0.029655270278453827
4.366860389709473 -0.7951677441596985 -0.5449997186660767 39.0 4 -0.029652966186404228
5.935016632080078 -1.0817859172821045 0.9555018544197083 76.0 12 -0.02965066209435463
4.374933242797852 -0.797426700592041 -0.3890632390975952 46.0 5 -0.02964835800230503
3.733340263366699 -0.6811557412147522 0.7376676201820374 66.0 13 -0.029646053910255432
4.387310981750488 -0.8012652397155762 -0.2337324023246765 42.0 6 -0.029643749818205833
3.7572617530822754 -0.6868754625320435 0.8818081617355347 97.0 14 -0.029641445726156235
4.3746795654296875 -0.8005364537239075 -0.07762830704450607 45.0 7 -0.029639141634106636
3.7453646659851074 -0.6860517263412476 1.020264744758606 117.0 15 -0.029636837542057037
4.285969257354736 -0.7904893755912781 -1.1677916049957275 11.0 0 -0.02961610071361065
4.397014141082764 -0.8117637038230896 0.07804716378450394 30.0 8 -0.02961379662156105
4.338490009307861 -0.8017421364784241 -1.0185785293579102 33.0 1 -0.0296114943921566
4.420833110809326 -0.8177568912506104 0.2356165051460266 43.0 9 -0.029609190300107002
4.332052230834961 -0.8013343811035156 -0.856350839138031 49.0 2 -0.029606886208057404
4.421666622161865 -0.8187091946601868 0.3934210240840912 31.0 10 -0.029604582116007805
4.31967306137085 -0.8006040453910828 -0.6958206295967102 19.0 3 -0.029602278023958206
4.412994384765625 -0.818696916103363 0.5510932207107544 16.0 11 -0.029599973931908607
4.36015510559082 -0.809681236743927 -0.5445122718811035 44.0 4 -0.02959766983985901
5.948683261871338 -1.1057451963424683 0.9583176374435425 78.0 12 -0.02959536574780941
4.360369682312012 -0.8105084300041199 -0.38801735639572144 37.0 5 -0.02959306165575981
3.7290096282958984 -0.6938241720199585 0.7372859716415405 67.0 13 -0.029590757563710213
4.3982319831848145 -0.8191347718238831 -0.234465092420578 37.0 6 -0.029588453471660614
3.7605886459350586 -0.701058030128479 0.8831579089164734 94.0 14 -0.029586149379611015
4.391516208648682 -0.8194701671600342 -0.07797735929489136 35.0 7 -0.029583845287561417
3.7429471015930176 -0.6991212964057922 1.020264744758606 113.0 15 -0.029581541195511818
4.290777683258057 -0.8068733811378479 -1.1698620319366455 4.0 0 -0.02956080622971058
4.384328365325928 -0.8252576589584351 0.07787264138460159 12.0 8 -0.02955850213766098
4.335665225982666 -0.8168814778327942 -1.0185785293579102 3.0 1 -0.02955619804561138
4.319581985473633 -0.8146318793296814 -0.8544427156448364 19.0 2 -0.029551589861512184
4.422697067260742 -0.8348778486251831 0.39376962184906006 8.0 10 -0.029549285769462585
4.303264617919922 -0.8131102919578552 -0.6936304569244385 17.0 3 -0.029546981677412987
4.400356769561768 -0.8322515487670898 0.549874484539032 18.0 11 -0.029544677585363388
5.956432819366455 -1.1287100315093994 0.9601948857307434 74.0 12 -0.02954006940126419
4.355556488037109 -0.8253531455993652 -0.3878430426120758 5.0 5 -0.029537765309214592
3.7188496589660645 -0.705373227596283 0.7357594966888428 67.0 13 -0.029535461217164993
3.7657766342163086 -0.7156359553337097 0.884957492351532 94.0 14 -0.029530853033065796
4.386664390563965 -0.8344207406044006 -0.07794244587421417 4.0 7 -0.029528548941016197
3.751870632171631 -0.7143504023551941 1.0233705043792725 117.0 15 -0.0295262448489666
4.278449058532715 -0.8200279474258423 -1.167273998260498 1.0 0 -0.02950550988316536
4.367673397064209 -0.8379194736480713 0.07762830704450607 3.0 8 -0.02950320579111576
4.284942150115967 -0.8228233456611633 -1.0073308944702148 3.0 1 -0.029500901699066162
4.383634567260742 -0.8425681591033936 0.23394174873828888 3.0 9 -0.029498597607016563
4.326352119445801 -0.8315580487251282 -0.856350839138031 23.0 2 -0.029496293514966965
4.3845391273498535 -0.8435355424880981 0.3906320333480835 2.0 10 -0.029493989422917366
4.3003997802734375 -0.8281264901161194 -0.6936304569244385 19.0 3 -0.029491685330867767
4.383780479431152 -0.844976544380188 0.5481683611869812 15.0 11 -0.02948938123881817
4.331006050109863 -0.835588276386261 -0.5415874123573303 4.0 4 -0.02948707714676857
5.962153911590576 -1.1513676643371582 0.9617592096328735 72.0 12 -0.02948477305471897
4.317436218261719 -0.8337517976760864 -0.38470542430877686 4.0 5 -0.029482468962669373
3.729857921600342 -0.7209582328796387 0.7384308576583862 71.0 13 -0.029480164870619774
4.329658031463623 -0.8376797437667847 -0.23111560940742493 9.0 6 -0.029477860778570175
3.7594292163848877 -0.7280356884002686 0.8840577006340027 94.0 14 -0.029475556686520576
4.338572025299072 -0.8409757018089294 -0.07713963836431503 6.0 7 -0.029473252594470978
3.749354362487793 -0.7274425029754639 1.0233705043792725 113.0 15 -0.02947095036506653
4.349021911621094 -0.8500915169715881 0.07734906673431396 9.0 8 -0.02944790944457054
4.282043933868408 -0.8377755284309387 -1.0073308944702148 10.0 1 -0.029445605352520943
4.361215591430664 -0.8532652854919434 0.23289503157138824 8.0 9 -0.029443301260471344
4.308009147644043 -0.8436363339424133 -0.8532978296279907 23.0 2 -0.029440997168421745
4.383522987365723 -0.8592185378074646 0.3908063471317291 11.0 10 -0.029438693076372147
4.303298473358154 -0.8442735075950623 -0.6945691108703613 19.0 3 -0.029436388984322548
4.380804538726807 -0.8602735996246338 0.5481683611869812 15.0 11 -0.02943408489227295
4.306637287139893 -0.8464897871017456 -0.5389063358306885 12.0 4 -0.02943178080022335
5.950550079345703 -1.16960871219635 0.9605077505111694 72.0 12 -0.029429476708173752
4.328184127807617 -0.8515095710754395 -0.3859255909919739 9.0 5 -0.029427172616124153
3.7388761043548584 -0.7362493872642517 0.7407205700874329 72.0 13 -0.029424870386719704
4.332586288452148 -0.8539466857910156 -0.23142963647842407 16.0 6 -0.029422566294670105
3.7568652629852295 -0.7411540746688843 0.8840577006340027 94.0 14 -0.029420262202620506
4.329874038696289 -0.8541972041130066 -0.07703492045402527 12.0 7 -0.029417958110570908
3.7620835304260254 -0.7428657412528992 1.027511715888977 113.0 15 -0.02941565401852131
4.342255592346191 -0.863728404045105 0.07727925479412079 20.0 8 -0.029392613098025322
4.269686698913574 -0.8500681519508362 -1.0050814151763916 15.0 1 -0.029390309005975723
4.364086627960205 -0.8696544766426086 0.2332090437412262 21.0 9 -0.029388004913926125
4.29348611831665 -0.8563646674156189 -0.8510081171989441 23.0 2 -0.029385700821876526
4.374635219573975 -0.873344361782074 0.39028340578079224 9.0 10 -0.029383396729826927
4.2907891273498535 -0.856605589389801 -0.6930047869682312 23.0 3 -0.02938109263777733
