# .PCD v0.7 - Point Cloud Data file format
VERSION 0.7
FIELDS x y z intensity ring time
SIZE 4 4 4 4 4 4
TYPE F F F F F F
COUNT 1 1 1 1 1 1
WIDTH 553
HEIGHT 1
VIEWPOINT 0 0 0 1 0 0 0
POINTS 553
DATA ascii
3.1259615421295166 3.939741611480713 0.08778560161590576 69.0 8 -0.047264792025089264
3.1471214294433594 3.963571786880493 0.2652386426925659 66.0 9 -0.047260183840990067
2.24751615524292 2.8305840492248535 -0.7025587558746338 1.0 2 -0.04725788161158562
3.1512928009033203 3.967399835586548 0.4432741105556488 57.0 10 -0.04725557565689087
2.2697625160217285 2.856550931930542 -0.5778689980506897 1.0 3 -0.04725327342748642
3.1608920097351074 3.976637840270996 0.6237273216247559 82.0 11 -0.04725096747279167
2.333817720413208 2.9350621700286865 -0.4604223966598511 1.0 4 -0.04724866524338722
3.173858165740967 3.990086317062378 0.8075147867202759 77.0 12 -0.047246359288692474
2.3094232082366943 2.9033427238464355 -0.324567973613739 1.0 5 -0.047244057059288025
3.18563175201416 4.003457546234131 0.9944965839385986 67.0 13 -0.047241754829883575
2.232743978500366 2.804933786392212 -0.1878861039876938 1.0 6 -0.04723944887518883
3.203528881072998 4.023062229156494 1.1872917413711548 86.0 14 -0.04723714664578438
3.0774497985839844 3.863349437713623 -0.08621488511562347 57.0 7 -0.04723484069108963
3.1976242065429688 4.012772083282471 1.3748468160629272 122.0 15 -0.04723253846168518
3.129706859588623 3.9163095951080322 0.08750636875629425 72.0 8 -0.047209497541189194
3.1459696292877197 3.9338433742523193 0.2639825940132141 63.0 9 -0.047204889357089996
2.2806811332702637 2.8518528938293457 -0.7098095417022705 5.0 2 -0.04720258340239525
3.1551644802093506 3.943929672241211 0.44187960028648376 58.0 10 -0.0472002811729908
2.3093421459198 2.8856260776519775 -0.5853778123855591 1.0 3 -0.04719797521829605
3.159867525100708 3.946983575820923 0.6208025217056274 74.0 11 -0.0471956729888916
3.182826042175293 3.9728176593780518 0.8062633275985718 75.0 12 -0.047191064804792404
3.1922216415405273 3.9831206798553467 0.9922068119049072 68.0 13 -0.04718645662069321
2.302488088607788 2.8719210624694824 -0.1929103434085846 1.0 6 -0.04718415439128876
3.1956050395965576 3.9844918251037598 1.1791934967041016 81.0 14 -0.04718184843659401
3.083409547805786 3.84322452545166 -0.08600546419620514 59.0 7 -0.04717954620718956
3.204357862472534 3.9925453662872314 1.3717409372329712 121.0 15 -0.04717724025249481
3.135834217071533 3.89601469039917 0.08729694038629532 74.0 8 -0.047154199331998825
3.1471545696258545 3.907282590866089 0.2629358768463135 61.0 9 -0.04714959114789963
2.299243450164795 2.854576587677002 -0.7124808430671692 53.0 2 -0.04714728891849518
3.1639111042022705 3.926687240600586 0.44118237495422363 58.0 10 -0.04714498668909073
2.3169219493865967 2.8744707107543945 -0.584752082824707 1.0 3 -0.04714268073439598
3.168642997741699 3.9297473430633545 0.6198275685310364 82.0 11 -0.04714037850499153
3.1780683994293213 3.9386227130889893 0.8015702962875366 79.0 12 -0.047135770320892334
2.479773759841919 3.0732169151306152 -0.3454853594303131 2.0 5 -0.047133464366197586
3.1937754154205322 3.9566757678985596 0.9883906841278076 70.0 13 -0.04713116213679314
3.1054980754852295 3.8459415435791016 -0.2590630054473877 3.0 6 -0.04712885618209839
3.192352056503296 3.9520888328552246 1.172894835472107 81.0 14 -0.04712655395269394
3.0880095958709717 3.821549654006958 -0.08576112240552902 64.0 7 -0.04712424799799919
3.208556890487671 3.9693188667297363 1.3675999641418457 121.0 15 -0.04712194576859474
3.144378900527954 3.8788304328918457 0.08715732395648956 74.0 8 -0.047098904848098755
3.148190975189209 3.880763530731201 0.26188915967941284 61.0 9 -0.04709429666399956
2.322798490524292 2.86330509185791 -0.7166786193847656 23.0 2 -0.04709199443459511
3.162533760070801 3.8970532417297363 0.4390906095504761 56.0 10 -0.04708968847990036
3.0527875423431396 3.7604763507843018 -0.7671546936035156 16.0 3 -0.04708738625049591
3.1748316287994385 3.9094178676605225 0.6183651089668274 78.0 11 -0.04708508029580116
3.105419874191284 3.822582244873047 -0.6047157645225525 48.0 4 -0.04708277806639671
3.1855692863464355 3.91983962059021 0.8000059723854065 86.0 12 -0.047080472111701965
2.5306968688964844 3.1140196323394775 -0.3510633409023285 99.0 5 -0.047078169882297516
3.1988978385925293 3.934840679168701 0.9857193231582642 71.0 13 -0.04707586392760277
3.1277263164520264 3.845924139022827 -0.2597957253456116 28.0 6 -0.04707356169819832
3.2036690711975098 3.937896966934204 1.1719950437545776 81.0 14 -0.04707125574350357
3.0887069702148438 3.7952380180358887 -0.08541207760572433 64.0 7 -0.04706895351409912
3.215075731277466 3.9491050243377686 1.3644940853118896 121.0 15 -0.04706664755940437
3.1376636028289795 3.843047618865967 0.08659884333610535 74.0 8 -0.047043610364198685
3.1554009914398193 3.8620166778564453 0.2613658010959625 59.0 9 -0.04703900218009949
2.350170135498047 2.8764634132385254 -0.7220212817192078 25.0 2 -0.04703669622540474
3.1572041511535645 3.862851142883301 0.4364759624004364 54.0 10 -0.04703439399600029
3.0533909797668457 3.7345049381256104 -0.7640260457992554 48.0 3 -0.04703208804130554
3.1708645820617676 3.876798629760742 0.6149527430534363 78.0 11 -0.04702978581190109
3.118743419647217 3.8117196559906006 -0.6047157645225525 74.0 4 -0.047027479857206345
3.189220428466797 3.8964686393737793 0.7975029945373535 86.0 12 -0.047025177627801895
2.5264055728912354 3.0866665840148926 -0.34897157549858093 83.0 5 -0.04702287167310715
3.1976892948150635 3.905421018600464 0.9811398983001709 72.0 13 -0.0470205694437027
3.127211809158325 3.817985773086548 -0.25864434242248535 26.0 6 -0.04701826348900795
3.2136878967285156 3.922170639038086 1.1706453561782837 83.0 14 -0.0470159612596035
3.1019370555877686 3.7844324111938477 -0.08541207760572433 67.0 7 -0.04701365530490875
3.2141430377960205 3.9199304580688477 1.3582823276519775 121.0 15 -0.0470113530755043
3.138359785079956 3.8166255950927734 0.08624979853630066 74.0 8 -0.046988312155008316
3.1625144481658936 3.843269109725952 0.2608424425125122 63.0 9 -0.04698370397090912
2.378906488418579 2.8909835815429688 -0.727745532989502 25.0 2 -0.04698140174150467
3.1605398654937744 3.8394999504089355 0.43508145213127136 61.0 10 -0.04697909578680992
3.0387837886810303 3.690274953842163 -0.7571429014205933 50.0 3 -0.04697679355740547
3.1704914569854736 3.8488545417785645 0.6122716069221497 76.0 11 -0.046974487602710724
3.1244561672210693 3.791616916656494 -0.6032533049583435 82.0 4 -0.046972185373306274
3.196521043777466 3.877690553665161 0.7959386706352234 91.0 12 -0.046969879418611526
2.5320963859558105 3.07167911529541 -0.3482743501663208 83.0 5 -0.04696757718920708
3.1963109970092773 3.876061201095581 0.9765604734420776 74.0 13 -0.04696527123451233
3.12781023979187 3.791640281677246 -0.2575976252555847 31.0 6 -0.04696296900510788
3.2137160301208496 3.8943939208984375 1.165696382522583 74.0 14 -0.04696066677570343
3.1151256561279297 3.7735836505889893 -0.08541207760572433 67.0 7 -0.04695836082100868
3.2167348861694336 3.8952817916870117 1.353623628616333 123.0 15 -0.04695605859160423
3.146561861038208 3.799485445022583 0.08611016720533371 79.0 8 -0.046933017671108246
3.157404661178589 3.811227798461914 0.25937703251838684 66.0 9 -0.04692840948700905
2.414039134979248 2.9128940105438232 -0.7353779077529907 13.0 2 -0.0469261035323143
3.168837308883667 3.822307825088501 0.43438419699668884 61.0 10 -0.04692380130290985
3.042819023132324 3.6690025329589844 -0.7549527883529663 53.0 3 -0.0469214953482151
3.1725013256073 3.8240132331848145 0.610077977180481 82.0 11 -0.046919193118810654
3.118657112121582 3.7577733993530273 -0.5995972156524658 86.0 4 -0.046916887164115906
3.1904401779174805 3.8442673683166504 0.7912455797195435 88.0 12 -0.046914584934711456
2.540256977081299 3.059756278991699 -0.34792572259902954 83.0 5 -0.04691228270530701
3.197279453277588 3.849776268005371 0.9727442860603333 74.0 13 -0.04690997675061226
3.125711441040039 3.762263298034668 -0.2563415467739105 26.0 6 -0.04690767452120781
3.211097478866577 3.8636701107025146 1.1598477363586426 72.0 14 -0.04690536856651306
3.1276233196258545 3.7632319927215576 -0.08541207760572433 74.0 7 -0.04690306633710861
3.2197535037994385 3.8727097511291504 1.349482536315918 122.0 15 -0.046900760382413864
3.1514601707458496 3.779815673828125 0.08590074628591537 76.0 8 -0.04687771946191788
3.1578946113586426 3.784846544265747 0.2583303153514862 66.0 9 -0.04687311127781868
2.451869249343872 2.937608480453491 -0.7437735199928284 2.0 2 -0.04687080904841423
3.1719424724578857 3.798990488052368 0.4329897463321686 61.0 10 -0.04686850681900978
3.035977602005005 3.6361472606658936 -0.7502597570419312 46.0 3 -0.04686620086431503
3.1788032054901123 3.8058531284332275 0.6088593006134033 80.0 11 -0.046863898634910583
3.119645595550537 3.7337019443511963 -0.5974035859107971 75.0 4 -0.046861592680215836
3.1911685466766357 3.8179526329040527 0.7881169319152832 84.0 12 -0.046859290450811386
2.5458109378814697 3.044755697250366 -0.347228467464447 83.0 5 -0.04685698449611664
3.2049918174743652 3.83312726020813 0.9712178111076355 72.0 13 -0.04685468226671219
3.1330440044403076 3.7457499504089355 -0.2559228539466858 27.0 6 -0.04685237631201744
3.2176384925842285 3.8455283641815186 1.1575982570648193 75.0 14 -0.04685007408261299
3.1253395080566406 3.7338898181915283 -0.08499322086572647 68.0 7 -0.04684776812791824
3.228292226791382 3.8555219173431396 1.3474119901657104 123.0 15 -0.046845465898513794
3.1543467044830322 3.7565414905548096 0.08562150597572327 72.0 8 -0.04682242497801781
3.162719964981079 3.7651784420013428 0.2577022612094879 69.0 9 -0.04681781679391861
2.479278802871704 2.950504779815674 -0.7491161227226257 1.0 2 -0.04681551456451416
3.1755499839782715 3.7777743339538574 0.43176954984664917 66.0 10 -0.04681320860981941
3.0473814010620117 3.6240150928497314 -0.7499468922615051 56.0 3 -0.04681090638041496
3.1856801509857178 3.787137269973755 0.6076405644416809 86.0 11 -0.046808600425720215
3.1249897480010986 3.713676691055298 -0.5959411263465881 82.0 4 -0.046806298196315765
3.1936380863189697 3.7952566146850586 0.785614013671875 81.0 12 -0.04680399224162102
2.543062210083008 3.021054983139038 -0.3454853594303131 81.0 5 -0.04680169001221657
3.2107656002044678 3.8129048347473145 0.9689280986785889 75.0 13 -0.04679938405752182
3.1435253620147705 3.731736183166504 -0.25571349263191223 33.0 6 -0.04679708182811737
3.2184860706329346 3.8193702697753906 1.1530991792678833 81.0 14 -0.04679477587342262
3.127394914627075 3.7112724781036377 -0.08471398055553436 70.0 7 -0.04679247364401817
3.2186484336853027 3.818206787109375 1.3380944728851318 122.0 15 -0.046790167689323425
3.151294231414795 3.727735996246338 0.0852026492357254 74.0 8 -0.04676713049411774
3.170682907104492 3.7480170726776123 0.25728359818458557 69.0 9 -0.04676252231001854
2.492098808288574 2.9448304176330566 -0.7498794198036194 1.0 2 -0.04676021635532379
3.1732704639434814 3.748417615890503 0.429677814245224 66.0 10 -0.04675791412591934
3.0670413970947266 3.6229348182678223 -0.751824140548706 100.0 3 -0.046755608171224594
3.190521717071533 3.767465829849243 0.6061781644821167 88.0 11 -0.046753305941820145
3.1295881271362305 3.694206476211548 -0.5944787263870239 82.0 4 -0.0467509999871254
3.197927713394165 3.773536205291748 0.783423900604248 73.0 12 -0.04674869775772095
2.5419960021972656 2.9984822273254395 -0.34391653537750244 79.0 5 -0.0467463918030262
3.2081551551818848 3.784268856048584 0.9643487334251404 72.0 13 -0.04674408957362175
3.1481313705444336 3.7121524810791016 -0.25508546829223633 35.0 6 -0.046741783618927
3.2210490703582764 3.7967872619628906 1.1494998931884766 81.0 14 -0.04673948138952255
3.1377439498901367 3.6972835063934326 -0.08464417606592178 71.0 7 -0.046737175434827805
3.2169530391693115 3.7892768383026123 1.3318829536437988 122.0 15 -0.046734873205423355
3.151324987411499 3.701486110687256 0.08485360443592072 71.0 8 -0.04671183228492737
3.175976276397705 3.7278037071228027 0.2566555440425873 69.0 9 -0.04670722410082817
3.067155122756958 3.6000750064849854 -0.9193177819252014 1.0 2 -0.04670492187142372
3.1779282093048096 3.728776693344116 0.4286319315433502 66.0 10 -0.04670261591672897
3.070697069168091 3.6016852855682373 -0.7496340274810791 57.0 3 -0.046700313687324524
3.1881959438323975 3.73818039894104 0.6032533049583435 84.0 11 -0.046698007732629776
3.134734630584717 3.6741974353790283 -0.5930162668228149 68.0 4 -0.04669570550322533
3.2033851146698 3.7533352375030518 0.7815467119216919 92.0 12 -0.04669339954853058
2.5558063983917236 2.994581699371338 -0.34443947672843933 81.0 5 -0.04669109731912613
3.2085986137390137 3.758115291595459 0.960532546043396 72.0 13 -0.04668879136443138
3.140316963195801 3.67684006690979 -0.2534107267856598 31.0 6 -0.04668648913502693
3.2292184829711914 3.779594659805298 1.147700309753418 81.0 14 -0.046684183180332184
3.150629758834839 3.6863086223602295 -0.08464417606592178 77.0 7 -0.046681880950927734
3.2276487350463867 3.7750885486602783 1.3308476209640503 123.0 15 -0.046679578721523285
3.1590192317962646 3.684391498565674 0.08471398055553436 69.0 8 -0.0466565378010273
3.173363447189331 3.6985042095184326 0.2553994953632355 66.0 9 -0.0466519296169281
3.0707552433013916 3.578916072845459 -0.9166464805603027 45.0 2 -0.04664962366223335
3.1857333183288574 3.7116141319274902 0.4279347062110901 65.0 10 -0.0466473214328289
3.1831185817718506 3.7059459686279297 0.5998409986495972 84.0 11 -0.046642713248729706
3.134603261947632 3.648177146911621 -0.5905789136886597 46.0 4 -0.04664040729403496
3.2100303173065186 3.7346396446228027 0.779982328414917 86.0 12 -0.04663810506463051
2.5623486042022705 2.9811084270477295 -0.34391653537750244 79.0 5 -0.04663579910993576
3.2101783752441406 3.7334938049316406 0.9570980072021484 70.0 13 -0.04663349688053131
3.1401078701019287 3.650714874267578 -0.25236400961875916 28.0 6 -0.04663119465112686
3.2245991230010986 3.7476181983947754 1.141401767730713 81.0 14 -0.046628888696432114
3.1595656871795654 3.670740842819214 -0.08453945815563202 82.0 7 -0.046626586467027664
3.2294609546661377 3.750623941421509 1.3261888027191162 122.0 15 -0.046624280512332916
3.1614067554473877 3.6612329483032227 0.08443474769592285 68.0 8 -0.04660123959183693
3.169943332672119 3.6698243618011475 0.25414344668388367 63.0 9 -0.04659663140773773
3.0716755390167236 3.5548062324523926 -0.9132118821144104 59.0 2 -0.04659432917833328
3.1882474422454834 3.6884117126464844 0.42654019594192505 65.0 10 -0.046592023223638535
2.559563398361206 2.960057020187378 -0.6197934150695801 1.0 3 -0.046589720994234085
3.193436861038208 3.69180965423584 0.5993534922599792 82.0 11 -0.046587418764829636
3.127835988998413 3.6146957874298096 -0.586922824382782 77.0 4 -0.04658511281013489
3.2043004035949707 3.7030622959136963 0.7756021618843079 86.0 12 -0.04658281058073044
2.5675227642059326 2.9661214351654053 -0.3432193100452423 79.0 5 -0.04658050462603569
3.2180497646331787 3.716329574584961 0.9555715322494507 70.0 13 -0.04657820239663124
3.1489102840423584 3.635201930999756 -0.2520500123500824 27.0 6 -0.04657589644193649
3.22489857673645 3.7216126918792725 1.1369026899337769 81.0 14 -0.04657359421253204
3.1586246490478516 3.6451311111450195 -0.08419041335582733 79.0 7 -0.046571288257837296
3.2355551719665527 3.7325944900512695 1.3236006498336792 122.0 15 -0.046568986028432846
3.1682817935943604 3.644692897796631 0.0842951238155365 66.0 8 -0.04654594510793686
3.1774895191192627 3.6527092456817627 0.25372472405433655 63.0 9 -0.04654133692383766
3.0634443759918213 3.520366907119751 -0.9071059823036194 46.0 2 -0.04653903469443321
3.1880204677581787 3.6622328758239746 0.42479705810546875 65.0 10 -0.046536728739738464
2.5875227451324463 2.972412347793579 -0.6241735816001892 1.0 3 -0.046534426510334015
3.1978392601013184 3.6722183227539062 0.5978910326957703 86.0 11 -0.04653212055563927
3.13067889213562 3.593824863433838 -0.5852166414260864 74.0 4 -0.04652981832623482
3.202932596206665 3.6754720211029053 0.7721606492996216 88.0 12 -0.04652751237154007
2.57393217086792 2.9526355266571045 -0.3426963686943054 86.0 5 -0.04652521014213562
3.2226147651672363 3.696758985519409 0.953281819820404 68.0 13 -0.04652290418744087
3.1478216648101807 3.6096861362457275 -0.2510032653808594 22.0 6 -0.04652060195803642
3.2282557487487793 3.700618028640747 1.1337534189224243 78.0 14 -0.046518296003341675
3.1608097553253174 3.622030258178711 -0.08391116559505463 82.0 7 -0.046515993773937225
3.234590530395508 3.705267906188965 1.3179066181182861 120.0 15 -0.04651368781924248
3.1678125858306885 3.6185662746429443 0.08394607901573181 69.0 8 -0.04649065062403679
3.1843225955963135 3.636141538619995 0.2533060610294342 61.0 9 -0.04648604243993759
2.459305763244629 2.807264566421509 -0.7254558801651001 18.0 2 -0.046483736485242844
3.1870152950286865 3.63665771484375 0.42305395007133484 65.0 10 -0.046481434255838394
2.5431909561157227 2.900974750518799 -0.6110330820083618 1.0 3 -0.046479128301143646
3.2054038047790527 3.655062675476074 0.5969160795211792 86.0 11 -0.0464768260717392
3.137965440750122 3.5769081115722656 -0.5842416882514954 72.0 4 -0.04647452011704445
3.2124948501586914 3.661862850189209 0.7715348601341248 92.0 12 -0.04647221788764
2.585024356842041 2.9455807209014893 -0.34287068247795105 64.0 5 -0.04646991193294525
3.226433515548706 3.675158977508545 0.9506104588508606 71.0 13 -0.0464676097035408
3.160400152206421 3.5986783504486084 -0.2510032653808594 22.0 6 -0.046465303748846054
3.232149362564087 3.6790788173675537 1.1306040287017822 75.0 14 -0.046463001519441605
3.166205883026123 3.6040167808532715 -0.08373665064573288 77.0 7 -0.04646069556474686
3.225179433822632 3.669853448867798 1.309106707572937 117.0 15 -0.04645839333534241
3.166574001312256 3.593038320541382 0.08359703421592712 72.0 8 -0.04643535241484642
3.1917123794555664 3.619011640548706 0.2528873682022095 61.0 9 -0.04643074423074722
2.48987078666687 2.822218418121338 -0.7315617203712463 60.0 2 -0.04642844200134277
3.1917805671691895 3.616547107696533 0.42200806736946106 66.0 10 -0.046426136046648026
2.4978976249694824 2.8303213119506836 -0.5978925824165344 55.0 3 -0.046423833817243576
3.201741933822632 3.626554489135742 0.593991219997406 86.0 11 -0.04642152786254883
2.5124897956848145 2.844852924346924 -0.4660283923149109 17.0 4 -0.04641922563314438
3.220026969909668 3.6447043418884277 0.7702834010124207 88.0 12 -0.04641691967844963
2.605846881866455 2.948482036590576 -0.3442651927471161 61.0 5 -0.04641461744904518
3.220402240753174 3.643843412399292 0.9452678561210632 72.0 13 -0.04641231149435043
3.1498279571533203 3.562739849090576 -0.24922384321689606 12.0 6 -0.046410009264945984
3.2352941036224365 3.658123016357422 1.1274547576904297 72.0 14 -0.046407703310251236
3.1681673526763916 3.580960512161255 -0.08345740288496017 70.0 7 -0.046405401080846786
3.2328476905822754 3.65278697013855 1.3070361614227295 115.0 15 -0.04640309512615204
3.1717569828033447 3.572435140609741 0.0833875983953476 74.0 8 -0.04639347642660141
3.187709331512451 3.5878796577453613 0.2515266239643097 57.0 9 -0.04638886824250221
2.498403787612915 2.812041759490967 -0.7311801314353943 76.0 2 -0.046386562287807465
3.201739549636841 3.6024043560028076 0.4216594696044922 65.0 10 -0.046384260058403015
2.496441125869751 2.807860851287842 -0.5950767993927002 66.0 3 -0.04638195410370827
3.2018191814422607 3.5999629497528076 0.591553807258606 88.0 11 -0.04637965187430382
2.4925520420074463 2.801514148712158 -0.4604223966598511 48.0 4 -0.04637734591960907
3.2202301025390625 3.6181228160858154 0.7671546936035156 92.0 12 -0.04637504369020462
2.518099308013916 2.8292365074157715 -0.3313661515712738 60.0 5 -0.04637273773550987
3.2259023189544678 3.6232187747955322 0.9429781436920166 75.0 13 -0.04637043550610542
2.5106327533721924 2.8188629150390625 -0.197829931974411 17.0 6 -0.046368129551410675
3.235715627670288 3.6316909790039062 1.1229556798934937 71.0 14 -0.046365827322006226
3.1746175289154053 3.561861038208008 -0.08328288793563843 52.0 7 -0.04636352136731148
3.2385013103485107 3.632261037826538 1.303930401802063 115.0 15 -0.04636121913790703
3.1762099266052246 3.552398204803467 0.08317817002534866 74.0 8 -0.04633817821741104
3.1868972778320312 3.561845302581787 0.25047990679740906 59.0 9 -0.046333570033311844
2.505587100982666 2.8003766536712646 -0.7304168343544006 55.0 2 -0.046331267803907394
3.2036633491516113 3.5793299674987793 0.42026495933532715 61.0 10 -0.046328961849212646
2.515451669692993 2.8094305992126465 -0.5972668528556824 70.0 3 -0.0463266596198082
3.2064201831817627 3.5798914432525635 0.5900914072990417 86.0 11 -0.04632435366511345
2.497016668319702 2.7868833541870117 -0.4594474732875824 63.0 4 -0.046322051435709
3.2183382511138916 3.5906784534454346 0.7637131810188293 96.0 12 -0.04631974548101425
2.5106732845306396 2.8011412620544434 -0.3291000723838806 53.0 5 -0.0463174432516098
3.2306671142578125 3.6031649112701416 0.94068843126297 74.0 13 -0.046315137296915054
2.520456552505493 2.81008243560791 -0.197829931974411 60.0 6 -0.046312835067510605
3.236660957336426 3.6073193550109863 1.1189066171646118 70.0 14 -0.04631052911281586
2.5218429565429688 2.8096518516540527 -0.0659002885222435 57.0 7 -0.04630822688341141
3.243415594100952 3.6123099327087402 1.300824522972107 115.0 15 -0.04630592092871666
3.183239459991455 3.535344362258911 0.08303855359554291 76.0 8 -0.04628288373351097
3.1899502277374268 3.5403151512145996 0.24974721670150757 63.0 9 -0.046278275549411774
2.5245444774627686 2.8018250465393066 -0.7330881953239441 58.0 2 -0.046275969594717026
3.1934621334075928 3.5429656505584717 0.4173016846179962 61.0 10 -0.046273667365312576
2.530533790588379 2.806501865386963 -0.5985183119773865 56.0 3 -0.04627136141061783
3.213576555252075 3.5627834796905518 0.5891164541244507 88.0 11 -0.04626905918121338
2.5280075073242188 2.8017303943634033 -0.46334728598594666 60.0 4 -0.04626675322651863
3.2123231887817383 3.558892250061035 0.7593329548835754 94.0 12 -0.04626445099711418
2.515096426010132 2.7864434719085693 -0.3284028172492981 53.0 5 -0.046262145042419434
3.237959623336792 3.5860393047332764 0.9391619563102722 75.0 13 -0.046259842813014984
2.5342671871185303 2.805712938308716 -0.19814395904541016 93.0 6 -0.046257536858320236
3.2453150749206543 3.591660737991333 1.1175569295883179 72.0 14 -0.04625523462891579
2.5222465991973877 2.7904491424560547 -0.06565595418214798 64.0 7 -0.04625293239951134
3.2404584884643555 3.583770751953125 1.2946128845214844 117.0 15 -0.04625062644481659
3.1767525672912598 3.5034737586975098 0.08254987746477127 72.0 8 -0.0462275855243206
3.1996052265167236 3.5261991024017334 0.249537855386734 66.0 9 -0.046222977340221405
2.5435447692871094 2.8031723499298096 -0.7357594966888428 55.0 2 -0.046220675110816956
3.1991117000579834 3.5244228839874268 0.41643014550209045 58.0 10 -0.04621836915612221
2.5535948276519775 2.8122751712799072 -0.6016470193862915 61.0 3 -0.04621606692671776
3.216651201248169 3.541257619857788 0.5874102711677551 88.0 11 -0.04621376097202301
2.559129476547241 2.816397190093994 -0.4672470986843109 56.0 4 -0.04621145874261856
3.2220683097839355 3.5447347164154053 0.7587072849273682 88.0 12 -0.04620915651321411
2.5435688495635986 2.798288583755493 -0.3308432102203369 41.0 5 -0.04620685055851936
3.237250566482544 3.5601887702941895 0.9353457689285278 74.0 13 -0.046204548329114914
3.2512736320495605 3.5731041431427 1.115307331085205 74.0 14 -0.04619994014501572
2.545433282852173 2.796415090560913 -0.06600499898195267 64.0 7 -0.04619763419032097
3.2386419773101807 3.5567238330841064 1.2889188528060913 120.0 15 -0.04619533196091652
3.1808736324310303 3.4835028648376465 0.08234045654535294 72.0 8 -0.04617229104042053
3.203199863433838 3.506720781326294 0.2489098161458969 63.0 9 -0.046167682856321335
2.5678811073303223 2.8102195262908936 -0.739957332611084 58.0 2 -0.04616537690162659
3.20198655128479 3.502939462661743 0.41520997881889343 61.0 10 -0.04616307467222214
2.5673956871032715 2.8077173233032227 -0.6025856137275696 57.0 3 -0.04616077244281769
3.2102346420288086 3.5095021724700928 0.5839979648590088 90.0 11 -0.04615846648812294
2.566265344619751 2.8045175075531006 -0.4667596220970154 53.0 4 -0.04615616425871849
3.23380446434021 3.5340311527252197 0.7587072849273682 96.0 12 -0.04615385830402374
2.56408429145813 2.801149368286133 -0.33223769068717957 38.0 5 -0.04615155607461929
3.231095552444458 3.5285966396331787 0.9300030469894409 72.0 13 -0.046149250119924545
2.5753767490386963 2.8115174770355225 -0.1998187005519867 5.0 6 -0.046146947890520096
3.2558279037475586 3.553112030029297 1.1126079559326172 74.0 14 -0.04614464193582535
2.564150333404541 2.798278331756592 -0.06624933332204819 59.0 7 -0.0461423397064209
3.242584228515625 3.5374226570129395 1.2858130931854248 120.0 15 -0.04614003375172615
3.1788759231567383 3.4582128524780273 0.08199141174554825 72.0 8 -0.046116992831230164
3.201897144317627 3.480820894241333 0.24786309897899628 66.0 9 -0.046112388372421265
2.5909695625305176 2.8156850337982178 -0.7437735199928284 53.0 2 -0.04611008241772652
3.211496591567993 3.4888081550598145 0.4148613214492798 61.0 10 -0.04610778018832207
2.5927460193634033 2.8166286945343018 -0.6063400506973267 57.0 3 -0.04610547423362732
3.208409309387207 3.484233856201172 0.5815605521202087 94.0 11 -0.04610317200422287
2.5863115787506104 2.8076717853546143 -0.4687095284461975 50.0 4 -0.04610086604952812
3.235413074493408 3.511099100112915 0.7562042474746704 88.0 12 -0.04609856382012367
2.5914011001586914 2.8112266063690186 -0.33450374007225037 42.0 5 -0.046096257865428925
3.237457275390625 3.512087345123291 0.9284766316413879 74.0 13 -0.046093955636024475
2.5887486934661865 2.807366132736206 -0.20013271272182465 5.0 6 -0.04609164968132973
3.250415086746216 3.5236756801605225 1.1067591905593872 78.0 14 -0.04608934745192528
2.5928874015808105 2.8098857402801514 -0.06673800200223923 57.0 7 -0.04608704149723053
3.248361587524414 3.518983840942383 1.2832248210906982 123.0 15 -0.04608473926782608
3.1882100105285645 3.4441609382629395 0.08192159980535507 72.0 8 -0.04606169834733009
3.197741746902466 3.4520397186279297 0.24660706520080566 69.0 9 -0.046057090163230896
2.6069629192352295 2.814279556274414 -0.7456815838813782 55.0 2 -0.04605478793382645
3.216277837753296 3.4708313941955566 0.41398975253105164 66.0 10 -0.0460524819791317
2.613304615020752 2.8191514015197754 -0.6088430285453796 60.0 3 -0.04605017974972725
3.217851400375366 3.470102310180664 0.5810730457305908 90.0 11 -0.0460478737950325
2.6028473377227783 2.8059027194976807 -0.46992823481559753 55.0 4 -0.04604557156562805
3.2301807403564453 3.4809606075286865 0.7521370053291321 88.0 12 -0.046043265610933304
2.621530055999756 2.8240678310394287 -0.3371184170246124 44.0 5 -0.046040963381528854
3.244353771209717 3.4950103759765625 0.9269501566886902 72.0 13 -0.046038657426834106
2.6216373443603516 2.8231921195983887 -0.20191214978694916 5.0 6 -0.04603635519742966
3.2494313716888428 3.4980309009552 1.1022602319717407 78.0 14 -0.04603404924273491
2.59859561920166 2.7964236736297607 -0.06663328409194946 52.0 7 -0.04603174701333046
3.252734422683716 3.4991328716278076 1.2801190614700317 123.0 15 -0.04602944105863571
3.1947598457336426 3.427159070968628 0.08178197592496872 72.0 8 -0.04600640386343002
3.2043216228485107 3.4350152015686035 0.24618835747241974 69.0 9 -0.046001795679330826
2.6252975463867188 2.813317060470581 -0.7479712963104248 55.0 2 -0.04599948972463608
3.215380907058716 3.444456100463867 0.4122466444969177 66.0 10 -0.04599718749523163
2.6317083835601807 2.8182172775268555 -0.6107202172279358 55.0 3 -0.04599488154053688
3.2218148708343506 3.4501445293426514 0.5796106457710266 92.0 11 -0.04599257931113243
2.626176357269287 2.8113067150115967 -0.4723656177520752 57.0 4 -0.04599027335643768
3.228825807571411 3.455230236053467 0.749008297920227 88.0 12 -0.045987971127033234
2.6313726902008057 2.81489896774292 -0.3371184170246124 44.0 5 -0.045985665172338486
3.2490973472595215 3.4744911193847656 0.9246604442596436 71.0 13 -0.045983362942934036
2.6428816318511963 2.8252334594726562 -0.20274950563907623 8.0 6 -0.04598105698823929
3.252910614013672 3.4761364459991455 1.0991109609603882 75.0 14 -0.04597875475883484
2.617906332015991 2.797556161880493 -0.06687762588262558 37.0 7 -0.04597645252943039
3.254366159439087 3.476475477218628 1.2759779691696167 123.0 15 -0.04597414657473564
3.193610191345215 3.400850534439087 0.08143293112516403 69.0 8 -0.045951105654239655
3.2108235359191895 3.417985200881958 0.245769664645195 66.0 9 -0.04594649747014046
2.6472012996673584 2.8170125484466553 -0.7514058947563171 53.0 2 -0.04594419524073601
3.2164669036865234 3.4215989112854004 0.4108521640300751 66.0 10 -0.04594188928604126
2.6523566246032715 2.8205254077911377 -0.613223135471344 57.0 3 -0.04593958705663681
3.22627854347229 3.4296369552612305 0.5781482458114624 88.0 11 -0.04593728110194206
2.655507802963257 2.82190203666687 -0.4757779836654663 59.0 4 -0.04593497887253761
3.2354512214660645 3.438184976577759 0.747756838798523 82.0 12 -0.045932672917842865
2.652107000350952 2.817302942276001 -0.3385128974914551 44.0 5 -0.045930370688438416
3.249091148376465 3.450265645980835 0.9212258458137512 70.0 13 -0.045928068459033966
2.6677916049957275 2.8319833278656006 -0.20390090346336365 8.0 6 -0.04592576250433922
3.2543323040008545 3.4534153938293457 1.095511794090271 74.0 14 -0.04592346027493477
2.6495978832244873 2.8116865158081055 -0.0674360990524292 35.0 7 -0.04592115432024002
3.254554510116577 3.452444076538086 1.2713191509246826 122.0 15 -0.04591885209083557
3.1938798427581787 3.3786163330078125 0.08115369081497192 71.0 8 -0.045895811170339584
2.731468915939331 2.888446569442749 -0.9178004264831543 1.0 1 -0.045893505215644836
3.2172458171844482 3.4009523391723633 0.24535098671913147 69.0 9 -0.04589120298624039
2.681307315826416 2.833423376083374 -0.7582749724388123 93.0 2 -0.04588889703154564
3.2201738357543945 3.4016683101654053 0.4098062813282013 67.0 10 -0.04588659480214119
2.669844150543213 2.8203208446502686 -0.6151003837585449 57.0 3 -0.04588428884744644
3.2239859104156494 3.4045047760009766 0.5757108330726624 86.0 11 -0.04588198661804199
2.6812326908111572 2.8303747177124023 -0.4787028133869171 59.0 4 -0.04587968438863754
3.240640640258789 3.4197006225585938 0.7461925148963928 84.0 12 -0.045877378433942795
2.6687793731689453 2.8152573108673096 -0.3393844664096832 42.0 5 -0.045875076204538345
3.247009038925171 3.4252233505249023 0.9174096584320068 68.0 13 -0.0458727702498436
2.6867876052856445 2.833266019821167 -0.20463360846042633 8.0 6 -0.04587046802043915
3.2604026794433594 3.436948776245117 1.0937122106552124 75.0 14 -0.0458681620657444
2.6635265350341797 2.8067712783813477 -0.06754080951213837 28.0 7 -0.04586585983633995
3.259934902191162 3.4340574741363525 1.2687311172485352 123.0 15 -0.0458635538816452
3.194624423980713 3.3558595180511475 0.08087445050477982 68.0 8 -0.045840512961149216
3.209810972213745 3.3694567680358887 0.2438855916261673 73.0 9 -0.04583590477705002
2.7082929611206055 2.8429949283599854 -0.7632359862327576 112.0 2 -0.04583360254764557
3.223188877105713 3.382317543029785 0.4087603986263275 66.0 10 -0.04583130031824112
2.69466495513916 2.8267126083374023 -0.618541955947876 108.0 3 -0.04582899436354637
3.2248895168304443 3.3817379474639893 0.5737609267234802 82.0 11 -0.04582669213414192
2.7020585536956787 2.8324882984161377 -0.48065274953842163 71.0 4 -0.045824386179447174
3.2471017837524414 3.402651786804199 0.744940996170044 84.0 12 -0.045822083950042725
2.697356939315796 2.8265717029571533 -0.34182482957839966 42.0 5 -0.04581977799534798
3.2508111000061035 3.405348300933838 0.9151199460029602 68.0 13 -0.04581747576594353
2.7145938873291016 2.842647075653076 -0.20599433779716492 8.0 6 -0.04581516981124878
3.2589197158813477 3.411454677581787 1.0892130136489868 74.0 14 -0.04581286758184433
2.8860666751861572 3.020097255706787 -0.07291615009307861 96.0 7 -0.04581056162714958
3.265228748321533 3.4156742095947266 1.2661428451538086 122.0 15 -0.04580825939774513
3.2035505771636963 3.3418009281158447 0.08080463856458664 71.0 8 -0.045785218477249146
3.2104926109313965 3.346700429916382 0.24304819107055664 73.0 9 -0.04578061029314995
2.700533151626587 2.815105438232422 -0.7582749724388123 66.0 2 -0.0457783080637455
3.2266993522644043 3.362419605255127 0.4077145755290985 66.0 10 -0.04577600210905075
2.7140908241271973 2.8272650241851807 -0.6207320094108582 96.0 3 -0.0457736998796463
3.225675582885742 3.3590052127838135 0.5718110203742981 84.0 11 -0.04577139392495155
2.7146806716918945 2.825901508331299 -0.4811401963233948 100.0 4 -0.045769091695547104
3.2439026832580566 3.3756299018859863 0.7414994835853577 88.0 12 -0.045766785740852356
2.7265336513519287 2.837251901626587 -0.3442651927471161 100.0 5 -0.045764483511447906
3.2585973739624023 3.3897335529327393 0.913975179195404 71.0 13 -0.04576217755675316
2.7355761528015137 2.844670295715332 -0.20683172345161438 15.0 6 -0.04575987532734871
3.25459361076355 3.3832077980041504 1.083814263343811 70.0 14 -0.04575756937265396
3.1336989402770996 3.256394624710083 -0.07888487726449966 60.0 7 -0.04575526714324951
3.271773338317871 3.3986876010894775 1.264072299003601 121.0 15 -0.045752961188554764
3.20686411857605 3.321965217590332 0.08059521019458771 72.0 8 -0.045729923993349075
3.2160227298736572 3.330289363861084 0.2426295131444931 70.0 9 -0.04572531580924988
2.7021567821502686 2.7971911430358887 -0.7559852600097656 66.0 2 -0.04572300985455513
3.2218017578125 3.333944082260132 0.40562281012535095 66.0 10 -0.04572070762515068
2.7253172397613525 2.8191933631896973 -0.621044933795929 65.0 3 -0.04571840167045593
3.2373785972595215 3.3477272987365723 0.5718110203742981 88.0 11 -0.04571609944105148
2.731428623199463 2.823542356491089 -0.4823589026927948 77.0 4 -0.045713793486356735
3.2468392848968506 3.3563344478607178 0.7396222352981567 88.0 12 -0.045711491256952286
2.730879783630371 2.8219892978668213 -0.34356793761253357 74.0 5 -0.04570918530225754
3.264948844909668 3.372694969177246 0.9124486446380615 72.0 13 -0.04570688307285309
2.7538249492645264 2.8437132835388184 -0.20745974779129028 9.0 6 -0.04570457711815834
3.2623167037963867 3.367626428604126 1.082464575767517 72.0 14 -0.04570227488875389
3.0317797660827637 3.1296474933624268 -0.07605759054422379 100.0 7 -0.04569996893405914
3.269582748413086 3.373945474624634 1.2588958740234375 122.0 15 -0.045697666704654694
3.199744462966919 3.2926700115203857 0.08014144748449326 72.0 8 -0.04567462578415871
3.222057580947876 3.3133163452148438 0.24221083521842957 70.0 9 -0.04567001760005951
2.7077982425689697 2.7835195064544678 -0.7548404335975647 55.0 2 -0.04566771537065506
3.225083589553833 3.3141093254089355 0.40457695722579956 63.0 10 -0.04566540941596031
2.72225284576416 2.797398567199707 -0.61822909116745 61.0 3 -0.04566310718655586
3.242924213409424 3.331282615661621 0.5708360075950623 82.0 11 -0.045660801231861115
2.735236644744873 2.808781147003174 -0.48138394951820374 70.0 4 -0.045658499002456665
3.2530224323272705 3.339319944381714 0.7383707761764526 92.0 12 -0.04565619304776192
2.736541271209717 2.808159351348877 -0.3430449962615967 70.0 5 -0.04565389081835747
3.256930112838745 3.3421671390533447 0.9071059823036194 75.0 13 -0.04565158486366272
2.756268262863159 2.8274154663085938 -0.20693638920783997 45.0 6 -0.04564928263425827
3.26938533782959 3.352602958679199 1.0811148881912231 74.0 14 -0.04564698040485382
3.158583402633667 3.237853527069092 -0.07895468920469284 50.0 7 -0.04564467445015907
3.2691946029663086 3.3500707149505615 1.254237174987793 123.0 15 -0.04564237222075462
3.20003080368042 3.2700464725494385 0.07986221462488174 66.0 8 -0.045619331300258636
3.223822593688965 3.2920591831207275 0.24147813022136688 68.0 9 -0.04561472311615944
2.710146427154541 2.767510414123535 -0.7529323101043701 52.0 2 -0.04561241716146469
3.230478286743164 3.2977044582366943 0.40387970209121704 62.0 10 -0.04561011493206024
2.7181732654571533 2.7737722396850586 -0.6151003837585449 55.0 3 -0.045607808977365494
3.2406373023986816 3.3057658672332764 0.568398654460907 82.0 11 -0.045605506747961044
2.7422451972961426 2.7963807582855225 -0.4808964729309082 60.0 4 -0.045603200793266296
3.2591235637664795 3.322305917739868 0.7371193170547485 92.0 12 -0.04560089856386185
2.741652488708496 2.7948029041290283 -0.3425220847129822 64.0 5 -0.0455985963344574
3.2575771808624268 3.3195672035217285 0.9040530920028687 75.0 13 -0.04559629037976265
2.7507312297821045 2.802098274230957 -0.20578500628471375 56.0 6 -0.0455939881503582
3.27150821685791 3.331439971923828 1.077965497970581 72.0 14 -0.04559168219566345
2.7620725631713867 2.811687469482422 -0.06879738718271255 55.0 7 -0.045589379966259
3.2781612873077393 3.3358819484710693 1.2532018423080444 123.0 15 -0.045587074011564255
2.7510461807250977 2.791677951812744 0.06841342896223068 39.0 8 -0.04556403309106827
2.7725090980529785 2.8114919662475586 0.20693638920783997 30.0 9 -0.04555942490696907
2.714277505874634 2.75244140625 -0.7514058947563171 53.0 2 -0.04555712267756462
3.241969108581543 3.2864084243774414 0.40387970209121704 57.0 10 -0.04555482044816017
2.723676919937134 2.7600483894348145 -0.6141617894172668 56.0 3 -0.045552514493465424
3.2382123470306396 3.280305862426758 0.5659612417221069 82.0 11 -0.045550212264060974
2.73246169090271 2.7670178413391113 -0.4774841368198395 59.0 4 -0.045547906309366226
3.2637600898742676 3.3038816452026367 0.7355549335479736 96.0 12 -0.04554560407996178
2.751392126083374 2.785215139389038 -0.3425220847129822 60.0 5 -0.04554329812526703
3.255345582962036 3.29421067237854 0.9002369046211243 74.0 13 -0.04554099589586258
2.752070426940918 2.7839574813842773 -0.20515696704387665 61.0 6 -0.04553868994116783
3.272156000137329 3.3089137077331543 1.0743662118911743 71.0 14 -0.04553638771176338
2.7676520347595215 2.7977633476257324 -0.06869266927242279 57.0 7 -0.045534081757068634
3.2843494415283203 3.3189265727996826 1.251131296157837 122.0 15 -0.045531779527664185
2.759366273880005 2.7806379795074463 0.06837853044271469 45.0 8 -0.0455087386071682
2.773859977722168 2.793295383453369 0.20630836486816406 50.0 9 -0.045504130423069
2.7100329399108887 2.7290210723876953 -0.7475897073745728 58.0 2 -0.04550182819366455
2.7914555072784424 2.810030221939087 0.3465312123298645 45.0 10 -0.0454995222389698
2.7332956790924072 2.750523328781128 -0.6141617894172668 56.0 3 -0.04549722000956535
2.7794084548950195 2.7959532737731934 0.48406505584716797 12.0 11 -0.045494914054870605
2.7309064865112305 2.746201276779175 -0.47553423047065735 57.0 4 -0.045492611825466156
3.2543771266937256 3.2714614868164062 0.7308619618415833 55.0 12 -0.04549030587077141
2.7526674270629883 2.767117977142334 -0.3414762020111084 60.0 5 -0.04548800364136696
3.269592046737671 3.2856125831604004 0.9010000824928284 71.0 13 -0.04548569768667221
2.7533180713653564 2.765840530395508 -0.20452894270420074 61.0 6 -0.04548339545726776
3.2713115215301514 3.285043239593506 1.070317268371582 74.0 14 -0.04548108950257301
2.7604639530181885 2.7710866928100586 -0.06827381253242493 57.0 7 -0.045478787273168564
3.2850067615509033 3.2964940071105957 1.2469902038574219 123.0 15 -0.045476481318473816
2.766228199005127 2.768160820007324 0.06830871850252151 46.0 8 -0.04545344412326813
2.772296190261841 2.7722971439361572 0.2054709792137146 51.0 9 -0.04544883593916893
2.7070488929748535 2.70704984664917 -0.7441551089286804 57.0 2 -0.04544652998447418
2.775883436203003 2.7749154567718506 0.34339362382888794 46.0 10 -0.04544422775506973
2.738687515258789 2.7367770671844482 -0.613223135471344 55.0 3 -0.045441921800374985
2.7863430976867676 2.7834277153015137 0.48357757925987244 40.0 11 -0.045439619570970535
2.7362611293792725 2.7324442863464355 -0.47480300068855286 53.0 4 -0.04543731361627579
2.7932450771331787 2.78837513923645 0.6251122355461121 56.0 12 -0.04543501138687134
2.751028537750244 2.746232271194458 -0.34008169174194336 60.0 5 -0.04543270543217659
2.807159900665283 2.80128812789917 0.7708683609962463 17.0 13 -0.04543040320277214
2.7601284980773926 2.7533910274505615 -0.20431959629058838 63.0 6 -0.04542809724807739
3.2758584022521973 3.2667245864868164 1.0680676698684692 37.0 14 -0.04542579501867294
2.7616238594055176 2.752962827682495 -0.068064384162426 57.0 7 -0.045423489063978195
3.280073642730713 3.2686424255371094 1.2407785654067993 123.0 15 -0.045421186834573746
2.764525890350342 2.7472121715545654 0.0680294781923294 45.0 8 -0.04539814591407776
2.78053879737854 2.7611966133117676 0.205366313457489 52.0 9 -0.04539353772997856
2.7192676067352295 2.7003514766693115 -0.7449184060096741 55.0 2 -0.04539123550057411
2.7798960208892822 2.759594678878784 0.3426963686943054 49.0 10 -0.045388929545879364
2.7370076179504395 2.716068744659424 -0.6107202172279358 57.0 3 -0.045386627316474915
2.7932229042053223 2.7708890438079834 0.4830901324748993 54.0 11 -0.04538432136178017
2.738734483718872 2.715888023376465 -0.47358429431915283 50.0 4 -0.04538201913237572
2.8001558780670166 2.7758257389068604 0.6244864463806152 56.0 12 -0.04537971317768097
2.7521088123321533 2.728195905685425 -0.33903583884239197 60.0 5 -0.04537741094827652
2.814131736755371 2.7887089252471924 0.7701051831245422 56.0 13 -0.04537510499358177
2.7683019638061523 2.742335557937622 -0.2042149156332016 66.0 6 -0.04537280276417732
2.8247575759887695 2.7972826957702637 0.9178004264831543 51.0 14 -0.045370496809482574
2.7669525146484375 2.739086151123047 -0.06795967370271683 55.0 7 -0.045368194580078125
2.805363893508911 2.7761390209198 1.0575345754623413 49.0 15 -0.045365892350673676
2.7627124786376953 2.7263078689575195 0.0677502453327179 47.0 8 -0.04534285143017769
2.784472703933716 2.745863199234009 0.20494762063026428 52.0 9 -0.04533824324607849
2.7216882705688477 2.6839494705200195 -0.7430102825164795 58.0 2 -0.04533593729138374
2.7895123958587646 2.749873399734497 0.3426963686943054 50.0 10 -0.045333635061979294
2.7380292415618896 2.6981794834136963 -0.6088430285453796 57.0 3 -0.045331329107284546
2.787322998046875 2.7457971572875977 0.48040899634361267 58.0 11 -0.045329026877880096
2.749613046646118 2.7077038288116455 -0.4738280475139618 55.0 4 -0.04532672092318535
2.8070125579833984 2.763263463973999 0.6238607168197632 56.0 12 -0.0453244186937809
2.7530956268310547 2.7101869583129883 -0.3379899561405182 60.0 5 -0.04532211273908615
2.811255693435669 2.766474723815918 0.7666705846786499 45.0 13 -0.0453198105096817
2.760772466659546 2.7158474922180176 -0.2029588669538498 64.0 6 -0.04531750828027725
2.8303356170654297 2.783306837081909 0.9164506793022156 58.0 14 -0.045315202325582504
2.7693674564361572 2.7224011421203613 -0.06778515130281448 53.0 7 -0.045312900096178055
2.812281608581543 2.763622283935547 1.0564993619918823 63.0 15 -0.04531059414148331
2.7664988040924072 2.7110495567321777 0.06761062145233154 46.0 8 -0.04528755322098732
2.7821483612060547 2.725433826446533 0.204110249876976 52.0 9 -0.04528294503688812
2.7268331050872803 2.670311450958252 -0.7418653964996338 57.0 2 -0.04528064280748367
2.7976701259613037 2.7387263774871826 0.3425220847129822 53.0 10 -0.045278336852788925
2.7417829036712646 2.683079719543457 -0.6075915694236755 57.0 3 -0.045276034623384476
2.7897963523864746 2.729109287261963 0.47919028997421265 55.0 11 -0.045273732393980026
2.7434353828430176 2.6828229427337646 -0.47114691138267517 53.0 4 -0.04527142643928528
2.8105103969573975 2.7484161853790283 0.6226092576980591 57.0 12 -0.04526912420988083
2.759690284729004 2.6977741718292236 -0.33764132857322693 60.0 5 -0.04526681825518608
2.813875675201416 2.749783515930176 0.7647625207901001 46.0 13 -0.04526451602578163
2.7616629600524902 2.6978206634521484 -0.2023308277130127 60.0 6 -0.045262210071086884
2.814938545227051 2.7489020824432373 0.9083523750305176 52.0 14 -0.045259907841682434
2.778380870819092 2.7132019996643066 -0.06778515130281448 57.0 7 -0.045257601886987686
2.815901756286621 2.74888277053833 1.0544289350509644 66.0 15 -0.04525529965758324
2.7640116214752197 2.6907012462615967 0.06733138859272003 46.0 8 -0.04523225873708725
2.7758967876434326 2.7003872394561768 0.2029588669538498 51.0 9 -0.04522765055298805
2.7234697341918945 2.64845871925354 -0.7384308576583862 61.0 2 -0.0452253483235836
2.798642158508301 2.7206108570098877 0.3414762020111084 53.0 10 -0.045223042368888855
2.7421677112579346 2.665710687637329 -0.6057143211364746 60.0 3 -0.045220740139484406
2.7945597171783447 2.715693473815918 0.47845906019210815 58.0 11 -0.04521843418478966
2.735231637954712 2.657111644744873 -0.468222051858902 53.0 4 -0.04521613195538521
2.804499387741089 2.723450183868408 0.619167685508728 60.0 12 -0.04521382600069046
2.766231060028076 2.685349702835083 -0.33729270100593567 60.0 5 -0.04521152377128601
2.817343235015869 2.7349674701690674 0.7632359862327576 51.0 13 -0.04520921781659126
2.770594835281372 2.6886470317840576 -0.2023308277130127 64.0 6 -0.04520691558718681
2.8142471313476562 2.7300543785095215 0.905203104019165 51.0 14 -0.045204609632492065
2.766300678253174 2.682605743408203 -0.06726157665252686 52.0 7 -0.045202307403087616
2.8296408653259277 2.7430710792541504 1.0559817552566528 61.0 15 -0.04520000144839287
2.776262044906616 2.683816909790039 0.06740119308233261 44.0 8 -0.04517696425318718
2.784837007522583 2.6911661624908447 0.2029588669538498 51.0 9 -0.04517235606908798
2.7237648963928223 2.6312294006347656 -0.7361411452293396 58.0 2 -0.045170050114393234
2.7904510498046875 2.6947059631347656 0.3393844664096832 55.0 10 -0.045167747884988785
2.7528762817382812 2.6574947834014893 -0.6060271859169006 61.0 3 -0.04516544193029404
2.796879291534424 2.6990301609039307 0.4772403836250305 58.0 11 -0.04516313970088959
2.744490623474121 2.6475470066070557 -0.468222051858902 53.0 4 -0.04516083374619484
2.7964558601379395 2.697676658630371 0.615413248538971 58.0 12 -0.04515853151679039
2.7579100131988525 2.6595659255981445 -0.3352009952068329 57.0 5 -0.04515622556209564
2.8268723487854004 2.7251172065734863 0.7632359862327576 51.0 13 -0.04515392333269119
2.7670204639434814 2.666485548019409 -0.20138879120349884 63.0 6 -0.045151617377996445
2.820953369140625 2.7175092697143555 0.904303252696991 54.0 14 -0.045149315148591995
2.76798152923584 2.66648006439209 -0.06708704680204391 53.0 7 -0.04514700919389725
2.8220224380493164 2.717592716217041 1.0497701168060303 63.0 15 -0.0451447069644928
2.773608446121216 2.6635141372680664 0.0671219527721405 44.0 8 -0.04512166604399681
2.7855682373046875 2.673130750656128 0.2023308277130127 51.0 9 -0.045117057859897614
2.727266550064087 2.6162681579589844 -0.7346146702766418 58.0 2 -0.045114755630493164
2.791210174560547 2.6766767501831055 0.33833858370780945 52.0 10 -0.045112449675798416
2.7488417625427246 2.636046886444092 -0.6032113432884216 57.0 3 -0.04511014744639397
2.8058149814605713 2.689739942550659 0.4772403836250305 57.0 11 -0.04510784149169922
2.7475216388702393 2.6329379081726074 -0.4672470986843109 53.0 4 -0.04510553926229477
2.808706521987915 2.69063401222229 0.616038978099823 60.0 12 -0.04510323330760002
2.7542264461517334 2.6375198364257812 -0.3336321711540222 56.0 5 -0.04510093107819557
2.8188788890838623 2.699432611465454 0.7586565613746643 49.0 13 -0.045098625123500824
2.770076036453247 2.651771068572998 -0.20097008347511292 63.0 6 -0.045096322894096375
