# .PCD v0.7 - Point Cloud Data file format
VERSION 0.7
FIELDS x y z intensity ring time
SIZE 4 4 4 4 4 4
TYPE F F F F F F
COUNT 1 1 1 1 1 1
WIDTH 547
HEIGHT 1
VIEWPOINT 0 0 0 1 0 0 0
POINTS 547
DATA ascii
-3.1885483264923096 6.375717639923096 1.3856550455093384 97.0 13 -0.02761603705585003
-3.184542417526245 6.373266696929932 1.6448421478271484 100.0 14 -0.02761143073439598
-3.1719963550567627 6.35370397567749 1.9028376340866089 34.0 15 -0.027606822550296783
-1.488290786743164 2.9902737140655518 -0.8949962854385376 5.0 0 -0.027586085721850395
-1.678992748260498 3.376389980316162 -0.8705606460571289 3.0 1 -0.027581477537751198
-3.15057635307312 6.338454246520996 0.37095728516578674 7.0 9 -0.0275791734457016
-1.1010550260543823 2.21514630317688 -0.48083871603012085 82.0 2 -0.027576869353652
-3.1790215969085693 6.398491382598877 0.6250810027122498 76.0 10 -0.0275745652616024
-3.166921377182007 6.379715919494629 0.8745344281196594 73.0 11 -0.027569957077503204
-3.1667563915252686 6.384986877441406 1.1288312673568726 60.0 12 -0.027565350756049156
-3.1645307540893555 6.383289813995361 1.3848917484283447 97.0 13 -0.02756074257194996
-3.1527597904205322 6.36513614654541 1.6398932933807373 100.0 14 -0.02755613438785076
-3.145512580871582 6.356081485748291 1.9002496004104614 39.0 15 -0.027551526203751564
-1.4752787351608276 2.990253448486328 -0.8934433460235596 5.0 0 -0.027530789375305176
-1.6680591106414795 3.3839776515960693 -0.8710105419158936 3.0 1 -0.02752618119120598
-3.1301956176757812 6.352997779846191 0.3711666464805603 10.0 9 -0.02752387709915638
-1.088109016418457 2.2084097862243652 -0.4785490036010742 85.0 2 -0.02752157300710678
-3.1513869762420654 6.3988237380981445 0.624035120010376 81.0 10 -0.02751927077770233
-1.0809653997421265 2.1958439350128174 -0.3876446485519409 1.0 3 -0.027516966685652733
-3.1446309089660645 6.390732765197754 0.8745344281196594 73.0 11 -0.027514662593603134
-3.138350248336792 6.383592128753662 1.1266411542892456 61.0 12 -0.027510054409503937
-3.140496015548706 6.390773773193359 1.384128451347351 92.0 13 -0.02750544622540474
-3.1322412490844727 6.3796000480651855 1.6407930850982666 100.0 14 -0.027500838041305542
-3.1199047565460205 6.360084056854248 1.8981789350509644 42.0 15 -0.027496229857206345
-1.461437702178955 2.988442897796631 -0.8913728594779968 5.0 0 -0.027475493028759956
-1.668214201927185 3.414292097091675 -0.8773091435432434 3.0 1 -0.027470886707305908
-3.1047282218933105 6.354369163513184 0.37064328789711 11.0 9 -0.02746858261525631
-1.0803930759429932 2.2121949195861816 -0.4785490036010742 75.0 2 -0.02746627852320671
-3.1220409870147705 6.395461559295654 0.6226406097412109 78.0 10 -0.027463974431157112
-1.101014494895935 2.256413221359253 -0.3976564407348633 1.0 3 -0.027461670339107513
-3.118821382522583 6.394534587860107 0.8735595345497131 71.0 11 -0.027459366247057915
-1.0795413255691528 2.214366912841797 -0.30247974395751953 1.0 4 -0.027457062155008316
-3.115434169769287 6.390412330627441 1.1260154247283936 61.0 12 -0.027454758062958717
-3.1112895011901855 6.387578010559082 1.3810756206512451 92.0 13 -0.02745014987885952
-3.103132724761963 6.376476287841797 1.6371939182281494 100.0 14 -0.027445541694760323
-1.0885505676269531 2.236809730529785 -0.04342158883810043 1.0 7 -0.027443237602710724
-3.094569683074951 6.3617095947265625 1.8955907821655273 45.0 15 -0.027440933510661125
-1.4568947553634644 3.005695343017578 -0.8949962854385376 5.0 0 -0.027420198544859886
-1.65178382396698 3.409283399581909 -0.8746097683906555 3.0 1 -0.02741559036076069
-3.0842678546905518 6.368764400482178 0.37085261940956116 16.0 9 -0.02741328626871109
-1.069243311882019 2.208883762359619 -0.4770224988460541 71.0 2 -0.02741098217666149
-3.098827838897705 6.404527187347412 0.6224662661552429 85.0 10 -0.027408678084611893
-1.1021289825439453 2.277834177017212 -0.4007851481437683 1.0 3 -0.027406373992562294
-3.0872292518615723 6.383397102355957 0.8706346750259399 75.0 11 -0.027404069900512695
-1.0860153436660767 2.246530532836914 -0.3063795566558838 1.0 4 -0.027401765808463097
-3.0913877487182617 6.39769172668457 1.1253896951675415 61.0 12 -0.027399461716413498
-3.0832607746124268 6.383716583251953 1.37802255153656 92.0 13 -0.0273948535323143
-1.0810680389404297 2.2392876148223877 -0.13031654059886932 1.0 6 -0.027392549440264702
-3.0802745819091797 6.3832221031188965 1.6362940073013306 100.0 14 -0.027390245348215103
-1.0372974872589111 2.1505398750305176 -0.041676346212625504 1.0 7 -0.027387941256165504
-3.0706675052642822 6.368991851806641 1.8945554494857788 45.0 15 -0.027385637164115906
-1.4485938549041748 3.0139920711517334 -0.8960315585136414 5.0 0 -0.027364902198314667
-1.6331254243850708 3.4009745121002197 -0.8710105419158936 3.0 1 -0.02736029401421547
-3.0620193481445312 6.379490852355957 0.37085261940956116 24.0 9 -0.02735798992216587
-1.061913013458252 2.2124173641204834 -0.4770224988460541 75.0 2 -0.027355685830116272
-3.081021308898926 6.421953201293945 0.6231635808944702 88.0 10 -0.027353381738066673
-1.0907551050186157 2.2745425701141357 -0.3995336890220642 2.0 3 -0.027351077646017075
-3.061497211456299 6.386972904205322 0.8696596622467041 71.0 11 -0.027348773553967476
-1.0592972040176392 2.2109224796295166 -0.30101728439331055 1.0 4 -0.027346469461917877
-3.0664784908294678 6.403098106384277 1.1244510412216187 60.0 12 -0.02734416536986828
-2.9782073497772217 6.221566677093506 -0.6034663319587708 1.0 5 -0.02734186127781868
-3.0584170818328857 6.389127731323242 1.376877784729004 87.0 13 -0.02733955718576908
-1.0404876470565796 2.1745851039886475 -0.12633900344371796 1.0 6 -0.027337253093719482
-3.054612636566162 6.386902809143066 1.634494423866272 100.0 14 -0.027334950864315033
-3.077279806137085 6.437183856964111 -0.12454037368297577 1.0 7 -0.027332646772265434
-3.0450868606567383 6.37269926071167 1.8924849033355713 46.0 15 -0.027330342680215836
-1.4375364780426025 3.0192816257476807 -0.8960315585136414 5.0 0 -0.027309605851769447
-1.6212445497512817 3.406654119491577 -0.8710105419158936 3.0 1 -0.02730499766767025
-3.0560317039489746 6.424409866333008 0.37284138798713684 42.0 9 -0.02730269357562065
-1.0512672662734985 2.2109758853912354 -0.47587767243385315 66.0 2 -0.027300389483571053
-3.0523300170898438 6.4224066734313965 0.6221176981925964 91.0 10 -0.027298085391521454
-1.087496280670166 2.2892308235168457 -0.40141090750694275 2.0 3 -0.027295781299471855
-3.0417373180389404 6.403000354766846 0.8703908920288086 73.0 11 -0.027293477207422256
-1.06519615650177 2.243298292160034 -0.3049171268939972 2.0 4 -0.027291173115372658
-3.0364842414855957 6.397703170776367 1.1216353178024292 61.0 12 -0.02728886902332306
-1.0794275999069214 2.2753188610076904 -0.22032971680164337 1.0 5 -0.02728656679391861
-3.0332953929901123 6.39674711227417 1.3761146068572998 87.0 13 -0.02728426270186901
-1.0479075908660889 2.2108705043792725 -0.12822310626506805 1.0 6 -0.027281958609819412
-3.0253407955169678 6.38572883605957 1.6313451528549194 100.0 14 -0.027279654517769814
-2.9948580265045166 6.32138729095459 -0.12209703773260117 1.0 7 -0.027277350425720215
-3.0211679935455322 6.379798412322998 1.8914496898651123 47.0 15 -0.027275046333670616
-1.424515962600708 3.0190391540527344 -0.8944786190986633 6.0 0 -0.027254309505224228
-1.005696177482605 2.132380485534668 0.041152775287628174 1.0 8 -0.02725200541317463
-1.621211290359497 3.439014196395874 -0.8777590990066528 3.0 1 -0.02724970132112503
-3.029911756515503 6.43014669418335 0.3725273907184601 46.0 9 -0.027247397229075432
-1.040196180343628 2.2075278759002686 -0.474351167678833 50.0 2 -0.027245093137025833
-3.021404981613159 6.41499662399292 0.6203745603561401 93.0 10 -0.027242789044976234
-1.0803406238555908 2.294800043106079 -0.4017237424850464 2.0 3 -0.027240486815571785
-3.015714645385742 6.408717155456543 0.8696596622467041 71.0 11 -0.027238182723522186
-1.0569673776626587 2.2471871376037598 -0.3049171268939972 1.0 4 -0.027235878631472588
-3.0079739093780518 6.398062705993652 1.1197580099105835 61.0 12 -0.02723357453942299
-1.0714792013168335 2.2790727615356445 -0.22032971680164337 1.0 5 -0.02723127044737339
-3.011784315109253 6.4090728759765625 1.3764961957931519 90.0 13 -0.02722896635532379
-1.0350896120071411 2.2036683559417725 -0.12759508192539215 1.0 6 -0.027226662263274193
-2.9988925457000732 6.387429714202881 1.6290956735610962 100.0 14 -0.027224358171224594
-2.932588815689087 6.249050140380859 -0.12049141526222229 1.0 7 -0.027222054079174995
-2.9895620346069336 6.37333869934082 1.8862733840942383 46.0 15 -0.027219749987125397
-1.4131512641906738 3.0222432613372803 -0.8939610123634338 5.0 0 -0.02719901315867901
-0.9973994493484497 2.134066581726074 0.041117873042821884 1.0 8 -0.02719670906662941
-1.6116721630096436 3.449948787689209 -0.8791087865829468 3.0 1 -0.02719440683722496
-3.002376079559326 6.429826259613037 0.3718993365764618 12.0 9 -0.02719210274517536
-1.0283304452896118 2.2022511959075928 -0.4724431037902832 25.0 2 -0.027189798653125763
-2.99393630027771 6.414671897888184 0.6193286776542664 95.0 10 -0.027187494561076164
-1.061467170715332 2.275284767150879 -0.3976564407348633 2.0 3 -0.027185190469026566
-2.9924850463867188 6.4174065589904785 0.8694159388542175 73.0 11 -0.027182886376976967
-1.0826611518859863 2.3228330612182617 -0.31466665863990784 1.0 4 -0.027180582284927368
-2.985623598098755 6.408523082733154 1.1197580099105835 61.0 12 -0.02717827819287777
-1.0466898679733276 2.246678590774536 -0.21684348583221436 1.0 5 -0.02717597410082817
-2.984419822692871 6.408868312835693 1.3742064237594604 90.0 13 -0.027173670008778572
-1.0358186960220337 2.2253754138946533 -0.12864179909229279 1.0 6 -0.027171365916728973
-2.9741132259368896 6.3925580978393555 1.6277459859848022 100.0 14 -0.027169061824679375
-1.0067920684814453 2.1649889945983887 -0.041676346212625504 1.0 7 -0.027166757732629776
-2.960780620574951 6.369720935821533 1.8821321725845337 47.0 15 -0.027164453640580177
-1.4066530466079712 3.0359222888946533 -0.8965492248535156 6.0 0 -0.02714371867477894
-0.9899445176124573 2.1375350952148438 0.041117873042821884 1.0 8 -0.02714141458272934
-1.5971628427505493 3.4502487182617188 -0.8777590990066528 3.0 1 -0.02713911049067974
-1.0206372737884521 2.205826997756958 -0.4724431037902832 16.0 2 -0.027134502306580544
-2.9681828022003174 6.417850017547607 0.6186314821243286 95.0 10 -0.027132198214530945
-1.0352823734283447 2.2395293712615967 -0.39077335596084595 1.0 3 -0.027129894122481346
-2.9609081745147705 6.407990455627441 0.8667348623275757 75.0 11 -0.027127590030431747
-1.0745468139648438 2.3265979290008545 -0.31466665863990784 1.0 4 -0.02712528593838215
-2.9635255336761475 6.416595935821533 1.1194450855255127 63.0 12 -0.02712298184633255
-2.8175623416900635 6.103355884552002 -0.5881268978118896 1.0 5 -0.02712067775428295
-2.955451488494873 6.4049859046936035 1.371153473854065 92.0 13 -0.027118373662233353
-2.811438798904419 6.095681190490723 -0.3518023192882538 1.0 6 -0.027116069570183754
-2.9534108638763428 6.406440734863281 1.6286457777023315 100.0 14 -0.027113765478134155
-2.898359775543213 6.287025451660156 -0.12084046006202698 1.0 7 -0.027111461386084557
-2.9396426677703857 6.3795037269592285 1.8821321725845337 47.0 15 -0.027109157294034958
-1.3952417373657227 3.039057970046997 -0.8960315585136414 5.0 0 -0.02708842232823372
-0.9828512072563171 2.140805959701538 0.041117873042821884 1.0 8 -0.02708611823618412
-1.5783984661102295 3.4395852088928223 -0.8737099766731262 3.0 1 -0.02708381414413452
-1.005568027496338 2.193314552307129 -0.46900853514671326 4.0 2 -0.027079205960035324
-2.945763349533081 6.428171157836914 0.6186314821243286 93.0 10 -0.027076901867985725
-1.0327882766723633 2.2537248134613037 -0.3926505744457245 2.0 3 -0.027074597775936127
-2.9330270290374756 6.403336524963379 0.8647848963737488 69.0 11 -0.027072293683886528
-2.939466953277588 6.423308372497559 1.1188194751739502 63.0 12 -0.02706768549978733
-2.817786693572998 6.160262584686279 -0.592659056186676 1.0 5 -0.027065381407737732
-2.9325602054595947 6.4111809730529785 1.3703902959823608 95.0 13 -0.027063077315688133
-2.784566879272461 6.090439319610596 -0.3509649634361267 1.0 6 -0.027060773223638535
-2.923241376876831 6.396701812744141 1.6236968040466309 100.0 14 -0.027058469131588936
-2.8730711936950684 6.289829254150391 -0.12070084363222122 1.0 7 -0.027056165039539337
-2.91575288772583 6.3862104415893555 1.8810968399047852 47.0 15 -0.027053862810134888
-1.3907568454742432 3.055976629257202 -0.8996549844741821 6.0 0 -0.0270331259816885
-0.975371778011322 2.144223928451538 0.041117873042821884 1.0 8 -0.0270308218896389
-1.575253963470459 3.464587926864624 -0.8786588907241821 3.0 1 -0.027028517797589302
-0.970130443572998 2.1346778869628906 0.1228848323225975 1.0 9 -0.027026213705539703
-0.9836676716804504 2.1644654273986816 -0.46213942766189575 1.0 2 -0.027023909613490105
-2.924428939819336 6.4379048347473145 0.6186314821243286 54.0 10 -0.027021605521440506
-1.03634774684906 2.2824976444244385 -0.39703071117401123 1.0 3 -0.027019301429390907
-2.912299633026123 6.417150497436523 0.8652724027633667 78.0 11 -0.02701699733734131
-1.0586851835250854 2.3338582515716553 -0.31466665863990784 1.0 4 -0.02701469324529171
-2.9104998111724854 6.419137477874756 1.1163164377212524 63.0 12 -0.02701238915324211
-1.0399539470672607 2.2936294078826904 -0.22032971680164337 1.0 5 -0.027010085061192513
-2.9069228172302246 6.414225101470947 1.368863821029663 97.0 13 -0.027007782831788063
-0.998014509677887 2.2031760215759277 -0.1267576962709427 1.0 6 -0.027005478739738464
-2.8976781368255615 6.39976692199707 1.6218972206115723 100.0 14 -0.027003174647688866
-0.9663066864013672 2.1351613998413086 -0.040908440947532654 1.0 7 -0.027000870555639267
-2.8934414386749268 6.396350383758545 1.8810968399047852 47.0 15 -0.02699856646358967
-1.3761112689971924 3.052006721496582 -0.8970668315887451 5.0 0 -0.02697782963514328
-0.958021879196167 2.1257376670837402 0.04069900885224342 1.0 8 -0.02697552554309368
-1.5647521018981934 3.473618745803833 -0.8795586824417114 3.0 1 -0.026973221451044083
-0.9200339317321777 2.0433506965637207 0.11744190007448196 2.0 9 -0.026970917358994484
-0.9728825092315674 2.160724639892578 -0.4606129229068756 1.0 2 -0.026968613266944885
-1.025943398475647 2.280696392059326 -0.39609211683273315 2.0 3 -0.026964005082845688
-2.8882548809051514 6.4236555099487305 0.8647848963737488 69.0 11 -0.02696170285344124
-2.880791664123535 6.413040637969971 1.113500714302063 61.0 12 -0.02695709466934204
-1.0156135559082031 2.2608964443206787 -0.21684348583221436 1.0 5 -0.026954790577292442
-2.882908582687378 6.420751094818115 1.368100643157959 97.0 13 -0.026952486485242844
-2.7566967010498047 6.142530918121338 -0.3528490364551544 1.0 6 -0.026950182393193245
-2.872128963470459 6.402730941772461 1.6200975179672241 100.0 14 -0.026947878301143646
-0.9588481783866882 2.138521432876587 -0.040908440947532654 1.0 7 -0.026945574209094048
-2.864773988723755 6.392309188842773 1.8769557476043701 46.0 15 -0.02694327011704445
-1.3646607398986816 3.0550284385681152 -0.8965492248535156 4.0 0 -0.02692253328859806
-0.9522269368171692 2.132720947265625 0.0407688245177269 1.0 8 -0.026920229196548462
-1.5589698553085327 3.4932966232299805 -0.8831579089164734 3.0 1 -0.026917925104498863
-0.9104542136192322 2.0410776138305664 0.11712788045406342 5.0 9 -0.026915621012449265
-0.9621346592903137 2.1569361686706543 -0.45908647775650024 1.0 2 -0.026913318783044815
-1.0155631303787231 2.27885103225708 -0.3951534926891327 2.0 3 -0.026908710598945618
-2.863389730453491 6.428258895874023 0.8640536665916443 73.0 11 -0.02690640650689602
-1.0423660278320312 2.3411922454833984 -0.31466665863990784 1.0 4 -0.02690410241484642
-2.8559772968292236 6.417644023895264 1.1125620603561401 67.0 12 -0.02690179832279682
-2.7363831996917725 6.148905277252197 -0.5888242125511169 1.0 5 -0.026899494230747223
-2.855689525604248 6.420012950897217 1.3658108711242676 97.0 13 -0.026897190138697624
-0.9858547449111938 2.2173895835876465 -0.12717638909816742 1.0 6 -0.026894886046648026
-2.8505547046661377 6.4144978523254395 1.6205475330352783 100.0 14 -0.026892581954598427
-2.794060707092285 6.290329933166504 -0.120142363011837 1.0 7 -0.026890277862548828
-2.8377413749694824 6.3916754722595215 1.8738499879837036 46.0 15 -0.02688797377049923
-1.3539890050888062 3.0597729682922363 -0.8965492248535156 4.0 0 -0.02686723880469799
-0.9366872310638428 2.1177444458007812 0.04041977599263191 1.0 8 -0.02686493471264839
-1.543615460395813 3.4915876388549805 -0.8813583254814148 3.0 1 -0.026862630620598793
-0.906553328037262 2.0515503883361816 0.11754656583070755 9.0 9 -0.026860326528549194
-0.9514259099960327 2.1530981063842773 -0.4575599730014801 1.0 2 -0.026858022436499596
-0.9345749616622925 2.1159627437591553 0.2023756206035614 1.0 10 -0.026855718344449997
-1.003613829612732 2.273346185684204 -0.3935891389846802 2.0 3 -0.026853414252400398
-2.836927652359009 6.429133892059326 0.8628350496292114 69.0 11 -0.0268511101603508
-0.9941341280937195 2.254002571105957 -0.30247974395751953 1.0 4 -0.0268488060683012
-2.833559274673462 6.4275736808776855 1.1125620603561401 67.0 12 -0.026846501976251602
-2.70204496383667 6.129249572753906 -0.5860351920127869 1.0 5 -0.026844197884202003
-2.8253438472747803 6.4119768142700195 1.361994743347168 100.0 13 -0.026841893792152405
-0.9748889803886414 2.213505983352661 -0.1267576962709427 1.0 6 -0.026839589700102806
-2.8265774250030518 6.420841217041016 1.619647741317749 100.0 14 -0.026837285608053207
-2.7720847129821777 6.300045490264893 -0.120142363011837 1.0 7 -0.02683498151600361
-2.8154141902923584 6.401541709899902 1.8738499879837036 46.0 15 -0.02683267742395401
-1.3432992696762085 3.064481019973755 -0.8965492248535156 5.0 0 -0.02681194245815277
-0.9196586608886719 2.0990216732025146 0.04000091552734375 1.0 8 -0.026809638366103172
-1.527510166168213 3.4880290031433105 -0.8791087865829468 3.0 1 -0.026807334274053574
-0.8945808410644531 2.043724775314331 0.11691854149103165 8.0 9 -0.026805030182003975
-0.9407549500465393 2.14921236038208 -0.45603352785110474 1.0 2 -0.026802726089954376
-0.9144048690795898 2.0900070667266846 0.1995866596698761 1.0 10 -0.026800421997904778
-1.0099191665649414 2.309413433074951 -0.3992207944393158 2.0 3 -0.02679811790585518
-2.8049263954162598 6.417170524597168 0.8599101305007935 63.0 11 -0.02679581381380558
-0.97513347864151 2.231992483139038 -0.2990674078464508 1.0 4 -0.02679350972175598
-2.8118975162506104 6.439234733581543 1.1128748655319214 65.0 12 -0.026791205629706383
-0.9867030382156372 2.260624885559082 -0.21579761803150177 1.0 5 -0.026788901537656784
-2.799804449081421 6.414602279663086 1.3604681491851807 100.0 13 -0.026786597445607185
-0.9719476699829102 2.227879285812378 -0.1273857206106186 1.0 6 -0.026784293353557587
-2.797135353088379 6.414592742919922 1.6155985593795776 100.0 14 -0.026781989261507988
-2.750077724456787 6.309682846069336 -0.120142363011837 1.0 7 -0.02677968516945839
-2.7930498123168945 6.4113311767578125 1.8738499879837036 46.0 15 -0.02677738107740879
-1.335904598236084 3.07824444770813 -0.8991374373435974 5.0 0 -0.02675664611160755
-0.918695330619812 2.116894245147705 0.04028015583753586 1.0 8 -0.026754342019557953
-1.5184262990951538 3.500491142272949 -0.8809083700180054 3.0 1 -0.026752037927508354
-0.8834695219993591 2.037672758102417 0.11639518290758133 7.0 9 -0.026749733835458755
-0.9438009262084961 2.1778652667999268 -0.4613761901855469 1.0 2 -0.026747429743409157
-0.8988199830055237 2.0750620365142822 0.197843536734581 1.0 10 -0.026745125651359558
-0.9975231885910034 2.3040356636047363 -0.3976564407348633 2.0 3 -0.02674282155930996
-2.780933380126953 6.42327880859375 0.8594226837158203 63.0 11 -0.02674051746726036
-0.967336893081665 2.2353827953338623 -0.2990674078464508 1.0 4 -0.026738213375210762
-2.7854807376861572 6.43994665145874 1.111310601234436 67.0 12 -0.026735909283161163
-0.9835503101348877 2.2750279903411865 -0.21684348583221436 1.0 5 -0.026733605191111565
-2.774718999862671 6.4212164878845215 1.3597049713134766 100.0 13 -0.026731301099061966
-0.9542729258537292 2.2094240188598633 -0.12612967193126678 1.0 6 -0.026728998869657516
-2.7689731121063232 6.414066791534424 1.6128991842269897 100.0 14 -0.026726694777607918
-0.9336515069007874 2.1627161502838135 -0.041117873042821884 1.0 7 -0.02672439068555832
-2.7691235542297363 6.417492866516113 1.8728147745132446 46.0 15 -0.02672208659350872
-1.325152039527893 3.08288836479187 -0.8991374373435974 5.0 0 -0.026701349765062332
-0.910929799079895 2.1202476024627686 0.04028015583753586 1.0 8 -0.026699045673012733
-1.5078939199447632 3.511404514312744 -0.8822581171989441 5.0 1 -0.026696741580963135
-0.8822976350784302 2.055579423904419 0.117232546210289 2.0 9 -0.026694437488913536
-0.9253525137901306 2.155888795852661 -0.45603352785110474 1.0 2 -0.026692133396863937
-0.8947126269340515 2.0855109691619873 0.19854077696800232 1.0 10 -0.02668982930481434
-0.9855825901031494 2.2984261512756348 -0.39609211683273315 2.0 3 -0.02668752521276474
-2.7558095455169678 6.429779052734375 0.8589351773262024 67.0 11 -0.02668522112071514
-0.9622634649276733 2.2462120056152344 -0.30004236102104187 1.0 4 -0.026682917028665543
-2.7533035278320312 6.430138111114502 1.107869029045105 69.0 12 -0.026680614799261093
-0.9595262408256531 2.2419843673706055 -0.21335725486278534 1.0 5 -0.026678310707211494
-2.753830909729004 6.434473037719727 1.3604681491851807 97.0 13 -0.026676006615161896
-0.9386990070343018 2.1943788528442383 -0.12508295476436615 1.0 6 -0.026673702523112297
-2.7442667484283447 6.418318271636963 1.6115494966506958 100.0 14 -0.0266713984310627
-0.9178595542907715 2.147735834121704 -0.0407688245177269 1.0 7 -0.0266690943390131
-2.7379937171936035 6.409834861755371 1.867638349533081 47.0 15 -0.0266667902469635
-1.3145992755889893 3.0895025730133057 -0.8996549844741821 4.0 0 -0.026646053418517113
-0.8925624489784241 2.09765362739563 0.03979148715734482 1.0 8 -0.026643749326467514
-1.5002027750015259 3.527406930923462 -0.884957492351532 3.0 1 -0.026641445234417915
-0.8743350505828857 2.0568089485168457 0.11712788045406342 2.0 9 -0.026639141142368317
-0.9143730401992798 2.15203857421875 -0.45450708270072937 1.0 2 -0.026636838912963867
-0.8683717846870422 2.0447630882263184 0.19435729086399078 1.0 10 -0.02663453295826912
-0.967117190361023 2.2783846855163574 -0.39202481508255005 2.0 3 -0.02663223072886467
-2.731795310974121 6.435704708099365 0.8584477305412292 63.0 11 -0.02662992663681507
-0.9544172883033752 2.2495570182800293 -0.30004236102104187 1.0 4 -0.026627622544765472
-2.7293002605438232 6.436071872711182 1.107243299484253 65.0 12 -0.026625318452715874
-0.9548049569129944 2.252657175064087 -0.21405449509620667 1.0 5 -0.026623014360666275
-2.725635528564453 6.433676719665527 1.3581784963607788 100.0 13 -0.026620710268616676
-0.9399958252906799 2.219874620437622 -0.12633900344371796 1.0 6 -0.026618406176567078
-2.719965696334839 6.426537990570068 1.6110994815826416 100.0 14 -0.02661610208451748
-2.651571750640869 6.264941215515137 -0.11874617636203766 1.0 7 -0.02661379799246788
-2.712592840194702 6.412235260009766 1.865567684173584 47.0 15 -0.02661149390041828
-1.3031740188598633 3.0880496501922607 -0.8981021642684937 5.0 0 -0.026581764221191406
-0.8828597068786621 2.0930769443511963 0.039651867002248764 2.0 8 -0.026579460129141808
-1.4770015478134155 3.503371477127075 -0.8777590990066528 3.0 1 -0.02657715603709221
-0.8686450123786926 2.0613858699798584 0.117232546210289 2.0 9 -0.02657485194504261
-0.9110336899757385 2.1619787216186523 -0.45603352785110474 3.0 2 -0.02657254785299301
-0.8623014688491821 2.047330379486084 0.19435729086399078 1.0 10 -0.026570243760943413
-0.9565200209617615 2.272141456604004 -0.39046046137809753 2.0 3 -0.026567939668893814
-2.7054057121276855 6.429617404937744 0.8564978241920471 67.0 11 -0.026565635576844215
-0.9550414681434631 2.2708425521850586 -0.30247974395751953 1.0 4 -0.026563331484794617
-2.7082998752593994 6.442793846130371 1.1069303750991821 67.0 12 -0.026561027392745018
-0.9759112596511841 2.3216021060943604 -0.22032971680164337 1.0 5 -0.02655872330069542
-2.701972484588623 6.430874824523926 1.355888843536377 100.0 13 -0.02655642107129097
-0.9334045052528381 2.222654104232788 -0.12633900344371796 1.0 6 -0.02655411697924137
-2.700129985809326 6.432784080505371 1.6106497049331665 100.0 14 -0.026551812887191772
-2.6550867557525635 6.328559398651123 -0.11979331821203232 1.0 7 -0.026549508795142174
-2.687950849533081 6.410037517547607 1.862462043762207 47.0 15 -0.026547204703092575
-1.2968553304672241 3.1032748222351074 -0.9012079238891602 5.0 0 -0.026526467874646187
-0.872464656829834 2.0887653827667236 0.03951225057244301 2.0 8 -0.026524163782596588
-1.4692672491073608 3.5192959308624268 -0.8804585337638855 1.0 1 -0.02652185969054699
-0.8529829978942871 2.044130325317383 0.11608116328716278 2.0 9 -0.02651955559849739
-0.9034808278083801 2.1651458740234375 -0.45603352785110474 2.0 2 -0.026517251506447792
-0.8612847924232483 2.0650391578674316 0.19575178623199463 1.0 10 -0.026514947414398193
-0.9637850522994995 2.31193208694458 -0.3967178463935852 2.0 3 -0.026512643322348595
-2.6814169883728027 6.435358047485352 0.8560103178024292 63.0 11 -0.026510341092944145
-0.9272656440734863 2.2265169620513916 -0.2961425185203552 1.0 4 -0.026508037000894547
-2.685795307159424 6.452208042144775 1.1069303750991821 67.0 12 -0.026505732908844948
-0.9295186400413513 2.233024835586548 -0.21161414682865143 1.0 5 -0.02650342881679535
-2.676490068435669 6.433017730712891 1.3543623685836792 100.0 13 -0.02650112472474575
-0.9164380431175232 2.203768491744995 -0.12508295476436615 1.0 6 -0.02649882063269615
-2.6731724739074707 6.431372165679932 1.607950210571289 100.0 14 -0.026496516540646553
-0.8960718512535095 2.156916856765747 -0.0407688245177269 1.0 7 -0.026494212448596954
-2.665560722351074 6.4193806648254395 1.862462043762207 47.0 15 -0.026491908356547356
-1.2867542505264282 3.109567642211914 -0.9017255902290344 6.0 0 -0.026471171528100967
-0.8651686310768127 2.0917980670928955 0.03951225057244301 2.0 8 -0.02646886743605137
-1.4718643426895142 3.5604214668273926 -0.8894565105438232 1.0 1 -0.02646656334400177
-0.8427920937538147 2.0397114753723145 0.11566247045993805 2.0 9 -0.02646426111459732
-0.8966677188873291 2.170100450515747 -0.4564151465892792 3.0 2 -0.026461957022547722
-0.8525505661964417 2.064349889755249 0.19540317356586456 1.0 10 -0.026459652930498123
-0.9670153260231018 2.3426711559295654 -0.40141090750694275 2.0 3 -0.026457348838448524
-2.657421350479126 6.441009044647217 0.855522871017456 67.0 11 -0.026455044746398926
-0.9210020303726196 2.233410358428955 -0.29662999510765076 1.0 4 -0.026452740654349327
-2.6564834117889404 6.4451069831848145 1.1041146516799927 69.0 12 -0.02645043656229973
-0.9399405121803284 2.2804648876190186 -0.21579761803150177 1.0 5 -0.02644813247025013
-2.6540164947509766 6.44232177734375 1.3543623685836792 100.0 13 -0.02644582837820053
-0.9041776657104492 2.1958727836608887 -0.12445490807294846 1.0 6 -0.026443524286150932
-2.6477413177490234 6.433455467224121 1.6061506271362305 100.0 14 -0.026441220194101334
-0.8915796279907227 2.167429208755493 -0.040908440947532654 1.0 7 -0.026438916102051735
-2.6416685581207275 6.425071716308594 1.8614267110824585 47.0 15 -0.026436612010002136
-1.2780884504318237 3.119403600692749 -0.9032785296440125 5.0 0 -0.026415877044200897
-0.8631658554077148 2.1077592372894287 0.03975658118724823 2.0 8 -0.0264135729521513
-1.4490931034088135 3.540287733078003 -0.8831579089164734 2.0 1 -0.0264112688601017
-0.8432289958000183 2.061126708984375 0.11670918762683868 2.0 9 -0.0264089647680521
-0.8890866041183472 2.173217535018921 -0.4564151465892792 3.0 2 -0.026406660676002502
-0.8468471169471741 2.0710017681121826 0.19575178623199463 1.0 10 -0.026404356583952904
-0.9648100137710571 2.360661029815674 -0.40391382575035095 2.0 3 -0.026402052491903305
-2.634172201156616 6.448407173156738 0.8552790880203247 69.0 11 -0.026399748399853706
-0.9147005677223206 2.2402875423431396 -0.2971175014972687 1.0 4 -0.026397444307804108
-2.6309821605682373 6.447024822235107 1.102863073348999 65.0 12 -0.02639514021575451
-0.9199289679527283 2.2542171478271484 -0.21300862729549408 1.0 5 -0.02639283612370491
-2.6270649433135986 6.440639019012451 1.3520725965499878 100.0 13 -0.02639053203165531
-0.9085705280303955 2.228607654571533 -0.12612967193126678 1.0 6 -0.026388227939605713
-2.6245310306549072 6.440855026245117 1.6057007312774658 100.0 14 -0.026385923847556114
-2.5871591567993164 6.3523125648498535 -0.11972350627183914 1.0 7 -0.026383619755506516
-2.6119394302368164 6.4163618087768555 1.856250286102295 47.0 15 -0.026381315663456917
-1.2759068012237549 3.1453278064727783 -0.909490168094635 1.0 0 -0.026360580697655678
-0.8400249481201172 2.071842670440674 0.03902358189225197 2.0 8 -0.02635827660560608
-1.4477038383483887 3.572416067123413 -0.8899064064025879 3.0 1 -0.02635597251355648
-0.830781102180481 2.0510993003845215 0.1159764900803566 1.0 9 -0.02635366842150688
-0.8755993843078613 2.161750316619873 -0.45336219668388367 4.0 2 -0.026351364329457283
-0.8306414484977722 2.051783561706543 0.19366006553173065 1.0 10 -0.026349060237407684
-0.9313721656799316 2.30175518989563 -0.39327630400657654 2.0 3 -0.026346756145358086
-2.6131370067596436 6.461243629455566 0.8557665944099426 78.0 11 -0.026344452053308487
-0.9024116396903992 2.232424020767212 -0.2956550419330597 1.0 4 -0.026342147961258888
-2.606243133544922 6.450674533843994 1.1019244194030762 67.0 12 -0.02633984386920929
-0.9120551347732544 2.2574143409729004 -0.21300862729549408 1.0 5 -0.02633753977715969
-2.603097915649414 6.4461283683776855 1.3513094186782837 100.0 13 -0.026335235685110092
-0.8933107852935791 2.2132444381713867 -0.12508295476436615 1.0 6 -0.026332931593060493
-2.6005754470825195 6.446361541748047 1.6048009395599365 100.0 14 -0.026330627501010895
-2.5365543365478516 6.290829181671143 -0.11839712411165237 1.0 7 -0.026328323408961296
-2.588083267211914 6.421855926513672 1.8552149534225464 47.0 15 -0.026326019316911697
-0.9769465327262878 2.432685375213623 -0.7024349570274353 1.0 0 -0.02630528435111046
-0.8312984108924866 2.0710504055023193 0.03895376995205879 2.0 8 -0.02630298025906086
-0.8533492088317871 2.1281380653381348 0.12016335874795914 1.0 9 -0.026298372074961662
-0.8717010021209717 2.17390513420105 -0.45527029037475586 4.0 2 -0.026296067982912064
-0.8294042944908142 2.069465160369873 0.1950545459985733 1.0 10 -0.026293763890862465
-0.9248003363609314 2.3086600303649902 -0.3939020335674286 2.0 3 -0.026291459798812866
-2.5817112922668457 6.448211669921875 0.8528417348861694 84.0 11 -0.026289155706763268
-0.8975641131401062 2.2429323196411133 -0.29662999510765076 2.0 4 -0.02628685161471367
-2.582974910736084 6.457899570465088 1.101611614227295 69.0 12 -0.02628454752266407
-0.9160076975822449 2.2901830673217773 -0.21579761803150177 1.0 5 -0.02628224343061447
-2.574748992919922 6.4405927658081055 1.3482564687728882 100.0 13 -0.026279939338564873
-0.8855790495872498 2.2163493633270264 -0.12508295476436615 1.0 6 -0.026277637109160423
-2.5787785053253174 6.457211017608643 1.6052508354187012 100.0 14 -0.026275333017110825
-2.519026517868042 6.310789585113525 -0.1186065599322319 1.0 7 -0.026273028925061226
-2.5627858638763428 6.4236741065979 1.8531444072723389 47.0 15 -0.026270724833011627
-0.9684494733810425 2.4360804557800293 -0.7024349570274353 1.0 0 -0.02624998800456524
-0.8277555108070374 2.0832316875457764 0.039128296077251434 3.0 8 -0.02624768391251564
-0.8341261744499207 2.1014020442962646 0.1184886172413826 1.0 9 -0.026243075728416443
-0.8612104654312134 2.169635057449341 -0.4537437856197357 5.0 2 -0.026240771636366844
-0.8192359805107117 2.0649402141571045 0.19435729086399078 1.0 10 -0.026238467544317245
-0.9160082340240479 2.31003737449646 -0.3935891389846802 2.0 3 -0.026236163452267647
-2.5569941997528076 6.4516472816467285 0.8521105051040649 76.0 11 -0.026233859360218048
-0.8911909461021423 2.2497432231903076 -0.2971175014972687 2.0 4 -0.0262315571308136
-2.5604183673858643 6.4668755531311035 1.101611614227295 69.0 12 -0.026229253038764
-2.4658515453338623 6.22802734375 -0.5860351920127869 1.0 5 -0.0262269489467144
-2.5508079528808594 6.445889472961426 1.3474931716918945 97.0 13 -0.026224644854664803
-0.877837598323822 2.2194268703460693 -0.12508295476436615 1.0 6 -0.026222340762615204
-2.549060106277466 6.448050022125244 1.6007517576217651 100.0 14 -0.026220036670565605
-2.5028622150421143 6.334421634674072 -0.11888579279184341 1.0 7 -0.026217732578516006
-2.5389294624328613 6.428986072540283 1.8521090745925903 47.0 15 -0.026215428486466408
-0.9592331051826477 2.437648057937622 -0.701917290687561 31.0 0 -0.02619469165802002
-0.8219418525695801 2.0898303985595703 0.03919810429215431 3.0 8 -0.02619238756597042
-0.9574921727180481 2.4357187747955322 -0.6042185425758362 5.0 1 -0.026190083473920822
-0.8107179403305054 2.0634043216705322 0.11618582904338837 1.0 9 -0.026187779381871223
-0.8536322712898254 2.1726279258728027 -0.4537437856197357 6.0 2 -0.026185475289821625
-0.8193051218986511 2.0863327980041504 0.1961004137992859 1.0 10 -0.026183173060417175
-0.9101048111915588 2.318737030029297 -0.39452776312828064 1.0 3 -0.026180868968367577
-2.533731460571289 6.458686351776123 0.8518667817115784 84.0 11 -0.026178564876317978
-0.8760854601860046 2.2343595027923584 -0.294680118560791 2.0 4 -0.02617626078426838
-2.534947395324707 6.468416690826416 1.1003601551055908 69.0 12 -0.02617395669221878
-2.4440977573394775 6.23659610748291 -0.5860351920127869 1.0 5 -0.026171652600169182
-2.528290271759033 6.45475435256958 1.3474931716918945 100.0 13 -0.026169348508119583
-0.8700844645500183 2.222477912902832 -0.12508295476436615 1.0 6 -0.026167044416069984
-2.523697853088379 6.449648857116699 1.5989521741867065 100.0 14 -0.026164740324020386
-2.4763638973236084 6.331945896148682 -0.11867636442184448 1.0 7 -0.026162436231970787
-2.5164709091186523 6.43781042098999 1.8521090745925903 47.0 15 -0.02616013213992119
-0.9458098411560059 2.4283809661865234 -0.6982938051223755 1.0 0 -0.0261393953114748
-0.8160933256149292 2.0964136123657227 0.03926791250705719 4.0 8 -0.02613709308207035
-0.94686359167099 2.433598041534424 -0.6028688549995422 8.0 1 -0.026134788990020752
-0.7988009452819824 2.0530521869659424 0.11545313149690628 2.0 9 -0.026132484897971153
-0.8446195721626282 2.1719353199005127 -0.45298057794570923 8.0 2 -0.026130180805921555
-0.8105744123458862 2.085465669631958 0.19575178623199463 1.0 10 -0.026127876713871956
-0.9163109660148621 2.3587265014648438 -0.4007851481437683 2.0 3 -0.026125572621822357
-2.509016752243042 6.461939334869385 0.8511355519294739 88.0 11 -0.02612326852977276
-0.8643606305122375 2.226149320602417 -0.29321765899658203 2.0 4 -0.02612096443772316
-2.507049560546875 6.460213661193848 1.0975443124771118 67.0 12 -0.02611866034567356
-0.8847705125808716 2.281074047088623 -0.21405449509620667 1.0 5 -0.026116356253623962
-2.5043258666992188 6.459879398345947 1.3467299938201904 100.0 13 -0.026114052161574364
-0.8709810376167297 2.247849464416504 -0.12633900344371796 1.0 6 -0.026111748069524765
-2.5008862018585205 6.454349040985107 1.5980525016784668 100.0 14 -0.026109443977475166
-2.4495768547058105 6.325204849243164 -0.11839712411165237 1.0 7 -0.026107139885425568
-2.4909260272979736 6.435310363769531 1.8490034341812134 47.0 15 -0.02610483579337597
-0.8127333521842957 2.1084375381469727 0.03944243863224983 6.0 8 -0.02608179673552513
-0.7970150709152222 2.0687358379364014 0.11618582904338837 2.0 9 -0.026077188551425934
-0.8395293354988098 2.180220365524292 -0.45412543416023254 9.0 2 -0.026074884459376335
-0.7922044992446899 2.0583908557891846 0.19296279549598694 2.0 10 -0.026072580367326736
-0.9113214015960693 2.369126558303833 -0.4020366370677948 2.0 3 -0.026070276275277138
-2.4882853031158447 6.472078323364258 0.8513793349266052 84.0 11 -0.02606797218322754
-0.8640967607498169 2.247532367706299 -0.2956550419330597 2.0 4 -0.02606566809117794
-2.4841973781585693 6.464804172515869 1.0969185829162598 67.0 12 -0.02606336399912834
-0.8843451142311096 2.3025946617126465 -0.21579761803150177 1.0 5 -0.026061059907078743
-2.480073928833008 6.460817337036133 1.3452035188674927 100.0 13 -0.026058755815029144
-0.8606608510017395 2.2432663440704346 -0.12592032551765442 1.0 6 -0.026056451722979546
-2.478074073791504 6.458967208862305 1.597152590751648 100.0 14 -0.026054147630929947
-2.4242935180664062 6.322089672088623 -0.11818769574165344 1.0 7 -0.026051843538880348
-2.4654221534729004 6.432712078094482 1.8458975553512573 47.0 15 -0.02604953944683075
-1.20121431350708 3.145669937133789 -0.9022431969642639 3.0 0 -0.02602880448102951
-0.8014583587646484 2.09991192817688 0.0392330102622509 8.0 8 -0.026026500388979912
-0.7890768647193909 2.069639205932617 0.11608116328716278 2.0 9 -0.026021892204880714
-0.8315948247909546 2.1811580657958984 -0.4537437856197357 11.0 2 -0.026019588112831116
-0.7853736877441406 2.061006784439087 0.19296279549598694 1.0 10 -0.026017284020781517
-0.8908039331436157 2.338907480239868 -0.3964049816131592 1.0 3 -0.02601497992873192
-2.461160898208618 6.465451240539551 0.8494293689727783 86.0 11 -0.02601267583668232
-0.8520112037658691 2.2394025325775146 -0.2941926121711731 2.0 4 -0.02601037174463272
-2.461613893508911 6.4734368324279785 1.0969185829162598 67.0 12 -0.026008067652583122
-0.8653733730316162 2.2757182121276855 -0.21300862729549408 1.0 5 -0.026005763560533524
-2.4544520378112793 6.457993984222412 1.3429137468338013 95.0 13 -0.026003459468483925
-0.8361947536468506 2.2012979984283447 -0.12340819090604782 1.0 6 -0.026001155376434326
-2.456894874572754 6.471222877502441 1.5980525016784668 100.0 14 -0.025998853147029877
-2.4277491569519043 6.397820472717285 -0.11944427341222763 1.0 7 -0.025996549054980278
-2.4415838718414307 6.4376654624938965 1.8448622226715088 47.0 15 -0.02599424496293068
-1.1984214782714844 3.1715292930603027 -0.9084548950195312 5.0 0 -0.02597350813448429
-0.7969498634338379 2.1101794242858887 0.039372626692056656 8.0 8 -0.025971204042434692
-0.7811431288719177 2.070512294769287 0.1159764900803566 2.0 9 -0.025966595858335495
-0.8267486095428467 2.1913950443267822 -0.45527029037475586 10.0 2 -0.025964291766285896
-0.7894225120544434 2.093564033508301 0.19575178623199463 1.0 10 -0.025961987674236298
-0.8798481822013855 2.334608793258667 -0.3951534926891327 1.0 3 -0.0259596835821867
-2.434380054473877 6.462856292724609 0.8479669690132141 84.0 11 -0.0259573794901371
-0.8420913815498352 2.2367897033691406 -0.293461412191391 3.0 4 -0.0259550753980875
-2.436221122741699 6.474593162536621 1.0956671237945557 63.0 12 -0.025952771306037903
-0.8686513900756836 2.308560848236084 -0.21579761803150177 1.0 5 -0.025950469076633453
-2.429131507873535 6.459171772003174 1.3413872718811035 95.0 13 -0.025948164984583855
-0.8397496938705444 2.234116315841675 -0.12508295476436615 1.0 6 -0.025945860892534256
-2.42812442779541 6.4633402824401855 1.5940033197402954 100.0 14 -0.025943556800484657
-0.8491312265396118 2.26147198677063 -0.042165014892816544 1.0 7 -0.02594125270843506
-2.417741298675537 6.442531585693359 1.8438270092010498 47.0 15 -0.02593894861638546
-1.1914019584655762 3.1865503787994385 -0.9115607142448425 5.0 0 -0.02591821178793907
-0.7895784974098206 2.1129486560821533 0.039372626692056656 8.0 8 -0.025915907695889473
-1.3534259796142578 3.623753786087036 -0.8930557370185852 3.0 1 -0.025913603603839874
-0.7725134491920471 2.069484233856201 0.11576715111732483 3.0 9 -0.025911299511790276
-0.8149741291999817 2.183232069015503 -0.45298057794570923 11.0 2 -0.025908995419740677
-0.7848950028419495 2.103773832321167 0.19644904136657715 1.0 10 -0.025906691327691078
-0.8751447796821594 2.3469197750091553 -0.3967178463935852 2.0 3 -0.02590438909828663
-2.4104175567626953 6.467595100402832 0.847479522228241 84.0 11 -0.02590208500623703
-0.8349706530570984 2.2415757179260254 -0.29370513558387756 3.0 4 -0.02589978091418743
-2.4108471870422363 6.475653648376465 1.0944156646728516 76.0 12 -0.025897476822137833
-0.8564162254333496 2.3003759384155273 -0.21475175023078918 1.0 5 -0.025895172730088234
-2.409306764602661 6.474972248077393 1.3429137468338013 100.0 13 -0.025892868638038635
-0.8277682662010193 2.225802183151245 -0.12445490807294846 1.0 6 -0.025890564545989037
-2.4028306007385254 6.464470863342285 1.5922037363052368 100.0 14 -0.025888260453939438
-2.3959083557128906 6.452743053436279 1.8443446159362793 46.0 15 -0.02588365226984024
-1.165527105331421 3.1508285999298096 -0.9001726508140564 5.0 0 -0.025862915441393852
-0.7856658101081848 2.1250698566436768 0.0395471528172493 9.0 8 -0.025860611349344254
-1.336714744567871 3.6174886226654053 -0.8903563022613525 3.0 1 -0.025858309119939804
-0.7597498297691345 2.0571794509887695 0.11492977291345596 7.0 9 -0.025856005027890205
-0.8100693821907043 2.193430185317993 -0.45450708270072937 11.0 2 -0.025853700935840607
-0.7665082812309265 2.076594829559326 0.19366006553173065 1.0 10 -0.025851396843791008
-0.8621606230735779 2.3369877338409424 -0.39452776312828064 2.0 3 -0.02584909275174141
-2.3878281116485596 6.475969314575195 0.847479522228241 84.0 11 -0.02584678865969181
-0.8271414637565613 2.244476318359375 -0.29370513558387756 3.0 4 -0.025844484567642212
-2.382767915725708 6.469200611114502 1.0919127464294434 72.0 12 -0.025842180475592613
-0.8456271886825562 2.295872926712036 -0.21405449509620667 1.0 5 -0.025839876383543015
-2.3853352069854736 6.479658126831055 1.3421505689620972 100.0 13 -0.025837572291493416
-0.8241322040557861 2.239924430847168 -0.12508295476436615 1.0 6 -0.025835268199443817
-2.379579782485962 6.470989227294922 1.5917537212371826 100.0 14 -0.02583296410739422
-2.3667068481445312 6.442934036254883 1.8391681909561157 46.0 15 -0.02582835592329502
-1.1080491542816162 3.027884006500244 -0.8639379739761353 14.0 0 -0.025807620957493782
-0.7754961252212524 2.1202871799468994 0.03940753638744354 9.0 8 -0.025805316865444183
-1.1126540899276733 3.0437633991241455 -0.748187243938446 24.0 1 -0.025803012773394585
-0.7546208500862122 2.0654468536376953 0.11524379253387451 11.0 9 -0.025800708681344986
-0.8010607957839966 2.1925559043884277 -0.4537437856197357 11.0 2 -0.025798404589295387
-0.7619889378547668 2.0867435932159424 0.19435729086399078 1.0 10 -0.02579610049724579
-0.8519654273986816 2.334416151046753 -0.3935891389846802 2.0 3 -0.02579379640519619
-2.3652098178863525 6.484264373779297 0.847479522228241 84.0 11 -0.02579149231314659
-0.8220208287239075 2.254810333251953 -0.294680118560791 3.0 4 -0.025789188221096992
-2.3594932556152344 6.475622653961182 1.0915998220443726 74.0 12 -0.025786884129047394
-2.358673095703125 6.4768757820129395 1.3398607969284058 92.0 13 -0.025782275944948196
-0.8053780794143677 2.212758779525757 -0.12340819090604782 1.0 6 -0.025779971852898598
-2.356309175491333 6.4774250984191895 1.591303825378418 100.0 14 -0.025777667760849
-2.341564655303955 6.4438934326171875 1.8370977640151978 46.0 15 -0.0257730595767498
-1.0981299877166748 3.033550500869751 -0.8644556403160095 36.0 0 -0.025752324610948563
-0.7660486102104187 2.117340326309204 0.03930281847715378 8.0 8 -0.025750020518898964
-1.1006978750228882 3.0439631938934326 -0.7472874522209167 60.0 1 -0.025747716426849365
-0.7460483312606812 2.064311981201172 0.11503444612026215 10.0 9 -0.025745412334799767
-0.7954038381576538 2.200878381729126 -0.4548886716365814 10.0 2 -0.025743108242750168
-0.7519922852516174 2.081895351409912 0.19366006553173065 1.0 10 -0.02574080415070057
-0.8485074043273926 2.350381851196289 -0.39577925205230713 2.0 3 -0.02573850005865097
-2.3371691703796387 6.477543354034424 0.8455295562744141 86.0 11 -0.025736195966601372
-0.8161657452583313 2.263267993927002 -0.29541128873825073 3.0 4 -0.025733891874551773
-2.3375463485717773 6.485677719116211 1.0919127464294434 76.0 12 -0.025731587782502174
-0.8295783996582031 2.30172061920166 -0.21405449509620667 1.0 5 -0.025729283690452576
-2.33072566986084 6.4702935218811035 1.3368079662322998 97.0 13 -0.025726979598402977
-0.8287708759307861 2.3019986152648926 -0.12822310626506805 1.0 6 -0.02572467550635338
-2.3317065238952637 6.480109691619873 1.589954137802124 100.0 14 -0.02572237141430378
-2.3203651905059814 6.455662250518799 1.8381328582763672 46.0 15 -0.02571776509284973
-1.090139627456665 3.044639825820923 -0.866526186466217 16.0 0 -0.025697028264403343
-0.7620222568511963 2.1294150352478027 0.03947734460234642 6.0 8 -0.025694724172353745
-1.0874412059783936 3.0404467582702637 -0.7454878091812134 60.0 1 -0.025692420080304146
-0.7415264844894409 2.0744264125823975 0.11545313149690628 7.0 9 -0.025690115988254547
-0.7850725650787354 2.196246862411499 -0.45336219668388367 9.0 2 -0.02568781189620495
-0.7474021911621094 2.092012405395508 0.19435729086399078 1.0 10 -0.02568550780415535
-0.8363128304481506 2.3421671390533447 -0.3939020335674286 2.0 3 -0.02568320371210575
-2.3132083415985107 6.481923580169678 0.8450421094894409 88.0 11 -0.025680899620056152
-0.7995915412902832 2.2417967319488525 -0.29224270582199097 3.0 4 -0.025678595528006554
-2.314893960952759 6.493797302246094 1.0919127464294434 76.0 12 -0.025676291435956955
-0.8184612989425659 2.29723858833313 -0.21335725486278534 1.0 5 -0.025673987343907356
-2.308124303817749 6.478390693664551 1.3368079662322998 95.0 13 -0.025671685114502907
-0.8066611886024475 2.2653653621673584 -0.1260250061750412 1.0 6 -0.025669381022453308
-2.3051536083221436 6.4771928787231445 1.5872547626495361 100.0 14 -0.02566707693040371
-0.800150990486145 2.249570369720459 -0.041676346212625504 1.0 7 -0.02566477283835411
-2.2971677780151367 6.4619035720825195 1.8376152515411377 46.0 15 -0.025662468746304512
-1.0776833295822144 3.0449728965759277 -0.8654909133911133 7.0 0 -0.025641731917858124
-0.7532496452331543 2.1282920837402344 0.03940753638744354 3.0 8 -0.025639427825808525
-1.0716217756271362 3.029526948928833 -0.7418886423110962 58.0 1 -0.025637123733758926
-0.7342813611030579 2.0770020484924316 0.11545313149690628 2.0 9 -0.025634819641709328
-0.7757100462913513 2.1954073905944824 -0.4525989890098572 9.0 2 -0.02563251554965973
-0.7330946922302246 2.075950860977173 0.19261418282985687 1.0 10 -0.02563021145761013
-0.8421858549118042 2.386197805404663 -0.4007851481437683 2.0 3 -0.02562790736556053
-2.289247989654541 6.4862141609191895 0.844554603099823 86.0 11 -0.025625605136156082
-0.7963832020759583 2.257678508758545 -0.2939488887786865 3.0 4 -0.025623301044106483
-2.285642623901367 6.483208656311035 1.0887839794158936 76.0 12 -0.025620996952056885
-0.836922824382782 2.3752474784851074 -0.22032971680164337 1.0 5 -0.025618692860007286
-2.2856698036193848 6.490509986877441 1.337571144104004 95.0 13 -0.025616388767957687
-0.7890689969062805 2.241931200027466 -0.12455958873033524 1.0 6 -0.02561408467590809
-2.278162956237793 6.476407527923584 1.585005283355713 100.0 14 -0.02561178058385849
-0.759115993976593 2.1580300331115723 -0.03993110731244087 1.0 7 -0.02560947649180889
-2.273317337036133 6.4662370681762695 1.8365800380706787 46.0 15 -0.025607172399759293
-1.056199312210083 3.0177183151245117 -0.8566910624504089 7.0 0 -0.025586435571312904
-0.7487457990646362 2.1404759883880615 0.039582058787345886 3.0 8 -0.025584131479263306
-1.0592252016067505 3.029755115509033 -0.7409887909889221 60.0 1 -0.025581827387213707
