# .PCD v0.7 - Point Cloud Data file format
VERSION 0.7
FIELDS x y z intensity ring time
SIZE 4 4 4 4 4 4
TYPE F F F F F F
COUNT 1 1 1 1 1 1
WIDTH 547
HEIGHT 1
VIEWPOINT 0 0 0 1 0 0 0
POINTS 547
DATA ascii
1.1282873153686523 -2.1563804149627686 0.29882365465164185 6.0 11 -0.04490865767002106
1.1573503017425537 -2.2128663063049316 -0.30662328004837036 103.0 4 -0.04490635544061661
1.1165246963500977 -2.1357147693634033 0.3817001283168793 6.0 12 -0.04490405321121216
1.1202136278152466 -2.1436822414398193 0.47015342116355896 5.0 13 -0.04489944502711296
1.121666431427002 -2.1473751068115234 -0.12696704268455505 13.0 6 -0.04489713907241821
1.1156989336013794 -2.13685941696167 0.5565289855003357 6.0 14 -0.04489483684301376
1.1130319833755493 -2.1326587200164795 -0.0419904924929142 9.0 7 -0.044892530888319016
1.116012692451477 -2.139280080795288 0.646530032157898 7.0 15 -0.044890228658914566
0.6418308019638062 -1.2339969873428345 -0.37269943952560425 8.0 0 -0.04486948996782303
1.1096806526184082 -2.134404420852661 0.0419904924929142 8.0 8 -0.04486718773841858
0.7656252384185791 -1.4732626676559448 -0.38331663608551025 7.0 1 -0.04486488178372383
1.1223154067993164 -2.1605491638183594 0.12759508192539215 6.0 9 -0.04486257955431938
0.9647406935691833 -1.857204794883728 -0.4068048298358917 7.0 2 -0.044860273599624634
1.1164485216140747 -2.150171995162964 0.2119627594947815 7.0 10 -0.044857971370220184
1.1456726789474487 -2.2073967456817627 -0.3939020335674286 111.0 3 -0.044855669140815735
1.1170965433120728 -2.153257369995117 0.2978487014770508 6.0 11 -0.04485336318612099
1.1496188640594482 -2.216892957687378 -0.30662328004837036 103.0 4 -0.04485106095671654
1.1090630292892456 -2.139599084854126 0.3817001283168793 6.0 12 -0.04484875500202179
1.1054987907409668 -2.133634090423584 0.46710047125816345 5.0 13 -0.04484414681792259
1.1104897260665894 -2.14418363571167 -0.12654836475849152 13.0 6 -0.04484184458851814
1.114504337310791 -2.152855157852173 0.5596782565116882 7.0 14 -0.044839538633823395
1.1064999103546143 -2.1383070945739746 -0.04202539846301079 9.0 7 -0.044837236404418945
1.1032130718231201 -2.1328670978546143 0.6434241533279419 7.0 15 -0.0448349304497242
0.6357486844062805 -1.2327959537506104 -0.3716641664505005 8.0 0 -0.04481419548392296
1.1040557622909546 -2.141819953918457 0.04206030070781708 8.0 8 -0.04481188952922821
0.7595852613449097 -1.474193811416626 -0.3828667104244232 7.0 1 -0.04480958729982376
1.1074508428573608 -2.1502487659454346 0.1267576962709427 6.0 9 -0.04480728507041931
0.9591507911682129 -1.8623063564300537 -0.4071864187717438 6.0 2 -0.044804979115724564
1.1071122884750366 -2.150513172149658 0.21161414682865143 7.0 10 -0.044802676886320114
1.1370564699172974 -2.2096259593963623 -0.3935891389846802 107.0 3 -0.044800370931625366
1.1059415340423584 -2.15008282661438 0.2968737483024597 6.0 11 -0.04479806870222092
1.1355199813842773 -2.2085344791412354 -0.3049171268939972 106.0 4 -0.04479576274752617
1.09978187084198 -2.1399435997009277 0.3810743987560272 6.0 12 -0.04479346051812172
1.0989412069320679 -2.139226198196411 0.4674820601940155 6.0 13 -0.04478885233402252
1.1020859479904175 -2.1462700366973877 -0.12644368410110474 13.0 6 -0.044786546379327774
1.09986412525177 -2.142862558364868 0.5560790300369263 7.0 14 -0.044784244149923325
1.0990290641784668 -2.1421566009521484 -0.04202539846301079 9.0 7 -0.04478193819522858
1.102813482284546 -2.1504569053649902 0.6475652456283569 7.0 15 -0.04477963596582413
0.6349592804908752 -1.2418878078460693 -0.3737347424030304 8.0 0 -0.04475890100002289
1.100212812423706 -2.1527836322784424 0.04219992086291313 8.0 8 -0.04475659504532814
0.7553212642669678 -1.4785717725753784 -0.38331663608551025 7.0 1 -0.04475429281592369
1.0999386310577393 -2.1541013717651367 0.1267576962709427 7.0 9 -0.04475198686122894
0.943716287612915 -1.8481582403182983 -0.4033702313899994 6.0 2 -0.04474968463182449
1.1005043983459473 -2.1561391353607178 0.21178844571113586 7.0 10 -0.044747378677129745
1.1302342414855957 -2.215341329574585 -0.3939020335674286 111.0 3 -0.044745076447725296
1.098429560661316 -2.153930187225342 0.2968737483024597 6.0 11 -0.04474277049303055
1.1278038024902344 -2.21248459815979 -0.3049171268939972 106.0 4 -0.0447404682636261
1.091408371925354 -2.1420094966888428 0.3807615041732788 7.0 12 -0.04473816230893135
1.0932492017745972 -2.146548271179199 0.46824532747268677 6.0 13 -0.04473355412483215
1.0945875644683838 -2.150103807449341 -0.12644368410110474 13.0 6 -0.044731251895427704
1.0879583358764648 -2.138004779815674 0.553829550743103 6.0 14 -0.044728945940732956
1.0888252258300781 -2.1406326293945312 -0.041920680552721024 10.0 7 -0.044726643711328506
1.092673659324646 -2.149127244949341 0.6460123658180237 6.0 15 -0.04472433775663376
0.6253796815872192 -1.2337578535079956 -0.37062889337539673 8.0 0 -0.04470360279083252
1.0908839702606201 -2.153042793273926 0.042130108922719955 8.0 8 -0.04470130056142807
0.7501556277275085 -1.4811992645263672 -0.38331663608551025 7.0 1 -0.04469899460673332
1.095118761062622 -2.163273572921753 0.12707172334194183 7.0 9 -0.04469669237732887
0.9390324950218201 -1.8549442291259766 -0.40413346886634827 7.0 2 -0.044694386422634125
1.0920718908309937 -2.1581900119781494 0.21161414682865143 6.0 10 -0.044692084193229675
1.1216028928756714 -2.217510223388672 -0.3935891389846802 107.0 3 -0.04468977823853493
1.0891128778457642 -2.1542084217071533 0.2963862717151642 6.0 11 -0.04468747600913048
1.1182831525802612 -2.212864637374878 -0.30442965030670166 100.0 4 -0.04468517005443573
1.0848153829574585 -2.147569417953491 0.3810743987560272 6.0 12 -0.04468286782503128
1.0910588502883911 -2.1608664989471436 0.470535010099411 6.0 13 -0.04467825964093208
1.0897753238677979 -2.1592607498168945 -0.1267576962709427 14.0 6 -0.044675953686237335
1.0769777297973633 -2.1348302364349365 0.5520299673080444 7.0 14 -0.044673651456832886
1.075943946838379 -2.13370680809021 -0.04171125218272209 9.0 7 -0.044671349227428436
1.0773396492004395 -2.137402296066284 0.6413536071777344 7.0 15 -0.04466904327273369
0.6210692524909973 -1.2359333038330078 -0.37062889337539673 8.0 0 -0.04464830830693245
1.0743861198425293 -2.1389684677124023 0.04178106039762497 8.0 8 -0.0446460023522377
0.7449806332588196 -1.4838088750839233 -0.38331663608551025 7.0 1 -0.04464370012283325
1.0857690572738647 -2.163512706756592 0.12686236202716827 7.0 9 -0.044641394168138504
0.9334324598312378 -1.859965443611145 -0.4045150876045227 7.0 2 -0.044639091938734055
1.0764917135238647 -2.145960569381714 0.21004533767700195 7.0 10 -0.04463678598403931
1.1111993789672852 -2.2161145210266113 -0.3926505744457245 111.0 3 -0.04463448375463486
1.083365797996521 -2.161545991897583 0.2968737483024597 6.0 11 -0.04463217779994011
1.1096627712249756 -2.214979887008667 -0.3041858971118927 100.0 4 -0.04462987557053566
1.0720056295394897 -2.140745162963867 0.3791971802711487 6.0 12 -0.04462756961584091
1.0773581266403198 -2.1523725986480713 0.46786367893218994 6.0 13 -0.04462296515703201
1.0858060121536255 -2.170196294784546 -0.12717638909816742 13.0 6 -0.044620659202337265
1.072134017944336 -2.1438050270080566 0.5533795952796936 7.0 14 -0.044618356972932816
1.0702776908874512 -2.1410269737243652 -0.04178106039762497 9.0 7 -0.04461605101823807
1.0715991258621216 -2.144606351852417 0.6423888802528381 7.0 15 -0.04461374878883362
0.6184740662574768 -1.2415521144866943 -0.3716641664505005 9.0 0 -0.04459301009774208
1.0651304721832275 -2.139125347137451 0.04171125218272209 8.0 8 -0.04459070786833763
0.7415332198143005 -1.4898895025253296 -0.38421642780303955 7.0 1 -0.04458840191364288
1.0799896717071533 -2.170866012573242 0.12707172334194183 7.0 9 -0.044586099684238434
0.9321810603141785 -1.8737589120864868 -0.4068048298358917 7.0 2 -0.044583793729543686
1.0743170976638794 -2.160409450531006 0.21109120547771454 7.0 10 -0.044581491500139236
1.0999398231506348 -2.2129039764404297 -0.391399085521698 111.0 3 -0.04457918554544449
1.07051420211792 -2.1546478271484375 0.29541128873825073 6.0 11 -0.04457688331604004
1.1036903858184814 -2.222395658493042 -0.30467337369918823 100.0 4 -0.04457458108663559
1.0680397748947144 -2.1515517234802246 0.38044866919517517 6.0 12 -0.04457227513194084
1.0619847774505615 -2.140291929244995 0.46442911028862 6.0 13 -0.044567666947841644
1.0684622526168823 -2.1542911529541016 -0.1260250061750412 12.0 6 -0.044565364718437195
1.0715689659118652 -2.1615021228790283 0.5569788217544556 7.0 14 -0.04456305876374245
1.0627974271774292 -2.144749879837036 -0.04178106039762497 9.0 7 -0.044560756534338
1.0589616298675537 -2.1379470825195312 0.6392830610275269 7.0 15 -0.04455845057964325
0.6141365766525269 -1.2437034845352173 -0.3716641664505005 8.0 0 -0.04453771561384201
1.05765700340271 -2.1428303718566895 0.04171125218272209 8.0 8 -0.04453540965914726
0.7277060747146606 -1.4749925136566162 -0.3797174096107483 7.0 1 -0.04453310742974281
1.0644549131393433 -2.158501148223877 0.12612967193126678 7.0 9 -0.044530801475048065
0.9230297207832336 -1.871719241142273 -0.405659943819046 6.0 2 -0.044528499245643616
1.0667693614959717 -2.1641464233398438 0.21109120547771454 7.0 10 -0.044526197016239166
1.094827651977539 -2.2220458984375 -0.3923376798629761 114.0 3 -0.04452389106154442
1.0559701919555664 -2.14412522315979 0.293461412191391 6.0 11 -0.04452158883213997
1.0924190282821655 -2.2191107273101807 -0.30369842052459717 100.0 4 -0.04451928287744522
1.0570342540740967 -2.148177146911621 0.3791971802711487 6.0 12 -0.04451698064804077
1.0239145755767822 -2.08086895942688 -0.2028985619544983 1.0 5 -0.044514674693346024
1.0605727434158325 -2.156317949295044 0.46710047125816345 6.0 13 -0.044512372463941574
1.0565301179885864 -2.149045705795288 -0.1255016326904297 13.0 6 -0.044510066509246826
1.0554226636886597 -2.1477396488189697 0.5524798035621643 7.0 14 -0.04450776427984238
1.0570675134658813 -2.152036428451538 -0.04185086861252785 9.0 7 -0.04450545832514763
1.0583035945892334 -2.155503273010254 0.6434241533279419 7.0 15 -0.04450315609574318
0.61149001121521 -1.2493098974227905 -0.37269943952560425 8.0 0 -0.04448242112994194
1.0510497093200684 -2.148305654525757 0.04174615815281868 9.0 8 -0.04448011517524719
0.7225528955459595 -1.477523684501648 -0.3797174096107483 7.0 1 -0.04447781294584274
1.0577912330627441 -2.1639978885650635 0.12623433768749237 7.0 9 -0.044475506991147995
0.9104555249214172 -1.8625829219818115 -0.40298861265182495 7.0 2 -0.044473204761743546
1.0609577894210815 -2.1714370250701904 0.2114398330450058 7.0 10 -0.0444708988070488
1.0844643115997314 -2.220529079437256 -0.391399085521698 111.0 3 -0.04446859657764435
1.055445909500122 -2.162069082260132 0.29541128873825073 6.0 11 -0.0444662906229496
1.0811841487884521 -2.2157745361328125 -0.3027234971523285 100.0 4 -0.04446398839354515
1.0521271228790283 -2.157180070877075 0.38013577461242676 7.0 12 -0.0444616824388504
1.0306191444396973 -2.1130824089050293 -0.20568755269050598 1.0 5 -0.04445938020944595
1.048737645149231 -2.151183605194092 0.46519237756729126 6.0 13 -0.044457074254751205
1.0516468286514282 -2.158106803894043 -0.12581564486026764 13.0 6 -0.044454772025346756
1.0470658540725708 -2.1496589183807373 0.5520299673080444 6.0 14 -0.04445246607065201
1.0442970991134644 -2.144925832748413 -0.041641443967819214 10.0 7 -0.04445016384124756
1.0507732629776 -2.159184455871582 0.6434241533279419 7.0 15 -0.04444785788655281
0.6037525534629822 -1.2444841861724854 -0.37062889337539673 8.0 0 -0.04442712292075157
1.0461617708206177 -2.1573591232299805 0.04185086861252785 8.0 8 -0.04442482069134712
0.7258908152580261 -1.497572898864746 -0.38421642780303955 7.0 1 -0.044422514736652374
1.0506092309951782 -2.1674938201904297 0.12623433768749237 7.0 9 -0.044420212507247925
0.8945319056510925 -1.8463149070739746 -0.3987908363342285 6.0 2 -0.04441790655255318
1.048161268234253 -2.164367914199829 0.21039395034313202 7.0 10 -0.04441560432314873
1.075845718383789 -2.2225229740142822 -0.3910861909389496 100.0 3 -0.04441329836845398
1.0478923320770264 -2.1657400131225586 0.29541128873825073 6.0 11 -0.04441099613904953
1.0738303661346436 -2.2193477153778076 -0.3027234971523285 100.0 4 -0.04440869018435478
1.0449680089950562 -2.1606571674346924 0.38013577461242676 7.0 12 -0.04440638795495033
1.0267056226730347 -2.123842239379883 -0.2063847929239273 1.0 5 -0.044404082000255585
1.0403679609298706 -2.1530635356903076 0.46481072902679443 6.0 13 -0.044401779770851135
1.0441070795059204 -2.161764621734619 -0.12581564486026764 12.0 6 -0.04439947381615639
1.0348461866378784 -2.1425905227661133 0.5493305325508118 6.0 14 -0.04439717158675194
1.0354400873184204 -2.144775152206421 -0.041571635752916336 9.0 7 -0.04439486563205719
1.0368906259536743 -2.148737907409668 0.6392830610275269 7.0 15 -0.04439256340265274
0.5929226279258728 -1.232552409172058 -0.3664877712726593 8.0 0 -0.0443718284368515
1.0312029123306274 -2.144597053527832 0.04153672605752945 9.0 8 -0.044369522482156754
0.7183880805969238 -1.4947025775909424 -0.3828667104244232 7.0 1 -0.044367220252752304
1.0451459884643555 -2.1745660305023193 0.12644368410110474 7.0 9 -0.044364914298057556
0.8969060778617859 -1.8669674396514893 -0.4026069939136505 6.0 2 -0.04436261206865311
1.037528395652771 -2.1606478691101074 0.2096967101097107 7.0 10 -0.04436030611395836
1.065050482749939 -2.2189548015594482 -0.3898347318172455 100.0 3 -0.04435800388455391
1.043280839920044 -2.174572229385376 0.2961425185203552 7.0 11 -0.04435569792985916
1.0673235654830933 -2.2246859073638916 -0.30296722054481506 100.0 4 -0.04435339570045471
1.0309638977050781 -2.1498610973358154 0.37763282656669617 7.0 12 -0.044351089745759964
1.0110450983047485 -2.1092686653137207 -0.2046416699886322 3.0 5 -0.044348787516355515
1.0323739051818848 -2.154730796813965 0.46442911028862 6.0 13 -0.04434648156166077
1.0352075099945068 -2.1616122722625732 -0.12560631334781647 12.0 6 -0.04434417933225632
1.0311024188995361 -2.153040647506714 0.5511301159858704 7.0 14 -0.04434187710285187
1.0300484895706177 -2.1518046855926514 -0.041641443967819214 11.0 7 -0.04433957114815712
1.0264240503311157 -2.1451942920684814 0.6372125148773193 7.0 15 -0.04433726891875267
0.593822181224823 -1.24497389793396 -0.36959362030029297 8.0 0 -0.04431653022766113
1.0206432342529297 -2.140784740447998 0.041397109627723694 9.0 8 -0.04431422799825668
0.7075592875480652 -1.484762191772461 -0.3797174096107483 7.0 1 -0.044311922043561935
1.0358312129974365 -2.1745948791503906 0.12623433768749237 7.0 9 -0.044309619814157486
0.8831114768981934 -1.8539793491363525 -0.39917242527008057 7.0 2 -0.04430731385946274
1.0286446809768677 -2.1604788303375244 0.20934809744358063 7.0 10 -0.04430501163005829
1.0576865673065186 -2.2224745750427246 -0.3898347318172455 100.0 3 -0.04430270567536354
1.024978518486023 -2.1547162532806396 0.29297390580177307 7.0 11 -0.04430040344595909
1.0604039430618286 -2.2301909923553467 -0.30321094393730164 100.0 4 -0.04429809749126434
1.0209094285964966 -2.148094654083252 0.3766942620277405 7.0 12 -0.044295795261859894
1.0023343563079834 -2.109010934829712 -0.20429305732250214 3.0 5 -0.044293493032455444
1.026908040046692 -2.161689519882202 0.46519237756729126 6.0 13 -0.044291187077760696
1.025463581085205 -2.159621000289917 -0.12529228627681732 13.0 6 -0.04428888484835625
1.0244159698486328 -2.1583876609802246 0.551580011844635 7.0 14 -0.0442865788936615
1.0208170413970947 -2.151773452758789 -0.041571635752916336 10.0 7 -0.04428427666425705
1.020585298538208 -2.152255058288574 0.6382477879524231 7.0 15 -0.0442819707095623
0.5911238789558411 -1.2505321502685547 -0.37062889337539673 8.0 0 -0.04426123574376106
1.0097472667694092 -2.137101888656616 0.04125748947262764 9.0 8 -0.044258929789066315
0.7023720145225525 -1.4872231483459473 -0.3797174096107483 7.0 1 -0.044256627559661865
1.02652907371521 -2.1745851039886475 0.1260250061750412 7.0 9 -0.04425432160496712
0.8866916298866272 -1.8783552646636963 -0.4037518799304962 7.0 2 -0.04425201937556267
1.0193966627120972 -2.160452365875244 0.20899945497512817 7.0 10 -0.04424971714615822
1.0482367277145386 -2.2225799560546875 -0.38920900225639343 100.0 3 -0.04424741119146347
1.0123721361160278 -2.147507429122925 0.29151150584220886 7.0 11 -0.04424510896205902
1.0449974536895752 -2.217717170715332 -0.30101728439331055 100.0 4 -0.04424280300736427
1.0142465829849243 -2.1534321308135986 0.3770070970058441 6.0 12 -0.044240500777959824
1.0060027837753296 -2.1359291076660156 -0.20655910670757294 7.0 5 -0.044238194823265076
1.0160109996795654 -2.158155679702759 0.4636658728122711 6.0 13 -0.044235892593860626
1.0136669874191284 -2.154151201248169 -0.124768927693367 12.0 6 -0.04423358663916588
1.0127285718917847 -2.153132915496826 0.5493305325508118 6.0 14 -0.04423128440976143
1.0158520936965942 -2.160752773284912 -0.041676346212625504 10.0 7 -0.04422897845506668
1.0130659341812134 -2.155804395675659 0.6382477879524231 7.0 15 -0.04422667622566223
0.5851161479949951 -1.249089241027832 -0.36959362030029297 8.0 0 -0.044205937534570694
1.0056730508804321 -2.147857904434204 0.041397109627723694 9.0 8 -0.044203635305166245
0.697176456451416 -1.4896657466888428 -0.3797174096107483 7.0 1 -0.044201333075761795
1.0138543844223022 -2.1673004627227783 0.1253969669342041 7.0 9 -0.04419902712106705
0.8748117089271545 -1.8709218502044678 -0.4014621376991272 7.0 2 -0.0441967248916626
1.0169124603271484 -2.1748266220092773 0.21004533767700195 7.0 10 -0.04419441893696785
1.0421448945999146 -2.229804277420044 -0.3898347318172455 100.0 3 -0.0441921167075634
1.009911060333252 -2.1618192195892334 0.29297390580177307 6.0 11 -0.04418981075286865
1.036409616470337 -2.219552755355835 -0.300773561000824 99.0 4 -0.0441875085234642
1.0058883428573608 -2.1551694869995117 0.3766942620277405 7.0 12 -0.044185202568769455
0.9914286136627197 -2.125157356262207 -0.2051646113395691 8.0 5 -0.044182900339365005
1.007264494895935 -2.160085916519165 0.46328428387641907 6.0 13 -0.04418059438467026
1.0108271837234497 -2.1687140464782715 -0.1253969669342041 13.0 6 -0.04417829215526581
0.9969739317893982 -2.1389920711517334 0.5448315143585205 7.0 14 -0.04417598620057106
1.0015475749969482 -2.149784803390503 -0.041397109627723694 10.0 7 -0.04417368397116661
1.0071659088134766 -2.162830114364624 0.6392830610275269 7.0 15 -0.04417137801647186
0.5789079070091248 -1.24772047996521 -0.3685583174228668 9.0 0 -0.044150643050670624
1.0028419494628906 -2.1624135971069336 0.041606537997722626 9.0 8 -0.044148340821266174
0.6949901580810547 -1.4992831945419312 -0.3815170228481293 7.0 1 -0.044146034866571426
1.003385066986084 -2.165565252304077 0.12508295476436615 8.0 9 -0.04414373263716698
0.8654733300209045 -1.8687711954116821 -0.4003172814846039 6.0 2 -0.04414142668247223
1.0055853128433228 -2.1713075637817383 0.20934809744358063 7.0 10 -0.04413912445306778
1.0323055982589722 -2.2300238609313965 -0.38920900225639343 100.0 3 -0.04413681849837303
1.000313639640808 -2.161903142929077 0.2924864590167999 7.0 11 -0.04413451626896858
1.029934048652649 -2.226940155029297 -0.3012610375881195 100.0 4 -0.044132210314273834
0.9938378930091858 -2.149876356124878 0.3751298785209656 6.0 12 -0.044129908084869385
0.978618860244751 -2.117924690246582 -0.2041187435388565 8.0 5 -0.04412760213017464
1.001810073852539 -2.169110059738159 0.46442911028862 6.0 13 -0.04412529990077019
1.0037087202072144 -2.174217462539673 -0.1255016326904297 13.0 6 -0.04412299394607544
0.9899440407752991 -2.1444008350372314 0.5452813506126404 7.0 14 -0.04412069171667099
0.9903103709220886 -2.1461780071258545 -0.04125748947262764 11.0 7 -0.04411838576197624
0.9959955811500549 -2.1594901084899902 0.6372125148773193 7.0 15 -0.04411608353257179
0.5711042881011963 -1.2428123950958252 -0.3664877712726593 8.0 0 -0.044095348566770554
0.9882320761680603 -2.1515374183654785 0.04132729768753052 9.0 8 -0.044093042612075806
0.6894904375076294 -1.5018203258514404 -0.3815170228481293 7.0 1 -0.044090740382671356
0.9996060132980347 -2.178304672241211 0.12560631334781647 7.0 9 -0.04408843442797661
0.8589447736740112 -1.8717808723449707 -0.4003172814846039 7.0 2 -0.04408613219857216
0.9934669733047485 -2.165923833847046 0.20847654342651367 8.0 10 -0.04408382624387741
1.0233021974563599 -2.231996774673462 -0.388896107673645 100.0 3 -0.04408152401447296
0.990729033946991 -2.1619458198547363 0.2919989824295044 7.0 11 -0.044079218059778214
1.0217652320861816 -2.2306997776031494 -0.3012610375881195 100.0 4 -0.044076915830373764
0.9884181022644043 -2.158892869949341 0.37606850266456604 7.0 12 -0.044074609875679016
0.9720490574836731 -2.1231396198272705 -0.20429305732250214 10.0 5 -0.04407230764627457
0.9885138869285583 -2.160097360610962 0.4617577791213989 6.0 13 -0.04407000169157982
0.9919593334197998 -2.168626546859741 -0.12497827410697937 12.0 6 -0.04406769946217537
0.9869396090507507 -2.158648729324341 0.547980785369873 7.0 14 -0.04406539350748062
0.9840998649597168 -2.153430700302124 -0.04132729768753052 11.0 7 -0.04406309127807617
0.9848635792732239 -2.156097173690796 0.6351419687271118 7.0 15 -0.04406078904867172
0.5667626857757568 -1.2447983026504517 -0.3664877712726593 8.0 0 -0.044040050357580185
0.9790593981742859 -2.151333808898926 0.04125748947262764 9.0 8 -0.044037748128175735
0.6794023513793945 -1.4935749769210815 -0.378817617893219 7.0 1 -0.04403544217348099
0.9911697506904602 -2.179962396621704 0.1255016326904297 8.0 9 -0.04403313994407654
0.8540311455726624 -1.8783420324325562 -0.40108051896095276 7.0 2 -0.04403083398938179
0.9867249727249146 -2.171192169189453 0.2086508423089981 7.0 10 -0.04402853175997734
1.006517767906189 -2.2157716751098633 -0.38545459508895874 100.0 3 -0.04402622580528259
0.9790729880332947 -2.156353235244751 0.29078027606010437 7.0 11 -0.04402392357587814
1.0139724016189575 -2.2342529296875 -0.3012610375881195 100.0 4 -0.044021617621183395
0.9800604581832886 -2.1605310440063477 0.37575563788414 7.0 12 -0.044019315391778946
0.9654552936553955 -2.1283342838287354 -0.20446737110614777 13.0 5 -0.0440170094370842
0.9801570177078247 -2.1617467403411865 0.4613761901855469 6.0 13 -0.04401470720767975
0.9827344417572021 -2.1684377193450928 -0.124768927693367 13.0 6 -0.0440124049782753
0.9777904748916626 -2.1585304737091064 0.5470809936523438 7.0 14 -0.04401009902358055
0.9782266616821289 -2.160496234893799 -0.041397109627723694 11.0 7 -0.0440077967941761
0.9773310422897339 -2.15952205657959 0.6351419687271118 7.0 15 -0.044005490839481354
0.567180335521698 -1.2573349475860596 -0.36959362030029297 8.0 0 -0.043984755873680115
0.9698999524116516 -2.151092529296875 0.04118768125772476 9.0 8 -0.04398244991898537
0.6693806648254395 -1.4852772951126099 -0.37611818313598633 7.0 1 -0.04398014768958092
0.9769914746284485 -2.1688411235809326 0.12466426193714142 8.0 9 -0.04397784173488617
0.8434373736381531 -1.8723617792129517 -0.39917242527008057 7.0 2 -0.04397553950548172
0.980775773525238 -2.1782567501068115 0.20899945497512817 7.0 10 -0.04397323355078697
0.9995880126953125 -2.2210729122161865 -0.3857674300670624 100.0 3 -0.04397093132138252
0.9699111580848694 -2.156137228012085 0.29029279947280884 7.0 11 -0.04396862909197807
1.0029109716415405 -2.230536937713623 -0.30028611421585083 100.0 4 -0.043966323137283325
0.9733226299285889 -2.1657402515411377 0.37606850266456604 7.0 12 -0.043964020907878876
0.9523031115531921 -2.1189699172973633 -0.20324717462062836 18.0 5 -0.04396171495318413
0.9726051092147827 -2.1651549339294434 0.4613761901855469 6.0 13 -0.04395941272377968
0.9727049469947815 -2.166388750076294 -0.12445490807294846 12.0 6 -0.04395710676908493
0.9686539769172668 -2.158374547958374 0.5461812019348145 7.0 14 -0.04395480453968048
0.9714975357055664 -2.165722370147705 -0.041432011872529984 11.0 7 -0.04395249858498573
0.9737390279769897 -2.171734094619751 0.6377301812171936 8.0 15 -0.043950196355581284
0.5627878904342651 -1.2593072652816772 -0.36959362030029297 8.0 0 -0.043929457664489746
0.9656475186347961 -2.1617679595947266 0.04132729768753052 9.0 8 -0.0439271554350853
0.6633976101875305 -1.4858254194259644 -0.3756682872772217 7.0 1 -0.04392485320568085
0.9661592245101929 -2.164942502975464 0.12424556910991669 8.0 9 -0.0439225472509861
0.8312960267066956 -1.8627448081970215 -0.3965010941028595 7.0 2 -0.04392024502158165
0.9764130115509033 -2.1889452934265137 0.2096967101097107 7.0 10 -0.0439179390668869
0.9910242557525635 -2.2227444648742676 -0.38545459508895874 100.0 3 -0.04391563683748245
0.9664193391799927 -2.1685755252838135 0.29151150584220886 7.0 11 -0.043913330882787704
0.9918880462646484 -2.2267706394195557 -0.2993111312389374 99.0 4 -0.043911028653383255
0.9625428318977356 -2.1619067192077637 0.37481701374053955 7.0 12 -0.04390872269868851
0.9465212225914001 -2.1259217262268066 -0.2035958170890808 25.0 5 -0.04390642046928406
0.9666377305984497 -2.172124147415161 0.46213942766189575 6.0 13 -0.04390411451458931
0.9651370644569397 -2.1697709560394287 -0.12445490807294846 13.0 6 -0.04390181228518486
0.9579470753669739 -2.1546199321746826 0.5443815588951111 7.0 14 -0.04389950633049011
0.9590592980384827 -2.1581361293792725 -0.04122258722782135 13.0 7 -0.04389720410108566
0.9637996554374695 -2.169823408126831 0.6361772418022156 7.0 15 -0.043894898146390915
0.5552604794502258 -1.2541979551315308 -0.36752307415008545 8.0 0 -0.043874163180589676
0.9564775228500366 -2.161468267440796 0.04125748947262764 9.0 8 -0.043871860951185226
0.6653013229370117 -1.5041719675064087 -0.3797174096107483 7.0 1 -0.04386955499649048
0.9634417295455933 -2.179262161254883 0.12487360835075378 8.0 9 -0.04386725276708603
0.8247887492179871 -1.8656352758407593 -0.3965010941028595 6.0 2 -0.04386494681239128
0.9639344811439514 -2.181406021118164 0.2086508423089981 7.0 10 -0.04386264458298683
0.9832596182823181 -2.2261900901794434 -0.38545459508895874 100.0 3 -0.043860338628292084
0.9612487554550171 -2.1773836612701416 0.29224270582199097 7.0 11 -0.043858036398887634
0.9857118129730225 -2.233851671218872 -0.2997986078262329 100.0 4 -0.043855730444192886
0.9494105577468872 -2.152601718902588 0.3726269602775574 6.0 12 -0.04385342821478844
0.9366827607154846 -2.123743772506714 -0.20307287573814392 28.0 5 -0.04385112226009369
0.9622176289558411 -2.1826705932617188 0.4636658728122711 6.0 13 -0.04384882003068924
0.9567517042160034 -2.1712992191314697 -0.12435024976730347 13.0 6 -0.04384651407599449
0.9496350288391113 -2.1561672687530518 0.5439317226409912 7.0 14 -0.04384421184659004
0.9482972621917725 -2.1541495323181152 -0.041082963347435 13.0 7 -0.043841905891895294
0.9515513181686401 -2.162564992904663 0.6330714225769043 8.0 15 -0.043839603662490845
0.5493271946907043 -1.252590298652649 -0.3664877712726593 8.0 0 -0.043818868696689606
0.9425038695335388 -2.150142192840576 0.04097824916243553 9.0 8 -0.04381656274199486
0.6545724868774414 -1.493990421295166 -0.376568078994751 7.0 1 -0.04381426051259041
0.9558287262916565 -2.1826119422912598 0.12487360835075378 8.0 9 -0.04381195455789566
0.8119708895683289 -1.8541159629821777 -0.393448144197464 6.0 2 -0.04380965232849121
0.9531182646751404 -2.1774566173553467 0.20795360207557678 7.0 10 -0.04380734637379646
0.973107635974884 -2.22417950630188 -0.3845159709453583 100.0 3 -0.043805044144392014
0.9504609107971191 -2.1734507083892822 0.2912677526473999 7.0 11 -0.043802738189697266
0.9779081344604492 -2.237278699874878 -0.2997986078262329 97.0 4 -0.043800435960292816
0.9458449482917786 -2.1649534702301025 0.3741912841796875 7.0 12 -0.04379813000559807
0.9268707633018494 -2.121523141860962 -0.20254994928836823 30.0 5 -0.04379582777619362
0.9451647400856018 -2.16442608833313 0.45908647775650024 6.0 13 -0.04379352182149887
0.9515637159347534 -2.180117130279541 -0.12466426193714142 14.0 6 -0.04379121959209442
0.9428816437721252 -2.161255121231079 0.5443815588951111 7.0 14 -0.04378891363739967
0.940772294998169 -2.1574466228485107 -0.041082963347435 13.0 7 -0.043786611407995224
0.9447688460350037 -2.1676442623138428 0.6335890889167786 8.0 15 -0.043784305453300476
0.5438488125801086 -1.250766634941101 -0.36545249819755554 8.0 0 -0.0437774658203125
0.9357442855834961 -2.153092622756958 0.04097824916243553 9.0 8 -0.04377516359090805
0.6475464701652527 -1.4906774759292603 -0.37521839141845703 7.0 1 -0.0437728576362133
0.9457854628562927 -2.1782755851745605 0.12445490807294846 8.0 9 -0.04377055540680885
0.8131793141365051 -1.8728652000427246 -0.3968827426433563 7.0 2 -0.043768249452114105
0.9454795718193054 -2.178612470626831 0.20777928829193115 8.0 10 -0.043765947222709656
0.9629707336425781 -2.2199766635894775 -0.3832644820213318 100.0 3 -0.04376364126801491
0.9388903975486755 -2.1654982566833496 0.2898053228855133 7.0 11 -0.04376133903861046
0.9708746075630188 -2.240339994430542 -0.2997986078262329 100.0 4 -0.04375903308391571
0.9366833567619324 -2.1624763011932373 0.3732526898384094 6.0 12 -0.04375673085451126
0.9222054481506348 -2.130070447921753 -0.20307287573814392 38.0 5 -0.04375442489981651
0.9430406093597412 -2.178194522857666 0.4613761901855469 6.0 13 -0.043752122670412064
0.9407438039779663 -2.1739306449890137 -0.1241409033536911 14.0 6 -0.043749816715717316
0.939181923866272 -2.171360969543457 0.5461812019348145 7.0 14 -0.043747514486312866
0.9363706707954407 -2.165898323059082 -0.04118768125772476 15.0 7 -0.04374520853161812
0.9364216327667236 -2.1670548915863037 0.63255375623703 8.0 15 -0.04374290630221367
0.5423161387443542 -1.259849190711975 -0.36752307415008545 8.0 0 -0.04372217133641243
0.9305950403213501 -2.161855936050415 0.041082963347435 10.0 8 -0.04371986538171768
0.6423390507698059 -1.4929287433624268 -0.37521839141845703 7.0 1 -0.04371756315231323
0.9350199103355408 -2.174224853515625 0.12403623014688492 8.0 9 -0.043715257197618484
0.8086352944374084 -1.8812440633773804 -0.39802759885787964 6.0 2 -0.043712954968214035
0.942207396030426 -2.193046808242798 0.20882515609264374 8.0 10 -0.04371064901351929
0.9548274278640747 -2.2234914302825928 -0.3832644820213318 100.0 3 -0.04370834678411484
0.9281921982765198 -2.161466360092163 0.28883036971092224 7.0 11 -0.04370604082942009
0.959916889667511 -2.2364187240600586 -0.29882365465164185 94.0 4 -0.04370373860001564
0.9345811009407043 -2.1784403324127197 0.375442773103714 7.0 12 -0.04370143264532089
0.9155493378639221 -2.1351075172424316 -0.20324717462062836 39.0 5 -0.04369913041591644
0.932730495929718 -2.176222562789917 0.46023133397102356 6.0 13 -0.043696824461221695
0.9304102063179016 -2.171856641769409 -0.12382689118385315 14.0 6 -0.043694522231817245
0.9266147613525391 -2.1640400886535645 0.5434817671775818 7.0 14 -0.0436922162771225
0.9311656951904297 -2.174668312072754 -0.04129239544272423 15.0 7 -0.04368991404771805
0.9288514256477356 -2.1703104972839355 0.63255375623703 8.0 15 -0.0436876080930233
0.5379152894020081 -1.2617344856262207 -0.36752307415008545 8.0 0 -0.04366687312722206
0.9210973381996155 -2.1615731716156006 0.04101315513253212 10.0 8 -0.04366457089781761
0.6399173140525818 -1.5024445056915283 -0.377018004655838 7.0 1 -0.043662264943122864
0.9227288961410522 -2.166450023651123 0.12340819090604782 9.0 9 -0.043659962713718414
0.8043707013130188 -1.8894743919372559 -0.39917242527008057 7.0 2 -0.043657656759023666
0.9314259886741638 -2.1889889240264893 0.20812790095806122 8.0 10 -0.04365535452961922
0.9486066102981567 -2.2304463386535645 -0.3838902413845062 100.0 3 -0.04365304857492447
0.9187108874320984 -2.1612000465393066 0.2883428931236267 7.0 11 -0.04365074634552002
0.9470557570457458 -2.228959560394287 -0.29736122488975525 100.0 4 -0.04364844039082527
0.9223362803459167 -2.170780658721924 0.37356552481651306 7.0 12 -0.04364613816142082
0.906533420085907 -2.134622573852539 -0.2028985619544983 41.0 5 -0.043643832206726074
0.9243608713150024 -2.1776580810546875 0.45984968543052673 6.0 13 -0.043641529977321625
0.9236032366752625 -2.176929473876953 -0.12393154948949814 16.0 6 -0.04363922402262688
0.9175337553024292 -2.163673162460327 0.5425819754600525 7.0 14 -0.04363692179322243
0.9181041717529297 -2.165018320083618 -0.04104805737733841 18.0 7 -0.04363461956381798
0.9227777123451233 -2.1770968437194824 0.6335890889167786 8.0 15 -0.04363231360912323
0.5320046544075012 -1.2600451707839966 -0.3664877712726593 8.0 0 -0.04361157864332199
0.9154797196388245 -2.168300151824951 0.041082963347435 11.0 8 -0.04360927268862724
0.637204647064209 -1.5099444389343262 -0.37836769223213196 7.0 1 -0.043606970459222794
0.9182660579681396 -2.177018880844116 0.12382689118385315 9.0 9 -0.043604664504528046
0.7893805503845215 -1.8723711967468262 -0.39497464895248413 7.0 2 -0.043602362275123596
0.9206845760345459 -2.184882879257202 0.2074306607246399 8.0 10 -0.04360005632042885
0.9404378533363342 -2.231759548187256 -0.3835773468017578 100.0 3 -0.0435977540910244
0.9146212935447693 -2.1715524196624756 0.2893178462982178 7.0 11 -0.04359544813632965
0.9411993622779846 -2.2357470989227295 -0.2978487014770508 97.0 4 -0.0435931459069252
0.9101564288139343 -2.163062572479248 0.3716883361339569 7.0 12 -0.04359084367752075
0.8967596888542175 -2.1322641372680664 -0.2023756206035614 44.0 5 -0.043588537722826004
0.9201794266700745 -2.187950372695923 0.4613761901855469 6.0 13 -0.043586235493421555
0.9171534776687622 -2.181821584701538 -0.12403623014688492 17.0 6 -0.04358392953872681
0.9073342084884644 -2.159517526626587 0.5407823324203491 7.0 14 -0.04358162730932236
0.9058953523635864 -2.1571476459503174 -0.040838632732629776 21.0 7 -0.04357932135462761
0.9106866717338562 -2.169616937637329 0.6304832100868225 8.0 15 -0.04357701912522316
0.5248413681983948 -1.2546736001968384 -0.36441725492477417 8.0 0 -0.04355628043413162
0.9032773375511169 -2.1604127883911133 0.040873534977436066 11.0 8 -0.04355397820472717
0.6281729936599731 -1.5031694173812866 -0.37611818313598633 7.0 1 -0.043551672250032425
0.9122004508972168 -2.183897018432617 0.12403623014688492 9.0 9 -0.043549370020627975
0.7854372262954712 -1.8804134130477905 -0.39611950516700745 7.0 2 -0.04354706406593323
0.9088287949562073 -2.1768925189971924 0.2063847929239273 8.0 10 -0.04354476183652878
0.9288383722305298 -2.2259132862091064 -0.3820130228996277 100.0 3 -0.04354245960712433
0.9108559489250183 -2.1838924884796143 0.2905365228652954 7.0 11 -0.04354015365242958
0.9349173903465271 -2.2426836490631104 -0.2983361780643463 100.0 4 -0.04353785142302513
0.9056393504142761 -2.173520088195801 0.372939795255661 7.0 12 -0.04353554546833038
0.8870129585266113 -2.129863977432251 -0.2018527090549469 53.0 5 -0.043533243238925934
0.9087621569633484 -2.1820874214172363 0.4594680964946747 6.0 13 -0.043530937284231186
0.9079967737197876 -2.1813220977783203 -0.12382689118385315 17.0 6 -0.043528635054826736
0.8967962265014648 -2.1554746627807617 0.5389827489852905 7.0 14 -0.04352632910013199
0.8983601331710815 -2.160296678543091 -0.040838632732629776 21.0 7 -0.04352402687072754
0.9016247987747192 -2.169214963912964 0.6294479370117188 8.0 15 -0.04352172091603279
0.5217171907424927 -1.260158658027649 -0.36545249819755554 10.0 0 -0.04350098595023155
0.8911410570144653 -2.1524672508239746 0.040664106607437134 11.0 8 -0.043498679995536804
0.6199415922164917 -1.49815034866333 -0.37431856989860535 7.0 1 -0.043496377766132355
0.9045718908309937 -2.187067747116089 0.12403623014688492 9.0 9 -0.043494075536727905
0.768789529800415 -1.8596930503845215 -0.39115849137306213 6.0 2 -0.04349176958203316
0.905409038066864 -2.1912569999694824 0.2074306607246399 8.0 10 -0.04348946735262871
0.9184116721153259 -2.223825454711914 -0.3810743987560272 100.0 3 -0.04348716139793396
0.8941345810890198 -2.165041208267212 0.2876116633415222 7.0 11 -0.04348485916852951
0.927082896232605 -2.2459335327148438 -0.2983361780643463 100.0 4 -0.04348255321383476
0.9003069400787354 -2.1821463108062744 0.3738784193992615 7.0 12 -0.04348025098443031
0.8803327083587646 -2.134789228439331 -0.20202700793743134 58.0 5 -0.043477945029735565
0.8970175385475159 -2.176327705383301 0.4575599730014801 6.0 13 -0.043475642800331116
0.8931486010551453 -2.1680150032043457 -0.1228848323225975 18.0 6 -0.04347333684563637
0.8933420777320862 -2.1695587635040283 0.5416821837425232 7.0 14 -0.04347103461623192
0.8930981755256653 -2.16896653175354 -0.04094334691762924 24.0 7 -0.04346872866153717
0.8925767540931702 -2.168775796890259 0.628412663936615 8.0 15 -0.04346642643213272
0.5180478692054749 -1.2637594938278198 -0.3659701347351074 11.0 0 -0.04344569146633148
0.8847620487213135 -2.1594197750091553 0.04073391854763031 11.0 8 -0.043443385511636734
0.6144465804100037 -1.5004123449325562 -0.37431856989860535 7.0 1 -0.043441083282232285
0.8920102715492249 -2.1792778968811035 0.12340819090604782 9.0 9 -0.04343877732753754
0.7719614505767822 -1.8859856128692627 -0.39611950516700745 7.0 2 -0.04343647509813309
0.8962457776069641 -2.19071626663208 0.20708204805850983 8.0 10 -0.04343416914343834
0.9106431007385254 -2.227017879486084 -0.3810743987560272 100.0 3 -0.04343186691403389
0.8876951336860657 -2.171978712081909 0.28809913992881775 7.0 11 -0.04342956095933914
0.9158422946929932 -2.2419655323028564 -0.29736122488975525 94.0 4 -0.04342725872993469
0.8908095359802246 -2.181774139404297 0.3732526898384094 7.0 12 -0.043424952775239944
0.872122049331665 -2.136004686355591 -0.2018527090549469 59.0 5 -0.043422650545835495
0.887190043926239 -2.173992395401001 0.4564151465892792 6.0 13 -0.04342034459114075
0.8855755925178528 -2.171119213104248 -0.1228848323225975 18.0 6 -0.0434180423617363
0.8842917680740356 -2.1690549850463867 0.5407823324203491 7.0 14 -0.04341573640704155
0.883633017539978 -2.1685216426849365 -0.040873534977436066 28.0 7 -0.0434134341776371
0.8875367641448975 -2.1791892051696777 0.6304832100868225 8.0 15 -0.04341112822294235
0.5107275247573853 -1.2583999633789062 -0.3638995885848999 13.0 0 -0.04339039325714111
0.8794741630554199 -2.1680538654327393 0.040838632732629776 12.0 8 -0.043388091027736664
0.6092052459716797 -1.502548098564148 -0.37431856989860535 7.0 1 -0.043385785073041916
0.8813974261283875 -2.174974203109741 0.12298951297998428 9.0 9 -0.043383482843637466
0.7579998970031738 -1.8704731464385986 -0.3923032879829407 7.0 2 -0.04338117688894272
0.8915849924087524 -2.2012178897857666 0.20777928829193115 8.0 10 -0.04337887465953827
0.9043464660644531 -2.233844757080078 -0.3817001283168793 100.0 3 -0.04337656870484352
0.8801080584526062 -2.1750643253326416 0.28809913992881775 8.0 11 -0.04337426647543907
0.9035452604293823 -2.234107255935669 -0.29589879512786865 99.0 4 -0.043371960520744324
0.8817078471183777 -2.1812071800231934 0.3726269602775574 7.0 12 -0.043369658291339874
0.8661543130874634 -2.142730236053467 -0.20220132172107697 61.0 5 -0.043367352336645126
0.8825377821922302 -2.1843574047088623 0.45794162154197693 6.0 13 -0.04336505010724068
0.8787391781806946 -2.1760497093200684 -0.12298951297998428 20.0 6 -0.04336274415254593
0.8752564191818237 -2.1685142517089844 0.5398825407028198 7.0 14 -0.04336044192314148
0.8738139271736145 -2.166029691696167 -0.0407688245177269 28.0 7 -0.04335813969373703
0.8799242377281189 -2.182274341583252 0.6304832100868225 8.0 15 -0.04335583373904228
0.5056115388870239 -1.2583825588226318 -0.363381952047348 10.0 0 -0.04333509877324104
0.8696652054786682 -2.165543794631958 0.04073391854763031 12.0 8 -0.043332792818546295
0.6039567589759827 -1.5046653747558594 -0.37431856989860535 7.0 1 -0.043330490589141846
0.874180018901825 -2.177885055541992 0.12298951297998428 9.0 9 -0.0433281846344471
0.7500038743019104 -1.869463562965393 -0.3915400803089142 7.0 2 -0.04332588240504265
0.874997615814209 -2.1821255683898926 0.20568755269050598 8.0 10 -0.0433235764503479
0.8965436220169067 -2.236987829208374 -0.3817001283168793 100.0 3 -0.04332127422094345
0.873986542224884 -2.1818087100982666 0.2885866165161133 7.0 11 -0.0433189682662487
0.8976079225540161 -2.240776777267456 -0.2963862717151642 100.0 4 -0.043316666036844254
0.8730013370513916 -2.1804513931274414 0.37200120091438293 7.0 12 -0.043314360082149506
0.8549684882164001 -2.136491537094116 -0.20132976770401 67.0 5 -0.043312057852745056
0.8770948052406311 -2.1928932666778564 0.45908647775650024 6.0 13 -0.04330975562334061
0.8681725859642029 -2.171685218811035 -0.12257081270217896 22.0 6 -0.04330744966864586
0.8716773390769958 -2.180452346801758 0.5421320796012878 7.0 14 -0.04330514743924141
0.8614321351051331 -2.155916690826416 -0.04052448645234108 29.0 7 -0.04330284148454666
0.8698169589042664 -2.1780037879943848 0.628412663936615 8.0 15 -0.04330053925514221
0.49715012311935425 -1.2492825984954834 -0.36027613282203674 9.0 0 -0.043279800564050674
0.8610010147094727 -2.1646997928619385 0.040664106607437134 12.0 8 -0.043277498334646225
0.598963737487793 -1.506659984588623 -0.37431856989860535 7.0 1 -0.04327519237995148
0.8713800311088562 -2.1919078826904297 0.12361754477024078 9.0 9 -0.04327289015054703
0.7445252537727356 -1.8737651109695435 -0.3919216990470886 7.0 2 -0.04327058419585228
0.8677567839622498 -2.1850152015686035 0.20568755269050598 8.0 10 -0.04326828196644783
0.8862054347991943 -2.232604742050171 -0.38044866919517517 100.0 3 -0.04326597601175308
0.8667465448379517 -2.18469500541687 0.2885866165161133 8.0 11 -0.04326367378234863
0.891636312007904 -2.2474312782287598 -0.2968737483024597 97.0 4 -0.04326137155294418
0.8643097877502441 -2.179661989212036 0.3713754713535309 7.0 12 -0.043259065598249435
0.8434743881225586 -2.128201723098755 -0.20028388500213623 67.0 5 -0.043256763368844986
0.8676488399505615 -2.1903140544891357 0.45794162154197693 6.0 13 -0.04325445741415024
0.8639071583747864 -2.1819803714752197 -0.12298951297998428 21.0 6 -0.04325215518474579
0.8587027788162231 -2.1688358783721924 0.5385328531265259 7.0 14 -0.04324984923005104
0.8586934804916382 -2.1699178218841553 -0.04073391854763031 31.0 7 -0.04324754700064659
0.8569052815437317 -2.1665048599243164 0.6242715716362 8.0 15 -0.04324524104595184
0.49442121386528015 -1.254518985748291 -0.3613114058971405 8.0 0 -0.043224506080150604
0.8508862257003784 -2.1601006984710693 0.04052448645234108 13.0 8 -0.043222200125455856
0.5968196988105774 -1.5158910751342773 -0.37611818313598633 7.0 1 -0.04321989789605141
0.8622609972953796 -2.1912190914154053 0.12340819090604782 9.0 9 -0.04321759194135666
0.7375890016555786 -1.874396562576294 -0.3915400803089142 7.0 2 -0.04321528971195221
0.8575891852378845 -2.180464267730713 0.20499029755592346 8.0 10 -0.04321298748254776
0.8759061098098755 -2.228177547454834 -0.3791971802711487 100.0 3 -0.04321068152785301
0.8551417589187622 -2.176471710205078 0.2871242165565491 7.0 11 -0.04320837929844856
0.8852372169494629 -2.254225254058838 -0.29736122488975525 97.0 4 -0.043206073343753815
0.8581394553184509 -2.186343193054199 0.37200120091438293 7.0 12 -0.043203771114349365
0.8385961055755615 -2.1365509033203125 -0.20080682635307312 71.0 5 -0.04320146515965462
0.8575127124786377 -2.185868501663208 0.4564151465892792 6.0 13 -0.04319916293025017
0.8537505269050598 -2.1773953437805176 -0.12257081270217896 21.0 6 -0.04319685697555542
0.8553934693336487 -2.182706356048584 0.5412322878837585 7.0 14 -0.04319455474615097
0.8496549129486084 -2.1691782474517822 -0.040664106607437134 29.0 7 -0.04319224879145622
0.8493377566337585 -2.169482707977295 0.6242715716362 9.0 15 -0.04318994656205177
0.49003908038139343 -1.2562371492385864 -0.3613114058971405 10.0 0 -0.043169211596250534
0.8440675139427185 -2.1649208068847656 0.04055939242243767 13.0 8 -0.043166905641555786
0.5830338597297668 -1.4961762428283691 -0.37071937322616577 7.0 1 -0.04316460341215134
0.8473580479621887 -2.175604820251465 0.12236147373914719 9.0 9 -0.04316229745745659
0.7324663996696472 -1.8806188106536865 -0.3923032879829407 7.0 2 -0.04315999522805214
0.8543094396591187 -2.194584369659424 0.20603616535663605 8.0 10 -0.04315768927335739
0.8681228756904602 -2.2312214374542236 -0.3791971802711487 100.0 3 -0.04315538704395294
0.8417834639549255 -2.164642333984375 0.28517428040504456 8.0 11 -0.043153081089258194
0.8744866251945496 -2.2499008178710938 -0.2963862717151642 94.0 4 -0.043150778859853745
0.854079008102417 -2.1985318660736084 0.37356552481651306 8.0 12 -0.043148472905159
0.8296900391578674 -2.1357510089874268 -0.20045821368694305 70.0 5 -0.04314617067575455
0.8470351099967957 -2.181527853012085 0.4548886716365814 7.0 13 -0.0431438647210598
0.8418092727661133 -2.1691906452178955 -0.12194279581308365 22.0 6 -0.04314156249165535
0.8435408473014832 -2.1747775077819824 0.5385328531265259 7.0 14 -0.0431392565369606
0.8449692726135254 -2.179588794708252 -0.04080372676253319 31.0 7 -0.04313695430755615
0.8431552648544312 -2.176036834716797 0.6253068447113037 8.0 15 -0.043134648352861404
0.4745185971260071 -1.22910475730896 -0.35302919149398804 15.0 0 -0.043113913387060165
0.836505115032196 -2.167854070663452 0.04055939242243767 13.0 8 -0.043111611157655716
0.5806126594543457 -1.5054750442504883 -0.37251898646354675 7.0 1 -0.04310930520296097
0.8397588133811951 -2.178549289703369 0.12236147373914719 9.0 9 -0.04310700297355652
0.725897490978241 -1.8831640481948853 -0.3923032879829407 7.0 2 -0.04310469701886177
0.8466433882713318 -2.1975533962249756 0.20603616535663605 8.0 10 -0.04310239478945732
0.8603293299674988 -2.2342379093170166 -0.3791971802711487 100.0 3 -0.04310008883476257
0.8399266004562378 -2.1823885440826416 0.2871242165565491 8.0 11 -0.043097786605358124
0.8623513579368591 -2.2418229579925537 -0.2949238419532776 100.0 4 -0.043095480650663376
0.8407284617424011 -2.1867494583129883 0.37106260657310486 8.0 12 -0.043093178421258926
0.8243746161460876 -2.1442129611968994 -0.20098112523555756 80.0 5 -0.04309087246656418
0.8450489044189453 -2.199132204055786 0.45794162154197693 6.0 13 -0.04308857023715973
0.8356643915176392 -2.17584490776062 -0.12215213477611542 22.0 6 -0.04308626428246498
0.8310557007789612 -2.164973735809326 0.5353835225105286 7.0 14 -0.04308396205306053
0.8330578207969666 -2.17132306098938 -0.040594298392534256 32.0 7 -0.043081656098365784
0.839704692363739 -2.1897895336151123 0.628412663936615 8.0 15 -0.043079353868961334
0.4647095799446106 -1.2163165807724 -0.3488880693912506 19.0 0 -0.043058618903160095
0.834639847278595 -2.1857056617736816 0.040838632732629776 14.0 8 -0.04305631294846535
0.5739642381668091 -1.5038511753082275 -0.37161916494369507 7.0 1 -0.0430540107190609
0.832149088382721 -2.181467294692993 0.12236147373914719 9.0 9 -0.04305170476436615
0.7130220532417297 -1.8691775798797607 -0.3888687491416931 6.0 2 -0.0430494025349617
0.8332893252372742 -2.1856019496917725 0.2046416699886322 8.0 10 -0.04304709658026695
0.8525251746177673 -2.237227439880371 -0.3791971802711487 100.0 3 -0.0430447943508625
0.8323032259941101 -2.185307502746582 0.2871242165565491 8.0 11 -0.043042488396167755
0.8545209765434265 -2.244819402694702 -0.2949238419532776 100.0 4 -0.043040186166763306
0.8274708390235901 -2.174900531768799 0.36855965852737427 8.0 12 -0.04303788021206856
0.8140512704849243 -2.1396288871765137 -0.20028388500213623 85.0 5 -0.04303557798266411
0.8324823975563049 -2.189223289489746 0.45527029037475586 7.0 13 -0.04303327202796936
0.8294834494590759 -2.1824824810028076 -0.12236147373914719 22.0 6 -0.04303096979856491
0.8241854310035706 -2.1696834564208984 0.535833477973938 7.0 14 -0.04302866756916046
0.8226344585418701 -2.1667394638061523 -0.0404546782374382 36.0 7 -0.043026361614465714
0.8293141722679138 -2.1854825019836426 0.6263421177864075 8.0 15 -0.043024059385061264
0.4543122351169586 -1.2016681432724 -0.3442293405532837 22.0 0 -0.04300332069396973
