# .PCD v0.7 - Point Cloud Data file format
VERSION 0.7
FIELDS x y z intensity ring time
SIZE 4 4 4 4 4 4
TYPE F F F F F F
COUNT 1 1 1 1 1 1
WIDTH 548
HEIGHT 1
VIEWPOINT 0 0 0 1 0 0 0
POINTS 548
DATA ascii
-2.9434778690338135 0.9774526953697205 0.05413736775517464 3.0 8 -0.0725773349404335
-3.1050209999084473 1.0316988229751587 -0.75538569688797 30.0 1 -0.07257503271102905
-2.9736649990081787 0.9886303544044495 0.16423025727272034 3.0 9 -0.0725727304816246
-3.111813545227051 1.0351619720458984 0.28691670298576355 57.0 10 -0.07256811857223511
-2.3447229862213135 0.7804394960403442 -0.391399085521698 2.0 3 -0.07256581634283066
-3.0906388759613037 1.0293171405792236 0.3999752104282379 62.0 11 -0.07256351411342621
-2.3559811115264893 0.7851003408432007 -0.3049171268939972 8.0 4 -0.07256120443344116
-3.088273048400879 1.0297267436981201 0.5156080722808838 87.0 12 -0.07255890220403671
-3.0914902687072754 1.031399130821228 0.6334859132766724 71.0 13 -0.07255429774522781
-2.447681427001953 0.817082941532135 -0.13523612916469574 43.0 6 -0.07255198806524277
-3.0793678760528564 1.0285494327545166 0.7495369911193848 83.0 14 -0.07254968583583832
-2.9283194541931152 0.9786653518676758 -0.05389302968978882 1.0 7 -0.07254738360643387
-3.0523247718811035 1.0207010507583618 0.862385094165802 102.0 15 -0.07254508137702942
-2.9778201580047607 0.9998329877853394 -0.841679573059082 4.0 0 -0.07252434641122818
-2.9324655532836914 0.9851741194725037 0.053997743874788284 3.0 8 -0.07252203673124313
-3.112483501434326 1.0462573766708374 -0.7580850720405579 29.0 1 -0.07251973450183868
-2.981729030609131 1.0023044347763062 0.16485828161239624 3.0 9 -0.07251743227243423
-2.3092775344848633 0.7767086625099182 -0.4735879600048065 1.0 2 -0.07251513004302979
-3.100627899169922 1.0434759855270386 0.28621944785118103 57.0 10 -0.07251282036304474
-2.3176469802856445 0.7804248332977295 -0.3873317837715149 8.0 3 -0.07251051813364029
-3.1039583683013916 1.0458030700683594 0.402168869972229 65.0 11 -0.07250821590423584
-2.3325343132019043 0.7863439321517944 -0.30223599076271057 18.0 4 -0.07250591367483139
-3.0885848999023438 1.0412236452102661 0.5162338018417358 87.0 12 -0.07250360399484634
-3.089731454849243 1.0428121089935303 0.6338675618171692 81.0 13 -0.07249899953603745
-2.13258957862854 0.7201821804046631 -0.11796525865793228 10.0 6 -0.072496697306633
-3.083143472671509 1.0417873859405518 0.7513365745544434 92.0 14 -0.07249439507722855
-2.925058126449585 0.9883707165718079 -0.05389302968978882 1.0 7 -0.0724920853972435
-3.0525832176208496 1.0320549011230469 0.8634203672409058 102.0 15 -0.07248978316783905
-2.9779703617095947 1.0114641189575195 -0.8427148461341858 4.0 0 -0.07246904820203781
-2.936756134033203 0.9974657893180847 0.05413736775517464 3.0 8 -0.07246674597263336
-3.108997106552124 1.0565723180770874 -0.7580850720405579 29.0 1 -0.07246443629264832
-2.993339776992798 1.0178498029708862 0.1656956523656845 3.0 9 -0.07246213406324387
-2.2470762729644775 0.7645292282104492 -0.4613761901855469 1.0 2 -0.07245983183383942
-3.113941192626953 1.0600723028182983 0.2877882421016693 59.0 10 -0.07245752960443497
-2.268296480178833 0.7721913456916809 -0.3795100450515747 9.0 3 -0.07245521992444992
-3.0891988277435303 1.0522501468658447 0.4007064402103424 65.0 11 -0.07245291769504547
-2.320519208908081 0.7908727526664734 -0.30101728439331055 21.0 4 -0.07245061546564102
-3.1054978370666504 1.0590126514434814 0.5196753740310669 93.0 12 -0.07244831323623657
-3.079258918762207 1.0506649017333984 -0.28465065360069275 23.0 5 -0.07244601100683212
-3.0843982696533203 1.0524184703826904 0.6334859132766724 83.0 13 -0.07244370132684708
-2.056474208831787 0.7020835876464844 -0.11388305574655533 59.0 6 -0.07244139909744263
-3.0852041244506836 1.0538958311080933 0.7526862621307373 89.0 14 -0.07243909686803818
-2.9215900897979736 0.9985751509666443 -0.05389302968978882 1.0 7 -0.07243679463863373
-3.0654137134552 1.0483295917510986 0.8680790662765503 106.0 15 -0.07243448495864868
-2.9672913551330566 1.018824577331543 -0.8406442999839783 4.0 0 -0.07241374999284744
-2.959733247756958 1.016806960105896 0.05462603271007538 4.0 8 -0.072411447763443
-3.1016042232513428 1.0661513805389404 -0.7571852803230286 30.0 1 -0.07240914553403854
-2.9822139739990234 1.0256940126419067 0.16527697443962097 3.0 9 -0.0724068358540535
-2.1944026947021484 0.7547364234924316 -0.45107248425483704 5.0 2 -0.07240453362464905
-3.1179449558258057 1.0729855298995972 0.28848549723625183 65.0 10 -0.0724022313952446
-2.2469098567962646 0.7736733555793762 -0.37638136744499207 9.0 3 -0.07239992916584015
-3.08738374710083 1.063673734664917 0.40095019340515137 71.0 11 -0.0723976269364357
-2.283963441848755 0.7873231768608093 -0.29662999510765076 27.0 4 -0.07239531725645065
-3.107384204864502 1.0717787742614746 0.520613968372345 91.0 12 -0.0723930150270462
-3.088942527770996 1.065418004989624 -0.28587085008621216 39.0 5 -0.07239071279764175
-3.08256196975708 1.0638184547424316 0.6338675618171692 78.0 13 -0.0723884105682373
-2.038907527923584 0.7040432095527649 -0.11304567754268646 75.0 6 -0.07238610088825226
-3.079664468765259 1.064022421836853 0.7522363662719727 86.0 14 -0.07238379865884781
-2.9180867671966553 1.0087666511535645 -0.05389302968978882 1.0 7 -0.07238149642944336
-3.0653867721557617 1.0602872371673584 0.8691143989562988 104.0 15 -0.07237919420003891
-2.981966495513916 1.0355135202407837 -0.8458206653594971 4.0 0 -0.07235845178365707
-2.9448323249816895 1.0231934785842896 0.05441660061478615 3.0 8 -0.07235614955425262
-3.107067108154297 1.0801712274551392 -0.7594348192214966 31.0 1 -0.07235384732484818
-2.9823882579803467 1.037410020828247 0.16548630595207214 3.0 9 -0.07235154509544373
-2.1528148651123047 0.7488467693328857 -0.44305849075317383 7.0 2 -0.07234924286603928
-3.117943525314331 1.08517324924469 0.2888341248035431 61.0 10 -0.07234693318605423
-2.2274060249328613 0.7756646871566772 -0.37356552481651306 13.0 3 -0.07234463095664978
-3.0948991775512695 1.078363299369812 0.4024125933647156 68.0 11 -0.07234232872724533
-2.256833553314209 0.7867962718009949 -0.293461412191391 24.0 4 -0.07234002649784088
-3.0998940467834473 1.0813171863555908 0.5199882388114929 91.0 12 -0.07233771681785583
-3.0626299381256104 1.0683186054229736 -0.2837790846824646 3.0 5 -0.07233541458845139
-3.0955119132995605 1.0803945064544678 0.6373021006584167 87.0 13 -0.07233311235904694
-2.045865535736084 0.7144483923912048 -0.11356903612613678 61.0 6 -0.07233081012964249
-3.0777716636657715 1.0754081010818481 0.7526862621307373 89.0 14 -0.07232850044965744
-2.914547920227051 1.018946647644043 -0.05389302968978882 1.0 7 -0.07232619822025299
-3.0689611434936523 1.0735325813293457 0.8711849451065063 108.0 15 -0.07232389599084854
-2.972865581512451 1.0439952611923218 -0.844267725944519 5.0 0 -0.0723031610250473
-2.9563355445861816 1.0387706756591797 0.054695840924978256 3.0 8 -0.07230085879564285
-3.117985248565674 1.0961811542510986 -0.7630340456962585 18.0 1 -0.0722985491156578
-2.9862852096557617 1.0504646301269531 0.16590499877929688 3.0 9 -0.07229624688625336
-2.1261115074157715 0.7478873133659363 -0.43809744715690613 19.0 2 -0.07229394465684891
-3.112257480621338 1.0953881740570068 0.28865981101989746 65.0 10 -0.07229164242744446
-2.2153687477111816 0.7801543474197388 -0.37200120091438293 13.0 3 -0.07228933274745941
-3.1023499965667725 1.0931174755096436 0.4038750231266022 72.0 11 -0.07228703051805496
-2.242840528488159 0.790708601474762 -0.2919989824295044 24.0 4 -0.07228472828865051
-3.0961005687713623 1.09213125705719 0.5199882388114929 91.0 12 -0.07228242605924606
-2.0893595218658447 0.7370092868804932 -0.19383437931537628 7.0 5 -0.07228011637926102
-3.102829694747925 1.0951147079467773 0.6395918130874634 85.0 13 -0.07227781414985657
-2.0527758598327637 0.724910318851471 -0.1140923947095871 62.0 6 -0.07227551192045212
-3.0868608951568604 1.0906896591186523 0.7558355927467346 92.0 14 -0.07227320969104767
-2.0418288707733154 0.7218467593193054 -0.03780191391706467 9.0 7 -0.07227090001106262
-3.0597312450408936 1.0823053121566772 0.8696320056915283 100.0 15 -0.07226859778165817
-2.969202995300293 1.054366946220398 -0.844267725944519 6.0 0 -0.07224786281585693
-2.956460475921631 1.0504231452941895 0.05476565286517143 3.0 8 -0.07224556058645248
-3.1416823863983154 1.1168488264083862 -0.769782543182373 1.0 1 -0.07224325835704803
-3.0127081871032715 1.0715923309326172 0.1675797551870346 3.0 9 -0.07224094867706299
-2.11238956451416 0.75135737657547 -0.4358077645301819 25.0 2 -0.07223864644765854
-3.1065378189086914 1.1055773496627808 0.28848549723625183 61.0 10 -0.07223634421825409
-2.186579465866089 0.7786052227020264 -0.3676210343837738 19.0 3 -0.07223404198884964
-3.111604690551758 1.1086044311523438 0.40558120608329773 76.0 11 -0.0722317323088646
-2.2045395374298096 0.7858682870864868 -0.28736793994903564 2.0 4 -0.07222943007946014
-3.101572275161743 1.1062501668930054 0.521552562713623 96.0 12 -0.0722271278500557
-2.075514316558838 0.7402819991111755 -0.1927884966135025 20.0 5 -0.07222482562065125
-3.0915918350219727 1.1032987833023071 0.6380652785301208 87.0 13 -0.0722225159406662
-2.061518669128418 0.7361012697219849 -0.1147204264998436 90.0 6 -0.07222021371126175
-3.0903754234313965 1.1040807962417603 0.757635235786438 92.0 14 -0.0722179114818573
-2.0392966270446777 0.7289692163467407 -0.03780191391706467 59.0 7 -0.07221560925245285
-3.0541160106658936 1.0923287868499756 0.8691143989562988 106.0 15 -0.0722133070230484
-2.9545953273773193 1.0608083009719849 -0.8411619663238525 5.0 0 -0.07219256460666656
-2.9527759552001953 1.060736060142517 0.05476565286517143 3.0 8 -0.07219026237726212
-3.0089495182037354 1.0821021795272827 0.1675797551870346 3.0 9 -0.07218565791845322
-2.13377046585083 0.767363429069519 -0.4407688081264496 1.0 2 -0.07218334823846817
-3.117657423019409 1.121811032295227 0.28988000750541687 72.0 10 -0.07218104600906372
-2.172696590423584 0.7822188138961792 -0.36574381589889526 6.0 3 -0.07217874377965927
-3.096510410308838 1.1154228448867798 0.40411877632141113 76.0 11 -0.07217644155025482
-3.1144161224365234 1.1231011152267456 0.524368405342102 91.0 12 -0.07217182964086533
-2.0616719722747803 0.7434671521186829 -0.19174262881278992 30.0 5 -0.07216952741146088
-3.0914154052734375 1.115416407585144 0.6388285160064697 85.0 13 -0.07216722518205643
-2.0495433807373047 0.7399019598960876 -0.11419706791639328 73.0 6 -0.07216492295265198
-3.1029980182647705 1.1208198070526123 0.7616842985153198 100.0 14 -0.07216261327266693
-2.0480237007141113 0.7401614189147949 -0.0380113422870636 78.0 7 -0.07216031104326248
-3.0684516429901123 1.1095523834228516 0.8742908239364624 106.0 15 -0.07215800881385803
-2.949058771133423 1.0704554319381714 -0.8406442999839783 6.0 0 -0.0721372738480568
-2.93965744972229 1.0676237344741821 0.05459113046526909 2.0 8 -0.07213496416807175
-3.0089077949523926 1.0939637422561646 0.16778908669948578 3.0 9 -0.07213035970926285
-3.1212122440338135 1.1354106664657593 0.290577232837677 80.0 10 -0.07212574779987335
-3.101924419403076 1.1296212673187256 0.40533748269081116 81.0 11 -0.07212114334106445
-3.116044521331787 1.1359953880310059 0.5253069996833801 93.0 12 -0.07211653888225555
-2.0684237480163574 0.7540712952613831 -0.19261418282985687 38.0 5 -0.07211422920227051
-3.1059470176696777 1.132928490638733 0.6426447629928589 82.0 13 -0.07211192697286606
-2.039443254470825 0.7443127036094666 -0.11377837508916855 66.0 6 -0.07210962474346161
-3.0954058170318604 1.1303077936172485 0.7607845067977905 99.0 14 -0.07210732251405716
-2.041670799255371 0.7459333539009094 -0.03794153034687042 85.0 7 -0.07210501283407211
-3.07181715965271 1.1229095458984375 0.8763613104820251 106.0 15 -0.07210271060466766
-2.9453039169311523 1.0807430744171143 -0.8406442999839783 6.0 0 -0.07208197563886642
-2.0742859840393066 0.7615445256233215 0.038569819182157516 3.0 8 -0.07207967340946198
-3.014444351196289 1.1079045534133911 0.1683124452829361 2.0 9 -0.07207506150007248
-3.117229461669922 1.1462996006011963 0.290577232837677 80.0 10 -0.07207045704126358
-3.1054139137268066 1.1431846618652344 0.40631240606307983 93.0 11 -0.07206584513187408
-3.112060070037842 1.1468656063079834 0.5253069996833801 93.0 12 -0.07206124067306519
-2.0619072914123535 0.7602684497833252 -0.1922655701637268 35.0 5 -0.07205893844366074
-3.113025665283203 1.1478376388549805 0.6449344158172607 85.0 13 -0.07205662876367569
-2.0387067794799805 0.7521185874938965 -0.11388305574655533 64.0 6 -0.07205432653427124
-3.1005821228027344 1.1444799900054932 0.7630340456962585 100.0 14 -0.07205202430486679
-2.0334274768829346 0.7509768605232239 -0.037836819887161255 75.0 7 -0.07204972207546234
-3.0787513256073 1.1376430988311768 0.8794671893119812 104.0 15 -0.0720474123954773
-2.905099868774414 1.0780893564224243 -0.8302915096282959 7.0 0 -0.07202667742967606
-2.045368194580078 0.7590409517288208 0.038081150501966476 47.0 8 -0.0720243752002716
-3.1341264247894287 1.164325475692749 0.175220787525177 24.0 9 -0.07201977074146271
-2.0997164249420166 0.7804605960845947 -0.43542614579200745 1.0 2 -0.07201746106147766
-3.118609666824341 1.1597999334335327 0.2911001741886139 87.0 10 -0.07201515883207321
-3.112567186355591 1.1581711769104004 0.4077748656272888 100.0 11 -0.07201055437326431
-2.2156765460968018 0.8248833417892456 -0.29029279947280884 1.0 4 -0.07200824469327927
-3.100633382797241 1.1549628973007202 0.524055540561676 96.0 12 -0.07200594246387482
-2.066708564758301 0.770244836807251 -0.19296279549598694 8.0 5 -0.07200364023447037
-3.1124765872955322 1.1606125831604004 0.6456976532936096 85.0 13 -0.07200133800506592
-2.045292615890503 0.7630760073661804 -0.11440641433000565 59.0 6 -0.07199902832508087
-3.087238311767578 1.1524289846420288 0.7607845067977905 100.0 14 -0.07199672609567642
-2.0289199352264404 0.7573714852333069 -0.03780191391706467 68.0 7 -0.07199442386627197
-3.0711419582366943 1.1470311880111694 0.8784318566322327 104.0 15 -0.07199212163686752
-2.854290008544922 1.0705831050872803 -0.816832959651947 19.0 0 -0.07197138667106628
-2.0219783782958984 0.7588034272193909 0.0376971997320652 57.0 8 -0.07196907699108124
-3.14292573928833 1.180721640586853 0.17595350742340088 66.0 9 -0.07196447253227234
-2.0969796180725098 0.7877848148345947 -0.43542614579200745 1.0 2 -0.07196217030286789
-3.1164073944091797 1.1713799238204956 0.2912744879722595 100.0 10 -0.07195986062288284
-2.105952739715576 0.7919953465461731 -0.35635775327682495 1.0 3 -0.0719575583934784
-3.117591142654419 1.1730670928955078 0.40899354219436646 100.0 11 -0.07195525616407394
-3.1093192100524902 1.1711944341659546 0.5262455940246582 98.0 12 -0.07195064425468445
-3.113917827606201 1.1735464334487915 0.6468425393104553 90.0 13 -0.07194603979587555
-2.044485569000244 0.7709155678749084 -0.11451108753681183 43.0 6 -0.0719437375664711
-3.090489625930786 1.165950059890747 0.7625840902328491 100.0 14 -0.07194142788648605
-2.0205178260803223 0.7626836895942688 -0.0376971997320652 64.0 7 -0.0719391256570816
-3.0705318450927734 1.1596449613571167 0.8794671893119812 108.0 15 -0.07193682342767715
-2.845116376876831 1.0784858465194702 -0.815280020236969 41.0 0 -0.07191608846187592
-2.023056745529175 0.7672751545906067 0.03776700794696808 74.0 8 -0.07191378623247147
-3.1462535858154297 1.1945210695266724 0.17637218534946442 57.0 9 -0.07190917432308197
-3.1309244632720947 1.1893271207809448 0.29301759600639343 93.0 10 -0.07190456986427307
-2.103175640106201 0.7993412613868713 -0.35635775327682495 1.0 3 -0.07190226018428802
-3.1079108715057373 1.1818257570266724 0.40826234221458435 100.0 11 -0.07189995795488358
-2.1169495582580566 0.8054226040840149 -0.27810585498809814 1.0 4 -0.07189765572547913
-3.1162893772125244 1.1862568855285645 0.5281228423118591 98.0 12 -0.07189535349607468
-3.102463722229004 1.1816139221191406 0.6453160643577576 90.0 13 -0.07189074158668518
-3.0936849117279053 1.1795070171356201 0.7643837332725525 100.0 14 -0.07188613712787628
-2.032790422439575 0.7754337787628174 -0.03797643631696701 48.0 7 -0.07188383489847183
-3.0736844539642334 1.1731115579605103 0.881537675857544 108.0 15 -0.07188152521848679
-2.8395304679870605 1.0877196788787842 -0.8147624135017395 49.0 0 -0.07186079025268555
-2.0147645473480225 0.7721853852272034 0.037662290036678314 45.0 8 -0.0718584880232811
-2.0870234966278076 0.8002973198890686 -0.5160377621650696 2.0 1 -0.07185618579387665
-3.142275333404541 1.2049479484558105 0.17637218534946442 30.0 9 -0.0718538761138916
-2.091428518295288 0.8024052381515503 -0.43542614579200745 1.0 2 -0.07185157388448715
-3.12675404548645 1.200248122215271 0.29301759600639343 68.0 10 -0.0718492716550827
-2.0634913444519043 0.7925131916999817 -0.3501003682613373 1.0 3 -0.07184696942567825
-3.103766441345215 1.1926672458648682 0.40826234221458435 100.0 11 -0.0718446597456932
-2.0770680904388428 0.7985595464706421 -0.2732310891151428 1.0 4 -0.07184235751628876
-3.114182233810425 1.1972932815551758 0.5284357070922852 93.0 12 -0.07184005528688431
-3.107481002807617 1.1959630250930786 0.6472241282463074 83.0 13 -0.07183545082807541
-3.0750012397766113 1.1846942901611328 0.7607845067977905 89.0 14 -0.07183083891868591
-3.060764789581299 1.1798237562179565 0.8789495229721069 98.0 15 -0.07182623445987701
-2.8429226875305176 1.1004135608673096 -0.816832959651947 39.0 0 -0.07180549204349518
-2.0589165687561035 0.7973611354827881 -0.509739100933075 2.0 1 -0.07180088758468628
-2.0597527027130127 0.7980983257293701 0.11576715111732483 8.0 9 -0.07179858535528183
-2.0117335319519043 0.7798960208892822 -0.4193982183933258 1.0 2 -0.07179628312587738
-3.0853943824768066 1.1967453956604004 0.2895313799381256 40.0 10 -0.07179397344589233
-2.0387516021728516 0.7907795310020447 -0.3463459312915802 2.0 3 -0.07179167121648788
-3.073885917663574 1.1928988695144653 0.4048500061035156 73.0 11 -0.07178936898708344
-2.055903434753418 0.7982580065727234 -0.27079370617866516 1.0 4 -0.07178706675767899
-3.0805227756500244 1.196711778640747 0.523429811000824 85.0 12 -0.07178475707769394
-3.087028980255127 1.199859380722046 0.6437895894050598 77.0 13 -0.07178015261888504
-3.072871685028076 1.1955914497375488 0.7612344026565552 89.0 14 -0.07177554070949554
-3.060228109359741 1.1919021606445312 0.8799847960472107 92.0 15 -0.07177093625068665
-2.8320610523223877 1.1070219278335571 -0.8147624135017395 36.0 0 -0.0717502012848854
-2.0094616413116455 0.7858815789222717 0.037662290036678314 1.0 8 -0.07174789905548096
-2.103304624557495 0.8230059146881104 -0.5214365720748901 1.0 1 -0.07174558937549591
-2.0384955406188965 0.7976466417312622 0.1147204264998436 22.0 9 -0.07174328714609146
-1.9579483270645142 0.7665227055549622 -0.40871289372444153 1.0 2 -0.07174098491668701
-3.090684652328491 1.2106038331985474 0.29040294885635376 40.0 10 -0.07173868268728256
-2.0727627277374268 0.8123067617416382 -0.35260334610939026 7.0 3 -0.07173637300729752
-3.080792188644409 1.2079684734344482 0.40631240606307983 81.0 11 -0.07173407077789307
-2.0531046390533447 0.8054296374320984 -0.27079370617866516 1.0 4 -0.07173176854848862
-3.078376054763794 1.2076419591903687 0.5237426161766052 87.0 12 -0.07172946631908417
-2.158806800842285 0.8473312258720398 -0.2028985619544983 1.0 5 -0.07172715663909912
-3.088304042816162 1.2127808332443237 0.6449344158172607 75.0 13 -0.07172485440969467
-2.0355207920074463 0.7997614741325378 -0.11461575329303741 1.0 6 -0.07172255218029022
-3.0759341716766357 1.2091623544692993 0.7630340456962585 94.0 14 -0.07172024995088577
-1.9429497718811035 0.7637815475463867 -0.03644062578678131 1.0 7 -0.07171794027090073
-3.0526628494262695 1.2006304264068604 0.8789495229721069 88.0 15 -0.07171563804149628
-2.846147298812866 1.1239975690841675 -0.8199387788772583 28.0 0 -0.07169490307569504
-2.0068445205688477 0.792540967464447 0.037662290036678314 1.0 8 -0.07169260084629059
-2.8454573154449463 1.1242990493774414 -0.706346333026886 41.0 1 -0.07169029861688614
-2.033841371536255 0.8040226697921753 0.11461575329303741 23.0 9 -0.07168798893690109
-1.9698654413223267 0.779129683971405 -0.41176581382751465 1.0 2 -0.07168568670749664
-3.086440086364746 1.2213850021362305 0.29040294885635376 40.0 10 -0.0716833844780922
-2.0627102851867676 0.8162683844566345 -0.3513518273830414 6.0 3 -0.07168108224868774
-3.089688777923584 1.2232935428619385 0.4080185890197754 85.0 11 -0.0716787725687027
-2.0430400371551514 0.8093092441558838 -0.2698187232017517 1.0 4 -0.07167647033929825
-3.0833239555358887 1.2220194339752197 0.5253069996833801 85.0 12 -0.0716741681098938
-2.089160680770874 0.8284222483634949 -0.19662334024906158 2.0 5 -0.07167186588048935
-3.075140953063965 1.2193963527679443 0.6430263519287109 68.0 13 -0.0716695562005043
-2.0105795860290527 0.7976687550544739 -0.11335969716310501 2.0 6 -0.07166725397109985
-3.073718547821045 1.220075011253357 0.7634838819503784 81.0 14 -0.0716649517416954
-1.9774421453475952 0.7853204011917114 -0.037138719111680984 1.0 7 -0.07166264951229095
-3.043067693710327 1.20913827419281 0.8773965835571289 86.0 15 -0.07166033983230591
-2.896237850189209 1.1548954248428345 -0.8354679346084595 15.0 0 -0.07163960486650467
-1.9557751417160034 0.7802753448486328 0.03675476834177971 1.0 8 -0.07163730263710022
-2.8270366191864014 1.1284446716308594 -0.702747106552124 54.0 1 -0.07163500040769577
-2.0217485427856445 0.8074135780334473 0.1140923947095871 26.0 9 -0.07163269817829132
-1.965448021888733 0.7849292159080505 -0.4113842248916626 2.0 2 -0.07163038849830627
-3.089773178100586 1.2345703840255737 0.2911001741886139 42.0 10 -0.07162808626890182
-2.041506290435791 0.816130518913269 -0.34822314977645874 5.0 3 -0.07162578403949738
-3.076184034347534 1.2303860187530518 0.40679988265037537 78.0 11 -0.07162348181009293
-3.082707643508911 1.2342426776885986 0.5259327292442322 85.0 12 -0.07161886990070343
-2.0862560272216797 0.8357102274894714 -0.19662334024906158 1.0 5 -0.07161656767129898
-3.063575267791748 1.2272038459777832 0.6414998769760132 73.0 13 -0.07161426544189453
-1.9985134601593018 0.8009672164916992 -0.1128363311290741 11.0 6 -0.07161195576190948
-3.076676368713379 1.2336974143981934 0.7652835249900818 86.0 14 -0.07160965353250504
-1.980256199836731 0.7944523692131042 -0.03724343329668045 2.0 7 -0.07160735130310059
-3.045999765396118 1.2226316928863525 0.8794671893119812 86.0 15 -0.07160504907369614
-2.9045281410217285 1.1705577373504639 -0.8390913605690002 14.0 0 -0.0715843141078949
-1.927073359489441 0.7766323685646057 0.03626609966158867 1.0 8 -0.07158200442790985
-2.810429096221924 1.1332048177719116 -0.6995978355407715 52.0 1 -0.0715797021985054
-2.0152130126953125 0.8129720091819763 0.11388305574655533 34.0 9 -0.07157739996910095
-1.9862250089645386 0.8016802072525024 -0.4163452684879303 1.0 2 -0.0715750977396965
-3.0963125228881836 1.2503621578216553 0.29214605689048767 42.0 10 -0.07157278805971146
-2.0549850463867188 0.8302680253982544 -0.35103899240493774 4.0 3 -0.071570485830307
-3.077392101287842 1.2433472871780396 0.40753111243247986 83.0 11 -0.07156818360090256
-2.0410213470458984 0.8250401020050049 -0.27030622959136963 3.0 4 -0.07156588137149811
-3.0911993980407715 1.2501802444458008 0.5281228423118591 73.0 12 -0.07156357169151306
-2.057469367980957 0.8325250148773193 -0.19418299198150635 2.0 5 -0.07156126946210861
-3.073615550994873 1.2443171739578247 0.6445528268814087 81.0 13 -0.07155896723270416
-1.9918620586395264 0.8067871928215027 -0.11262699216604233 9.0 6 -0.07155666500329971
-3.0667154788970947 1.2427706718444824 0.7639338374137878 83.0 14 -0.07155436277389526
-1.9922975301742554 0.8073683381080627 -0.03752267360687256 8.0 7 -0.07155205309391022
-3.052455186843872 1.2376112937927246 0.8825729489326477 82.0 15 -0.07154975086450577
-2.905792474746704 1.1828745603561401 -0.8406442999839783 13.0 0 -0.07152901589870453
-1.894581913948059 0.771621823310852 0.03570762276649475 1.0 8 -0.07152671366930008
-2.809865951538086 1.1449687480926514 -0.7004976272583008 49.0 1 -0.07152440398931503
-2.0068142414093018 0.8177399635314941 0.11356903612613678 41.0 9 -0.07152210175991058
-1.9943222999572754 0.8130556344985962 -0.41863495111465454 1.0 2 -0.07151979953050613
-3.09561824798584 1.2626686096191406 0.29249465465545654 42.0 10 -0.07151749730110168
-2.037443161010742 0.8314647078514099 -0.34853604435920715 4.0 3 -0.07151518762111664
-3.087517023086548 1.2606204748153687 0.409481018781662 82.0 11 -0.07151288539171219
-2.0343079566955566 0.8310143351554871 -0.2698187232017517 3.0 4 -0.07151058316230774
-2.0508623123168945 0.8381938934326172 -0.19383437931537628 3.0 5 -0.07150597870349884
-3.0837905406951904 1.2609831094741821 0.6476057171821594 77.0 13 -0.0715036690235138
-2.0149130821228027 0.8243228197097778 -0.1140923947095871 9.0 6 -0.07150136679410934
-3.0659656524658203 1.2549444437026978 0.7648336291313171 89.0 14 -0.0714990645647049
-1.9765125513076782 0.8090153932571411 -0.03727834299206734 7.0 7 -0.07149676233530045
-3.0588431358337402 1.252651572227478 0.8856788277626038 82.0 15 -0.0714944526553154
-2.908792495727539 1.1959489583969116 -0.8427148461341858 11.0 0 -0.07147371768951416
-1.9031095504760742 0.7824627757072449 0.03591705113649368 1.0 8 -0.07147141546010971
-2.800647020339966 1.152056336402893 -0.6991478800773621 42.0 1 -0.07146911323070526
-2.000253677368164 0.8232198357582092 0.11335969716310501 45.0 9 -0.07146681100130081
-1.9914721250534058 0.8200121521949768 -0.41863495111465454 1.0 2 -0.07146450132131577
-3.0985608100891113 1.2765016555786133 0.29319190979003906 41.0 10 -0.07146219909191132
-2.0529391765594482 0.8457410335540771 -0.3516647219657898 6.0 3 -0.07145989686250687
-3.0851550102233887 1.2716087102890015 0.40972477197647095 81.0 11 -0.07145759463310242
-2.024200439453125 0.8347282409667969 -0.26884379982948303 3.0 4 -0.07145528495311737
-2.087191104888916 0.8611302375793457 0.35760921239852905 1.0 12 -0.07145298272371292
-2.0423991680145264 0.8430671095848083 -0.1933114379644394 7.0 5 -0.07145068049430847
-3.075962543487549 1.2697043418884277 0.6468425393104553 67.0 13 -0.07144837826490402
-2.0103225708007812 0.8302376866340637 -0.11398772895336151 9.0 6 -0.07144606858491898
-3.0707924365997314 1.268825650215149 0.7670831084251404 86.0 14 -0.07144376635551453
-1.9662843942642212 0.8128534555435181 -0.037138719111680984 7.0 7 -0.07144146412611008
-3.0508813858032227 1.2618454694747925 0.8846435546875 82.0 15 -0.07143916189670563
-2.8941051959991455 1.2011452913284302 -0.8396090269088745 9.0 0 -0.07141842693090439
-1.8782051801681519 0.7798989415168762 0.03549819439649582 1.0 8 -0.07141611725091934
-2.812804937362671 1.1685543060302734 -0.7031970620155334 32.0 1 -0.07141381502151489
-2.0048904418945312 0.8329134583473206 0.11377837508916855 50.0 9 -0.07141151279211044
-1.977864384651184 0.8220906257629395 -0.4163452684879303 1.0 2 -0.071409210562706
-3.0906314849853516 1.2852399349212646 0.2928432822227478 42.0 10 -0.07140690088272095
-2.03720760345459 0.8475903868675232 -0.34947463870048523 6.0 3 -0.0714045986533165
-3.0880281925201416 1.28542160987854 0.410699725151062 78.0 11 -0.07140229642391205
-2.0249392986297607 0.8433153629302979 -0.26933127641677856 2.0 4 -0.0713999941945076
-2.0387351512908936 0.8490607738494873 0.34978750348091125 2.0 12 -0.07139768451452255
-2.0193614959716797 0.841405987739563 -0.19139400124549866 5.0 5 -0.0713953822851181
-3.0751359462738037 1.2819445133209229 0.6476057171821594 66.0 13 -0.07139308005571365
-2.0147855281829834 0.8403252959251404 -0.11440641433000565 9.0 6 -0.0713907778263092
-3.0771355628967285 1.2840391397476196 0.769782543182373 81.0 14 -0.07138846814632416
-1.9580419063568115 0.817059338092804 -0.03703400865197182 8.0 7 -0.07138616591691971
-3.0431151390075684 1.2704665660858154 0.8836082816123962 82.0 15 -0.07138386368751526
-2.889894962310791 1.2112396955490112 -0.8396090269088745 9.0 0 -0.07136312872171402
-1.8756088018417358 0.7861225605010986 0.03549819439649582 1.0 8 -0.07136082649230957
-2.9616706371307373 1.241931438446045 -0.7414387464523315 25.0 1 -0.07135851681232452
-1.996445655822754 0.8375888466835022 0.1134643703699112 53.0 9 -0.07135621458292007
-2.0075676441192627 0.8426663875579834 -0.4232143759727478 1.0 2 -0.07135391235351562
-3.098984956741333 1.3014204502105713 0.2940634489059448 40.0 10 -0.07135161012411118
-2.0234580039978027 0.8497523069381714 -0.3475974202156067 6.0 3 -0.07134930044412613
-2.0440914630889893 0.8592574000358582 -0.27225613594055176 2.0 4 -0.07134469598531723
-2.050326347351074 0.8622987270355225 0.35229045152664185 2.0 12 -0.07134239375591278
-2.0421223640441895 0.8592679500579834 -0.19383437931537628 5.0 5 -0.07134008407592773
-3.079915761947632 1.2959423065185547 0.649513840675354 35.0 13 -0.07133778184652328
-1.99726140499115 0.8408024907112122 -0.11356903612613678 7.0 6 -0.07133547961711884
-3.0800442695617676 1.2972619533538818 0.7715821266174316 86.0 14 -0.07133317738771439
-1.9570204019546509 0.8246656060218811 -0.03706891089677811 7.0 7 -0.07133087515830994
-3.049342155456543 1.2855849266052246 0.8867141008377075 80.0 15 -0.07132856547832489
-2.889420509338379 1.222321629524231 -0.8406442999839783 7.0 0 -0.07160830497741699
-1.8875855207443237 0.7989007830619812 0.03577743470668793 2.0 8 -0.07160600274801254
-1.9861538410186768 0.8414357304573059 0.11304567754268646 55.0 9 -0.07160139083862305
-2.015608072280884 0.8539141416549683 -0.42550405859947205 3.0 2 -0.0715990886092186
-3.101990222930908 1.3148002624511719 0.29476073384284973 40.0 10 -0.07159678637981415
-2.0168421268463135 0.8552678823471069 -0.34697169065475464 7.0 3 -0.0715944841504097
-2.086916923522949 0.8854131698608398 0.2783496081829071 10.0 11 -0.07159217447042465
-2.0410799980163574 0.8663869500160217 -0.27225613594055176 2.0 4 -0.0715898722410202
-2.0400309562683105 0.8663618564605713 0.35103899240493774 2.0 12 -0.07158757001161575
-2.0299417972564697 0.8624948859214783 -0.19296279549598694 7.0 5 -0.0715852677822113
-1.9851242303848267 0.843861997127533 -0.11304567754268646 6.0 6 -0.07158065587282181
-3.068324089050293 1.3049548864364624 0.769782543182373 81.0 14 -0.07157835364341736
-1.9670097827911377 0.8369730710983276 -0.03731324523687363 8.0 7 -0.07157605141401291
-3.0555012226104736 1.3007608652114868 0.8898199200630188 80.0 15 -0.07157374173402786
-2.8813681602478027 1.2313861846923828 -0.8396090269088745 7.0 0 -0.07155300676822662
-1.8774299621582031 0.8023414611816406 0.03563781455159187 3.0 8 -0.07155070453882217
-3.1410701274871826 1.3430202007293701 -0.7886784672737122 23.0 1 -0.07154840230941772
-1.9776954650878906 0.8460070490837097 0.11273165792226791 58.0 9 -0.07154610008001328
-1.9998303651809692 0.8558892607688904 -0.42283275723457336 3.0 2 -0.07154379040002823
-3.1026453971862793 1.3285129070281982 0.29528364539146423 42.0 10 -0.07154148817062378
-2.0354831218719482 0.8719887137413025 -0.35072609782218933 9.0 3 -0.07153918594121933
-2.07651424407959 0.88956618309021 0.27737462520599365 43.0 11 -0.07153688371181488
-2.0197973251342773 0.8656862378120422 -0.2698187232017517 1.0 4 -0.07153457403182983
-2.0006842613220215 0.8579071164131165 0.3447815775871277 2.0 12 -0.07153227180242538
-2.01410174369812 0.8640773296356201 -0.19174262881278992 6.0 5 -0.07152996957302094
-2.0801172256469727 0.8928288221359253 0.4400055408477783 1.0 13 -0.07152766734361649
-1.9875234365463257 0.8534964323043823 -0.11335969716310501 8.0 6 -0.07152535766363144
-3.068892002105713 1.3184999227523804 0.7711322903633118 83.0 14 -0.07152305543422699
-1.9659138917922974 0.8446231484413147 -0.037348151206970215 7.0 7 -0.07152075320482254
-3.0580410957336426 1.3144701719284058 0.8918904662132263 76.0 15 -0.07151845097541809
-2.8717310428619385 1.2391395568847656 -0.8380560874938965 6.0 0 -0.07149771600961685
-1.8799843788146973 0.8115944266319275 0.03574252873659134 3.0 8 -0.0714954063296318
-1.9747300148010254 0.8529058694839478 0.11273165792226791 68.0 9 -0.0714908018708229
-2.004040002822876 0.8659794926643372 -0.4243592619895935 4.0 2 -0.07148849964141846
-3.0961601734161377 1.3385443687438965 0.2951093316078186 40.0 10 -0.07148618996143341
-2.0342400074005127 0.8798728585243225 -0.35103899240493774 11.0 3 -0.07148388773202896
-2.0896365642547607 0.9042659401893616 0.27956831455230713 43.0 11 -0.07148158550262451
-2.009324312210083 0.8699281215667725 -0.26884379982948303 1.0 4 -0.07147928327322006
-1.9976773262023926 0.8648855686187744 0.3447815775871277 3.0 12 -0.07147697359323502
-2.001932144165039 0.8671430945396423 -0.19087107479572296 8.0 5 -0.07147467136383057
-2.0409605503082275 0.8844714760780334 0.43237319588661194 1.0 13 -0.07147236913442612
-1.9826996326446533 0.8596345782279968 -0.11325501650571823 9.0 6 -0.07147006690502167
-3.062483072280884 1.3284287452697754 0.7706823348999023 75.0 14 -0.07146776467561722
-1.9501118659973145 0.8459099531173706 -0.037103816866874695 8.0 7 -0.07146545499563217
-3.053434133529663 1.3251367807388306 0.8918904662132263 76.0 15 -0.07146315276622772
-2.8603038787841797 1.246070146560669 -0.8359856009483337 6.0 0 -0.07144241780042648
-1.873616099357605 0.8162270188331604 0.03567272052168846 3.0 8 -0.07144011557102203
-2.2848477363586426 0.9958521723747253 -0.57542484998703 1.0 1 -0.07143780589103699
-1.975402593612671 0.8613899350166321 0.11294099688529968 68.0 9 -0.07143550366163254
-2.0028040409088135 0.8737546801567078 -0.42474085092544556 4.0 2 -0.07143320143222809
-3.095120429992676 1.3509386777877808 0.29545795917510986 40.0 10 -0.07143089920282364
-2.031311273574829 0.8866138458251953 -0.35103899240493774 11.0 3 -0.07142858952283859
-2.0866262912750244 0.9111910462379456 0.27956831455230713 26.0 11 -0.07142628729343414
-2.0209810733795166 0.8829444050788879 -0.27079370617866516 1.0 4 -0.0714239850640297
-1.9910260438919067 0.8702718019485474 0.34415584802627563 4.0 12 -0.07142168283462524
-1.991590976715088 0.8709327578544617 -0.19017383456230164 7.0 5 -0.0714193806052208
-2.021827220916748 0.8841552138328552 0.4289386570453644 2.0 13 -0.07141707092523575
-1.978008508682251 0.8654037714004517 -0.11315035074949265 9.0 6 -0.0714147686958313
-3.075913190841675 1.3463913202285767 0.7751813530921936 81.0 14 -0.07141246646642685
-1.9544740915298462 0.855920672416687 -0.03724343329668045 8.0 7 -0.0714101642370224
-3.0523293018341064 1.3373371362686157 0.8929257392883301 76.0 15 -0.07140785455703735
-2.8561558723449707 1.2555485963821411 -0.8359856009483337 1.0 0 -0.07138711959123611
-1.863433599472046 0.8195420503616333 0.03553309664130211 3.0 8 -0.07138481736183167
-1.972383737564087 0.8682802319526672 0.11294099688529968 68.0 9 -0.07138020545244217
-2.0070831775665283 0.88355553150177 -0.4262673258781433 4.0 2 -0.07137790322303772
-3.105211019515991 1.3676189184188843 0.2968524396419525 38.0 10 -0.07137560099363327
-2.017357587814331 0.8889199495315552 -0.3491617739200592 12.0 3 -0.07137329876422882
-2.068901538848877 0.9120626449584961 0.2776183784008026 11.0 11 -0.07137099653482437
-2.025151491165161 0.8931983709335327 -0.2717686593532562 1.0 4 -0.07136868685483932
-1.9789397716522217 0.8732291460037231 0.3425915241241455 5.0 12 -0.07136638462543488
-1.9923374652862549 0.8791410326957703 -0.1905224472284317 8.0 5 -0.07136408239603043
-2.0456690788269043 0.9031001925468445 0.43466290831565857 1.0 13 -0.07136178016662598
-1.9621864557266235 0.8666549921035767 -0.11241763830184937 8.0 6 -0.07135947048664093
-3.080106735229492 1.3610584735870361 0.7774308919906616 83.0 14 -0.07135716825723648
-1.9533036947250366 0.8635460734367371 -0.03727834299206734 9.0 7 -0.07135486602783203
-3.051175832748413 1.3495473861694336 0.8939610123634338 74.0 15 -0.07135256379842758
-1.8605616092681885 0.8260416984558105 0.03553309664130211 3.0 8 -0.0713295191526413
-1.9602150917053223 0.8711045384407043 0.11241763830184937 70.0 9 -0.0713249146938324
-2.009368658065796 0.8929480314254761 -0.42741215229034424 5.0 2 -0.07132261246442795
-3.1186230182647705 1.3865448236465454 0.2985955774784088 23.0 10 -0.0713203027844429
-2.0232670307159424 0.8999701142311096 -0.35072609782218933 13.0 3 -0.07131800055503845
-2.029433250427246 0.90313720703125 0.2727436125278473 2.0 11 -0.071315698325634
-2.0038864612579346 0.8921880125999451 -0.26933127641677856 1.0 4 -0.07131339609622955
-1.9885107278823853 0.885757565498352 0.3447815775871277 3.0 12 -0.0713110864162445
-1.9874366521835327 0.88527911901474 -0.19034813344478607 9.0 5 -0.07130878418684006
-1.9887070655822754 0.8862609267234802 0.4232143759727478 1.0 13 -0.07130648195743561
-1.9555009603500366 0.8718724250793457 -0.1122082993388176 10.0 6 -0.07130417972803116
-3.0717780590057373 1.3702133893966675 0.7765311002731323 78.0 14 -0.07130187004804611
-1.955755591392517 0.8728044033050537 -0.0373830571770668 11.0 7 -0.07129956781864166
-3.0587942600250244 1.3657029867172241 0.8975844979286194 72.0 15 -0.07129726558923721
-1.861316442489624 0.8341668844223022 0.035602912306785583 4.0 8 -0.07127422839403152
-1.953518033027649 0.8763063549995422 0.1122082993388176 70.0 9 -0.07126961648464203
-2.0098226070404053 0.9015633463859558 -0.4281754195690155 3.0 2 -0.07126731425523758
-2.0958380699157715 0.9405879974365234 0.20098112523555756 1.0 10 -0.07126501202583313
-2.0237174034118652 0.9086454510688782 -0.3513518273830414 13.0 3 -0.07126270234584808
-2.033511161804199 0.9134699106216431 0.27371856570243835 2.0 11 -0.07126040011644363
-1.9754111766815186 0.8877847194671631 -0.26591894030570984 1.0 4 -0.07125809788703918
-1.9691921472549438 0.8854029178619385 0.34196579456329346 1.0 12 -0.07125579565763474
-1.991603136062622 0.8954795002937317 -0.1910453885793686 9.0 5 -0.07125348597764969
-2.0035054683685303 0.901252031326294 0.4270305633544922 1.0 13 -0.07125118374824524
-1.9579097032546997 0.8811516761779785 -0.11252231895923615 10.0 6 -0.07124888151884079
-3.068753242492676 1.381727695465088 0.776980996131897 81.0 14 -0.07124657928943634
-1.9253480434417725 0.8673062324523926 -0.036859482526779175 9.0 7 -0.0712442696094513
-3.0645763874053955 1.381133794784546 0.9006903171539307 70.0 15 -0.07124196738004684
-2.219712495803833 1.0036380290985107 -0.6527416706085205 1.0 0 -0.0712212324142456
-1.8620370626449585 0.8423073887825012 0.03567272052168846 4.0 8 -0.07121893018484116
-2.208582639694214 0.9995338320732117 -0.5596782565116882 8.0 1 -0.0712166279554367
-1.957724928855896 0.8864158987998962 0.11262699216604233 70.0 9 -0.07121431827545166
-1.9941433668136597 0.9029053449630737 -0.42550405859947205 4.0 2 -0.07121201604604721
-2.063504219055176 0.9347444176673889 0.19819216430187225 16.0 10 -0.07120971381664276
-2.025930881500244 0.9181503653526306 -0.35229045152664185 14.0 3 -0.07120741158723831
-2.001383066177368 0.9074463844299316 0.2698187232017517 3.0 11 -0.07120510190725327
-2.0193030834198 0.915996253490448 -0.27225613594055176 1.0 4 -0.07120279967784882
-1.955296516418457 0.887373149394989 0.34008854627609253 2.0 12 -0.07120049744844437
-1.9685078859329224 0.8933688998222351 -0.18912795186042786 8.0 5 -0.07119819521903992
-2.071852207183838 0.9407057762145996 0.44229528307914734 1.0 13 -0.07119588553905487
-1.956640601158142 0.8888068795204163 -0.11262699216604233 12.0 6 -0.07119358330965042
-3.079878091812134 1.399688482284546 0.7810301184654236 78.0 14 -0.07119128108024597
-1.9132071733474731 0.8698828816413879 -0.03668495640158653 8.0 7 -0.07118897885084152
-3.0527024269104004 1.3886231184005737 0.8986197710037231 72.0 15 -0.07118667662143707
-2.209165573120117 1.0081720352172852 -0.650671124458313 2.0 0 -0.07116593420505524
-1.855447769165039 0.8471406102180481 0.035602912306785583 4.0 8 -0.07116363197565079
-2.1962172985076904 1.0031893253326416 -0.557428777217865 7.0 1 -0.07116132974624634
-1.958251953125 0.8949044942855835 0.1128363311290741 76.0 9 -0.07115902751684189
-1.998122215270996 0.9131249189376831 -0.4270305633544922 4.0 2 -0.07115671783685684
-2.052980899810791 0.9386279582977295 0.19749490916728973 30.0 10 -0.07115441560745239
-2.0137317180633545 0.9211081862449646 -0.35072609782218933 16.0 3 -0.07115211337804794
-2.0036184787750244 0.9169051051139832 0.2705499529838562 6.0 11 -0.0711498111486435
-1.979994535446167 0.9065121412277222 -0.26738134026527405 1.0 4 -0.07114750146865845
-1.9557793140411377 0.8958384394645691 0.34071433544158936 2.0 12 -0.071145199239254
-1.9635661840438843 0.8994052410125732 -0.18895365297794342 9.0 5 -0.07114289700984955
-1.958972454071045 0.8981283903121948 -0.11294099688529968 12.0 6 -0.07113829255104065
-3.082059144973755 1.4136799573898315 0.782829761505127 78.0 14 -0.0711359828710556
-1.9228814840316772 0.8823941946029663 -0.03692929446697235 9.0 7 -0.07113368064165115
-3.0531036853790283 1.401688814163208 0.9001726508140564 76.0 15 -0.0711313784122467
-1.8415822982788086 0.8485909700393677 0.03539348021149635 4.0 8 -0.07110833376646042
-3.1342008113861084 1.4448864459991455 -0.7967766523361206 3.0 1 -0.07110603153705597
-1.9551161527633667 0.9017347097396851 0.1128363311290741 73.0 9 -0.07110372930765152
-2.019881248474121 0.9316055178642273 -0.43237319588661194 4.0 2 -0.07110142707824707
-2.040646553039551 0.9416141510009766 0.19662334024906158 33.0 10 -0.07109911739826202
-2.0122978687286377 0.9289599061012268 -0.35103899240493774 15.0 3 -0.07109681516885757
-1.982384204864502 0.9155701994895935 0.26811257004737854 6.0 11 -0.07109451293945312
-2.0128591060638428 0.9300708174705505 -0.27225613594055176 1.0 4 -0.07109221071004868
-1.9580192565917969 0.9051465392112732 0.34165289998054504 3.0 12 -0.07108990848064423
-1.9784995317459106 0.9146140813827515 -0.19069677591323853 9.0 5 -0.07108759880065918
-2.065234422683716 0.9551471471786499 0.44229528307914734 1.0 13 -0.07108529657125473
-1.9358867406845093 0.8957354426383972 -0.11178961396217346 9.0 6 -0.07108299434185028
-3.0824108123779297 1.426885724067688 0.7841793894767761 75.0 14 -0.07108069211244583
-1.930676817893982 0.8941431641578674 -0.037138719111680984 10.0 7 -0.07107838243246078
-3.060462236404419 1.4180227518081665 0.9037961363792419 72.0 15 -0.07107608020305634
-1.8531144857406616 0.8617601990699768 0.03567272052168846 3.0 8 -0.07105304300785065
-3.1344387531280518 1.4582842588424683 -0.7981263995170593 18.0 1 -0.0710507333278656
-1.9483354091644287 0.9068678617477417 0.11262699216604233 76.0 9 -0.07104843109846115
-2.018397331237793 0.9394786953926086 -0.4327548146247864 5.0 2 -0.0710461288690567
-2.0373470783233643 0.9487321972846985 0.19662334024906158 36.0 10 -0.07104382663965225
-2.0126237869262695 0.9376468062400818 -0.3516647219657898 14.0 3 -0.0710415244102478
-1.9755778312683105 0.9208068251609802 0.267625093460083 6.0 11 -0.07103921473026276
-2.0060017108917236 0.9354139566421509 -0.2717686593532562 1.0 4 -0.0710369125008583
-1.9494775533676147 0.9094705581665039 0.34071433544158936 1.0 12 -0.07103461027145386
-1.9716836214065552 0.9198301434516907 -0.19034813344478607 10.0 5 -0.07103230804204941
-2.0049593448638916 0.9357793927192688 0.4300835132598877 1.0 13 -0.07102999836206436
-1.938177227973938 0.9050226211547852 -0.11210363358259201 10.0 6 -0.07102769613265991
-3.073880195617676 1.435987114906311 0.7832795977592468 74.0 14 -0.07102539390325546
-1.9221094846725464 0.89833664894104 -0.03703400865197182 11.0 7 -0.07102309167385101
-3.0712437629699707 1.4360617399215698 0.9084548950195312 74.0 15 -0.07102078199386597
-2.8386194705963135 1.3315190076828003 -0.840126633644104 6.0 0 -0.07100004702806473
-1.8428539037704468 0.8648254871368408 0.03553309664130211 4.0 8 -0.07099774479866028
-3.108161687850952 1.459277629852295 -0.7927275896072388 27.0 1 -0.07099544256925583
-1.941542148590088 0.911965012550354 0.11241763830184937 70.0 9 -0.07099314033985138
-2.0097744464874268 0.9440144300460815 -0.43160995841026306 6.0 2 -0.07099083065986633
-2.04123592376709 0.9592276215553284 0.1973206102848053 45.0 10 -0.07098852843046188
-2.0147018432617188 0.9471874237060547 -0.35260334610939026 13.0 3 -0.07098622620105743
-1.9687588214874268 0.9260079860687256 0.2671376168727875 6.0 11 -0.07098392397165298
-1.9847625494003296 0.9339584112167358 -0.26933127641677856 1.0 4 -0.07098161429166794
-1.9355674982070923 0.9112210869789124 0.3388370871543884 1.0 12 -0.07097931206226349
-1.9684609174728394 0.9267065525054932 -0.19034813344478607 11.0 5 -0.07097700983285904
-1.9945756196975708 0.9394266605377197 0.42855700850486755 1.0 13 -0.07097470760345459
-1.9350063800811768 0.9117826819419861 -0.11210363358259201 11.0 6 -0.07097239792346954
-3.075900077819824 1.4500315189361572 0.7850792407989502 74.0 14 -0.0709700956940651
-1.9099184274673462 0.9007759094238281 -0.036859482526779175 14.0 7 -0.07096779346466064
-3.0732004642486572 1.450071096420288 0.9105254411697388 74.0 15 -0.0709654912352562
-2.833954095840454 1.3414201736450195 -0.840126633644104 6.0 0 -0.07094475626945496
-1.850667953491211 0.8763877153396606 0.03574252873659134 4.0 8 -0.07094244658946991
-3.092482089996338 1.4651122093200684 -0.7900281548500061 31.0 1 -0.07094014436006546
-1.9421173334121704 0.9201087355613708 0.11262699216604233 70.0 9 -0.07093784213066101
-2.018885374069214 0.9569107890129089 -0.43428128957748413 7.0 2 -0.07093553990125656
-2.025273323059082 0.9603709578514099 0.1961004137992859 46.0 10 -0.07093323022127151
-2.016737222671509 0.9567542672157288 -0.35354191064834595 12.0 3 -0.07093092799186707
-1.985241174697876 0.942237377166748 0.2698187232017517 3.0 11 -0.07092862576246262
-2.0065956115722656 0.9528011679649353 -0.2727436125278473 1.0 4 -0.07092632353305817
-1.9539483785629272 0.9278024435043335 0.3425915241241455 1.0 12 -0.07092401385307312
-1.9508172273635864 0.9267329573631287 -0.18895365297794342 9.0 5 -0.07092171162366867
-1.9877381324768066 0.944697916507721 0.42779380083084106 1.0 13 -0.07091940939426422
-1.9408308267593384 0.9228193759918213 -0.11262699216604233 10.0 6 -0.07091710716485977
-3.0778584480285645 1.4641088247299194 0.7868788242340088 74.0 14 -0.07091479748487473
-1.9033093452453613 0.9053866267204285 -0.036789670586586 15.0 7 -0.07091249525547028
-3.0648863315582275 1.4585940837860107 0.909490168094635 76.0 15 -0.07091019302606583
-2.8362274169921875 1.354634165763855 -0.8421972393989563 6.0 0 -0.07088945806026459
-1.8333158493041992 0.8756251931190491 0.03546328842639923 5.0 8 -0.07088715583086014
-3.075298547744751 1.4694780111312866 -0.7868788242340088 32.0 1 -0.07088484615087509
-1.9424976110458374 0.9286052584648132 0.1128363311290741 70.0 9 -0.07088254392147064
-2.020846128463745 0.9664928913116455 -0.43542614579200745 9.0 2 -0.07088024169206619
-2.007530927658081 0.9605551958084106 0.19470593333244324 47.0 10 -0.07087793946266174
-2.0153355598449707 0.9642895460128784 -0.35385480523109436 12.0 3 -0.0708756297826767
-1.9821056127548218 0.9488155841827393 0.2698187232017517 3.0 11 -0.07087332755327225
-1.9819401502609253 0.9491609930992126 -0.2698187232017517 1.0 4 -0.0708710253238678
-1.9506977796554565 0.9346174001693726 0.3425915241241455 1.0 12 -0.07086872309446335
-1.9475702047348022 0.9335374236106873 -0.18895365297794342 9.0 5 -0.0708664134144783
-1.9722018241882324 0.9453442096710205 0.42512246966362 2.0 13 -0.07086411118507385
-1.9431623220443726 0.9318411350250244 -0.11294099688529968 12.0 6 -0.0708618089556694
-3.0905566215515137 1.4827361106872559 0.7913778424263 74.0 14 -0.07085950672626495
-1.8983346223831177 0.9111596941947937 -0.03675476834177971 10.0 7 -0.0708572044968605
-3.0632593631744385 1.4709553718566895 0.9105254411697388 76.0 15 -0.07085489481687546
