# .PCD v0.7 - Point Cloud Data file format
VERSION 0.7
FIELDS x y z intensity ring time
SIZE 4 4 4 4 4 4
TYPE F F F F F F
COUNT 1 1 1 1 1 1
WIDTH 533
HEIGHT 1
VIEWPOINT 0 0 0 1 0 0 0
POINTS 533
DATA ascii
0.21380673348903656 -2.2576308250427246 0.35917356610298157 18.0 12 -0.05060441792011261
0.20926135778427124 -2.2096352577209473 -0.19418299198150635 100.0 5 -0.05060211569070816
0.21358086168766022 -2.2594497203826904 0.44115039706230164 12.0 13 -0.05059980973601341
0.20881175994873047 -2.213120222091675 -0.11649984866380692 100.0 6 -0.05059750750660896
0.2137773633003235 -2.269982099533081 0.526385486125946 10.0 14 -0.050595201551914215
0.2086673527956009 -2.219874620437622 -0.038918863981962204 100.0 7 -0.050592899322509766
0.21149985492229462 -2.25423002243042 0.6066718697547913 11.0 15 -0.050590597093105316
0.11612806469202042 -1.2542026042938232 -0.33750003576278687 9.0 0 -0.05056985840201378
0.2051800638437271 -2.2201998233795166 0.038918863981962204 100.0 8 -0.05056755617260933
0.13549581170082092 -1.4689605236053467 -0.3405759036540985 8.0 1 -0.05056525021791458
0.20580396056175232 -2.2354657649993896 0.11765124648809433 97.0 9 -0.05056294798851013
0.16252394020557404 -1.7653533220291138 -0.3446010649204254 5.0 2 -0.050560642033815384
0.2061891406774521 -2.243939161300659 0.19714628159999847 47.0 10 -0.050558339804410934
0.20945245027542114 -2.283828020095825 -0.3632408678531647 24.0 3 -0.050556033849716187
0.2059202343225479 -2.2496302127838135 0.27737462520599365 24.0 11 -0.05055373162031174
0.21130695939064026 -2.3129258155822754 -0.28517428040504456 100.0 4 -0.05055142566561699
0.20610389113426208 -2.2603306770324707 0.3594864308834076 19.0 12 -0.05054912343621254
0.20190852880477905 -2.214320421218872 -0.1945316195487976 98.0 5 -0.05054681748151779
0.20587076246738434 -2.262136936187744 0.44153204560279846 12.0 13 -0.05054451525211334
0.20090481638908386 -2.2118468284606934 -0.11639518290758133 100.0 6 -0.05054221302270889
0.2049723118543625 -2.2610106468200684 0.5241360068321228 10.0 14 -0.050539907068014145
0.20109739899635315 -2.222581148147583 -0.03895376995205879 100.0 7 -0.050537604838609695
0.20467224717140198 -2.2664988040924072 0.6097776889801025 10.0 15 -0.05053529888391495
0.1120922863483429 -1.258448839187622 -0.338535338640213 9.0 0 -0.05051456391811371
0.19742882251739502 -2.220902442932129 0.038918863981962204 100.0 8 -0.05051225796341896
0.13002271950244904 -1.4655424356460571 -0.3396761119365692 8.0 1 -0.05050995573401451
0.19729503989219666 -2.228212594985962 0.117232546210289 92.0 9 -0.05050764977931976
0.1560145616531372 -1.7619985342025757 -0.34383782744407654 5.0 2 -0.050505347549915314
0.19940729439258575 -2.2565534114837646 0.19819216430187225 47.0 10 -0.050503041595220566
0.20130552351474762 -2.2825775146484375 -0.36292800307273865 24.0 3 -0.050500739365816116
0.19737006723880768 -2.2424256801605225 0.276399701833725 25.0 11 -0.05049843713641167
0.20288459956645966 -2.309694290161133 -0.2846868336200714 100.0 4 -0.05049613118171692
0.19804029166698456 -2.259068489074707 0.35917356610298157 19.0 12 -0.05049382895231247
0.19417807459831238 -2.2150115966796875 -0.1945316195487976 98.0 5 -0.05049152299761772
0.1983153522014618 -2.2667531967163086 0.44229528307914734 12.0 13 -0.05048922076821327
0.19300900399684906 -2.2105445861816406 -0.11629050970077515 100.0 6 -0.050486914813518524
0.19606386125087738 -2.250063896179199 0.5214365720748901 10.0 14 -0.050484612584114075
0.19229839742183685 -2.2113163471221924 -0.03874434158205986 100.0 7 -0.05048230662941933
0.19675937294960022 -2.2671992778778076 0.6097776889801025 10.0 15 -0.05048000440001488
0.1067105382680893 -1.2472834587097168 -0.33542948961257935 9.0 0 -0.05045926570892334
0.18984553217887878 -2.2235703468322754 0.03895376995205879 100.0 8 -0.05045696347951889
0.12556812167167664 -1.4737541675567627 -0.3414757251739502 8.0 1 -0.05045466125011444
0.19019246101379395 -2.2368481159210205 0.11765124648809433 90.0 9 -0.05045235529541969
0.15052814781665802 -1.7703572511672974 -0.3453643023967743 5.0 2 -0.050450053066015244
0.19119228422641754 -2.253265380859375 0.197843536734581 47.0 10 -0.050447747111320496
0.19367018342018127 -2.287203073501587 -0.3635537326335907 23.0 3 -0.050445444881916046
0.1913798451423645 -2.264859437942505 0.2790808379650116 24.0 11 -0.0504431389272213
0.19548813998699188 -2.318300724029541 -0.2856617569923401 100.0 4 -0.05044083669781685
0.1894911527633667 -2.2518725395202637 0.35792210698127747 18.0 12 -0.0504385307431221
0.18611115217208862 -2.211705207824707 -0.19418299198150635 93.0 5 -0.05043622851371765
0.19007305800914764 -2.263518810272217 0.44153204560279846 12.0 13 -0.0504339225590229
0.1876264065504074 -2.2390687465667725 -0.11775590479373932 100.0 6 -0.050431620329618454
0.18885771930217743 -2.258502721786499 0.5232362151145935 10.0 14 -0.050429314374923706
0.1840796321630478 -2.205996036529541 -0.038639627397060394 100.0 7 -0.05042701214551926
0.18676036596298218 -2.242845058441162 0.6030483841896057 10.0 15 -0.05042470619082451
0.10172434151172638 -1.239946722984314 -0.3333589434623718 9.0 0 -0.05040397122502327
0.18142998218536377 -2.21624755859375 0.038814153522253036 100.0 8 -0.05040166899561882
0.12010545283555984 -1.4702988862991333 -0.3405759036540985 8.0 1 -0.05039936304092407
0.18270796537399292 -2.2414796352386475 0.1178605854511261 90.0 9 -0.05039706081151962
0.14323119819164276 -1.7571746110916138 -0.3426929712295532 4.0 2 -0.050394754856824875
0.18203379213809967 -2.238032341003418 0.19644904136657715 45.0 10 -0.050392452627420425
0.18488582968711853 -2.2780206203460693 -0.36198940873146057 22.0 3 -0.05039014667272568
0.18235138058662415 -2.2516634464263916 0.27737462520599365 23.0 11 -0.05038784444332123
0.1877145618200302 -2.3229262828826904 -0.2861492335796356 100.0 4 -0.05038553848862648
0.18178790807724 -2.2544891834259033 0.3582349717617035 16.0 12 -0.05038323625922203
0.1779089868068695 -2.20638370513916 -0.19366006553173065 90.0 5 -0.05038093030452728
0.18201322853565216 -2.262211561203003 0.44115039706230164 12.0 13 -0.05037862807512283
0.17964959144592285 -2.2377195358276367 -0.11765124648809433 100.0 6 -0.050376322120428085
0.1815955489873886 -2.2669179439544678 0.5250357985496521 9.0 14 -0.050374019891023636
0.17637810111045837 -2.206624984741211 -0.038639627397060394 100.0 7 -0.05037171393632889
0.1796981245279312 -2.2531120777130127 0.6056365966796875 10.0 15 -0.05036941170692444
0.09739561378955841 -1.240294337272644 -0.3333589434623718 9.0 0 -0.0503486767411232
0.173224076628685 -2.2108867168426514 0.03870943933725357 100.0 8 -0.05034637078642845
0.1149725541472435 -1.470709204673767 -0.3405759036540985 8.0 1 -0.050344068557024
0.175193190574646 -2.2460861206054688 0.11806992441415787 86.0 9 -0.050341762602329254
0.1375545859336853 -1.763535737991333 -0.34383782744407654 5.0 2 -0.050339460372924805
0.1749933511018753 -2.2485859394073486 0.1973206102848053 43.0 10 -0.05033715441823006
0.17678020894527435 -2.2766826152801514 -0.36167651414871216 20.0 3 -0.05033485218882561
0.17387712001800537 -2.2443695068359375 0.276399701833725 22.0 11 -0.05033254623413086
0.18021652102470398 -2.331484317779541 -0.2871242165565491 100.0 4 -0.05033024400472641
0.17482873797416687 -2.2669272422790527 0.36011216044425964 16.0 12 -0.05032793805003166
0.171125590801239 -2.2189102172851562 -0.19470593333244324 100.0 5 -0.05032563582062721
0.17366360127925873 -2.256960868835449 0.4400055408477783 12.0 13 -0.050323329865932465
0.17046138644218445 -2.220410108566284 -0.11670918762683868 100.0 6 -0.050321027636528015
0.1739792823791504 -2.2714242935180664 0.5259355902671814 9.0 14 -0.05031872168183327
0.1694362610578537 -2.2171967029571533 -0.038814153522253036 100.0 7 -0.05031641945242882
0.17168526351451874 -2.2517991065979004 0.6051189303398132 10.0 15 -0.05031411349773407
0.09335442632436752 -1.2444796562194824 -0.3343942165374756 9.0 0 -0.05031013488769531
0.1665501743555069 -2.2254364490509033 0.03895376995205879 100.0 8 -0.05030783265829086
0.1083872839808464 -1.451668381690979 -0.33607688546180725 8.0 1 -0.050305526703596115
0.16705502569675446 -2.2427005767822266 0.1178605854511261 78.0 9 -0.050303224474191666
0.13168948888778687 -1.767920970916748 -0.3446010649204254 5.0 2 -0.05030091851949692
0.1681767702102661 -2.263091564178467 0.19854077696800232 45.0 10 -0.05029861629009247
0.1688322275876999 -2.277285575866699 -0.36167651414871216 22.0 3 -0.05029631033539772
0.16633452475070953 -2.248922109603882 0.2768871784210205 20.0 11 -0.05029400810599327
0.17149291932582855 -2.3241801261901855 -0.2861492335796356 100.0 4 -0.05029170215129852
0.16720430552959442 -2.271463632583618 0.3607378900051117 16.0 12 -0.050289399921894073
0.16425636410713196 -2.2314162254333496 -0.19575178623199463 95.0 5 -0.050287093967199326
0.16578449308872223 -2.2575531005859375 0.4400055408477783 12.0 13 -0.050284791737794876
0.16270987689495087 -2.220991611480713 -0.11670918762683868 100.0 6 -0.05028248578310013
0.16576504707336426 -2.2681305408477783 0.5250357985496521 9.0 14 -0.05028018355369568
0.16227734088897705 -2.225752353668213 -0.03895376995205879 100.0 7 -0.05027787759900093
0.1645248830318451 -2.2620186805725098 0.607707142829895 10.0 15 -0.05027557536959648
0.08956106752157211 -1.2525055408477783 -0.3364647626876831 8.0 0 -0.05025484040379524
0.15906570851802826 -2.2299935817718506 0.03902358189225197 100.0 8 -0.050252534449100494
0.10414902120828629 -1.4637006521224976 -0.33877629041671753 8.0 1 -0.050250232219696045
0.15894292294979095 -2.239285707473755 0.11765124648809433 76.0 9 -0.0502479262650013
0.1245446428656578 -1.7546614408493042 -0.34192973375320435 5.0 2 -0.05024562403559685
0.16041702032089233 -2.2656521797180176 0.19871510565280914 43.0 10 -0.0502433180809021
0.1608816534280777 -2.2778611183166504 -0.36167651414871216 20.0 3 -0.05024101585149765
0.15876226127147675 -2.2534494400024414 0.27737462520599365 22.0 11 -0.0502387098968029
0.16282224655151367 -2.3168437480926514 -0.28517428040504456 100.0 4 -0.05023640766739845
0.15816949307918549 -2.2562692165374756 0.3582349717617035 16.0 12 -0.050234101712703705
0.15758110582828522 -2.247875928878784 -0.19714628159999847 88.0 5 -0.050231799483299255
0.15831393003463745 -2.263993501663208 0.44115039706230164 11.0 13 -0.05022949352860451
0.1548171490430832 -2.2195539474487305 -0.1166045218706131 100.0 6 -0.05022719129920006
0.1579822599887848 -2.270639419555664 0.5254856944084167 9.0 14 -0.05022488534450531
0.15339964628219604 -2.210345983505249 -0.03867453336715698 100.0 7 -0.05022258311510086
0.15689444541931152 -2.2664334774017334 0.6087424159049988 10.0 15 -0.05022027716040611
0.08466419577598572 -1.2451010942459106 -0.3343942165374756 8.0 0 -0.050199542194604874
0.1514158546924591 -2.232530355453491 0.039058487862348557 100.0 8 -0.050197239965200424
0.0990392416715622 -1.4640554189682007 -0.33877629041671753 8.0 1 -0.050194934010505676
0.151663139462471 -2.2477974891662598 0.11806992441415787 79.0 9 -0.05019263178110123
0.11736162006855011 -1.739415168762207 -0.3388768136501312 4.0 2 -0.05019032582640648
0.15130309760570526 -2.248307228088379 0.19714628159999847 39.0 10 -0.05018802359700203
0.15306195616722107 -2.2803797721862793 -0.36198940873146057 19.0 3 -0.05018571764230728
0.15116043388843536 -2.257951259613037 0.2778621315956116 22.0 11 -0.05018341541290283
0.15552739799022675 -2.32928204536438 -0.28663671016693115 100.0 4 -0.050181109458208084
0.15042415261268616 -2.2587785720825195 0.3585478365421295 14.0 12 -0.050178807228803635
0.15026338398456573 -2.256364345550537 -0.197843536734581 100.0 5 -0.05017650127410889
0.15119078755378723 -2.2762863636016846 0.44344013929367065 11.0 13 -0.05017419904470444
0.14865268766880035 -2.243995428085327 -0.1178605854511261 100.0 6 -0.05017189309000969
0.15018367767333984 -2.2731215953826904 0.5259355902671814 10.0 14 -0.05016959086060524
0.14686645567417145 -2.2288265228271484 -0.03898867964744568 100.0 7 -0.05016728863120079
0.14860232174396515 -2.2611844539642334 0.6071895360946655 9.0 15 -0.05016498267650604
0.07982011139392853 -1.2376775741577148 -0.33232367038726807 9.0 0 -0.0501442477107048
0.14323683083057404 -2.2270586490631104 0.03895376995205879 100.0 8 -0.050141941756010056
0.09367863088846207 -1.4605026245117188 -0.33787649869918823 8.0 1 -0.050139639526605606
0.14381586015224457 -2.2483131885528564 0.11806992441415787 73.0 9 -0.05013733357191086
0.11216643452644348 -1.7535290718078613 -0.3415481150150299 5.0 2 -0.05013503134250641
0.14345431327819824 -2.248821496963501 0.19714628159999847 38.0 10 -0.05013272538781166
0.14422281086444855 -2.2671008110046387 -0.359799325466156 18.0 3 -0.05013042315840721
0.14378072321414948 -2.2663896083831787 0.27883708477020264 21.0 11 -0.05012811720371246
0.14739593863487244 -2.329810619354248 -0.28663671016693115 100.0 4 -0.050125814974308014
0.14340893924236298 -2.273090124130249 0.3607378900051117 16.0 12 -0.050123512744903564
0.1411314308643341 -2.2369906902313232 -0.1961004137992859 100.0 5 -0.050121206790208817
0.14275097846984863 -2.2689626216888428 0.4419136643409729 11.0 13 -0.05011890456080437
0.14094404876232147 -2.2464938163757324 -0.11796525865793228 100.0 6 -0.05011659860610962
0.14261308312416077 -2.2794668674468994 0.5272852778434753 9.0 14 -0.05011429637670517
0.1385873705148697 -2.221342086791992 -0.038849055767059326 100.0 7 -0.05011199042201042
0.13998888432979584 -2.2501206398010254 0.6040836572647095 10.0 15 -0.05010968819260597
0.07526423782110214 -1.2340922355651855 -0.3312883973121643 8.0 0 -0.050088949501514435
0.1350981444120407 -2.221557140350342 0.038849055767059326 100.0 8 -0.050086647272109985
0.08834400773048401 -1.45693039894104 -0.33697667717933655 8.0 1 -0.05008434131741524
0.13632847368717194 -2.2547824382781982 0.11838394403457642 64.0 9 -0.05008203908801079
0.10557080805301666 -1.7460711002349854 -0.34002164006233215 5.0 2 -0.05007973313331604
0.13596323132514954 -2.255275249481201 0.19766922295093536 33.0 10 -0.05007743090391159
0.13618995249271393 -2.265618324279785 -0.3594864308834076 17.0 3 -0.05007512867450714
0.13515599071979523 -2.254988431930542 0.27737462520599365 21.0 11 -0.05007282271981239
0.13973583281040192 -2.3382375240325928 -0.2876116633415222 100.0 4 -0.050070520490407944
0.13559120893478394 -2.2755486965179443 0.3610507845878601 17.0 12 -0.050068214535713196
0.13403326272964478 -2.2494027614593506 -0.19714628159999847 100.0 5 -0.050065912306308746
0.1345972865819931 -2.2655272483825684 0.44115039706230164 11.0 13 -0.050063606351614
0.1320381909608841 -2.2290284633636475 -0.11702320724725723 100.0 6 -0.05006130412220955
0.13488538563251495 -2.283841133117676 0.5281850695610046 9.0 14 -0.0500589981675148
0.13095036149024963 -2.223808765411377 -0.038883961737155914 100.0 7 -0.05005669593811035
0.132925882935524 -2.2640953063964844 0.607707142829895 10.0 15 -0.050054389983415604
0.07117769122123718 -1.2382047176361084 -0.33232367038726807 9.0 0 -0.050033655017614365
0.12745672464370728 -2.2240116596221924 0.038883961737155914 100.0 8 -0.05003134906291962
0.08325796574354172 -1.4572299718856812 -0.33697667717933655 8.0 1 -0.05002904683351517
0.1280025988817215 -2.2472684383392334 0.11796525865793228 61.0 9 -0.05002674460411072
0.0994751900434494 -1.7464289665222168 -0.34002164006233215 5.0 2 -0.05002443864941597
0.1287676841020584 -2.2676711082458496 0.19871510565280914 36.0 10 -0.05002213642001152
0.12816917896270752 -2.2641074657440186 -0.35917356610298157 17.0 3 -0.05001983046531677
0.12683634459972382 -2.24751877784729 0.276399701833725 20.0 11 -0.05001752823591232
0.13068120181560516 -2.322855234146118 -0.2856617569923401 100.0 4 -0.050015222281217575
0.12808963656425476 -2.283897638320923 0.3623022735118866 15.0 12 -0.050012920051813126
0.12729616463184357 -2.269749641418457 -0.19888940453529358 100.0 5 -0.05001061409711838
0.12646906077861786 -2.2620630264282227 0.44038718938827515 11.0 13 -0.05000831186771393
0.12381227314472198 -2.22149920463562 -0.1166045218706131 100.0 6 -0.05000600591301918
0.1266959309577942 -2.2804067134857178 0.5272852778434753 9.0 14 -0.05000370368361473
0.12318668514490128 -2.224252223968506 -0.038883961737155914 100.0 7 -0.05000139772891998
0.12491562962532043 -2.2626166343688965 0.6071895360946655 9.0 15 -0.04999909549951553
0.0672716274857521 -1.246161699295044 -0.3343942165374756 10.0 0 -0.049978360533714294
0.12012267112731934 -2.2324302196502686 0.03902358189225197 100.0 8 -0.049976054579019547
0.07817056030035019 -1.4575116634368896 -0.33697667717933655 8.0 1 -0.0499737523496151
0.12015759944915771 -2.247701644897461 0.11796525865793228 58.0 9 -0.04997144639492035
0.09274975210428238 -1.735002875328064 -0.3377319574356079 5.0 2 -0.0499691441655159
0.1210634633898735 -2.2720859050750732 0.1990637183189392 34.0 10 -0.04996683821082115
0.12047440558671951 -2.268486499786377 -0.359799325466156 15.0 3 -0.0499645359814167
0.11930499225854874 -2.253894567489624 0.27713093161582947 18.0 11 -0.049962230026721954
0.12257234752178192 -2.3232972621917725 -0.2856617569923401 100.0 4 -0.049959927797317505
0.11980531364679337 -2.2784125804901123 0.3613636791706085 16.0 12 -0.04995762184262276
0.12031402438879013 -2.2880871295928955 -0.20045821368694305 100.0 5 -0.04995531961321831
0.11918865144252777 -2.274254083633423 0.4426769018173218 12.0 13 -0.04995301365852356
0.11741159111261368 -2.2478466033935547 -0.11796525865793228 100.0 6 -0.04995071142911911
0.1179247722029686 -2.2652664184570312 0.5236860513687134 10.0 14 -0.04994840547442436
0.1158364936709404 -2.232656717300415 -0.03902358189225197 100.0 7 -0.04994610324501991
0.11781459301710129 -2.278473138809204 0.6113306283950806 10.0 15 -0.049943797290325165
0.0627264678478241 -1.2425302267074585 -0.3333589434623718 10.0 0 -0.049923062324523926
0.11273141950368881 -2.2408246994018555 0.03916320204734802 100.0 8 -0.049920760095119476
0.07308255136013031 -1.457775592803955 -0.33697667717933655 8.0 1 -0.04991845414042473
0.11251016706228256 -2.2520968914031982 0.11817460507154465 58.0 9 -0.04991615191102028
0.08679081499576569 -1.7372767925262451 -0.33811354637145996 5.0 2 -0.04991384595632553
0.1128341481089592 -2.2665247917175293 0.19854077696800232 32.0 10 -0.04991154372692108
0.11245749145746231 -2.266920328140259 -0.3594864308834076 14.0 3 -0.049909237772226334
0.11212298274040222 -2.268176317214966 0.27883708477020264 19.0 11 -0.049906935542821884
0.11465676128864288 -2.327676296234131 -0.2861492335796356 100.0 4 -0.049904629588127136
0.1109800711274147 -2.2610597610473633 0.3585478365421295 15.0 12 -0.04990232735872269
0.11222890764474869 -2.2865030765533447 -0.20028388500213623 100.0 5 -0.04990002140402794
0.11144130676984787 -2.278578042984009 0.44344013929367065 11.0 13 -0.04989771917462349
0.10956409573554993 -2.2482428550720215 -0.11796525865793228 100.0 6 -0.04989541321992874
0.11077287048101425 -2.281235694885254 0.5272852778434753 9.0 14 -0.04989311099052429
0.10755909234285355 -2.2230606079101562 -0.038849055767059326 100.0 7 -0.04989080876111984
0.10893048346042633 -2.2595739364624023 0.606154203414917 10.0 15 -0.049888502806425095
0.05784481391310692 -1.2311632633209229 -0.33025309443473816 9.0 0 -0.049867767840623856
0.10425394028425217 -2.227221727371216 0.038918863981962204 100.0 8 -0.04986546188592911
0.06817504018545151 -1.4619152545928955 -0.33787649869918823 8.0 1 -0.04986315965652466
0.10550643503665924 -2.2624330520629883 0.11869796365499496 53.0 9 -0.04986085370182991
0.08090823143720627 -1.7414915561676025 -0.3388768136501312 4.0 2 -0.04985855147242546
0.10436931252479553 -2.2549633979797363 0.19749490916728973 32.0 10 -0.04985624551773071
0.10454371571540833 -2.267298936843872 -0.3594864308834076 13.0 3 -0.04985394328832626
0.1047513484954834 -2.280451536178589 0.28029951453208923 19.0 11 -0.049851637333631516
0.10675529390573502 -2.324077606201172 -0.2856617569923401 100.0 4 -0.049849335104227066
0.10402321815490723 -2.2732551097869873 0.36042505502700806 15.0 12 -0.04984702914953232
0.104428231716156 -2.2908613681793213 -0.2006325125694275 100.0 5 -0.04984472692012787
0.10330845415592194 -2.2750308513641357 0.4426769018173218 11.0 13 -0.04984242469072342
0.10162554681301117 -2.2466166019439697 -0.1178605854511261 100.0 6 -0.04984011873602867
0.10320759564638138 -2.281590700149536 0.5272852778434753 9.0 14 -0.04983781650662422
0.1006365641951561 -2.233393430709839 -0.03902358189225197 100.0 7 -0.049835510551929474
0.10161004215478897 -2.2637829780578613 0.6071895360946655 9.0 15 -0.049833208322525024
0.053761765360832214 -1.2313483953475952 -0.33025309443473816 9.0 0 -0.04981246963143349
0.09686781466007233 -2.227555274963379 0.038918863981962204 100.0 8 -0.04981016740202904
0.06298960745334625 -1.454345464706421 -0.33607688546180725 8.0 1 -0.04980786144733429
0.09800355136394501 -2.262770414352417 0.11869796365499496 52.0 9 -0.04980555921792984
0.07496350258588791 -1.7378274202346802 -0.33811354637145996 5.0 2 -0.04980325326323509
0.09748955070972443 -2.269231081008911 0.19871510565280914 27.0 10 -0.04980095103383064
0.09592694789171219 -2.241976737976074 -0.3554191291332245 12.0 3 -0.049798645079135895
0.09668136388063431 -2.2688868045806885 0.27883708477020264 19.0 11 -0.049796342849731445
0.09989280253648758 -2.3442516326904297 -0.28809913992881775 100.0 4 -0.049794040620326996
0.09698671102523804 -2.2854294776916504 0.3623022735118866 14.0 12 -0.04979173466563225
0.09716703742742538 -2.2991576194763184 -0.20132976770401 100.0 5 -0.0497894324362278
0.09543357044458389 -2.267514705657959 0.44115039706230164 10.0 13 -0.04978712648153305
0.09392393380403519 -2.2409543991088867 -0.11754656583070755 100.0 6 -0.0497848242521286
0.09564091265201569 -2.2819201946258545 0.5272852778434753 9.0 14 -0.04978251829743385
0.09322972595691681 -2.2337148189544678 -0.03902358189225197 100.0 7 -0.049780216068029404
0.0944235771894455 -2.2718279361724854 0.6092600226402283 9.0 15 -0.049777910113334656
0.05014561116695404 -1.2431014776229858 -0.3333589434623718 10.0 0 -0.04975717514753342
0.0898013561964035 -2.235856533050537 0.039058487862348557 100.0 8 -0.04975486919283867
0.05754348263144493 -1.4389688968658447 -0.3324776887893677 8.0 1 -0.04975256696343422
0.09002460539340973 -2.2611029148101807 0.11859328299760818 51.0 9 -0.04975026100873947
0.0691220760345459 -1.7361046075820923 -0.3377319574356079 5.0 2 -0.04974795877933502
0.09004306048154831 -2.2715322971343994 0.19888940453529358 29.0 10 -0.04974565654993057
0.08864745497703552 -2.246230125427246 -0.35604485869407654 12.0 3 -0.049743350595235825
0.0887671709060669 -2.259276866912842 0.2776183784008026 19.0 11 -0.049741048365831375
0.09093356877565384 -2.3247504234313965 -0.2856617569923401 100.0 4 -0.04973874241113663
0.08893181383609772 -2.283780097961426 0.36198940873146057 15.0 12 -0.04973644018173218
0.09016289561986923 -2.315394401550293 -0.20272426307201385 100.0 5 -0.04973413422703743
0.08814176172018051 -2.2737040519714355 0.44229528307914734 10.0 13 -0.04973183199763298
0.08633802831172943 -2.237262010574341 -0.11733722686767578 100.0 6 -0.04972952604293823
0.08752527087926865 -2.2783455848693848 0.526385486125946 9.0 14 -0.04972722381353378
0.08642563968896866 -2.2600035667419434 -0.03947734460234642 100.0 7 -0.049724917858839035
0.08678672462701797 -2.2798657417297363 0.6113306283950806 9.0 15 -0.049722615629434586
0.045663636177778244 -1.2394078969955444 -0.33232367038726807 10.0 0 -0.04970188066363335
0.08199615776538849 -2.236156463623047 0.039058487862348557 99.0 8 -0.0496995747089386
0.0530887097120285 -1.4547405242919922 -0.33607688546180725 8.0 1 -0.04969727247953415
0.08176909387111664 -2.2514238357543945 0.11806992441415787 47.0 9 -0.0496949665248394
0.062705397605896 -1.7265255451202393 -0.3358238637447357 5.0 2 -0.04969266429543495
0.08232922106981277 -2.277806282043457 0.19941233098506927 28.0 10 -0.049690358340740204
0.08045101165771484 -2.2366554737091064 -0.3544805347919464 11.0 3 -0.049688056111335754
0.08102250844240189 -2.263540744781494 0.27810585498809814 18.0 11 -0.049685750156641006
0.08281805366277695 -2.3250539302825928 -0.2856617569923401 100.0 4 -0.04968344792723656
0.08095905929803848 -2.284076690673828 0.36198940873146057 15.0 12 -0.04968114197254181
0.08264437317848206 -2.3316240310668945 -0.2041187435388565 100.0 5 -0.04967883974313736
0.08055073022842407 -2.2838079929351807 0.44420334696769714 10.0 13 -0.04967653378844261
0.07873810082674026 -2.2435379028320312 -0.11765124648809433 100.0 6 -0.04967423155903816
0.07957176119089127 -2.278637409210205 0.526385486125946 9.0 14 -0.049671925604343414
0.07825867831707001 -2.2522976398468018 -0.039337724447250366 100.0 7 -0.049669623374938965
0.07889465987682343 -2.282085418701172 0.6118482351303101 10.0 15 -0.04966731742024422
0.04120835289359093 -1.2356982231140137 -0.3312883973121643 9.0 0 -0.04964658245444298
0.07458775490522385 -2.248420476913452 0.03926791250705719 94.0 8 -0.04964428022503853
0.04775327071547508 -1.4471262693405151 -0.33427727222442627 8.0 1 -0.04964197427034378
0.07423748075962067 -2.26167631149292 0.11859328299760818 49.0 9 -0.04963967204093933
0.05661407485604286 -1.7247718572616577 -0.3354422450065613 5.0 2 -0.04963736608624458
0.07424759864807129 -2.274097204208374 0.1990637183189392 27.0 10 -0.049635063856840134
0.07289954274892807 -2.2448198795318604 -0.3557320237159729 11.0 3 -0.049632757902145386
0.0735049620270729 -2.275714159011841 0.27956831455230713 17.0 11 -0.049630455672740936
0.0749564841389656 -2.3332648277282715 -0.28663671016693115 100.0 4 -0.04962814971804619
0.0726073682308197 -2.2724990844726562 0.36011216044425964 13.0 12 -0.04962584748864174
0.0744415670633316 -2.329906702041626 -0.20394444465637207 100.0 5 -0.04962354153394699
0.07282733917236328 -2.291924476623535 0.4457298517227173 10.0 13 -0.04962123930454254
0.07147416472434998 -2.261765241622925 -0.11859328299760818 100.0 6 -0.049618933349847794
0.07161755114793777 -2.2789011001586914 0.526385486125946 9.0 14 -0.049616631120443344
0.07008357346057892 -2.2425637245178223 -0.03916320204734802 100.0 7 -0.049614325165748596
0.07050810754299164 -2.2688305377960205 0.6082248091697693 9.0 15 -0.04961202293634415
0.03666393831372261 -1.2281105518341064 -0.3292178511619568 9.0 0 -0.04959128797054291
0.06626446545124054 -2.2326769828796387 0.03898867964744568 86.0 8 -0.04958898201584816
0.042931582778692245 -1.455075740814209 -0.33607688546180725 8.0 1 -0.04958667978644371
0.06634196639060974 -2.2619216442108154 0.11859328299760818 45.0 9 -0.04958437383174896
0.050765566527843475 -1.7308460474014282 -0.3365870714187622 5.0 2 -0.04958207160234451
0.06601868569850922 -2.2643847465515137 0.19819216430187225 25.0 10 -0.049579765647649765
0.06472007185220718 -2.233213424682617 -0.35385480523109436 11.0 3 -0.049577463418245316
0.06544668227434158 -2.2719883918762207 0.2790808379650116 14.0 11 -0.04957515746355057
0.06703860312700272 -2.341449737548828 -0.2876116633415222 100.0 4 -0.04957285523414612
0.06478673219680786 -2.2766876220703125 0.3607378900051117 13.0 12 -0.04957054927945137
0.0661381334066391 -2.3241777420043945 -0.20342150330543518 100.0 5 -0.04956824705004692
0.06449378281831741 -2.2803897857666016 0.44344013929367065 10.0 13 -0.04956594109535217
0.06380309164524078 -2.269987106323242 -0.11901197582483292 97.0 6 -0.04956363886594772
0.06409723311662674 -2.2947211265563965 0.529984712600708 9.0 14 -0.049561336636543274
0.06242179125547409 -2.248791217803955 -0.03926791250705719 100.0 7 -0.049559030681848526
0.06258818507194519 -2.2690627574920654 0.6082248091697693 9.0 15 -0.04955672845244408
0.032580550760030746 -1.2359557151794434 -0.3312883973121643 10.0 0 -0.04953598976135254
0.058470506221055984 -2.2328946590423584 0.03898867964744568 81.0 8 -0.04953368753194809
0.03744674101471901 -1.4396320581436157 -0.3324776887893677 7.0 1 -0.04953138157725334
0.05865253508090973 -2.2701258659362793 0.11901197582483292 45.0 9 -0.04952907934784889
0.044419389218091965 -1.7192370891571045 -0.33429738879203796 5.0 2 -0.049526773393154144
0.058216534554958344 -2.268584728240967 0.19854077696800232 25.0 10 -0.049524471163749695
0.05621935427188873 -2.205779552459717 -0.34947463870048523 9.0 3 -0.04952216520905495
0.057415299117565155 -2.2682340145111084 0.2785933315753937 16.0 11 -0.0495198629796505
0.05886494368314743 -2.3416693210601807 -0.2876116633415222 100.0 4 -0.04951755702495575
0.05688844621181488 -2.2788748741149902 0.3610507845878601 14.0 12 -0.0495152547955513
0.05776723101735115 -2.3303799629211426 -0.20394444465637207 100.0 5 -0.04951295256614685
0.05624135956168175 -2.268825054168701 0.44115039706230164 10.0 13 -0.0495106466114521
0.05524001270532608 -2.244239568710327 -0.11765124648809433 91.0 6 -0.04950834438204765
0.05589652433991432 -2.2871382236480713 0.5281850695610046 9.0 14 -0.049506038427352905
0.05437757447361946 -2.2409989833831787 -0.039128296077251434 100.0 7 -0.049503736197948456
0.05471375212073326 -2.2711985111236572 0.6087424159049988 10.0 15 -0.04950143024325371
0.027874989435076714 -1.2283414602279663 -0.3292178511619568 9.0 0 -0.04948069527745247
0.0508572980761528 -2.241081714630127 0.039128296077251434 79.0 8 -0.04947838932275772
0.03242121636867523 -1.4397540092468262 -0.3324776887893677 7.0 1 -0.04947608709335327
0.050549160689115524 -2.2623298168182373 0.11859328299760818 42.0 9 -0.049473781138658524
0.03833531215786934 -1.7292022705078125 -0.33620548248291016 5.0 2 -0.049471478909254074
0.05007656663656235 -2.276750326156616 0.19923801720142365 24.0 10 -0.049469176679849625
0.04796197637915611 -2.198071002960205 -0.34822314977645874 9.0 3 -0.04946687072515488
0.04932378605008125 -2.2604820728302 0.2776183784008026 16.0 11 -0.04946456849575043
0.05051901191473007 -2.3339219093322754 -0.28663671016693115 100.0 4 -0.04946226254105568
0.04918797314167023 -2.2909090518951416 0.36292800307273865 12.0 12 -0.04945996031165123
0.04984438046813011 -2.340527057647705 -0.20481599867343903 100.0 5 -0.04945765435695648
0.04809112474322319 -2.276867389678955 0.4426769018173218 10.0 13 -0.04945535212755203
0.04705614224076271 -2.2464234828948975 -0.11775590479373932 88.0 6 -0.049453046172857285
0.04743238911032677 -2.283431053161621 0.5272852778434753 9.0 14 -0.049450743943452835
0.04676228389143944 -2.251171588897705 -0.03930281847715378 100.0 7 -0.04944843798875809
0.04714345186948776 -2.2887589931488037 0.6134011745452881 9.0 15 -0.04944613575935364
0.023735418915748596 -1.2361572980880737 -0.3312883973121643 9.0 0 -0.0494253970682621
0.0427192859351635 -2.2452516555786133 0.03919810429215431 71.0 8 -0.04942309483885765
0.027070552110671997 -1.4359664916992188 -0.331577867269516 7.0 1 -0.0494207926094532
0.042331796139478683 -2.266493797302246 0.11880263686180115 40.0 9 -0.04941848665475845
0.03207901865243912 -1.717548131942749 -0.3339157700538635 5.0 2 -0.049416184425354004
0.042202576994895935 -2.280895709991455 0.1995866596698761 24.0 10 -0.049413878470659256
0.04018059000372887 -2.1923000812530518 -0.34728455543518066 8.0 3 -0.049411576241254807
0.041146695613861084 -2.2666022777557373 0.2783496081829071 16.0 11 -0.04940927028656006
0.04189273342490196 -2.3301219940185547 -0.2861492335796356 100.0 4 -0.04940696805715561
0.04075583443045616 -2.2890987396240234 0.3626151382923126 13.0 12 -0.04940466210246086
0.04163885489106178 -2.3386945724487305 -0.2046416699886322 100.0 5 -0.04940235987305641
0.04048934951424599 -2.2966508865356445 0.44649308919906616 10.0 13 -0.049400053918361664
0.03935347497463226 -2.2545621395111084 -0.11817460507154465 88.0 6 -0.049397751688957214
0.039394307881593704 -2.2796859741210938 0.526385486125946 9.0 14 -0.049395445734262466
0.038169220089912415 -2.2313337326049805 -0.03895376995205879 100.0 7 -0.04939314350485802
0.03862355649471283 -2.2811901569366455 0.6113306283950806 9.0 15 -0.04939083755016327
0.019299017265439034 -1.228506088256836 -0.3292178511619568 9.0 0 -0.04937010258436203
0.03500555455684662 -2.253385066986084 0.039337724447250366 68.0 8 -0.04936780035495758
0.022117920219898224 -1.4399491548538208 -0.3324776887893677 7.0 1 -0.04936549440026283
0.03438961133360863 -2.2646307945251465 0.11869796365499496 40.0 9 -0.04936319217085838
0.02602379396557808 -1.7137235403060913 -0.33315253257751465 5.0 2 -0.049360886216163635
0.03418063372373581 -2.2770445346832275 0.19923801720142365 24.0 10 -0.049358583986759186
0.0338171161711216 -2.27933406829834 -0.3610507845878601 18.0 3 -0.04935627803206444
0.033467281609773636 -2.2826108932495117 0.28029951453208923 15.0 11 -0.04935397580265999
0.03381655737757683 -2.334223747253418 -0.28663671016693115 100.0 4 -0.04935166984796524
0.03259545564651489 -2.277376174926758 0.3607378900051117 12.0 12 -0.04934936761856079
0.033360909670591354 -2.330857038497925 -0.20394444465637207 100.0 5 -0.04934706166386604
0.03244447708129883 -2.2948150634765625 0.44611144065856934 9.0 13 -0.049344759434461594
0.031455665826797485 -2.2526886463165283 -0.11806992441415787 78.0 6 -0.049342453479766846
0.03157048672437668 -2.2895522117614746 0.5286350250244141 9.0 14 -0.049340151250362396
0.03032541088759899 -2.227454423904419 -0.038883961737155914 100.0 7 -0.04933784529566765
0.03058280609548092 -2.2755157947540283 0.6097776889801025 10.0 15 -0.0493355430662632
0.015057781711220741 -1.2324293851852417 -0.33025309443473816 9.0 0 -0.04931480810046196
0.027043437585234642 -2.245495080947876 0.03919810429215431 71.0 8 -0.04931250214576721
0.017091212794184685 -1.440017580986023 -0.3324776887893677 7.0 1 -0.04931019991636276
0.026974359527230263 -2.2727205753326416 0.1191166415810585 38.0 9 -0.049307893961668015
0.020041778683662415 -1.7138038873672485 -0.33315253257751465 5.0 2 -0.049305591732263565
0.026140466332435608 -2.269181251525879 0.19854077696800232 22.0 10 -0.04930328577756882
0.02637590281665325 -2.324868679046631 -0.36824676394462585 89.0 3 -0.04930098354816437
0.025499215349555016 -2.2827136516571045 0.28029951453208923 16.0 11 -0.04929867759346962
0.02575591392815113 -2.3422675132751465 -0.2876116633415222 100.0 4 -0.04929637536406517
0.0251737292855978 -2.289323329925537 0.3626151382923126 13.0 12 -0.04929406940937042
0.025245994329452515 -2.332951545715332 -0.2041187435388565 100.0 5 -0.04929176717996597
0.02430840954184532 -2.2831356525421143 0.4438217580318451 9.0 13 -0.049289461225271225
0.023570876568555832 -2.2507874965667725 -0.11796525865793228 71.0 6 -0.049287158995866776
0.023698875680565834 -2.301340341567993 0.5313344597816467 9.0 14 -0.04928485304117203
0.02308305725455284 -2.241539716720581 -0.039128296077251434 100.0 7 -0.04928255081176758
0.022978000342845917 -2.2698094844818115 0.6082248091697693 9.0 15 -0.04928024858236313
0.010688239708542824 -1.2247473001480103 -0.32818254828453064 10.0 0 -0.04925950989127159
0.019596870988607407 -2.245572328567505 0.03919810429215431 66.0 8 -0.04925720766186714
0.0123159633949399 -1.4400663375854492 -0.3324776887893677 7.0 1 -0.049254901707172394
0.019057858735322952 -2.2747981548309326 0.11922132223844528 36.0 9 -0.049252599477767944
0.014027108438313007 -1.7099372148513794 -0.33238929510116577 5.0 2 -0.049250293523073196
0.018379006534814835 -2.289181709289551 0.20028388500213623 24.0 10 -0.04924799129366875
0.018681984394788742 -2.326918840408325 -0.36855965852737427 100.0 3 -0.049245685338974
0.017882732674479485 -2.2768309116363525 0.27956831455230713 14.0 11 -0.04924338310956955
0.018079908564686775 -2.354250192642212 -0.2890741229057312 100.0 4 -0.0492410771548748
0.017226487398147583 -2.295323371887207 0.3635537326335907 11.0 12 -0.04923877492547035
0.01716095395386219 -2.3409948348999023 -0.20481599867343903 100.0 5 -0.049236468970775604
0.016794873401522636 -2.2910563945770264 0.44534823298454285 9.0 13 -0.049234166741371155
0.016193067654967308 -2.262836456298828 -0.11859328299760818 68.0 6 -0.049231864511966705
0.01599911041557789 -2.2916626930236816 0.5290848612785339 8.0 14 -0.04922955855727196
0.015299254097044468 -2.247605562210083 -0.0392330102622509 100.0 7 -0.04922725632786751
0.01510593295097351 -2.2776031494140625 0.610295295715332 9.0 15 -0.04922495037317276
0.0066059669479727745 -1.2209124565124512 -0.3271472752094269 10.0 0 -0.04920421540737152
0.011821002699434757 -2.2576253414154053 0.03940753638744354 63.0 8 -0.04920190945267677
0.0072496249340474606 -1.4323056936264038 -0.3306780755519867 7.0 1 -0.049199607223272324
0.01148383691906929 -2.26885724067688 0.11890730261802673 33.0 9 -0.049197301268577576
0.008366203866899014 -1.711937427520752 -0.3327709138393402 5.0 2 -0.049194999039173126
0.01078789122402668 -2.2892303466796875 0.20028388500213623 22.0 10 -0.04919269308447838
0.010658225044608116 -2.348698616027832 -0.37200120091438293 100.0 3 -0.04919039085507393
0.00992627628147602 -2.2748939990997314 0.27932456135749817 15.0 11 -0.04918808862566948
0.00979534536600113 -2.338418483734131 -0.2871242165565491 100.0 4 -0.04918578267097473
0.009623285382986069 -2.2973432540893555 0.3638666272163391 11.0 12 -0.04918348044157028
0.009405748918652534 -2.343031167984009 -0.20499029755592346 100.0 5 -0.049181174486875534
0.008797155693173409 -2.2911009788513184 0.44534823298454285 9.0 13 -0.049178872257471085
0.00824994221329689 -2.2508957386016846 -0.11796525865793228 61.0 6 -0.04917656630277634
0.007986222393810749 -2.2878072261810303 0.5281850695610046 9.0 14 -0.04917426407337189
0.007818100042641163 -2.23964524269104 -0.039093390107154846 100.0 7 -0.04917195811867714
0.007610614411532879 -2.295027256011963 0.6149541139602661 10.0 15 -0.04916965588927269
0.002366220112890005 -1.2325191497802734 -0.33025309443473816 9.0 0 -0.04914891719818115
0.004326616879552603 -2.253652811050415 0.039337724447250366 67.0 8 -0.0491466149687767
0.002506635617464781 -1.436219334602356 -0.331577867269516 7.0 1 -0.04914431273937225
0.0035610462073236704 -2.2668862342834473 0.11880263686180115 30.0 9 -0.049142006784677505
0.0023766225203871727 -1.702139973640442 -0.330862820148468 5.0 2 -0.049139704555273056
0.0028041594196110964 -2.2952311038970947 0.20080682635307312 21.0 10 -0.04913739860057831
0.0028477897867560387 -2.3309428691864014 -0.3691853880882263 100.0 3 -0.04913509637117386
0.0023805061355233192 -2.2729296684265137 0.2790808379650116 14.0 11 -0.04913279041647911
0.00203379662707448 -2.3304977416992188 -0.2861492335796356 100.0 4 -0.04913048818707466
0.0015956638380885124 -2.285510540008545 0.36198940873146057 11.0 12 -0.04912818223237991
0.0012318571098148823 -2.3530118465423584 -0.2058618664741516 100.0 5 -0.049125880002975464
0.0012035652762278914 -2.2989706993103027 0.4468746781349182 9.0 13 -0.049123574048280716
0.0007893251604400575 -2.260897159576416 -0.1184886172413826 62.0 6 -0.049121271818876266
0.0004004694928880781 -2.2936673164367676 0.5295348167419434 9.0 14 -0.04911896586418152
-9.894752395211981e-08 -2.263655424118042 -0.03951225057244301 100.0 7 -0.04911666363477707
-0.00039968860801309347 -2.2911763191223145 0.6139188408851624 10.0 15 -0.04911435768008232
-0.001709938864223659 -1.224792718887329 -0.32818254828453064 10.0 0 -0.04909362271428108
-0.00355562474578619 -2.2636525630950928 0.03951225057244301 58.0 8 -0.04909132048487663
-0.002499787602573633 -1.4323217868804932 -0.3306780755519867 7.0 1 -0.049089014530181885
-0.0039667836390435696 -2.2728772163391113 0.1191166415810585 33.0 9 -0.049086712300777435
-0.0032679555006325245 -1.7021385431289673 -0.330862820148468 5.0 2 -0.04908440634608269
-0.004781894851475954 -2.283273458480835 0.19976095855236053 21.0 10 -0.04908210411667824
-0.005324378143996 -2.3467416763305664 -0.3716883361339569 100.0 3 -0.04907979816198349
-0.00557324942201376 -2.2808642387390137 0.2800557613372803 13.0 11 -0.04907749593257904
-0.006122023798525333 -2.3384311199188232 -0.2871242165565491 100.0 4 -0.04907518997788429
-0.005983458366245031 -2.2855031490325928 0.36198940873146057 11.0 12 -0.04907288774847984
-0.006537165958434343 -2.3410487174987793 -0.20481599867343903 100.0 5 -0.049070581793785095
-0.0068444376811385155 -2.3068137168884277 0.44840118288993835 9.0 13 -0.049068279564380646
-0.007115296088159084 -2.264880657196045 -0.11869796365499496 53.0 6 -0.0490659736096859
-0.007605989929288626 -2.293654680252075 0.5295348167419434 9.0 14 -0.04906367138028145
-0.007473312318325043 -2.2536444664001465 -0.039337724447250366 100.0 7 -0.0490613654255867
-0.007977358065545559 -2.2853667736053467 0.6123659014701843 10.0 15 -0.04905906319618225
-0.005947670433670282 -1.2170521020889282 -0.3261120319366455 9.0 0 -0.04903832823038101
-0.010984055697917938 -2.247631072998047 0.0392330102622509 58.0 8 -0.049036022275686264
-0.007269306108355522 -1.4362032413482666 -0.331577867269516 7.0 1 -0.049033720046281815
-0.011942475102841854 -2.28083872795105 0.11953534185886383 31.0 9 -0.04903141409158707
-0.009209352545440197 -1.7021167278289795 -0.330862820148468 5.0 2 -0.04902911186218262
-0.01269640401005745 -2.2732808589935303 0.19888940453529358 20.0 10 -0.04902680590748787
-0.013051354326307774 -2.33683443069458 -0.3701240122318268 100.0 3 -0.04902450367808342
-0.013216683641076088 -2.2947287559509277 0.28176194429397583 13.0 11 -0.04902219772338867
-0.013923433609306812 -2.3463377952575684 -0.28809913992881775 100.0 4 -0.04901989549398422
-0.01398551370948553 -2.289418935775757 0.3626151382923126 12.0 12 -0.049017589539289474
-0.014684218913316727 -2.337027072906494 -0.20446737110614777 100.0 5 -0.049015287309885025
-0.014395475387573242 -2.2910726070404053 0.44534823298454285 9.0 13 -0.04901298135519028
-0.014703073538839817 -2.2768280506134033 -0.11932599544525146 49.0 6 -0.04901067912578583
-0.015237917192280293 -2.2975142002105713 0.5304346084594727 9.0 14 -0.04900837317109108
-0.01538084913045168 -2.259603261947632 -0.03944243863224983 100.0 7 -0.04900607094168663
-0.01590084470808506 -2.277597665786743 0.610295295715332 10.0 15 -0.04900376498699188
-0.010228196159005165 -1.2208874225616455 -0.3271472752094269 10.0 0 -0.04897022247314453
-0.019187798723578453 -2.2435765266418457 0.03916320204734802 56.0 8 -0.04896792024374008
-0.01246520783752203 -1.4283722639083862 -0.3297782838344574 7.0 1 -0.048965614289045334
-0.020372964441776276 -2.2887680530548096 0.11995401978492737 27.0 9 -0.048963312059640884
-0.015150637365877628 -1.7020741701126099 -0.330862820148468 5.0 2 -0.048961006104946136
-0.020776277408003807 -2.289161443710327 0.20028388500213623 20.0 10 -0.04895870387554169
-0.02156141586601734 -2.3308451175689697 -0.3691853880882263 100.0 3 -0.04895639792084694
-0.021552674472332 -2.286724805831909 0.28078699111938477 13.0 11 -0.04895409569144249
-0.022561250254511833 -2.35024094581604 -0.2885866165161133 100.0 4 -0.04895178973674774
-0.022472860291600227 -2.2992289066314697 0.36417946219444275 11.0 12 -0.04894948750734329
-0.0232497937977314 -2.3369574546813965 -0.20446737110614777 100.0 5 -0.048947181552648544
-0.022753557190299034 -2.2870781421661377 0.44458499550819397 9.0 13 -0.048944879323244095
-0.023007569834589958 -2.272764205932617 -0.1191166415810585 40.0 6 -0.04894257336854935
-0.023698527365922928 -2.301340341567993 0.5313344597816467 9.0 14 -0.0489402711391449
-0.02374640852212906 -2.2675302028656006 -0.039582058787345886 100.0 7 -0.04893796518445015
-0.024433694779872894 -2.294909715652466 0.6149541139602661 10.0 15 -0.0489356629550457
-0.014749450609087944 -1.2247051000595093 -0.32818254828453064 10.0 0 -0.04891492798924446
-0.027211664244532585 -2.2594916820526123 0.03944243863224983 56.0 8 -0.04891262203454971
-0.017450951039791107 -1.428320050239563 -0.3297782838344574 8.0 1 -0.048910319805145264
-0.028213975951075554 -2.276700735092163 0.11932599544525146 26.0 9 -0.048908013850450516
-0.02136451192200184 -1.7000441551208496 -0.3304812014102936 4.0 2 -0.048905711621046066
-0.029140716418623924 -2.2870774269104004 0.2001095712184906 19.0 10 -0.04890340566635132
-0.03025735728442669 -2.342601776123047 -0.37106260657310486 100.0 3 -0.04890110343694687
-0.029380666092038155 -2.274725914001465 0.27932456135749817 12.0 11 -0.04889879748225212
-0.030661117285490036 -2.3422083854675293 -0.2876116633415222 100.0 4 -0.04889649525284767
-0.030603401362895966 -2.307037353515625 0.3654309809207916 11.0 12 -0.048894189298152924
-0.031514041125774384 -2.3448307514190674 -0.2051646113395691 100.0 5 -0.048891887068748474
-0.03113573230803013 -2.2869794368743896 0.44458499550819397 9.0 13 -0.048889581114053726
-0.031062448397278786 -2.2526941299438477 -0.11806992441415787 40.0 6 -0.04888727888464928
-0.03213324397802353 -2.3012380599975586 0.5313344597816467 9.0 14 -0.04888497292995453
-0.03154953196644783 -2.2594354152679443 -0.03944243863224983 100.0 7 -0.04888267070055008
-0.03238944709300995 -2.290947437286377 0.6139188408851624 10.0 15 -0.04888036474585533
-0.018904387950897217 -1.2169197797775269 -0.3261120319366455 10.0 0 -0.04885962978005409
-0.03549324348568916 -2.2593770027160645 0.03944243863224983 56.0 8 -0.04885732755064964
-0.022747810930013657 -1.4321434497833252 -0.3306780755519867 7.0 1 -0.048855021595954895
-0.0364939384162426 -2.272587776184082 0.1191166415810585 27.0 9 -0.048852719366550446
-0.027077829465270042 -1.6862181425094604 -0.3278098702430725 1.0 2 -0.0488504134118557
-0.03731829673051834 -2.298914670944214 0.20115545392036438 19.0 10 -0.04884811118245125
-0.038434162735939026 -2.3424816131591797 -0.37106260657310486 35.0 3 -0.0488458052277565
-0.03784945234656334 -2.2825424671173096 0.28029951453208923 12.0 11 -0.04884350299835205
-0.03924557566642761 -2.3420803546905518 -0.2876116633415222 100.0 4 -0.0488411970436573
-0.03885830566287041 -2.2950589656829834 0.3635537326335907 11.0 12 -0.04883889481425285
-0.040244411677122116 -2.352667808532715 -0.2058618664741516 100.0 5 -0.048836588859558105
-0.03932012617588043 -2.2986347675323486 0.4468746781349182 9.0 13 -0.048834286630153656
-0.03909796103835106 -2.262556552886963 -0.11859328299760818 32.0 6 -0.04883198067545891
-0.04002988710999489 -2.293318033218384 0.5295348167419434 9.0 14 -0.04882967844605446
-0.03990110754966736 -2.263303756713867 -0.03951225057244301 100.0 7 -0.04882737621665001
-0.04099234938621521 -2.3024024963378906 0.6170246005058289 10.0 15 -0.04882507026195526
-0.023141995072364807 -1.20525324344635 -0.32300618290901184 9.0 0 -0.04880433529615402
-0.04341790825128555 -2.2612388134002686 0.03947734460234642 54.0 8 -0.048802029341459274
-0.02767149545252323 -1.4281586408615112 -0.3297782838344574 7.0 1 -0.048799727112054825
-0.04450467601418495 -2.2764406204223633 0.11932599544525146 25.0 9 -0.04879742115736008
-0.03449692204594612 -1.7489194869995117 -0.34002164006233215 0.0 2 -0.04879511892795563
-0.04550619050860405 -2.2868103981018066 0.2001095712184906 19.0 10 -0.04879281297326088
-0.04601604864001274 -2.2923200130462646 0.28151822090148926 12.0 11 -0.04878820478916168
-0.04742050915956497 -2.3419291973114014 -0.2876116633415222 100.0 4 -0.04878590255975723
-0.046909719705581665 -2.296884298324585 0.3638666272163391 11.0 12 -0.04878360033035278
-0.04829245060682297 -2.3445451259613037 -0.2051646113395691 100.0 5 -0.048781294375658035
-0.04790763556957245 -2.306326389312744 0.44840118288993835 9.0 13 -0.048778992146253586
-0.04776687175035477 -2.280369758605957 -0.11953534185886383 33.0 6 -0.04877668619155884
-0.04868200048804283 -2.3048458099365234 0.532234251499176 9.0 14 -0.04877438396215439
-0.04750574007630348 -2.2491557598114014 -0.03926791250705719 100.0 7 -0.04877207800745964
