# .PCD v0.7 - Point Cloud Data file format
VERSION 0.7
FIELDS x y z intensity ring time
SIZE 4 4 4 4 4 4
TYPE F F F F F F
COUNT 1 1 1 1 1 1
WIDTH 540
HEIGHT 1
VIEWPOINT 0 0 0 1 0 0 0
POINTS 540
DATA ascii
-1.514952540397644 -1.2443965673446655 -0.17152249813079834 0.0 5 -0.05778125673532486
-2.7083628177642822 -2.2238824367523193 0.68118816614151 28.0 13 -0.05777895078063011
-2.47624135017395 -2.0325613021850586 -0.16789376735687256 1.0 6 -0.05777664855122566
-2.681577444076538 -2.2003231048583984 0.800825834274292 8.0 14 -0.057774342596530914
-2.156834125518799 -1.7691231966018677 -0.048692215234041214 2.0 7 -0.057772040367126465
-2.665074586868286 -2.18522572517395 0.9234663844108582 40.0 15 -0.05776973441243172
-2.336094379425049 -1.910029649734497 0.05267136171460152 2.0 8 -0.05774669721722603
-2.3040518760681152 -1.8831602334976196 -0.687000572681427 36.0 1 -0.05774439126253128
-2.663353204727173 -2.176051139831543 0.1802450567483902 2.0 9 -0.05774208903312683
-2.282014846801758 -1.8644845485687256 -0.5728086233139038 33.0 2 -0.05773978307843208
-2.7050747871398926 -2.2093522548675537 0.30556803941726685 5.0 10 -0.057737480849027634
-1.589829683303833 -1.2980198860168457 -0.325070858001709 1.0 3 -0.057735174894332886
-2.7220797538757324 -2.2216572761535645 0.4314175248146057 11.0 11 -0.057732872664928436
-2.695751905441284 -2.198601245880127 0.5509622097015381 12.0 12 -0.05772826448082924
-1.528551459312439 -1.2466559410095215 -0.17256836593151093 0.0 5 -0.05772595852613449
-2.702414035797119 -2.2032506465911865 0.6777536273002625 26.0 13 -0.05772365629673004
-2.4693872928619385 -2.0125489234924316 -0.1669517159461975 1.0 6 -0.057721350342035294
-2.6952855587005615 -2.1958718299865723 0.8026254177093506 8.0 14 -0.057719048112630844
-2.176950693130493 -1.772948980331421 -0.04900635778903961 2.0 7 -0.057716742157936096
-2.6636974811553955 -2.1685914993286133 0.9203605651855469 40.0 15 -0.05771443992853165
-2.283751964569092 -1.8539702892303467 0.05134497955441475 2.0 8 -0.05769139900803566
-2.2894270420074463 -1.857914686203003 -0.6807019710540771 38.0 1 -0.05768909677863121
-2.663177490234375 -2.160449743270874 0.17972169816493988 3.0 9 -0.05768679082393646
-2.2854597568511963 -1.8540338277816772 -0.5720453858375549 35.0 2 -0.05768448859453201
-2.714318037033081 -2.201151132583618 0.3057423233985901 6.0 10 -0.057682182639837265
-2.717480182647705 -2.202143669128418 0.4294675886631012 8.0 11 -0.05767757445573807
-2.7003393173217773 -2.186692237854004 0.550336480140686 13.0 12 -0.05767296627163887
-1.5174096822738647 -1.2287745475769043 -0.17082524299621582 0.0 5 -0.05767066404223442
-2.699406623840332 -2.185157060623169 0.675082266330719 22.0 13 -0.05766835808753967
-2.4903717041015625 -2.015223741531372 -0.16789376735687256 3.0 6 -0.05766605585813522
-2.692328453063965 -2.1778712272644043 0.7994760870933533 8.0 14 -0.057663753628730774
-2.167577028274536 -1.7527655363082886 -0.048657309263944626 1.0 7 -0.057661447674036026
-2.6682467460632324 -2.156850814819336 0.9193252921104431 40.0 15 -0.05765914544463158
-2.2341604232788086 -1.8008105754852295 0.05008840560913086 2.0 8 -0.05763610452413559
-2.2822413444519043 -1.8389074802398682 -0.6766527891159058 43.0 1 -0.05763379856944084
-2.676924467086792 -2.156151533126831 0.18014037609100342 3.0 9 -0.05763149634003639
-2.294975757598877 -1.8485076427459717 -0.5728086233139038 45.0 2 -0.057629190385341644
-2.7250888347625732 -2.194161891937256 0.30609095096588135 6.0 10 -0.057626888155937195
-2.712777614593506 -2.1826889514923096 0.42751768231391907 5.0 11 -0.057622279971838
-2.706416606903076 -2.1760151386260986 0.5500236749649048 12.0 12 -0.0576176717877388
-1.552744746208191 -1.2484389543533325 -0.17431147396564484 1.0 5 -0.05761536955833435
-2.699366807937622 -2.1695716381073 0.6731741428375244 16.0 13 -0.0576130636036396
-2.47403621673584 -1.9877541065216064 -0.1663236916065216 2.0 6 -0.05761076137423515
-2.680162191390991 -2.1525964736938477 0.7936273813247681 9.0 14 -0.057608455419540405
-2.1658856868743896 -1.738929033279419 -0.04848278686404228 3.0 7 -0.057606153190135956
-2.674252986907959 -2.1463143825531006 0.9188076257705688 41.0 15 -0.05760384723544121
-2.2357494831085205 -1.7892520427703857 0.04998369142413139 4.0 8 -0.05758080631494522
-2.290168285369873 -1.8321470022201538 -0.6771027445793152 47.0 1 -0.05757850408554077
-2.6625967025756836 -2.129331111907959 0.17867498099803925 3.0 9 -0.057576198130846024
-2.2814815044403076 -1.8245457410812378 -0.5678476095199585 40.0 2 -0.057573895901441574
-2.731174945831299 -2.18339204788208 0.3059166669845581 7.0 10 -0.057571593672037125
-2.7126245498657227 -2.1670119762420654 0.42629900574684143 4.0 11 -0.05756698548793793
-2.6970138549804688 -2.152998208999634 0.5465821027755737 12.0 12 -0.05756237730383873
-2.7007858753204346 -2.1552367210388184 0.6716477274894714 15.0 13 -0.05755776911973953
-2.4856433868408203 -1.982843041419983 -0.16663770377635956 2.0 6 -0.057555463165044785
-2.681565523147583 -2.1383678913116455 0.7918277978897095 9.0 14 -0.057553160935640335
-2.176633834838867 -1.735097050666809 -0.04858750104904175 7.0 7 -0.05755085498094559
-2.683238983154297 -2.1381709575653076 0.9193252921104431 43.0 15 -0.05754855275154114
-2.3609695434570312 -1.8759822845458984 0.05263645574450493 5.0 8 -0.05752551183104515
-2.290445327758789 -1.8192939758300781 -0.6753031015396118 45.0 1 -0.0575232096016407
-2.6606287956237793 -2.1125712394714355 0.17804694175720215 5.0 9 -0.05752090364694595
-2.286299705505371 -1.8153494596481323 -0.5674660205841064 46.0 2 -0.057518601417541504
-2.713810682296753 -2.1540262699127197 0.3031276762485504 7.0 10 -0.057516295462846756
-2.723283529281616 -2.159996271133423 0.42678648233413696 4.0 11 -0.05751168727874756
-2.6967720985412598 -2.1374363899230957 0.5450177192687988 12.0 12 -0.05750707909464836
-2.7067534923553467 -2.1445775032043457 0.6712660789489746 12.0 13 -0.057502470910549164
-2.497246503829956 -1.9778743982315063 -0.1669517159461975 2.0 6 -0.057500168681144714
-2.6874849796295166 -2.1277854442596436 0.7913778424263 11.0 14 -0.057497862726449966
-2.171700954437256 -1.7188019752502441 -0.04834316670894623 15.0 7 -0.05749556049704552
-2.6709911823272705 -2.1132092475891113 0.9125959873199463 44.0 15 -0.05749325454235077
-2.314124584197998 -1.8256194591522217 0.051449693739414215 2.0 8 -0.05747021734714508
-2.301372528076172 -1.8149079084396362 -0.6766527891159058 50.0 1 -0.05746791139245033
-2.671123743057251 -2.105743885040283 0.17825628817081451 5.0 9 -0.05746560916304588
-2.28985333442688 -1.8045276403427124 -0.5667027235031128 49.0 2 -0.057463303208351135
-2.718557357788086 -2.141599416732788 0.30277904868125916 7.0 10 -0.057461000978946686
-2.721449851989746 -2.143108367919922 0.42532405257225037 4.0 11 -0.05745639279484749
-2.6995601654052734 -2.1243441104888916 0.5440791249275208 12.0 12 -0.05745178461074829
-2.705335855484009 -2.1273610591888428 0.668976366519928 12.0 13 -0.057447176426649094
-2.506049394607544 -1.9699426889419556 -0.1670563817024231 1.0 6 -0.057444870471954346
-2.6983306407928467 -2.120328426361084 0.7922776341438293 15.0 14 -0.057442568242549896
-2.1824042797088623 -1.7149173021316528 -0.048447877168655396 16.0 7 -0.05744026228785515
-2.6737935543060303 -2.100292682647705 0.911043107509613 45.0 15 -0.0574379600584507
-2.1822452545166016 -1.7086396217346191 0.04837806895375252 5.0 8 -0.05741491913795471
-2.292663335800171 -1.7944496870040894 -0.6721537709236145 43.0 1 -0.05741261690855026
-2.6693854331970215 -2.0885558128356934 0.17762824892997742 6.0 9 -0.057410310953855515
-2.2868611812591553 -1.7892649173736572 -0.5644130706787109 55.0 2 -0.057408008724451065
-2.718169689178467 -2.125959634780884 0.301907479763031 7.0 10 -0.05740570276975632
-2.7324137687683105 -2.1355645656585693 0.4258115291595459 2.0 11 -0.05740109458565712
-2.7011008262634277 -2.109572172164917 0.5428276658058167 13.0 12 -0.05739648640155792
-2.7019128799438477 -2.1094472408294678 0.6663050651550293 10.0 13 -0.057391878217458725
-2.5129103660583496 -1.9611828327178955 -0.1670563817024231 2.0 6 -0.057389575988054276
-2.701106309890747 -2.1073005199432373 0.7909280061721802 16.0 14 -0.05738727003335953
-2.202866792678833 -1.7179746627807617 -0.04876202344894409 13.0 7 -0.05738496780395508
-2.676903009414673 -2.0869152545928955 0.909490168094635 49.0 15 -0.05738266557455063
-2.166093111038208 -1.6838303804397583 0.047889403998851776 5.0 8 -0.05735962465405464
-2.29891300201416 -1.7864357233047485 -0.6721537709236145 30.0 1 -0.057357318699359894
-2.6703507900238037 -2.0743236541748047 0.17720957100391388 6.0 9 -0.057355016469955444
-2.29309344291687 -1.7812707424163818 -0.5644130706787109 47.0 2 -0.057352710515260696
-2.727147102355957 -2.117680788040161 0.30208179354667664 8.0 10 -0.05735040828585625
-2.7241690158843994 -2.1138436794281006 0.42337414622306824 4.0 11 -0.05734580010175705
-2.7162530422210693 -2.1061835289001465 0.5443919897079468 15.0 12 -0.05734119191765785
-2.7015013694763184 -2.093989372253418 0.6643969416618347 8.0 13 -0.057336583733558655
-2.541844129562378 -1.9695254564285278 -0.16852180659770966 3.0 6 -0.057334281504154205
-2.696120262145996 -2.088313102722168 0.7873287796974182 22.0 14 -0.05733197554945946
-2.2041068077087402 -1.7066017389297485 -0.048657309263944626 9.0 7 -0.05732967332005501
-2.6811161041259766 -2.075193405151367 0.9084548950195312 52.0 15 -0.05732736736536026
-2.2083680629730225 -1.7043596506118774 0.048692215234041214 6.0 8 -0.05730432644486427
-2.2989633083343506 -1.7736386060714722 -0.6703541874885559 7.0 1 -0.057302024215459824
-2.6665046215057373 -2.0564517974853516 0.1764768660068512 7.0 9 -0.057299718260765076
-2.286860227584839 -1.7636637687683105 -0.5613601207733154 47.0 2 -0.057297416031360626
-2.726633310317993 -2.1020660400390625 0.3012102246284485 10.0 10 -0.05729511007666588
-2.72524094581604 -2.099475622177124 0.4223991632461548 4.0 11 -0.05729050561785698
-2.7141973972320557 -2.089458465576172 0.5425148010253906 18.0 12 -0.05728589743375778
-2.7056827545166016 -2.0821518898010254 0.6636337041854858 8.0 13 -0.057281289249658585
-2.5328726768493652 -1.9484632015228271 -0.16747507452964783 3.0 6 -0.05727898329496384
-2.7018489837646484 -2.07770037651062 0.7868788242340088 31.0 14 -0.05727668106555939
-2.19578218460083 -1.6879292726516724 -0.04834316670894623 12.0 7 -0.05727437511086464
-2.6883432865142822 -2.0658226013183594 0.9084548950195312 50.0 15 -0.05727207288146019
-2.277796506881714 -1.74528968334198 0.05008840560913086 8.0 8 -0.0572490319609642
-2.6482934951782227 -2.0277047157287598 0.17480210959911346 7.0 9 -0.057244423776865005
-2.288325786590576 -1.7520902156829834 -0.5602152347564697 40.0 2 -0.057242121547460556
-2.7323720455169678 -2.0913243293762207 0.30103594064712524 12.0 10 -0.05723981559276581
-2.7341291904449463 -2.091156244277954 0.42264291644096375 5.0 11 -0.05723520740866661
-2.716765880584717 -2.0763728618621826 0.5415762066841125 21.0 12 -0.05723059922456741
-2.7160539627075195 -2.0750789642333984 0.6643969416618347 7.0 13 -0.057225991040468216
-2.541245937347412 -1.9408222436904907 -0.1675797551870346 3.0 6 -0.057223688811063766
-2.7106339931488037 -2.069438934326172 0.7873287796974182 37.0 14 -0.05722138285636902
-2.193711996078491 -1.6741887331008911 -0.048168644309043884 7.0 7 -0.05721908062696457
-2.6817147731781006 -2.045879364013672 0.9037961363792419 53.0 15 -0.05721677467226982
-2.2361278533935547 -1.7010080814361572 0.0490412637591362 13.0 8 -0.05719373747706413
-2.602884292602539 -1.978562593460083 0.17134793102741241 10.0 9 -0.057189129292964935
-2.3100574016571045 -1.7559725046157837 -0.5640314221382141 27.0 2 -0.05718682333827019
-2.7269651889801025 -2.072129726409912 0.2996414303779602 15.0 10 -0.05718452110886574
-2.7414121627807617 -2.081599473953247 0.42264291644096375 5.0 11 -0.05717991292476654
-2.723996877670288 -2.0668773651123047 0.5415762066841125 25.0 12 -0.05717530474066734
-2.712331533432007 -2.0572803020477295 0.661725640296936 7.0 13 -0.057170696556568146
-2.527316093444824 -1.9162520170211792 -0.16621901094913483 2.0 6 -0.0571683906018734
-2.7178409099578857 -2.059965133666992 0.7873287796974182 41.0 14 -0.05716608837246895
-2.19157338142395 -1.6604828834533691 -0.04799411818385124 13.0 7 -0.0571637824177742
-2.679600238800049 -2.029507637023926 0.9006903171539307 53.0 15 -0.05716148018836975
-2.2340734004974365 -1.6871658563613892 0.04886673763394356 13.0 8 -0.057138439267873764
-2.619339942932129 -1.9766838550567627 0.1719759702682495 10.0 9 -0.05713383108377457
-2.331843614578247 -1.7597248554229736 -0.5678476095199585 28.0 2 -0.05713152885437012
-2.7341814041137695 -2.062598943710327 0.2996414303779602 21.0 10 -0.05712922289967537
-2.7264692783355713 -2.055288553237915 0.41923055052757263 8.0 11 -0.05712461471557617
-2.724884033203125 -2.0526020526885986 0.5403247475624084 27.0 12 -0.057120006531476974
-2.702244997024536 -2.03480863571167 0.6575278043746948 7.0 13 -0.05711539834737778
-2.3329293727874756 -1.7560744285583496 -0.15303035080432892 1.0 6 -0.05711309611797333
-2.7250149250030518 -2.0504653453826904 0.7873287796974182 50.0 14 -0.05711079016327858
-2.189366579055786 -1.646812081336975 -0.0478195957839489 12.0 7 -0.05710848793387413
-2.683579444885254 -2.017820358276367 0.8996549844741821 55.0 15 -0.05710618197917938
-2.2396557331085205 -1.6797486543655396 0.04886673763394356 12.0 8 -0.056931816041469574
-2.6658365726470947 -1.9979313611984253 0.1745927631855011 7.0 9 -0.05692720785737038
-2.3502347469329834 -1.7614011764526367 -0.570900559425354 28.0 2 -0.05692490190267563
-2.7394115924835205 -2.052325963973999 0.2994671165943146 26.0 10 -0.05692259967327118
-2.7269136905670166 -2.0414772033691406 0.41825562715530396 9.0 11 -0.05691799148917198
-2.7364208698272705 -2.047104597091675 0.5412633419036865 35.0 12 -0.056913383305072784
-2.7042603492736816 -2.0223095417022705 0.6563829779624939 7.0 13 -0.05690877512097359
-2.2715535163879395 -1.6981029510498047 -0.148634135723114 6.0 6 -0.05690646916627884
-2.7146284580230713 -2.028585910797119 0.7823798060417175 61.0 14 -0.05690416693687439
-2.1932127475738525 -1.6383463144302368 -0.04778468981385231 12.0 7 -0.05690186098217964
-2.6840643882751465 -2.004286289215088 0.8975844979286194 55.0 15 -0.05689955875277519
-2.259941339492798 -1.6826680898666382 0.049180880188941956 16.0 8 -0.056876517832279205
-1.8837345838546753 -1.4020476341247559 -0.5421320796012878 1.0 1 -0.056874215602874756
-2.6727941036224365 -1.9886140823364258 0.1745927631855011 7.0 9 -0.05687190964818001
-2.367394208908081 -1.7613903284072876 -0.5735718607902527 28.0 2 -0.05686960741877556
-2.741762638092041 -2.0391838550567627 0.2989441752433777 31.0 10 -0.05686730146408081
-2.7356159687042236 -2.0331308841705322 0.4184993803501129 12.0 11 -0.05686269327998161
-2.727691173553467 -2.0257623195648193 0.5381346344947815 36.0 12 -0.056858085095882416
-2.7160325050354004 -2.0163683891296387 0.6575278043746948 8.0 13 -0.05685347691178322
-2.264636278152466 -1.6806412935256958 -0.14779675006866455 5.0 6 -0.05685117468237877
-2.720127582550049 -2.0179362297058105 0.7819299101829529 67.0 14 -0.05684886872768402
-2.190887451171875 -1.6247248649597168 -0.047610167413949966 9.0 7 -0.05684656649827957
-2.692596673965454 -1.9960556030273438 0.8981021642684937 58.0 15 -0.056844260543584824
-2.2850983142852783 -1.6890325546264648 0.04959974065423012 23.0 8 -0.056821223348379135
-2.6781129837036133 -1.978084683418274 0.1744880974292755 7.0 9 -0.05681661516427994
-2.3877415657043457 -1.763612985610962 -0.577006459236145 30.0 2 -0.05681430920958519
-2.74245285987854 -2.024867057800293 0.29824694991111755 37.0 10 -0.05681200698018074
-2.7379045486450195 -2.0200328826904297 0.4177681505680084 13.0 11 -0.05680739879608154
-2.7267954349517822 -2.0103681087493896 0.5365702509880066 40.0 12 -0.056802790611982346
-2.71989369392395 -2.0045459270477295 0.656764566898346 8.0 13 -0.05679818242788315
-2.26566481590271 -1.669171929359436 -0.1474827378988266 9.0 6 -0.0567958764731884
-2.722447395324707 -2.004962921142578 0.7805802226066589 77.0 14 -0.05679357424378395
-2.1949350833892822 -1.6158816814422607 -0.04757525771856308 10.0 7 -0.0567912720143795
-2.6948800086975098 -1.983209252357483 0.8965492248535156 69.0 15 -0.05678896605968475
-2.2861430644989014 -1.677497386932373 0.04949502646923065 27.0 8 -0.056765925139188766
-1.85262131690979 -1.3588958978652954 -0.5304346084594727 1.0 1 -0.05676362290978432
-2.6817803382873535 -1.9663622379302979 0.17427875101566315 6.0 9 -0.05676131695508957
-2.411298990249634 -1.7680370807647705 -0.5812042355537415 29.0 2 -0.05675901472568512
-2.741469144821167 -2.0093932151794434 0.2973753809928894 41.0 10 -0.05675670877099037
-2.736931800842285 -2.004598379135132 0.4165494441986084 19.0 11 -0.056752100586891174
-2.7290151119232178 -1.997336745262146 0.5356317162513733 47.0 12 -0.056747496128082275
-2.722120761871338 -1.9915616512298584 0.655619740486145 10.0 13 -0.05674288794398308
-2.282762050628662 -1.6695066690444946 -0.14821544289588928 16.0 6 -0.05674058198928833
-2.712125301361084 -1.9827957153320312 0.775631308555603 71.0 14 -0.05673827975988388
-2.2005622386932373 -1.6082100868225098 -0.04757525771856308 11.0 7 -0.05673597380518913
-2.6924262046813965 -1.9669532775878906 0.8934433460235596 70.0 15 -0.05673367157578468
-2.2855193614959717 -1.6647974252700806 0.0493554063141346 33.0 8 -0.056710630655288696
-1.936122179031372 -1.409774899482727 -0.5529297590255737 1.0 1 -0.05670832470059395
-2.6886274814605713 -1.9569898843765259 0.17427875101566315 6.0 9 -0.0567060224711895
-2.4301538467407227 -1.768852710723877 -0.5842571258544922 25.0 2 -0.05670371651649475
-2.7404110431671143 -1.9939502477645874 0.29650384187698364 48.0 10 -0.0567014142870903
-2.7246451377868652 -1.9810247421264648 0.4136245846748352 22.0 11 -0.056696806102991104
-2.740764617919922 -1.9912816286087036 0.5365702509880066 53.0 12 -0.05669219791889191
-2.714759111404419 -1.9716647863388062 0.6521852016448975 11.0 13 -0.05668758973479271
-2.285343885421753 -1.6591808795928955 -0.14800609648227692 19.0 6 -0.05668528750538826
-2.722184419631958 -1.9756054878234863 0.7765311002731323 78.0 14 -0.05668298155069351
-2.2757623195648193 -1.6510125398635864 -0.04907616600394249 18.0 7 -0.05668067932128906
-2.6992764472961426 -1.9575421810150146 0.8934433460235596 72.0 15 -0.056678373366594315
-2.2864551544189453 -1.6532938480377197 0.04925068840384483 13.0 8 -0.05665533244609833
-1.8620631694793701 -1.3459290266036987 -0.5304346084594727 1.0 1 -0.05665303021669388
-2.679253578186035 -1.9358954429626465 0.1732320338487625 6.0 9 -0.05665072798728943
-2.465268611907959 -1.7806248664855957 -0.5911262631416321 6.0 2 -0.05664842203259468
-2.7477009296417236 -1.9838926792144775 0.29650384187698364 56.0 10 -0.05664611980319023
-2.721886157989502 -1.9645313024520874 0.4121621549129486 28.0 11 -0.056641511619091034
-2.742892026901245 -1.9782366752624512 0.5356317162513733 57.0 12 -0.05663690343499184
-2.726746082305908 -1.9651445150375366 0.6533300280570984 12.0 13 -0.05663229525089264
-2.2752044200897217 -1.6391193866729736 -0.14695937931537628 19.0 6 -0.05662998929619789
-2.718337059020996 -1.957643985748291 0.773381769657135 81.0 14 -0.05662768706679344
-2.28637957572937 -1.6465644836425781 -0.049180880188941956 22.0 7 -0.056625381112098694
-2.7013893127441406 -1.9447218179702759 0.8918904662132263 74.0 15 -0.056623078882694244
-2.2405080795288086 -1.6075979471206665 0.048133738338947296 23.0 8 -0.05660003796219826
-2.6733458042144775 -1.9167522192001343 0.17239466309547424 6.0 9 -0.05659542977809906
-2.7529897689819336 -1.9731285572052002 0.296329528093338 63.0 10 -0.05659082159399986
-2.733909845352173 -1.9580094814300537 0.4128933846950531 35.0 11 -0.056586213409900665
-2.7356672286987305 -1.9578226804733276 0.5328158736228943 60.0 12 -0.05658160522580147
-2.7224113941192627 -1.9476187229156494 0.6506586670875549 15.0 13 -0.05657699704170227
-2.279287338256836 -1.6300057172775269 -0.1468547135591507 16.0 6 -0.05657469481229782
-2.718813180923462 -1.9436092376708984 0.7715821266174316 86.0 14 -0.05657238885760307
-2.2663676738739014 -1.6195708513259888 -0.04862240329384804 13.0 7 -0.056570086628198624
-2.705354690551758 -1.9325624704360962 0.8908551931381226 74.0 15 -0.056567780673503876
-2.2444772720336914 -1.5986071825027466 0.04809883236885071 29.0 8 -0.05654474347829819
-2.6865289211273193 -1.9120410680770874 0.17281334102153778 5.0 9 -0.05654013529419899
-2.746873140335083 -1.9542667865753174 0.294935017824173 60.0 10 -0.05653552711009979
-2.7423458099365234 -1.9496045112609863 0.4131371080875397 44.0 11 -0.056530918926000595
-2.7263803482055664 -1.9368220567703247 0.5296871662139893 60.0 12 -0.0565263107419014
-2.7355964183807373 -1.9426509141921997 0.6521852016448975 17.0 13 -0.0565217025578022
-2.297992467880249 -1.6312882900238037 -0.14769208431243896 16.0 6 -0.05651939660310745
-2.720813035964966 -1.9307242631912231 0.7702324986457825 83.0 14 -0.056517094373703
-2.2834243774414062 -1.6197484731674194 -0.04886673763394356 23.0 7 -0.05651479214429855
-2.6963257789611816 -1.9119322299957275 0.8856788277626038 78.0 15 -0.056512486189603806
-2.2353479862213135 -1.5803736448287964 0.04778468981385231 30.0 8 -0.05648944526910782
-2.689924478530884 -1.9003467559814453 0.17260399460792542 5.0 9 -0.05648483708500862
-2.743913412094116 -1.9377704858779907 0.2938891649246216 63.0 10 -0.056480228900909424
-2.7458908557891846 -1.9377309083938599 0.41264963150024414 53.0 11 -0.056475620716810226
-2.7379674911499023 -1.9307082891464233 0.5306257605552673 61.0 12 -0.05647101253271103
-2.7247097492218018 -1.920647382736206 0.6479873657226562 25.0 13 -0.05646640807390213
-2.303673028945923 -1.6232563257217407 -0.14769208431243896 11.0 6 -0.05646410211920738
-2.7291290760040283 -1.9223370552062988 0.7706823348999023 86.0 14 -0.05646179988980293
-2.2939698696136475 -1.6152219772338867 -0.04897145554423332 28.0 7 -0.056459493935108185
-2.693504571914673 -1.8958368301391602 0.8825729489326477 80.0 15 -0.056457191705703735
-1.6712491512298584 -1.1732673645019531 -0.5471434593200684 1.0 0 -0.0564364530146122
-2.23594069480896 -1.5691145658493042 0.047679975628852844 38.0 8 -0.05643415078520775
-2.6965410709381104 -1.8909462690353394 0.17260399460792542 6.0 9 -0.05642954260110855
-2.7473978996276855 -1.9258933067321777 0.2935405373573303 63.0 10 -0.056424934417009354
-2.7412564754486084 -1.9201626777648926 0.41094347834587097 64.0 11 -0.056420326232910156
-2.743072271347046 -1.9200066328048706 0.5303128957748413 63.0 12 -0.05641571804881096
-2.356997013092041 -1.6497743129730225 -0.2517057955265045 1.0 5 -0.05641341581940651
-2.7281806468963623 -1.9088729619979858 0.6472241282463074 30.0 13 -0.05641110986471176
-2.314234972000122 -1.6186397075653076 -0.14800609648227692 9.0 6 -0.05640880763530731
-2.732628583908081 -1.910565733909607 0.769782543182373 81.0 14 -0.056406501680612564
-2.3077898025512695 -1.612931728363037 -0.049145977944135666 24.0 7 -0.056404199451208115
-2.700105667114258 -1.8864238262176514 0.8825729489326477 80.0 15 -0.05640189349651337
-2.2463269233703613 -1.564728856086731 0.04778468981385231 39.0 8 -0.05637885257601738
-2.6932904720306396 -1.8746753931045532 0.1719759702682495 4.0 9 -0.05637424439191818
-2.754103899002075 -1.9162912368774414 0.2935405373573303 68.0 10 -0.05636963993310928
-2.739793300628662 -1.9049153327941895 0.40972477197647095 67.0 11 -0.056365031749010086
-2.6015710830688477 -1.8081389665603638 -0.38900697231292725 5.0 4 -0.05636272579431534
-2.7481348514556885 -1.9092934131622314 0.5300000309944153 67.0 12 -0.05636042356491089
-2.3431060314178467 -1.6278955936431885 -0.24961404502391815 6.0 5 -0.05635811761021614
-2.7203140258789062 -1.8892598152160645 0.6437895894050598 32.0 13 -0.05635581538081169
-2.362527847290039 -1.64016592502594 -0.15072757005691528 3.0 6 -0.05635350942611694
-2.7264726161956787 -1.8921273946762085 0.7661833167076111 81.0 14 -0.056351207196712494
-2.3364078998565674 -1.6208240985870361 -0.04963464289903641 23.0 7 -0.056348901242017746
-2.7098491191864014 -1.879189133644104 0.8836082816123962 76.0 15 -0.056346599012613297
-1.622201681137085 -1.12200927734375 -0.5285084843635559 1.0 0 -0.05632586404681206
-2.276447296142578 -1.5739372968673706 0.04830826073884964 33.0 8 -0.05632355809211731
-1.60150945186615 -1.1068716049194336 -0.4494522511959076 0.0 1 -0.05632125586271286
-2.6998178958892822 -1.865262508392334 0.1719759702682495 5.0 9 -0.05631894990801811
-2.7656939029693604 -1.9100630283355713 0.2940634489059448 77.0 10 -0.056314341723918915
-2.6123597621917725 -1.8034931421279907 -0.5027804374694824 1.0 3 -0.056312039494514465
-2.7431585788726807 -1.89308500289917 0.4092372953891754 70.0 11 -0.05630973353981972
-2.6144022941589355 -1.8035560846328735 -0.3899819254875183 16.0 4 -0.05630743131041527
-2.7433998584747314 -1.8918379545211792 0.5278099179267883 71.0 12 -0.05630512535572052
-2.3635365962982178 -1.6298857927322388 -0.2511828541755676 7.0 5 -0.05630282312631607
-2.7268922328948975 -1.8797523975372314 0.6437895894050598 33.0 13 -0.05630051717162132
-2.4537580013275146 -1.6908395290374756 -0.15617051720619202 1.0 6 -0.05629821494221687
-2.7202224731445312 -1.8737543821334839 0.7625840902328491 75.0 14 -0.056295908987522125
-2.3420515060424805 -1.6126585006713867 -0.04963464289903641 28.0 7 -0.056293606758117676
-2.713209390640259 -1.8675276041030884 0.8825729489326477 76.0 15 -0.05629130080342293
-1.5846989154815674 -1.0879123210906982 -0.515049934387207 0.0 0 -0.05627056583762169
-2.3165524005889893 -1.5897425413131714 0.0490412637591362 24.0 8 -0.05626826360821724
-1.653572916984558 -1.134345531463623 -0.46294930577278137 1.0 1 -0.05626595765352249
-2.6994006633758545 -1.8517799377441406 0.17155727744102478 5.0 9 -0.05626365542411804
-2.656996726989746 -1.8220101594924927 -0.6262351274490356 1.0 2 -0.056261349469423294
-2.7657711505889893 -1.8958913087844849 0.2933662235736847 77.0 10 -0.056259047240018845
-2.6284165382385254 -1.801061987876892 -0.5046576261520386 15.0 3 -0.0562567412853241
-2.7497496604919434 -1.8834986686706543 0.4092372953891754 68.0 11 -0.05625443905591965
-2.6403374671936035 -1.8078774213790894 -0.3929068148136139 20.0 4 -0.0562521331012249
-2.7463982105255127 -1.8804987668991089 0.5271841883659363 70.0 12 -0.05624983087182045
-2.3527700901031494 -1.6103721857070923 -0.24943974614143372 7.0 5 -0.0562475249171257
-2.7318172454833984 -1.8691136837005615 0.6434080004692078 45.0 13 -0.05624522268772125
-2.525587320327759 -1.7273648977279663 -0.16035738587379456 2.0 6 -0.056242916733026505
-2.725137948989868 -1.8631478548049927 0.7621342539787292 72.0 14 -0.056240614503622055
-2.355640172958374 -1.610526204109192 -0.04980916902422905 21.0 7 -0.05623830854892731
-2.709818124771118 -1.8519796133041382 0.8794671893119812 76.0 15 -0.05623600631952286
-1.623609185218811 -1.1063059568405151 -0.5264379978179932 1.0 0 -0.05621527135372162
-2.2953708171844482 -1.5640356540679932 0.04848278686404228 12.0 8 -0.05621296539902687
-1.6573251485824585 -1.1288560628890991 -0.46294930577278137 1.0 1 -0.05621066316962242
-2.70584774017334 -1.842346429824829 0.17155727744102478 5.0 9 -0.05620835721492767
-2.6325037479400635 -1.791736125946045 -0.6189844012260437 10.0 2 -0.056206054985523224
-2.7591943740844727 -1.8772587776184082 0.29197174310684204 80.0 10 -0.056203749030828476
-2.653973340988159 -1.805670142173767 -0.5084120631217957 25.0 3 -0.056201446801424026
-2.757622003555298 -1.875485897064209 0.409481018781662 82.0 11 -0.05619914084672928
-2.6693007946014404 -1.8147366046905518 -0.39631912112236023 16.0 4 -0.05619683861732483
-2.749678373336792 -1.8686792850494385 0.5265584588050842 68.0 12 -0.05619453266263008
-2.3550808429718018 -1.5999101400375366 -0.24909110367298126 7.0 5 -0.05619223043322563
-2.7363765239715576 -1.8589410781860352 0.6430263519287109 52.0 13 -0.056189924478530884
-2.54286789894104 -1.7268344163894653 -0.16109009087085724 3.0 6 -0.056187622249126434
-2.728076934814453 -1.8519115447998047 0.7612344026565552 71.0 14 -0.056185320019721985
-2.348010301589966 -1.5933107137680054 -0.04952992871403694 21.0 7 -0.05618301406502724
-2.7018771171569824 -1.8327497243881226 0.8748083710670471 72.0 15 -0.05618071183562279
-1.611268162727356 -1.0900906324386597 -0.5212615728378296 1.0 0 -0.05615997314453125
-2.295846939086914 -1.5526528358459473 0.04837806895375252 21.0 8 -0.0561576709151268
-2.7122621536254883 -1.8328899145126343 0.17155727744102478 4.0 9 -0.0561530627310276
-2.6644575595855713 -1.8005845546722412 -0.6250903010368347 19.0 2 -0.056150756776332855
-2.7637529373168945 -1.8669837713241577 0.291797399520874 72.0 10 -0.056148454546928406
-2.6749935150146484 -1.8063448667526245 -0.5112279057502747 25.0 3 -0.05614614859223366
-2.7476985454559326 -1.8547422885894775 0.4070436358451843 83.0 11 -0.05614384636282921
-2.7003018856048584 -1.8220628499984741 -0.3999752104282379 23.0 4 -0.05614154040813446
-2.7594597339630127 -1.8612788915634155 0.5271841883659363 72.0 12 -0.05613923817873001
-2.365328550338745 -1.5954340696334839 -0.24961404502391815 7.0 5 -0.05613693594932556
-2.7347090244293213 -1.8438907861709595 0.6411182284355164 53.0 13 -0.056134629994630814
-2.535630941390991 -1.7090167999267578 -0.16025270521640778 3.0 6 -0.056132327765226364
-2.734524726867676 -1.8423773050308228 0.7612344026565552 66.0 14 -0.056130021810531616
-2.4116086959838867 -1.6242027282714844 -0.05075160041451454 28.0 7 -0.05612771958112717
-2.708258628845215 -1.8233065605163574 0.8748083710670471 70.0 15 -0.05612541362643242
-1.6952552795410156 -1.1383055448532104 -0.5471434593200684 1.0 0 -0.05610467866063118
-2.344421625137329 -1.5736056566238403 0.04928559437394142 13.0 8 -0.05610237270593643
-1.9661575555801392 -1.319211721420288 -0.5466310977935791 1.0 1 -0.05610007047653198
-2.702056646347046 -1.8122860193252563 0.17051056027412415 5.0 9 -0.056097764521837234
-2.6984448432922363 -1.809863567352295 -0.6315777897834778 21.0 2 -0.056095462292432785
-2.7735633850097656 -1.8595435619354248 0.29214605689048767 75.0 10 -0.056093160063028336
-2.7075374126434326 -1.8145922422409058 -0.5162338018417358 33.0 3 -0.05609085410833359
-2.7393133640289307 -1.8351958990097046 0.4048500061035156 68.0 11 -0.05608855187892914
-2.736335277557373 -1.8325079679489136 -0.4043624997138977 59.0 4 -0.05608624592423439
-2.759373903274536 -1.8472403287887573 0.5259327292442322 68.0 12 -0.05608394369482994
-2.362604856491089 -1.5816264152526855 -0.24874247610569 7.0 5 -0.05608163774013519
-2.736234188079834 -1.831058144569397 0.6399734020233154 60.0 13 -0.05607933551073074
-2.5200002193450928 -1.6857191324234009 -0.15889199078083038 7.0 6 -0.056077029556035995
-2.742558717727661 -1.8339046239852905 0.7616842985153198 70.0 14 -0.056074727326631546
-2.4072883129119873 -1.6091068983078003 -0.05054216831922531 12.0 7 -0.0560724213719368
-2.7178189754486084 -1.815988302230835 0.8758436441421509 67.0 15 -0.05607011914253235
-2.3449079990386963 -1.5620858669281006 0.049180880188941956 17.0 8 -0.05604707822203636
-1.9123579263687134 -1.2734562158584595 -0.5304346084594727 1.0 1 -0.05604477599263191
-2.6817641258239746 -1.785136103630066 0.1688358038663864 6.0 9 -0.056042470037937164
-2.7227227687835693 -1.812400460243225 -0.635775625705719 60.0 2 -0.056040167808532715
-2.773402214050293 -1.8454362154006958 0.29144880175590515 75.0 10 -0.05603786185383797
-2.731947660446167 -1.817164421081543 -0.5196753740310669 52.0 3 -0.05603555962443352
-2.753967523574829 -1.8311188220977783 0.40606871247291565 75.0 11 -0.05603325366973877
-2.7344486713409424 -1.8174515962600708 -0.40314382314682007 48.0 4 -0.05603095144033432
-2.7592239379882812 -1.8332242965698242 0.5246812701225281 68.0 12 -0.05602864548563957
-2.384706497192383 -1.5843955278396606 -0.2504855990409851 7.0 5 -0.05602634325623512
-2.740974187850952 -1.820408821105957 0.6395918130874634 62.0 13 -0.056024037301540375
-2.540844202041626 -1.6868550777435303 -0.15983402729034424 5.0 6 -0.056021735072135925
-2.7359538078308105 -1.815699577331543 0.7580850720405579 66.0 14 -0.05601942911744118
-2.3962273597717285 -1.5896390676498413 -0.050193123519420624 16.0 7 -0.05601712688803673
-2.720921039581299 -1.804355502128601 0.8748083710670471 70.0 15 -0.05601482093334198
-2.442091703414917 -1.6145470142364502 0.05110064893960953 13.0 8 -0.05599178373813629
-1.9167912006378174 -1.2667735815048218 -0.5304346084594727 1.0 1 -0.055989477783441544
-2.664649486541748 -1.7603509426116943 0.16737040877342224 6.0 9 -0.055987175554037094
-2.7355852127075195 -1.807213306427002 -0.6373021006584167 45.0 2 -0.055984869599342346
-2.773176908493042 -1.8313522338867188 0.29075154662132263 75.0 10 -0.0559825673699379
-2.751461982727051 -1.8163236379623413 -0.5221782922744751 46.0 3 -0.05598026141524315
-2.7553725242614746 -1.8182138204574585 0.40533748269081116 70.0 11 -0.0559779591858387
-2.735805034637451 -1.8046162128448486 -0.4024125933647156 43.0 4 -0.05597565323114395
-2.7507641315460205 -1.8137948513031006 0.5218654274940491 65.0 12 -0.0559733510017395
-2.3835692405700684 -1.5716744661331177 -0.24978835880756378 7.0 5 -0.055971045047044754
-2.762064218521118 -1.820554494857788 0.6430263519287109 65.0 13 -0.055968742817640305
-2.5417134761810303 -1.6746788024902344 -0.1595200151205063 2.0 6 -0.05596643686294556
-2.7373926639556885 -1.8029223680496216 0.7567353844642639 60.0 14 -0.05596413463354111
-2.3215911388397217 -1.528483271598816 -0.04851769283413887 10.0 7 -0.05596182867884636
-2.7175207138061523 -1.7884745597839355 0.8717026114463806 67.0 15 -0.05595952644944191
-2.377490997314453 -1.5599387884140015 0.04963464289903641 13.0 8 -0.05593648552894592
-2.690821409225464 -1.7641795873641968 0.16862647235393524 6.0 9 -0.055931877344846725
-2.7402353286743164 -1.796576738357544 -0.6369204521179199 38.0 2 -0.055929575115442276
-2.7728865146636963 -1.8172929286956787 0.2900542914867401 65.0 10 -0.05592726916074753
-2.7429146766662598 -1.7969650030136108 -0.5193625092506409 42.0 3 -0.05592496693134308
-2.7716665267944336 -1.8151097297668457 0.40679988265037537 79.0 11 -0.05592266097664833
-2.7420876026153564 -1.7950555086135864 -0.4024125933647156 41.0 4 -0.05592035874724388
-2.753772735595703 -1.802018642425537 0.521239697933197 67.0 12 -0.05591805279254913
-2.387646436691284 -1.561836838722229 -0.24961404502391815 7.0 5 -0.055915750563144684
-2.7519729137420654 -1.800154685974121 0.6392101645469666 65.0 13 -0.055913444608449936
-2.5525588989257812 -1.6690754890441895 -0.15983402729034424 3.0 6 -0.055911142379045486
-2.7436695098876953 -1.7933560609817505 0.7567353844642639 63.0 14 -0.05590883642435074
-2.3252384662628174 -1.5192762613296509 -0.04848278686404228 18.0 7 -0.05590653419494629
-2.7124249935150146 -1.771582841873169 0.8680790662765503 63.0 15 -0.05590423196554184
-2.3594613075256348 -1.5363540649414062 0.049145977944135666 12.0 8 -0.05588119104504585
-2.73044490814209 -1.77656090259552 0.1707199066877365 6.0 9 -0.055876582860946655
-2.7451555728912354 -1.7854514122009277 -0.6365388631820679 36.0 2 -0.05587427690625191
-2.7728474140167236 -1.802772879600525 0.28935706615448 65.0 10 -0.05587197467684746
-2.7461700439453125 -1.7847466468811035 -0.5187367796897888 45.0 3 -0.05586966872215271
-2.75634765625 -1.7913610935211182 0.4036312997341156 67.0 11 -0.05586736649274826
-2.7483363151550293 -1.785473346710205 -0.4024125933647156 41.0 4 -0.05586506053805351
-2.758389472961426 -1.7913191318511963 0.520926833152771 65.0 12 -0.05586275830864906
-2.3930835723876953 -1.5534929037094116 -0.24961404502391815 7.0 5 -0.055860452353954315
-2.748670816421509 -1.7836439609527588 0.6369204521179199 66.0 13 -0.055858150124549866
-2.5553081035614014 -1.6575348377227783 -0.15962468087673187 2.0 6 -0.055855847895145416
-2.7502241134643555 -1.7832880020141602 0.7567353844642639 60.0 14 -0.05585354194045067
-2.3439505100250244 -1.5198538303375244 -0.04876202344894409 24.0 7 -0.05585123971104622
-2.7202138900756836 -1.7631546258926392 0.8685967326164246 58.0 15 -0.05584893375635147
-2.393632411956787 -1.5461405515670776 0.04973935708403587 10.0 8 -0.055825892835855484
-2.7386162281036377 -1.7676247358322144 0.1708245724439621 7.0 9 -0.05582128465175629
-2.7464230060577393 -1.7726635932922363 -0.6353939771652222 33.0 2 -0.05581898242235184
-2.7807979583740234 -1.7941629886627197 0.2895313799381256 63.0 10 -0.05581667646765709
-2.744082450866699 -1.7697970867156982 -0.5171723961830139 41.0 3 -0.05581437423825264
-2.7545523643493652 -1.77586829662323 0.4024125933647156 70.0 11 -0.05581207200884819
-2.741513729095459 -1.766784906387329 -0.40046271681785583 41.0 4 -0.05580976605415344
-2.7649362087249756 -1.7811976671218872 0.520926833152771 71.0 12 -0.05580746382474899
-2.383685350418091 -1.5350029468536377 -0.24804525077342987 7.0 5 -0.055805157870054245
-2.7482776641845703 -1.7697865962982178 0.6353939771652222 68.0 13 -0.055802855640649796
-2.584589719772339 -1.6637396812438965 -0.16109009087085724 3.0 6 -0.05580054968595505
-2.7515156269073486 -1.7705141305923462 0.75538569688797 61.0 14 -0.0557982474565506
-2.362959861755371 -1.5199068784713745 -0.0490412637591362 25.0 7 -0.05579594150185585
-2.731532573699951 -1.7563070058822632 0.8701496720314026 60.0 15 -0.0557936392724514
-2.3821792602539062 -1.5269848108291626 0.049390312284231186 8.0 8 -0.055770598351955414
-2.7397241592407227 -1.7548223733901978 0.17051056027412415 9.0 9 -0.055765990167856216
-2.74298095703125 -1.7562342882156372 -0.6331042647361755 33.0 2 -0.05576368793845177
-2.7839982509613037 -1.7818113565444946 0.28918275237083435 63.0 10 -0.05576138198375702
-2.747223138809204 -1.7575976848602295 -0.5165466666221619 41.0 3 -0.05575907975435257
-2.767423629760742 -1.7705214023590088 0.40338757634162903 71.0 11 -0.05575677379965782
-2.7409744262695312 -1.7529268264770508 -0.3994877338409424 40.0 4 -0.05575447157025337
-2.7644801139831543 -1.7672786712646484 0.5196753740310669 68.0 12 -0.055752165615558624
-2.4041390419006348 -1.536328673362732 -0.24961404502391815 7.0 5 -0.055749863386154175
-2.758054494857788 -1.761816143989563 0.636157214641571 65.0 13 -0.05574755743145943
-2.634437322616577 -1.682202696800232 -0.1638115644454956 5.0 6 -0.05574525520205498
-2.7448458671569824 -1.7520288228988647 0.751786470413208 61.0 14 -0.05574294924736023
-2.462644100189209 -1.5719001293182373 -0.05099593102931976 22.0 7 -0.05574064701795578
-2.7360177040100098 -1.7457228899002075 0.8696320056915283 58.0 15 -0.05573834106326103
-2.505882740020752 -1.5933502912521362 0.05183364450931549 13.0 8 -0.055715303868055344
-2.752880334854126 -1.749053955078125 0.17092925310134888 9.0 9 -0.055710695683956146
-2.7441234588623047 -1.7434903383255005 -0.6319594383239746 36.0 2 -0.0557083897292614
-2.7834742069244385 -1.7678091526031494 0.28848549723625183 63.0 10 -0.05570608749985695
-2.7550089359283447 -1.7490569353103638 -0.5168595314025879 39.0 3 -0.0557037815451622
-2.7688658237457275 -1.757176160812378 0.40265634655952454 65.0 11 -0.05570147931575775
-2.7490577697753906 -1.743931770324707 -0.39973148703575134 32.0 4 -0.055699173361063004
-2.7609291076660156 -1.7507878541946411 0.517798125743866 65.0 12 -0.055696871131658554
-2.391242742538452 -1.5157736539840698 -0.2476966232061386 7.0 5 -0.055694565176963806
-2.760871171951294 -1.7500756978988647 0.6353939771652222 67.0 13 -0.05569226294755936
-2.6521029472351074 -1.680479645729065 -0.1645442545413971 7.0 6 -0.05568995699286461
-2.7525904178619385 -1.7434800863265991 0.7522363662719727 63.0 14 -0.05568765476346016
-2.4937312602996826 -1.578909158706665 -0.05151950567960739 20.0 7 -0.05568534880876541
-2.734236240386963 -1.7305165529251099 0.8670438528060913 60.0 15 -0.05568304657936096
-2.5384881496429443 -1.601667046546936 0.05239212512969971 23.0 8 -0.055660005658864975
-2.758969306945801 -1.7394331693649292 0.17092925310134888 9.0 9 -0.05565539747476578
-2.7521562576293945 -1.734467625617981 -0.6323410272598267 33.0 2 -0.05565309524536133
-2.7764482498168945 -1.7491000890731812 0.2870910167694092 63.0 10 -0.05565078929066658
-2.7463576793670654 -1.7294732332229614 -0.5140437483787537 41.0 3 -0.05564848706126213
-2.780022382736206 -1.7506730556488037 0.40338757634162903 70.0 11 -0.05564618110656738
-2.7416884899139404 -1.7258654832839966 -0.3977815806865692 34.0 4 -0.05564387887716293
-2.7653515338897705 -1.7400875091552734 0.5174852609634399 67.0 12 -0.055641572922468185
-2.3982059955596924 -1.5084774494171143 -0.24787092208862305 7.0 5 -0.055639270693063736
-2.7639429569244385 -1.7378547191619873 0.6346307396888733 65.0 13 -0.05563696473836899
-2.6599349975585938 -1.6718111038208008 -0.16464893519878387 6.0 6 -0.05563466250896454
-2.757312536239624 -1.7323423624038696 0.751786470413208 66.0 14 -0.05563235655426979
-2.5009210109710693 -1.5712586641311646 -0.05155441164970398 24.0 7 -0.05563005432486534
-2.718991994857788 -1.7076058387756348 0.8603145480155945 56.0 15 -0.05562774837017059
-1.7207287549972534 -1.0777379274368286 -0.5440376400947571 1.0 0 -0.055612802505493164
-2.5508434772491455 -1.5970408916473389 0.05253174528479576 22.0 8 -0.055610500276088715
-1.9475948810577393 -1.2188838720321655 -0.5304346084594727 1.0 1 -0.05560819432139397
-2.759944438934326 -1.7266148328781128 0.17061524093151093 7.0 9 -0.05560589209198952
-2.7562286853790283 -1.7242902517318726 -0.6319594383239746 34.0 2 -0.05560358613729477
-2.785611629486084 -1.7419960498809814 0.28743961453437805 59.0 10 -0.05560128390789032
-2.7453768253326416 -1.7161685228347778 -0.5127922296524048 37.0 3 -0.05559897795319557
-2.7709646224975586 -1.7314913272857666 0.40119388699531555 65.0 11 -0.05559667572379112
-2.7224416732788086 -1.700510025024414 -0.39412549138069153 38.0 4 -0.055594369769096375
-2.771409273147583 -1.7304233312606812 0.5174852609634399 63.0 12 -0.055592067539691925
-2.3913652896881104 -1.4931299686431885 -0.24665075540542603 7.0 5 -0.05558976158499718
-2.751370668411255 -1.7172452211380005 0.6304329633712769 62.0 13 -0.05558745935559273
-2.65529727935791 -1.6566380262374878 -0.16402089595794678 7.0 6 -0.05558515340089798
-2.7630422115325928 -1.723189115524292 0.751786470413208 61.0 14 -0.05558285117149353
-2.5437228679656982 -1.5857936143875122 -0.05232231318950653 28.0 7 -0.05558054521679878
-2.73641300201416 -1.7052562236785889 0.8639379739761353 49.0 15 -0.05557824298739433
-1.7146356105804443 -1.0656065940856934 -0.5409318208694458 1.0 0 -0.055557508021593094
-2.563197135925293 -1.5923478603363037 0.05267136171460152 18.0 8 -0.055555202066898346
-1.9518377780914307 -1.2120780944824219 -0.5304346084594727 1.0 1 -0.055552899837493896
-2.747288465499878 -1.7053831815719604 0.1694638431072235 5.0 9 -0.05555059388279915
-2.755558490753174 -1.7105169296264648 -0.6304329633712769 36.0 2 -0.0555482916533947
-2.791675567626953 -1.7322616577148438 0.28743961453437805 58.0 10 -0.05554598569869995
-2.763101577758789 -1.7138633728027344 -0.514982283115387 41.0 3 -0.0555436834692955
-2.76686954498291 -1.7155319452285767 0.39973148703575134 65.0 11 -0.055541377514600754
-2.716549873352051 -1.6836761236190796 -0.39241933822631836 36.0 4 -0.055539075285196304
-2.779111623764038 -1.7217799425125122 0.517798125743866 65.0 12 -0.055536769330501556
-2.4118053913116455 -1.4942177534103394 -0.2482195496559143 7.0 5 -0.05553446710109711
-2.7540102005004883 -1.7055631875991821 0.629669725894928 63.0 13 -0.05553216114640236
-2.6559693813323975 -1.6442052125930786 -0.16370689868927002 7.0 6 -0.05552985891699791
-2.762411594390869 -1.7094324827194214 0.7499868273735046 55.0 14 -0.05552755296230316
-2.639376163482666 -1.6326589584350586 -0.054172269999980927 19.0 7 -0.05552525073289871
-2.737420082092285 -1.6926454305648804 0.862385094165802 46.0 15 -0.055522944778203964
-1.7512320280075073 -1.0798945426940918 -0.5512846112251282 1.0 0 -0.055502209812402725
-2.602785110473633 -1.6043773889541626 0.05336945876479149 8.0 8 -0.055499907582998276
-1.956056833267212 -1.2052572965621948 -0.5304346084594727 1.0 1 -0.05549760162830353
-2.317629337310791 -1.4280462265014648 0.14266782999038696 6.0 9 -0.05549529939889908
-2.7531545162200928 -1.69573974609375 -0.6285248398780823 38.0 2 -0.05549299344420433
-2.794311761856079 -1.7204179763793945 0.2870910167694092 43.0 10 -0.05549069121479988
-2.762338161468506 -1.7000664472579956 -0.5137308239936829 41.0 3 -0.05548838526010513
-2.7711498737335205 -1.7048228979110718 0.3994877338409424 61.0 11 -0.055486083030700684
-2.7139554023742676 -1.668983817100525 -0.39120060205459595 40.0 4 -0.055483777076005936
-2.7730274200439453 -1.7053109407424927 0.5156080722808838 61.0 12 -0.055481474846601486
-2.4204013347625732 -1.4878766536712646 -0.24856817722320557 7.0 5 -0.05547916889190674
-2.768310070037842 -1.7010785341262817 0.6315777897834778 51.0 13 -0.05547686666250229
-2.6565871238708496 -1.6317881345748901 -0.16339287161827087 7.0 6 -0.05547456070780754
-2.756736993789673 -1.6926418542861938 0.7468375563621521 46.0 14 -0.05547225847840309
-2.631143093109131 -1.6155269145965576 -0.05389302968978882 16.0 7 -0.05546995624899864
-2.757835865020752 -1.692653775215149 0.8670438528060913 50.0 15 -0.055467650294303894
-1.7615818977355957 -1.0778082609176636 -0.5533550977706909 1.0 0 -0.055446915328502655
-2.567152976989746 -1.5706899166107178 0.05253174528479576 8.0 8 -0.05544460937380791
-1.960042953491211 -1.1987642049789429 -0.5304346084594727 1.0 1 -0.05544230714440346
-2.346456527709961 -1.4345325231552124 0.14413323998451233 8.0 9 -0.05544000118970871
-2.7557060718536377 -1.6840721368789673 -0.6277616620063782 38.0 2 -0.05543769896030426
-2.706787347793579 -1.6535271406173706 0.2775038778781891 13.0 10 -0.05543539300560951
-2.7595319747924805 -1.6857479810714722 -0.5121665000915527 37.0 3 -0.05543309077620506
-2.7886476516723633 -1.7028658390045166 0.40119388699531555 55.0 11 -0.055430784821510315
-2.7160861492156982 -1.6579070091247559 -0.3907131552696228 38.0 4 -0.055428482592105865
-2.763786554336548 -1.6863607168197632 0.5127922296524048 51.0 12 -0.055426180362701416
-2.410271406173706 -1.4700814485549927 -0.2469993680715561 7.0 5 -0.05542387440800667
-2.7705838680267334 -1.6898444890975952 0.6308146119117737 52.0 13 -0.05542157217860222
-2.6619834899902344 -1.6229701042175293 -0.16339287161827087 7.0 6 -0.05541926622390747
-2.793952226638794 -1.7027596235275269 0.75538569688797 55.0 14 -0.05541696399450302
-2.7272770404815674 -1.6614723205566406 -0.055742986500263214 41.0 7 -0.05541465803980827
-2.788477659225464 -1.6980879306793213 0.8748083710670471 56.0 15 -0.055412355810403824
-1.7717515230178833 -1.0759718418121338 -0.5554257035255432 1.0 0 -0.055391617119312286
-2.6170639991760254 -1.5886988639831543 0.053439266979694366 13.0 8 -0.05538931488990784
-1.9642155170440674 -1.1919150352478027 -0.5304346084594727 1.0 1 -0.05538700893521309
-2.395848512649536 -1.4532650709152222 0.1468547135591507 5.0 9 -0.05538470670580864
-2.76127552986145 -1.6749244928359985 -0.6277616620063782 38.0 2 -0.05538240075111389
-2.7378110885620117 -1.6600369215011597 0.28011855483055115 15.0 10 -0.05538009852170944
-2.748506546020508 -1.6658660173416138 -0.5090377926826477 37.0 3 -0.05537779629230499
-2.786085367202759 -1.6879786252975464 0.3999752104282379 52.0 11 -0.055375490337610245
-2.7218570709228516 -1.648415207862854 -0.3907131552696228 40.0 4 -0.055373188108205795
