# .PCD v0.7 - Point Cloud Data file format
VERSION 0.7
FIELDS x y z intensity ring time
SIZE 4 4 4 4 4 4
TYPE F F F F F F
COUNT 1 1 1 1 1 1
WIDTH 543
HEIGHT 1
VIEWPOINT 0 0 0 1 0 0 0
POINTS 543
DATA ascii
0.403739333152771 -1.2236597537994385 -0.34526464343070984 12.0 0 -0.035287875682115555
0.7192952036857605 -2.180051565170288 0.04007072374224663 22.0 8 -0.03528556972742081
0.4967638850212097 -1.5064834356307983 -0.3662203252315521 7.0 1 -0.03528326749801636
0.7245351076126099 -2.198512315750122 0.12131475657224655 13.0 9 -0.03528096154332161
0.6178545355796814 -1.875903844833374 -0.3839077055454254 7.0 2 -0.03527865931391716
0.7257407307624817 -2.204759120941162 0.20307287573814392 10.0 10 -0.03527635335922241
0.7399256825447083 -2.247852087020874 -0.37481701374053955 100.0 3 -0.03527405112981796
0.7202179431915283 -2.189267635345459 0.28298062086105347 9.0 11 -0.035271745175123215
0.7415366172790527 -2.2553956508636475 -0.29151150584220886 100.0 4 -0.035269442945718765
0.7245656847953796 -2.205075979232788 0.3676210343837738 9.0 12 -0.03526713699102402
0.7067957520484924 -2.1522631645202637 -0.19819216430187225 83.0 5 -0.03526483476161957
0.7227994203567505 -2.200995683670044 0.45030924677848816 8.0 13 -0.03526252880692482
0.7187345623970032 -2.1899073123931885 -0.12079139798879623 31.0 6 -0.03526022657752037
0.7185153365135193 -2.1905295848846436 0.532234251499176 7.0 14 -0.03525792062282562
0.7182230353355408 -2.190929412841797 -0.04024524614214897 44.0 7 -0.03525561839342117
0.715138852596283 -2.1828088760375977 0.6154717206954956 8.0 15 -0.035253312438726425
0.4062706530094147 -1.2451941967010498 -0.3509586453437805 11.0 0 -0.035232577472925186
0.7110613584518433 -2.1806480884552 0.04003582149744034 23.0 8 -0.03523027524352074
0.49150216579437256 -1.5082083940505981 -0.3662203252315521 7.0 1 -0.03522796928882599
0.7156196236610413 -2.1972298622131348 0.12110541760921478 13.0 9 -0.03522566705942154
0.6122382879257202 -1.8798091411590576 -0.38428935408592224 6.0 2 -0.03522336110472679
0.7159586548805237 -2.199575424194336 0.2023756206035614 10.0 10 -0.03522105887532234
0.7332970499992371 -2.254178047180176 -0.375442773103714 100.0 3 -0.035218752920627594
0.7125717997550964 -2.191768169403076 0.28298062086105347 9.0 11 -0.035216450691223145
0.7318187355995178 -2.2523066997528076 -0.29078027606010437 100.0 4 -0.0352141447365284
0.7119832634925842 -2.192561388015747 0.3651180863380432 9.0 12 -0.03521184250712395
0.6998938322067261 -2.1566121578216553 -0.1983664631843567 58.0 5 -0.0352095365524292
0.7175363898277283 -2.210974931716919 0.4518357217311859 8.0 13 -0.03520723432302475
0.7141669392585754 -2.201902151107788 -0.12131475657224655 32.0 6 -0.03520492836833
0.7108645439147949 -2.1930243968963623 0.532234251499176 7.0 14 -0.03520262613892555
0.7074897289276123 -2.1839113235473633 -0.04007072374224663 51.0 7 -0.0352003239095211
0.7122756838798523 -2.199995279312134 0.6196128129959106 8.0 15 -0.035198017954826355
0.4017040729522705 -1.2466747760772705 -0.3509586453437805 10.0 0 -0.035177282989025116
0.7058979868888855 -2.190730094909668 0.040175437927246094 23.0 8 -0.03517497703433037
0.48862388730049133 -1.5173345804214478 -0.3680199384689331 7.0 1 -0.03517267480492592
0.707333505153656 -2.197813034057617 0.121000736951828 15.0 9 -0.03517036885023117
0.602939784526825 -1.874564528465271 -0.3827628493309021 6.0 2 -0.03516806662082672
0.7066728472709656 -2.1983911991119385 0.20202700793743134 11.0 10 -0.03516576066613197
0.7250301241874695 -2.2568507194519043 -0.375442773103714 100.0 3 -0.035163458436727524
0.7073453664779663 -2.2018020153045654 0.2839556038379669 9.0 11 -0.035161152482032776
0.7233455181121826 -2.2529571056365967 -0.2905365228652954 100.0 4 -0.035158850252628326
0.703118622303009 -2.1912715435028076 0.36449235677719116 9.0 12 -0.03515654802322388
0.6917529106140137 -2.1571450233459473 -0.19819216430187225 75.0 5 -0.03515424206852913
0.7088288068771362 -2.2117204666137695 0.45145413279533386 7.0 13 -0.03515193983912468
0.7067009210586548 -2.206406831741333 -0.12141943722963333 30.0 6 -0.03514963388442993
0.7040100693702698 -2.199326992034912 0.5331340432167053 7.0 14 -0.03514733165502548
0.6962040066719055 -2.174940824508667 -0.039861299097537994 48.0 7 -0.035145025700330734
0.6998828053474426 -2.187748432159424 0.6154717206954956 8.0 15 -0.035142723470926285
0.397350013256073 -1.248069405555725 -0.3509586453437805 10.0 0 -0.03512198477983475
0.6930131912231445 -2.17805814743042 0.039896201342344284 23.0 8 -0.0351196825504303
0.48542141914367676 -1.5265437364578247 -0.3698195517063141 7.0 1 -0.03511737659573555
0.7008678913116455 -2.204075574874878 0.12121009081602097 16.0 9 -0.0351150743663311
0.5952036380767822 -1.8729157447814941 -0.3819996416568756 6.0 2 -0.03511276841163635
0.697788417339325 -2.1970465183258057 0.20167838037014008 12.0 10 -0.0351104661822319
0.7153549194335938 -2.2537193298339844 -0.3745041489601135 100.0 3 -0.035108163952827454
0.6968696117401123 -2.1968111991882324 0.28298062086105347 10.0 11 -0.035105857998132706
0.7180827260017395 -2.265054702758789 -0.29175522923469543 100.0 4 -0.035103555768728256
0.697853147983551 -2.201244592666626 0.36574381589889526 9.0 12 -0.03510124981403351
0.6812101006507874 -2.1500496864318848 -0.1973206102848053 60.0 5 -0.03509894758462906
0.6957699060440063 -2.197336196899414 0.44801953434944153 8.0 13 -0.03509664162993431
0.6983925104141235 -2.206956148147583 -0.12131475657224655 33.0 6 -0.03509433940052986
0.6975041627883911 -2.205487012863159 0.5340338349342346 7.0 14 -0.035092033445835114
0.6886080503463745 -2.1773576736450195 -0.039861299097537994 49.0 7 -0.035089731216430664
0.6910774111747742 -2.1864938735961914 0.6144364476203918 8.0 15 -0.035087425261735916
0.3964686393737793 -1.2605059146881104 -0.3540644645690918 8.0 0 -0.03506669029593468
0.6827867031097412 -2.170806407928467 0.03972167521715164 25.0 8 -0.03506438434123993
0.4780191481113434 -1.520708680152893 -0.3680199384689331 7.0 1 -0.03506208211183548
0.6955644488334656 -2.214130163192749 0.1216287761926651 15.0 9 -0.03505977988243103
0.5886620283126831 -1.8749819993972778 -0.3819996416568756 6.0 2 -0.03505747392773628
0.6925008296966553 -2.2070729732513428 0.2023756206035614 12.0 10 -0.03505517169833183
0.705511748790741 -2.248540163040161 -0.3732526898384094 100.0 3 -0.035052865743637085
0.6883931756019592 -2.195321798324585 0.28249314427375793 9.0 11 -0.035050563514232635
0.7099738717079163 -2.265529155731201 -0.29151150584220886 100.0 4 -0.03504825755953789
0.690165102481842 -2.203666925430298 0.36574381589889526 9.0 12 -0.03504595533013344
0.6737011075019836 -2.152414560317993 -0.1973206102848053 65.0 5 -0.03504364937543869
0.6896527409553528 -2.203378677368164 0.4487827718257904 8.0 13 -0.03504134714603424
0.6886850595474243 -2.2016353607177734 -0.12089607119560242 37.0 6 -0.03503904119133949
0.6913493871688843 -2.211507797241211 0.5349336266517639 7.0 14 -0.03503673896193504
0.682792067527771 -2.185474395751953 -0.03996601328253746 56.0 7 -0.035034433007240295
0.6834411025047302 -2.1888930797576904 0.6144364476203918 8.0 15 -0.035032130777835846
0.3957276940345764 -1.2728822231292725 -0.35717031359672546 8.0 0 -0.03501139581203461
0.6763919591903687 -2.1769959926605225 0.03979148715734482 26.0 8 -0.03500908985733986
0.4680848717689514 -1.5074795484542847 -0.36442074179649353 7.0 1 -0.03500678762793541
0.6807279586791992 -2.1936545372009277 0.1203727126121521 16.0 9 -0.03500448167324066
0.5812773108482361 -1.873173713684082 -0.38123640418052673 6.0 2 -0.03500217944383621
0.6839980483055115 -2.2055513858795166 0.20202700793743134 13.0 10 -0.034999873489141464
0.6976587772369385 -2.2509889602661133 -0.3732526898384094 100.0 3 -0.034997571259737015
0.6789634823799133 -2.1920223236083984 0.28176194429397583 10.0 11 -0.03499526530504227
0.6997134685516357 -2.2604081630706787 -0.2905365228652954 100.0 4 -0.03499296307563782
0.6836361885070801 -2.209836959838867 0.3663695454597473 9.0 12 -0.03499065712094307
0.6671482920646667 -2.1565401554107666 -0.19749490916728973 83.0 5 -0.03498835489153862
0.6790575385093689 -2.196394443511963 0.4468746781349182 7.0 13 -0.03498604893684387
0.6786371469497681 -2.196392774581909 -0.12047737836837769 37.0 6 -0.03498374670743942
0.6824756860733032 -2.210183620452881 0.5340338349342346 7.0 14 -0.034981440752744675
0.6775180101394653 -2.1954874992370605 -0.040105629712343216 62.0 7 -0.034979138523340225
0.6757962703704834 -2.191265344619751 0.6144364476203918 8.0 15 -0.03497683256864548
0.3912820518016815 -1.2742558717727661 -0.35717031359672546 9.0 0 -0.03495609760284424
0.6699621677398682 -2.183166980743408 0.039861299097537994 27.0 8 -0.03495379537343979
0.4639626443386078 -1.5128304958343506 -0.3653205335140228 7.0 1 -0.03495148941874504
0.6730667352676392 -2.196017265319824 0.1203727126121521 16.0 9 -0.03494918718934059
0.5753106474876404 -1.877068281173706 -0.3816179931163788 7.0 2 -0.034946881234645844
0.6774620413780212 -2.211735486984253 0.2023756206035614 12.0 10 -0.034944579005241394
0.6909534335136414 -2.257188320159912 -0.3738784193992615 100.0 3 -0.034942273050546646
0.6701465845108032 -2.190582752227783 0.2812744677066803 10.0 11 -0.0349399708211422
0.6894970536231995 -2.2552437782287598 -0.28956159949302673 100.0 4 -0.03493766486644745
0.6724548935890198 -2.2008750438690186 0.36449235677719116 9.0 12 -0.034935362637043
0.6601985692977905 -2.160761594772339 -0.19766922295093536 65.0 5 -0.03493305668234825
0.6748268604278564 -2.210017204284668 0.44916439056396484 8.0 13 -0.0349307544529438
0.6698002219200134 -2.194927930831909 -0.12026803940534592 42.0 6 -0.034928448498249054
0.6713457703590393 -2.201368570327759 0.5313344597816467 8.0 14 -0.034926146268844604
0.6669355034828186 -2.188275098800659 -0.03993110731244087 64.0 7 -0.034923844039440155
0.6692689061164856 -2.1973068714141846 0.6154717206954956 8.0 15 -0.03492153808474541
0.384589284658432 -1.268218994140625 -0.35509976744651794 8.0 0 -0.03490080311894417
0.6629170179367065 -2.187406063079834 0.039896201342344284 31.0 8 -0.03489849716424942
0.46319806575775146 -1.529361367225647 -0.3689197599887848 7.0 1 -0.03489619493484497
0.6659758687019348 -2.2002649307250977 0.12047737836837769 18.0 9 -0.03489388898015022
0.5664801597595215 -1.8715487718582153 -0.3800915479660034 6.0 2 -0.03489158675074577
0.6651225090026855 -2.1988303661346436 0.20098112523555756 13.0 10 -0.034889280796051025
0.6830701231956482 -2.2595863342285156 -0.3738784193992615 100.0 3 -0.034886978566646576
0.6653665900230408 -2.2024099826812744 0.28249314427375793 9.0 11 -0.03488467261195183
0.6839157938957214 -2.265238046646118 -0.2905365228652954 100.0 4 -0.03488237038254738
0.6613447666168213 -2.191861629486084 0.3626151382923126 9.0 12 -0.03488006442785263
0.6503500938415527 -2.1554226875305176 -0.19697196781635284 66.0 5 -0.03487776219844818
0.668241560459137 -2.216118812561035 0.4499276280403137 8.0 13 -0.03487545996904373
0.6632871031761169 -2.2010769844055176 -0.12047737836837769 44.0 6 -0.034873154014348984
0.6636576652526855 -2.2036986351013184 0.5313344597816467 7.0 14 -0.034870851784944534
0.6598688960075378 -2.192504644393921 -0.03996601328253746 81.0 7 -0.034868545830249786
0.6593689918518066 -2.192229986190796 0.6134011745452881 8.0 15 -0.03486624360084534
0.3790515065193176 -1.265852451324463 -0.3540644645690918 10.0 0 -0.0348455049097538
0.6506913900375366 -2.1743807792663574 0.039616964757442474 31.0 8 -0.03484320268034935
0.45562344789505005 -1.5235008001327515 -0.3671201467514038 7.0 1 -0.0348408967256546
0.6617227792739868 -2.2140581607818604 0.12110541760921478 19.0 9 -0.03483859449625015
0.558819055557251 -1.8697526454925537 -0.37932828068733215 6.0 2 -0.034836288541555405
0.6551625728607178 -2.19350266456604 0.20028388500213623 13.0 10 -0.034833986312150955
0.6729187369346619 -2.254385471343994 -0.3726269602775574 100.0 3 -0.03483168035745621
0.6571069359779358 -2.202816963195801 0.28224945068359375 10.0 11 -0.03482937812805176
0.6760044097900391 -2.2676117420196533 -0.2905365228652954 100.0 4 -0.03482707589864731
0.6559457182884216 -2.2017295360565186 0.3638666272163391 9.0 12 -0.03482476994395256
0.6411157250404358 -2.151951551437378 -0.19644904136657715 75.0 5 -0.03482246771454811
0.6577008962631226 -2.2090296745300293 0.44801953434944153 8.0 13 -0.03482016175985336
0.6550302505493164 -2.2014646530151367 -0.1203727126121521 45.0 6 -0.034817859530448914
0.6576274633407593 -2.2116053104400635 0.5326840877532959 7.0 14 -0.034815553575754166
0.6459460258483887 -2.1737091541290283 -0.039582058787345886 75.0 7 -0.034813251346349716
0.6495130062103271 -2.187110662460327 0.6113306283950806 8.0 15 -0.03481094539165497
0.3729875981807709 -1.2616101503372192 -0.35251155495643616 12.0 0 -0.03479021042585373
0.6425307393074036 -2.1747210025787354 0.039582058787345886 35.0 8 -0.03478790447115898
0.44699159264564514 -1.5138680934906006 -0.36442074179649353 7.0 1 -0.03478560224175453
0.6539903879165649 -2.2163543701171875 0.12110541760921478 20.0 9 -0.034783296287059784
0.5545116662979126 -1.8792239427566528 -0.3808547556400299 6.0 2 -0.034780994057655334
0.649755597114563 -2.2034201622009277 0.20098112523555756 14.0 10 -0.034778691828250885
0.6650450825691223 -2.256720781326294 -0.3726269602775574 100.0 3 -0.03477638587355614
0.6482921838760376 -2.2012884616851807 0.28176194429397583 10.0 11 -0.03477408364415169
0.6703267693519592 -2.2775750160217285 -0.29151150584220886 100.0 4 -0.03477177768945694
0.648256242275238 -2.2040059566497803 0.3638666272163391 9.0 12 -0.03476947546005249
0.634162187576294 -2.156087636947632 -0.19662334024906158 68.0 5 -0.03476716950535774
0.6477715373039246 -2.20377779006958 0.44649308919906616 8.0 13 -0.03476486727595329
0.6479045748710632 -2.2056539058685303 -0.12047737836837769 47.0 6 -0.034762561321258545
0.6493545770645142 -2.212017774581909 0.532234251499176 8.0 14 -0.034760259091854095
0.6417319178581238 -2.1874637603759766 -0.03979148715734482 84.0 7 -0.03475795313715935
0.6440485715866089 -2.196779727935791 0.6134011745452881 8.0 15 -0.0347556509077549
0.3631691634654999 -1.2443593740463257 -0.34733515977859497 21.0 0 -0.03473491594195366
0.6360553503036499 -2.1807901859283447 0.039651867002248764 36.0 8 -0.03473260998725891
0.4395231604576111 -1.507935643196106 -0.36262112855911255 7.0 1 -0.03473030775785446
0.6445738673210144 -2.2128710746765137 0.12079139798879623 22.0 9 -0.034728001803159714
0.5452030897140503 -1.8717235326766968 -0.3789466917514801 6.0 2 -0.034725699573755264
0.6409467458724976 -2.2018487453460693 0.2006325125694275 14.0 10 -0.034723393619060516
0.6599226593971252 -2.268512487411499 -0.3741912841796875 100.0 3 -0.03472109138965607
0.6394956707954407 -2.199725866317749 0.2812744677066803 10.0 11 -0.03471878543496132
0.6590496301651001 -2.268463134765625 -0.29004907608032227 100.0 4 -0.03471648320555687
0.6444145441055298 -2.219534397125244 0.3660567104816437 9.0 12 -0.03471417725086212
0.6271879076957703 -2.1602015495300293 -0.1967976689338684 85.0 5 -0.03471187502145767
0.6406217217445374 -2.2079110145568848 0.4468746781349182 8.0 13 -0.034709569066762924
0.636864185333252 -2.196392774581909 -0.11984935402870178 48.0 6 -0.034707266837358475
0.6405447125434875 -2.2105274200439453 0.5313344597816467 8.0 14 -0.03470496088266373
0.6357609629631042 -2.1954526901245117 -0.039896201342344284 100.0 7 -0.03470265865325928
0.637987494468689 -2.2045814990997314 0.6149541139602661 8.0 15 -0.03470035269856453
0.36417075991630554 -1.2641832828521729 -0.35251155495643616 40.0 0 -0.03467961773276329
0.62899249792099 -2.1849186420440674 0.03968677297234535 42.0 8 -0.03467731550335884
0.4342569410800934 -1.5094605684280396 -0.36262112855911255 7.0 1 -0.03467500954866409
0.632430911064148 -2.199751377105713 0.11995401978492737 21.0 9 -0.034672707319259644
0.5354116559028625 -1.862294316291809 -0.37665697932243347 6.0 2 -0.034670401364564896
0.634357213973999 -2.207902431488037 0.20098112523555756 14.0 10 -0.034668099135160446
0.6503645181655884 -2.265106201171875 -0.3732526898384094 100.0 3 -0.0346657931804657
0.630718469619751 -2.1981287002563477 0.28078699111938477 11.0 11 -0.03466349095106125
0.6500328183174133 -2.2669334411621094 -0.28956159949302673 100.0 4 -0.0346611849963665
0.6323094367980957 -2.2065789699554443 0.3635537326335907 9.0 12 -0.03465888276696205
0.6207408905029297 -2.166208267211914 -0.19714628159999847 91.0 5 -0.0346565768122673
0.6323704719543457 -2.2082464694976807 0.44649308919906616 8.0 13 -0.034654274582862854
0.6297430992126465 -2.2005224227905273 -0.11995401978492737 51.0 6 -0.034651968628168106
0.6296092867851257 -2.2015082836151123 0.5286350250244141 7.0 14 -0.03464966639876366
0.6253460645675659 -2.188044786453247 -0.03972167521715164 100.0 7 -0.03464736044406891
0.6324102878570557 -2.2142255306243896 0.6170246005058289 8.0 15 -0.03464505821466446
0.35658618807792664 -1.2542974948883057 -0.3494057059288025 36.0 0 -0.03462432324886322
0.6235474944114685 -2.1947953701019287 0.03982638940215111 44.0 8 -0.03462201729416847
0.4289850890636444 -1.5109672546386719 -0.36262112855911255 7.0 1 -0.03461971506476402
0.6252938508987427 -2.203867197036743 0.12005870044231415 23.0 9 -0.034617409110069275
0.5262284874916077 -1.8547083139419556 -0.3747488856315613 6.0 2 -0.034615106880664825
0.6261028051376343 -2.208186626434326 0.20080682635307312 15.0 10 -0.03461280092597008
0.6435308456420898 -2.2711634635925293 -0.3738784193992615 100.0 3 -0.03461049869656563
0.6252052783966064 -2.207956552505493 0.28176194429397583 11.0 11 -0.03460819274187088
0.6421157717704773 -2.26918888092041 -0.28956159949302673 100.0 4 -0.03460589051246643
0.6224533319473267 -2.201169490814209 0.3623022735118866 9.0 12 -0.03460358455777168
0.6099230051040649 -2.1568586826324463 -0.1961004137992859 91.0 5 -0.03460128232836723
0.6267939209938049 -2.2179973125457764 0.44801953434944153 8.0 13 -0.034598976373672485
0.6231434941291809 -2.2065513134002686 -0.12016335874795914 49.0 6 -0.034596674144268036
0.6261552572250366 -2.218696355819702 0.532234251499176 7.0 14 -0.034594371914863586
0.6177042722702026 -2.1902146339416504 -0.03972167521715164 100.0 7 -0.03459206596016884
0.623629093170166 -2.212700605392456 0.6159893274307251 8.0 15 -0.03458976373076439
0.35637977719306946 -1.27041494846344 -0.3535468280315399 24.0 0 -0.03456902503967285
0.6099451184272766 -2.175778388977051 0.03944243863224983 45.0 8 -0.0345667228102684
0.4252853989601135 -1.5180848836898804 -0.3639708161354065 7.0 1 -0.034564416855573654
0.6186736822128296 -2.209882974624634 0.12026803940534592 23.0 9 -0.034562114626169205
0.5197508931159973 -1.8565340042114258 -0.3747488856315613 6.0 2 -0.03455980867147446
0.6162439584732056 -2.202683925628662 0.2001095712184906 15.0 10 -0.03455750644207001
0.6324079632759094 -2.261981248855591 -0.37200120091438293 100.0 3 -0.03455520048737526
0.6174939870834351 -2.210125684738159 0.28176194429397583 10.0 11 -0.03455289825797081
0.6341907978057861 -2.271416425704956 -0.28956159949302673 100.0 4 -0.03455059230327606
0.6163588166236877 -2.2090365886688232 0.3632408678531647 10.0 12 -0.03454829007387161
0.6013197302818298 -2.1551363468170166 -0.19575178623199463 91.0 5 -0.03454598784446716
0.6164112687110901 -2.2107162475585938 0.44611144065856934 8.0 13 -0.034543681889772415
0.6175817251205444 -2.2164089679718018 -0.12058205902576447 55.0 6 -0.034541379660367966
0.6163159608840942 -2.2133591175079346 0.5304346084594727 8.0 14 -0.03453907370567322
0.6105915904045105 -2.194283962249756 -0.03975658118724823 100.0 7 -0.03453677147626877
0.6096910238265991 -2.1925292015075684 0.6097776889801025 8.0 15 -0.03453446552157402
0.35555022954940796 -1.2846843004226685 -0.35717031359672546 19.0 0 -0.03451373055577278
0.6023464798927307 -2.177894115447998 0.03944243863224983 49.0 8 -0.03451142460107803
0.4168688654899597 -1.5082902908325195 -0.3612714111804962 7.0 1 -0.034509122371673584
0.6125513315200806 -2.217804431915283 0.12058205902576447 24.0 9 -0.034506816416978836
0.516926109790802 -1.8715837001800537 -0.37742021679878235 6.0 2 -0.03450451418757439
0.6069610714912415 -2.1990599632263184 0.1995866596698761 17.0 10 -0.03450221195816994
0.6234575510025024 -2.260366678237915 -0.3713754713535309 100.0 3 -0.03449990600347519
0.6050282716751099 -2.1950442790985107 0.27956831455230713 11.0 11 -0.03449760377407074
0.628367006778717 -2.281271457672119 -0.2905365228652954 100.0 4 -0.03449529781937599
0.6086437702178955 -2.211174726486206 0.3632408678531647 10.0 12 -0.03449299558997154
0.5937929153442383 -2.157222270965576 -0.19575178623199463 85.0 5 -0.034490689635276794
0.6076495051383972 -2.209068536758423 0.44534823298454285 8.0 13 -0.034488387405872345
0.6045475006103516 -2.1992931365966797 -0.11953534185886383 53.0 6 -0.0344860814511776
0.6096182465553284 -2.2192554473876953 0.5313344597816467 8.0 14 -0.03448377922177315
0.6002814769744873 -2.186760187149048 -0.039582058787345886 100.0 7 -0.0344814732670784
0.6051002144813538 -2.205821990966797 0.6128835082054138 8.0 15 -0.03447917103767395
0.3475022315979004 -1.272871971130371 -0.3535468280315399 17.0 0 -0.03445843234658241
0.5947404503822327 -2.179983377456665 0.03944243863224983 50.0 8 -0.03445613011717796
0.4136516749858856 -1.517256736755371 -0.3630710244178772 7.0 1 -0.034453827887773514
0.601655900478363 -2.208367109298706 0.11995401978492737 24.0 9 -0.034451521933078766
0.5124541521072388 -1.8809535503387451 -0.3789466917514801 6.0 2 -0.034449219703674316
0.6029449105262756 -2.2146220207214355 0.20080682635307312 18.0 10 -0.03444691374897957
0.617638111114502 -2.270153522491455 -0.3726269602775574 100.0 3 -0.03444461151957512
0.5973623991012573 -2.1971428394317627 0.27956831455230713 11.0 11 -0.03444230556488037
0.6183182001113892 -2.2757885456085205 -0.28956159949302673 100.0 4 -0.03444000333547592
0.6004042029380798 -2.211379289627075 0.36292800307273865 10.0 12 -0.034437697380781174
0.5873034000396729 -2.1631271839141846 -0.1961004137992859 88.0 5 -0.034435395151376724
0.6004485487937927 -2.21307110786438 0.4457298517227173 8.0 13 -0.034433089196681976
0.5937308669090271 -2.189823865890503 -0.11890730261802673 53.0 6 -0.03443078696727753
0.5998295545578003 -2.21384596824646 0.5295348167419434 8.0 14 -0.03442848101258278
0.5947350263595581 -2.1965630054473877 -0.03972167521715164 100.0 7 -0.03442617878317833
0.5979013442993164 -2.2097859382629395 0.6134011745452881 9.0 15 -0.03442387282848358
0.347577303647995 -1.2908658981323242 -0.3582055866718292 15.0 0 -0.03440313786268234
0.5876470804214478 -2.1839773654937744 0.03947734460234642 52.0 8 -0.03440083563327789
0.40632903575897217 -1.5111637115478516 -0.3612714111804962 8.0 1 -0.034398529678583145
0.5908339619636536 -2.198880910873413 0.11932599544525146 26.0 9 -0.034396227449178696
0.4972245991230011 -1.850498914718628 -0.37245920300483704 6.0 2 -0.03439392149448395
0.5952106714248657 -2.2167131900787354 0.20080682635307312 18.0 10 -0.0343916192650795
0.6097102761268616 -2.2722954750061035 -0.3726269602775574 100.0 3 -0.03438931331038475
0.5896891951560974 -2.1992146968841553 0.27956831455230713 11.0 11 -0.0343870110809803
0.6072876453399658 -2.266427993774414 -0.28809913992881775 100.0 4 -0.03438470512628555
0.5916592478752136 -2.2096457481384277 0.3623022735118866 10.0 12 -0.034382402896881104
0.580779492855072 -2.169013500213623 -0.19644904136657715 85.0 5 -0.034380096942186356
0.5927199721336365 -2.215153455734253 0.4457298517227173 8.0 13 -0.034377794712781906
0.5938223004341125 -2.2208251953125 -0.12047737836837769 62.0 6 -0.03437548875808716
0.5900856256484985 -2.2083957195281982 0.5277352333068848 8.0 14 -0.03437318652868271
0.5860324501991272 -2.1947615146636963 -0.039651867002248764 100.0 7 -0.03437088057398796
0.5916784405708313 -2.217458963394165 0.6149541139602661 8.0 15 -0.03436857834458351
0.33959901332855225 -1.2790013551712036 -0.35458213090896606 12.0 0 -0.03434784337878227
0.5815584659576416 -2.1918137073516846 0.039582058787345886 50.0 8 -0.034345537424087524
0.3930603563785553 -1.482434630393982 -0.3540729880332947 9.0 1 -0.034343235194683075
0.5867358446121216 -2.214444398880005 0.12005870044231415 30.0 9 -0.03434092923998833
0.4877452552318573 -1.840836524963379 -0.370169460773468 6.0 2 -0.03433862701058388
0.5854296684265137 -2.211073160171509 0.2001095712184906 21.0 10 -0.03433632105588913
0.6037954688072205 -2.2820487022399902 -0.3738784193992615 100.0 3 -0.03433401882648468
0.5820091366767883 -2.2012596130371094 0.27956831455230713 12.0 11 -0.03433171287178993
0.6014009118080139 -2.2762112617492676 -0.2890741229057312 100.0 4 -0.03432941064238548
0.5814213156700134 -2.2021474838256836 0.3607378900051117 10.0 12 -0.034327104687690735
0.5701532363891602 -2.1594693660736084 -0.19540317356586456 85.0 5 -0.034324802458286285
0.5874881744384766 -2.2267003059387207 0.4476379454135895 8.0 13 -0.03432249650359154
0.58046555519104 -2.2016406059265137 -0.11932599544525146 62.0 6 -0.03432019427418709
0.584359347820282 -2.217979669570923 0.5295348167419434 8.0 14 -0.03431788831949234
0.577858567237854 -2.1948599815368652 -0.039616964757442474 100.0 7 -0.03431558609008789
0.5809851884841919 -2.208301305770874 0.6118482351303101 8.0 15 -0.03431328386068344
0.3321968615055084 -1.2689656019210815 -0.3514762818813324 11.0 0 -0.034292545169591904
0.5723857283592224 -2.1880266666412354 0.03947734460234642 54.0 8 -0.034290242940187454
0.38049042224884033 -1.4555166959762573 -0.3473244309425354 13.0 1 -0.034287936985492706
0.5764783620834351 -2.2068169116973877 0.11953534185886383 27.0 9 -0.03428563475608826
0.4882633686065674 -1.8691210746765137 -0.37551212310791016 6.0 2 -0.03428332880139351
0.5772047638893127 -2.2111756801605225 0.19993527233600616 20.0 10 -0.03428102657198906
0.5923359990119934 -2.2707624435424805 -0.3716883361339569 100.0 3 -0.03427872061729431
0.577325701713562 -2.2148032188415527 0.28103071451187134 13.0 11 -0.03427641838788986
0.5924509167671204 -2.2744545936584473 -0.2885866165161133 100.0 4 -0.034274112433195114
0.5752238631248474 -2.2098984718322754 0.36167651414871216 11.0 12 -0.034271810203790665
0.560604453086853 -2.153733730316162 -0.19470593333244324 88.0 5 -0.03426950424909592
0.5737813711166382 -2.205937147140503 0.44305849075317383 9.0 13 -0.03426720201969147
0.5722742676734924 -2.2017202377319336 -0.11922132223844528 57.0 6 -0.03426489979028702
0.5775935649871826 -2.223778247833252 0.5304346084594727 8.0 14 -0.03426259383559227
0.563160240650177 -2.1697659492492676 -0.039128296077251434 100.0 7 -0.03426029160618782
0.5723032355308533 -2.206575870513916 0.6108129620552063 8.0 15 -0.03425798565149307
0.327282577753067 -1.2682468891143799 -0.3509586453437805 8.0 0 -0.034237250685691833
0.5617485642433167 -2.1783931255340576 0.03926791250705719 55.0 8 -0.034234944730997086
0.37054476141929626 -1.4379650354385376 -0.34282541275024414 22.0 1 -0.034232642501592636
0.5707637071609497 -2.216552257537842 0.11995401978492737 26.0 9 -0.03423033654689789
0.4773297607898712 -1.8537029027938843 -0.3720775544643402 5.0 2 -0.03422803431749344
0.5684897303581238 -2.209317922592163 0.1995866596698761 20.0 10 -0.03422572836279869
0.5839137434959412 -2.2709033489227295 -0.3713754713535309 100.0 3 -0.03422342613339424
0.5656392574310303 -2.2014238834381104 0.2790808379650116 12.0 11 -0.03422112390398979
0.5864829421043396 -2.2841997146606445 -0.28956159949302673 100.0 4 -0.034218817949295044
0.5694697499275208 -2.2195467948913574 0.36292800307273865 11.0 12 -0.034216515719890594
0.5560536980628967 -2.1672568321228027 -0.19575178623199463 94.0 5 -0.03421420976519585
0.565102756023407 -2.204123020172119 0.44229528307914734 8.0 13 -0.0342119075357914
0.5650812983512878 -2.205639362335205 -0.11932599544525146 69.0 6 -0.03420960158109665
0.5698273181915283 -2.225780963897705 0.5304346084594727 8.0 14 -0.0342072993516922
0.5585565567016602 -2.183342456817627 -0.039337724447250366 100.0 7 -0.03420499339699745
0.5636405944824219 -2.2048168182373047 0.6097776889801025 9.0 15 -0.034202691167593
0.3238060474395752 -1.2731260061264038 -0.3519938886165619 9.0 0 -0.034181952476501465
0.5566041469573975 -2.190031051635742 0.03944243863224983 56.0 8 -0.034179650247097015
0.3698400557041168 -1.4562487602233887 -0.34687453508377075 22.0 1 -0.034177348017692566
0.558110237121582 -2.199172019958496 0.11890730261802673 27.0 9 -0.03417504206299782
0.47182226181030273 -1.859163761138916 -0.3728407919406891 6.0 2 -0.03417273983359337
0.5612639784812927 -2.2132201194763184 0.19976095855236053 21.0 10 -0.03417043387889862
0.5750129222869873 -2.2690978050231934 -0.37074974179267883 100.0 3 -0.03416813164949417
0.5589259266853333 -2.207233428955078 0.27956831455230713 13.0 11 -0.03416582569479942
0.5755841732025146 -2.274686336517334 -0.28809913992881775 100.0 4 -0.034163523465394974
0.5631715655326843 -2.227266550064087 0.3638666272163391 11.0 12 -0.034161217510700226
0.548973798751831 -2.171116352081299 -0.19592611491680145 88.0 5 -0.034158915281295776
0.5612528920173645 -2.2213096618652344 0.44534823298454285 9.0 13 -0.03415660932660103
0.5539558529853821 -2.194042921066284 -0.11859328299760818 68.0 6 -0.03415430709719658
0.5572873950004578 -2.2088611125946045 0.5259355902671814 8.0 14 -0.03415200114250183
0.5548428297042847 -2.2007908821105957 -0.039616964757442474 100.0 7 -0.03414969891309738
0.5568844676017761 -2.210517644882202 0.6108129620552063 8.0 15 -0.034147392958402634
0.32123857736587524 -1.2817442417144775 -0.3540644645690918 8.0 0 -0.034126657992601395
0.5479844808578491 -2.1880810260772705 0.039372626692056656 58.0 8 -0.034124355763196945
0.3732703626155853 -1.4915589094161987 -0.354972779750824 17.0 1 -0.0341220498085022
0.5509145259857178 -2.2030446529388428 0.11901197582483292 30.0 9 -0.03411974757909775
0.46056658029556274 -1.8417534828186035 -0.3690246343612671 5.0 2 -0.034117441624403
0.5549839735031128 -2.2209646701812744 0.20028388500213623 22.0 10 -0.03411513939499855
0.5675675868988037 -2.273007869720459 -0.37106260657310486 100.0 3 -0.0341128334403038
0.5492954254150391 -2.2014667987823486 0.2785933315753937 14.0 11 -0.03411053121089935
0.5657196044921875 -2.268977403640747 -0.2871242165565491 100.0 4 -0.034108225256204605
0.5525283813476562 -2.2177181243896484 0.36198940873146057 11.0 12 -0.034105923026800156
0.5428370237350464 -2.178819179534912 -0.19644904136657715 91.0 5 -0.03410361707210541
0.5534956455230713 -2.2232553958892822 0.44534823298454285 8.0 13 -0.03410131484270096
0.5496692657470703 -2.2095305919647217 -0.11932599544525146 71.0 6 -0.03409900888800621
0.5486330986022949 -2.2070107460021973 0.5250357985496521 8.0 14 -0.03409670665860176
0.543782651424408 -2.18912935256958 -0.039372626692056656 100.0 7 -0.03409440070390701
0.5500958561897278 -2.2161977291107178 0.6118482351303101 9.0 15 -0.034092098474502563
0.31305766105651855 -1.2678536176681519 -0.34992337226867676 9.0 0 -0.034071363508701324
0.5417802929878235 -2.195805072784424 0.03947734460234642 64.0 8 -0.03406905755400658
0.37412571907043457 -1.5174498558044434 -0.36082151532173157 12.0 1 -0.03406675532460213
0.5436990261077881 -2.2068934440612793 0.1191166415810585 33.0 9 -0.03406444936990738
0.4546046555042267 -1.8452560901641846 -0.36940622329711914 6.0 2 -0.03406214714050293
0.5448468327522278 -2.2132151126861572 0.19941233098506927 21.0 10 -0.03405984118580818
0.5601013898849487 -2.276893377304077 -0.3713754713535309 100.0 3 -0.03405753895640373
0.5435031652450562 -2.2110817432403564 0.27956831455230713 14.0 11 -0.034055233001708984
0.5587431788444519 -2.2747936248779297 -0.2876116633415222 100.0 4 -0.034052930772304535
0.5452543497085571 -2.2215518951416016 0.3623022735118866 11.0 12 -0.03405062481760979
0.5304787755012512 -2.161351203918457 -0.19470593333244324 91.0 5 -0.03404832258820534
0.5466668605804443 -2.228987216949463 0.44611144065856934 9.0 13 -0.03404601663351059
0.541953444480896 -2.2114357948303223 -0.11932599544525146 71.0 6 -0.03404371440410614
0.5427801012992859 -2.2164833545684814 0.5268353819847107 8.0 14 -0.03404140844941139
0.5323353409767151 -2.1754748821258545 -0.039093390107154846 100.0 7 -0.03403910622000694
0.5414388179779053 -2.2143514156341553 0.6108129620552063 8.0 15 -0.034036800265312195
0.3097653090953827 -1.2726389169692993 -0.3509586453437805 8.0 0 -0.03402566909790039
0.5321328043937683 -2.1878745555877686 0.03930281847715378 62.0 8 -0.03402336686849594
0.36771127581596375 -1.5130012035369873 -0.35947179794311523 10.0 1 -0.03402106091380119
0.5377916097640991 -2.2145068645477295 0.11943066120147705 35.0 9 -0.034018758684396744
0.4457031190395355 -1.8353066444396973 -0.3671165406703949 6.0 2 -0.034016452729701996
0.5375044345855713 -2.2150096893310547 0.19941233098506927 23.0 10 -0.034014150500297546
0.5511514544487 -2.2729787826538086 -0.3704368472099304 100.0 3 -0.0340118445456028
0.5361679196357727 -2.212871789932251 0.27956831455230713 13.0 11 -0.03400954231619835
0.5530649423599243 -2.284351348876953 -0.2885866165161133 100.0 4 -0.0340072363615036
0.5374197959899902 -2.2214276790618896 0.36198940873146057 11.0 12 -0.03400493413209915
0.5233084559440613 -2.1630983352661133 -0.19470593333244324 91.0 5 -0.034002628177404404
0.5374271869659424 -2.2231547832489014 0.44458499550819397 9.0 13 -0.034000325947999954
0.5346169471740723 -2.2132208347320557 -0.11932599544525146 71.0 6 -0.033998019993305206
0.5372559428215027 -2.22584867477417 0.5286350250244141 8.0 14 -0.03399571776390076
0.5269939303398132 -2.1850039958953857 -0.0392330102622509 100.0 7 -0.03399341180920601
0.5318295955657959 -2.206744432449341 0.6082248091697693 9.0 15 -0.03399110957980156
0.3062218129634857 -1.277469515800476 -0.3519938886165619 9.0 0 -0.03397037461400032
0.5221633911132812 -2.17999529838562 0.039128296077251434 64.0 8 -0.03396806865930557
0.3624274432659149 -1.5142756700515747 -0.35947179794311523 8.0 1 -0.03396576642990112
0.5305231213569641 -2.218312978744507 0.11953534185886383 33.0 9 -0.033963460475206375
0.4415774345397949 -1.8463982343673706 -0.3690246343612671 6.0 2 -0.033961158245801926
0.5297693014144897 -2.216872453689575 0.19941233098506927 23.0 10 -0.03395885229110718
0.5418375134468079 -2.269124984741211 -0.36949828267097473 100.0 3 -0.03395655006170273
0.5279794335365295 -2.212799072265625 0.27932456135749817 15.0 11 -0.03395424410700798
0.5460084080696106 -2.2901298999786377 -0.2890741229057312 100.0 4 -0.03395194187760353
0.531035840511322 -2.2290546894073486 0.36292800307273865 11.0 12 -0.03394963592290878
0.5176017880439758 -2.1726646423339844 -0.19540317356586456 98.0 5 -0.033947333693504333
0.5269356966018677 -2.213557720184326 0.44229528307914734 9.0 13 -0.033945027738809586
0.526425838470459 -2.213130235671997 -0.11922132223844528 73.0 6 -0.033942725509405136
0.5276806354522705 -2.2201266288757324 0.5268353819847107 8.0 14 -0.03394041955471039
0.521211564540863 -2.194612741470337 -0.039372626692056656 100.0 7 -0.03393811732530594
0.5236772894859314 -2.206707715988159 0.607707142829895 8.0 15 -0.03393581137061119
0.3008730709552765 -1.2747704982757568 -0.3509586453437805 8.0 0 -0.03391507640480995
0.5154687762260437 -2.185697078704834 0.03919810429215431 67.0 8 -0.0339127741754055
0.35535165667533875 -1.5079442262649536 -0.35767218470573425 7.0 1 -0.033910468220710754
0.5204873085021973 -2.210430860519409 0.11901197582483292 36.0 9 -0.033908165991306305
0.4346792995929718 -1.8460173606872559 -0.36864298582077026 6.0 2 -0.03390586003661156
0.5224842429161072 -2.2206478118896484 0.1995866596698761 24.0 10 -0.03390355780720711
0.5348179340362549 -2.274848461151123 -0.3701240122318268 100.0 3 -0.03390125185251236
0.5170742273330688 -2.201101064682007 0.2776183784008026 14.0 11 -0.03389894962310791
0.5343819260597229 -2.276561737060547 -0.2871242165565491 100.0 4 -0.03389664366841316
0.5223498344421387 -2.227048635482788 0.3623022735118866 11.0 12 -0.03389434143900871
0.5100896954536438 -2.1764869689941406 -0.1955774873495102 98.0 5 -0.033892035484313965
0.519205629825592 -2.215383529663086 0.44229528307914734 9.0 13 -0.033889733254909515
0.5168757438659668 -2.2071759700775146 -0.11880263686180115 73.0 6 -0.03388742730021477
0.5181514620780945 -2.214365243911743 0.5250357985496521 8.0 14 -0.03388512507081032
0.5144584774971008 -2.200312852859497 -0.03944243863224983 100.0 7 -0.03388282284140587
0.5194874405860901 -2.223571538925171 0.6118482351303101 9.0 15 -0.03388051688671112
0.2988201081752777 -1.2871553897857666 -0.3540644645690918 9.0 0 -0.03385978192090988
0.5105494260787964 -2.1991705894470215 0.03940753638744354 69.0 8 -0.033857475966215134
0.34920501708984375 -1.5053789615631104 -0.35677239298820496 7.0 1 -0.033855173736810684
0.5114155411720276 -2.206397294998169 0.11869796365499496 38.0 9 -0.033852867782115936
0.42348089814186096 -1.8284718990325928 -0.3648267984390259 6.0 2 -0.03385056555271149
0.5161381959915161 -2.2303123474121094 0.20028388500213623 25.0 10 -0.03384825959801674
0.5269215106964111 -2.278717517852783 -0.3704368472099304 100.0 3 -0.03384595736861229
0.5107297301292419 -2.2086949348449707 0.2783496081829071 15.0 11 -0.03384365141391754
0.52643221616745 -2.2784130573272705 -0.2871242165565491 100.0 4 -0.03384134918451309
0.513239324092865 -2.223083972930908 0.3613636791706085 12.0 12 -0.03383904695510864
0.502489447593689 -2.1782541275024414 -0.1955774873495102 100.0 5 -0.033836741000413895
0.5128462910652161 -2.224924325942993 0.4438217580318451 9.0 13 -0.033834438771009445
0.5096790790557861 -2.2129480838775635 -0.11901197582483292 75.0 6 -0.0338321328163147
0.5117802619934082 -2.2238457202911377 0.5268353819847107 8.0 14 -0.03382983058691025
0.5049809813499451 -2.194300413131714 -0.03930281847715378 100.0 7 -0.0338275246322155
0.5112895965576172 -2.2234888076782227 0.6113306283950806 9.0 15 -0.03382522240281105
0.2917434573173523 -1.276890754699707 -0.3509586453437805 10.0 0 -0.03380448371171951
0.5033756494522095 -2.204926013946533 0.03947734460234642 69.0 8 -0.033802181482315063
0.34628555178642273 -1.5180482864379883 -0.35947179794311523 7.0 1 -0.033799875527620316
0.5045989751815796 -2.2120635509490967 0.11890730261802673 40.0 9 -0.033797573298215866
0.4153505265712738 -1.822282314300537 -0.3633003234863281 6.0 2 -0.03379526734352112
0.5056954026222229 -2.2204442024230957 0.19923801720142365 25.0 10 -0.03379296511411667
0.5189640522003174 -2.280543088912964 -0.3704368472099304 100.0 3 -0.03379066288471222
0.5035113096237183 -2.214423418045044 0.27883708477020264 15.0 11 -0.03378835693001747
0.5180777907371521 -2.280327320098877 -0.2871242165565491 100.0 4 -0.03378605470061302
0.503288209438324 -2.215230703353882 0.359799325466156 13.0 12 -0.033783748745918274
0.49311816692352295 -2.172222852706909 -0.19488023221492767 100.0 5 -0.033781446516513824
0.5059452056884766 -2.230530023574829 0.44458499550819397 9.0 13 -0.03377914056181908
0.5019515156745911 -2.2147138118743896 -0.11901197582483292 75.0 6 -0.03377683833241463
0.5053057074546814 -2.231320381164551 0.5281850695610046 9.0 14 -0.03377453237771988
0.49466821551322937 -2.184347629547119 -0.039093390107154846 100.0 7 -0.03377223014831543
0.5005404949188232 -2.2120704650878906 0.607707142829895 8.0 15 -0.03376992419362068
0.284742146730423 -1.2665925025939941 -0.34785282611846924 10.0 0 -0.03374918922781944
0.4925521910190582 -2.1909751892089844 0.03919810429215431 72.0 8 -0.033746883273124695
0.34039556980133057 -1.5153855085372925 -0.35857200622558594 7.0 1 -0.033744581043720245
0.4981864392757416 -2.2196576595306396 0.11922132223844528 41.0 9 -0.033742278814315796
0.4012540280818939 -1.7892389297485352 -0.3564312160015106 8.0 2 -0.03373997285962105
0.4979417622089386 -2.222195863723755 0.19923801720142365 26.0 10 -0.0337376706302166
0.5101031064987183 -2.2764689922332764 -0.36949828267097473 100.0 3 -0.03373536467552185
0.49529770016670227 -2.2122068405151367 0.2783496081829071 16.0 11 -0.0337330624461174
0.5113797783851624 -2.285907030105591 -0.2876116633415222 100.0 4 -0.03373075649142265
0.49684491753578186 -2.222757339477539 0.3607378900051117 12.0 12 -0.033728454262018204
0.48292723298072815 -2.162264347076416 -0.19383437931537628 100.0 5 -0.033726148307323456
0.4976900517940521 -2.228363513946533 0.4438217580318451 9.0 13 -0.033723846077919006
0.49764949083328247 -2.230011463165283 -0.1197446808218956 80.0 6 -0.03372154012322426
0.4983276426792145 -2.2348861694335938 0.5286350250244141 8.0 14 -0.03371923789381981
0.48573607206344604 -2.180205821990967 -0.03898867964744568 100.0 7 -0.03371693193912506
0.4923963248729706 -2.211918592453003 0.6071895360946655 9.0 15 -0.03371462970972061
0.2788705825805664 -1.2599848508834839 -0.34578225016593933 9.0 0 -0.03369389474391937
0.4840379059314728 -2.1887762546539307 0.039128296077251434 71.0 8 -0.033691588789224625
0.3321603834629059 -1.5032446384429932 -0.3554226756095886 7.0 1 -0.033689286559820175
0.4921579360961914 -2.22918438911438 0.11964000016450882 45.0 9 -0.03368698060512543
0.40166744589805603 -1.819316029548645 -0.3621554970741272 9.0 2 -0.03368467837572098
0.4909990727901459 -2.225780487060547 0.19941233098506927 28.0 10 -0.03368237242102623
0.50045245885849 -2.270519256591797 -0.36824676394462585 97.0 3 -0.03368007019162178
0.4871456027030945 -2.2119834423065186 0.27810585498809814 16.0 11 -0.03367776423692703
0.5033972859382629 -2.2876782417297363 -0.2876116633415222 100.0 4 -0.03367546200752258
0.49035578966140747 -2.2302658557891846 0.36167651414871216 13.0 12 -0.033673156052827835
0.4774654805660248 -2.1716372966766357 -0.1945316195487976 100.0 5 -0.033670853823423386
0.4873810112476349 -2.2185819149017334 0.44153204560279846 9.0 13 -0.03366854786872864
0.4868648052215576 -2.218079090118408 -0.11901197582483292 85.0 6 -0.03366624563932419
0.48801878094673157 -2.2251908779144287 0.5259355902671814 8.0 14 -0.03366393968462944
0.48111897706985474 -2.195561408996582 -0.0392330102622509 100.0 7 -0.03366163745522499
0.484671950340271 -2.2136240005493164 0.6071895360946655 9.0 15 -0.03365933150053024
0.27775776386260986 -1.2760518789291382 -0.34992337226867676 9.0 0 -0.033638596534729004
0.4772445559501648 -2.1943602561950684 0.03919810429215431 76.0 8 -0.033636294305324554
0.32691118121147156 -1.5043948888778687 -0.3554226756095886 7.0 1 -0.033633988350629807
0.481830894947052 -2.2191779613494873 0.11901197582483292 45.0 9 -0.03363168612122536
0.3994799554347992 -1.8398926258087158 -0.3659716844558716 10.0 2 -0.03362938016653061
0.48322659730911255 -2.227480888366699 0.19941233098506927 28.0 10 -0.03362707793712616
0.48833948373794556 -2.2529470920562744 -0.3651180863380432 49.0 3 -0.03362477198243141
0.4781607985496521 -2.2078499794006348 0.27737462520599365 16.0 11 -0.03362246975302696
0.49456900358200073 -2.285541296005249 -0.2871242165565491 100.0 4 -0.033620163798332214
0.4842377305030823 -2.239686965942383 0.36292800307273865 13.0 12 -0.033617861568927765
0.47156646847724915 -2.1810801029205322 -0.19522884488105774 100.0 5 -0.03361555561423302
0.48046278953552246 -2.224107503890991 0.44229528307914734 10.0 13 -0.03361325338482857
0.4749053418636322 -2.200242042541504 -0.11796525865793228 86.0 6 -0.03361094743013382
0.4794267416000366 -2.2230710983276367 0.5250357985496521 9.0 14 -0.03360864520072937
0.47345206141471863 -2.1972274780273438 -0.0392330102622509 100.0 7 -0.03360634297132492
0.4777553975582123 -2.2190792560577393 0.6082248091697693 9.0 15 -0.03360403701663017
0.2733018100261688 -1.2770136594772339 -0.34992337226867676 9.0 0 -0.033583302050828934
0.46958184242248535 -2.1960129737854004 0.03919810429215431 81.0 8 -0.033580996096134186
0.3216579854488373 -1.5055267810821533 -0.3554226756095886 7.0 1 -0.033578693866729736
0.4703289270401001 -2.2032670974731445 0.11806992441415787 48.0 9 -0.03357638791203499
0.3930550515651703 -1.8412758111953735 -0.3659716844558716 7.0 2 -0.03357408568263054
0.474617063999176 -2.22525691986084 0.1990637183189392 28.0 10 -0.03357177972793579
0.4784133732318878 -2.244978189468384 -0.3635537326335907 42.0 3 -0.03356947749853134
0.4708646237850189 -2.211447238922119 0.2776183784008026 15.0 11 -0.033567171543836594
0.4857620298862457 -2.283370018005371 -0.28663671016693115 100.0 4 -0.033564869314432144
0.47313085198402405 -2.2259061336517334 0.36042505502700806 13.0 12 -0.033562563359737396
0.46394988894462585 -2.182713031768799 -0.19522884488105774 100.0 5 -0.03356026113033295
0.4743278920650482 -2.2334530353546143 0.4438217580318451 10.0 13 -0.0335579589009285
0.4680514931678772 -2.205793857574463 -0.11817460507154465 82.0 6 -0.03355565294623375
0.4732804298400879 -2.232356309890747 0.5268353819847107 9.0 14 -0.0335533507168293
0.4632929861545563 -2.187129020690918 -0.03902358189225197 100.0 7 -0.03355104476213455
0.47040659189224243 -2.222623348236084 0.6087424159049988 8.0 15 -0.0335487425327301
0.2648656666278839 -1.2590551376342773 -0.34474697709083557 10.0 0 -0.033528003841638565
0.46355897188186646 -2.2054665088653564 0.039337724447250366 79.0 8 -0.033525701612234116
0.3180025815963745 -1.5142691135406494 -0.3572222888469696 8.0 1 -0.03352339565753937
0.4655061364173889 -2.218578338623047 0.11880263686180115 49.0 9 -0.03352109342813492
0.38138434290885925 -1.8176581859588623 -0.3610106408596039 6.0 2 -0.03351878747344017
0.4664376676082611 -2.224950075149536 0.19888940453529358 29.0 10 -0.03351648524403572
0.472599059343338 -2.2563014030456543 -0.3651180863380432 56.0 3 -0.03351417928934097
0.4659886360168457 -2.2266783714294434 0.27932456135749817 19.0 11 -0.03351187705993652
0.4786011576652527 -2.288938045501709 -0.2871242165565491 100.0 4 -0.033509574830532074
0.4645504057407379 -2.2236766815185547 0.359799325466156 15.0 12 -0.033507268875837326
0.4538835883140564 -2.1726176738739014 -0.19418299198150635 100.0 5 -0.03350496664643288
0.4665287733078003 -2.235095262527466 0.4438217580318451 9.0 13 -0.03350266069173813
0.4603486657142639 -2.207414150238037 -0.11817460507154465 94.0 6 -0.03350035846233368
0.4631003439426422 -2.222548246383667 0.5241360068321228 9.0 14 -0.03349805250763893
0.45565587282180786 -2.188732862472534 -0.03902358189225197 100.0 7 -0.03349575027823448
0.4598912000656128 -2.211012363433838 0.6051189303398132 9.0 15 -0.033493444323539734
0.261251300573349 -1.2637556791305542 -0.34578225016593933 10.0 0 -0.033472709357738495
0.4518124461174011 -2.1874876022338867 0.03898867964744568 89.0 8 -0.03347040340304375
0.31113961338996887 -1.5077357292175293 -0.3554226756095886 7.0 1 -0.0334681011736393
0.4569522738456726 -2.2162773609161377 0.11859328299760818 49.0 9 -0.03346579521894455
0.3754335641860962 -1.8209011554718018 -0.3613922595977783 5.0 2 -0.0334634929895401
0.45625635981559753 -2.2148566246032715 0.197843536734581 32.0 10 -0.03346119076013565
0.461932897567749 -2.2443935871124268 -0.36292800307273865 48.0 3 -0.0334588848054409
0.4578133821487427 -2.2263472080230713 0.2790808379650116 18.0 11 -0.03345658257603645
0.46980923414230347 -2.286705732345581 -0.28663671016693115 100.0 4 -0.033454276621341705
0.4571826457977295 -2.227219820022583 0.36011216044425964 14.0 12 -0.033451974391937256
0.44549569487571716 -2.17028546333313 -0.19383437931537628 100.0 5 -0.03344966843724251
0.4567517340183258 -2.2270939350128174 0.4419136643409729 11.0 13 -0.03344736620783806
0.4542444050312042 -2.21683406829834 -0.11859328299760818 94.0 6 -0.03344506025314331
0.4588566720485687 -2.241333484649658 0.5281850695610046 9.0 14 -0.03344275802373886
0.4476121962070465 -2.1883509159088135 -0.03898867964744568 100.0 7 -0.03344045206904411
