# .PCD v0.7 - Point Cloud Data file format
VERSION 0.7
FIELDS x y z intensity ring time
SIZE 4 4 4 4 4 4
TYPE F F F F F F
COUNT 1 1 1 1 1 1
WIDTH 545
HEIGHT 1
VIEWPOINT 0 0 0 1 0 0 0
POINTS 545
DATA ascii
1.3043547868728638 -2.1111056804656982 0.4823651611804962 5.0 13 -0.0209197960793972
1.3066312074661255 -2.1156163215637207 -0.13031654059886932 11.0 6 -0.020917491987347603
1.3103597164154053 -2.122481346130371 0.5758747458457947 6.0 14 -0.020915187895298004
1.3068052530288696 -2.1167237758636475 -0.04342158883810043 7.0 7 -0.020912883803248405
1.3067525625228882 -2.1174657344818115 0.6667178869247437 7.0 15 -0.020910579711198807
0.7450257539749146 -1.211021900177002 -0.3809816539287567 8.0 0 -0.020889844745397568
1.3003352880477905 -2.113664388656616 0.04331687465310097 7.0 8 -0.02088754065334797
0.8932198286056519 -1.452476143836975 -0.3936643898487091 6.0 1 -0.02088523656129837
1.3021974563598633 -2.1183483600616455 0.13031654059886932 6.0 9 -0.02088293246924877
1.1152085065841675 -1.8148741722106934 -0.4140555262565613 6.0 2 -0.020880628377199173
1.302456021308899 -2.1204278469085693 0.2177150398492813 6.0 10 -0.020878324285149574
1.3461309671401978 -2.1915314197540283 -0.407355397939682 118.0 3 -0.020876020193099976
1.2983556985855103 -2.114579677581787 0.30467337369918823 4.0 11 -0.020873716101050377
1.3384838104248047 -2.180788040161133 -0.3141791820526123 91.0 4 -0.020871412009000778
1.3036630153656006 -2.1248862743377686 0.39484065771102905 6.0 12 -0.02086910791695118
1.3035050630569458 -2.1254611015319824 0.48465490341186523 5.0 13 -0.020864499732851982
1.2954331636428833 -2.113126754760742 -0.1298978626728058 11.0 6 -0.020862197503447533
1.3033137321472168 -2.1268150806427 0.5758747458457947 6.0 14 -0.020859893411397934
1.2910521030426025 -2.107630729675293 -0.043142348527908325 7.0 7 -0.020857589319348335
1.2953180074691772 -2.115424156188965 0.6646473407745361 7.0 15 -0.020855285227298737
0.7349648475646973 -1.2035932540893555 -0.37787580490112305 8.0 0 -0.02083454839885235
1.299200415611267 -2.128431558609009 0.0435263030230999 7.0 8 -0.02083224430680275
0.890174388885498 -1.4589122533798218 -0.3945641815662384 6.0 1 -0.02082994021475315
1.2989553213119507 -2.1297013759613037 0.13073523342609406 6.0 9 -0.020827636122703552
1.1047788858413696 -1.8120508193969727 -0.4125290811061859 6.0 2 -0.020825332030653954
1.293343186378479 -2.121332883834839 0.21736642718315125 6.0 10 -0.020823027938604355
1.338472843170166 -2.1962170600891113 -0.407355397939682 118.0 3 -0.020820723846554756
1.290966510772705 -2.1190989017486572 0.30467337369918823 5.0 11 -0.020818419754505157
1.3308632373809814 -2.1854469776153564 -0.3141791820526123 91.0 4 -0.020816117525100708
1.2880204916000366 -2.1159250736236572 0.3923376798629761 6.0 12 -0.02081381343305111
1.2936656475067139 -2.1268696784973145 0.4838916063308716 4.0 13 -0.020809205248951912
1.2949426174163818 -2.1298062801361084 -0.13063055276870728 12.0 6 -0.020806901156902313
1.291832447052002 -2.1246910095214844 0.5740751028060913 6.0 14 -0.020804597064852715
1.280571460723877 -2.1069982051849365 -0.04303763434290886 8.0 7 -0.020802292972803116
1.2768924236297607 -2.101771116256714 0.6589533090591431 6.0 15 -0.020799988880753517
0.7305485010147095 -1.206278920173645 -0.37787580490112305 8.0 0 -0.02077925205230713
1.276892066001892 -2.1092300415039062 0.04303763434290886 7.0 8 -0.02077694796025753
0.8848212957382202 -1.4621649980545044 -0.3945641815662384 6.0 1 -0.02077464386820793
1.2870057821273804 -2.1276121139526367 0.13031654059886932 6.0 9 -0.020772339776158333
1.0981296300888062 -1.816088080406189 -0.4125290811061859 6.0 2 -0.020770035684108734
1.2804044485092163 -2.1175341606140137 0.2164948731660843 6.0 10 -0.020767733454704285
1.322239875793457 -2.1875832080841064 -0.40485242009162903 107.0 3 -0.020765429362654686
1.2831910848617554 -2.1238162517547607 0.30467337369918823 5.0 11 -0.020763125270605087
1.3228442668914795 -2.19031023979187 -0.3141791820526123 91.0 4 -0.02076082117855549
1.2812778949737549 -2.1223227977752686 0.3926505744457245 6.0 12 -0.02075851708650589
1.279776930809021 -2.1215105056762695 0.4816019535064697 5.0 13 -0.020753908902406693
1.2830023765563965 -2.1276967525482178 -0.13021187484264374 11.0 6 -0.020751604810357094
1.2820237874984741 -2.1260738372802734 0.573175311088562 6.0 14 -0.020749300718307495
1.2728402614593506 -2.111677646636963 -0.04303763434290886 8.0 7 -0.020746996626257896
1.2651925086975098 -2.099818229675293 0.6568827629089355 6.0 15 -0.020744692534208298
0.7221435904502869 -1.2023240327835083 -0.3758052587509155 8.0 0 -0.02072395570576191
1.2691527605056763 -2.113895893096924 0.04303763434290886 7.0 8 -0.02072165347635746
0.873439371585846 -1.4553728103637695 -0.3918647766113281 6.0 1 -0.02071934938430786
1.2795710563659668 -2.132091760635376 0.13031654059886932 6.0 9 -0.020717045292258263
1.0958237648010254 -1.8266441822052002 -0.4140555262565613 6.0 2 -0.020714741200208664
1.273659586906433 -2.1239213943481445 0.21666917204856873 6.0 10 -0.020712437108159065
1.3121817111968994 -2.189026117324829 -0.404226690530777 118.0 3 -0.020710133016109467
1.26927649974823 -2.118288278579712 0.30321094393730164 5.0 11 -0.020707828924059868
1.317231297492981 -2.198319911956787 -0.31466665863990784 91.0 4 -0.02070552483201027
1.274876594543457 -2.128476858139038 0.3929634094238281 6.0 12 -0.02070322073996067
1.2703473567962646 -2.12259578704834 0.48083871603012085 5.0 13 -0.020698612555861473
1.2724915742874146 -2.1270203590393066 -0.1298978626728058 11.0 6 -0.020696308463811874
1.2765955924987793 -2.133880615234375 0.5740751028060913 6.0 14 -0.020694004371762276
1.2654613256454468 -2.116107702255249 -0.04303763434290886 8.0 7 -0.020691700279712677
1.261819839477539 -2.1108546257019043 0.6589533090591431 6.0 15 -0.02068939618766308
0.7260661721229553 -1.2179871797561646 -0.37994638085365295 8.0 0 -0.02066866122186184
1.2621357440948486 -2.1180930137634277 0.04303763434290886 7.0 8 -0.02066635712981224
0.8646194934844971 -1.4515641927719116 -0.39006516337394714 6.0 1 -0.020664053037762642
1.2663614749908447 -2.126027822494507 0.12968851625919342 6.0 9 -0.020661748945713043
1.0877513885498047 -1.8268941640853882 -0.4132923185825348 6.0 2 -0.020659444853663445
1.2727233171463013 -2.138406276702881 0.2177150398492813 6.0 10 -0.020657140761613846
1.3079456090927124 -2.1984589099884033 -0.40516531467437744 111.0 3 -0.020654836669564247
1.2622448205947876 -2.122485876083374 0.30321094393730164 4.0 11 -0.02065253257751465
1.3018168210983276 -2.1890268325805664 -0.3127167820930481 91.0 4 -0.02065022848546505
1.2657926082611084 -2.1292970180511475 0.3923376798629761 6.0 12 -0.02064792439341545
1.2693172693252563 -2.1369242668151855 0.4831283986568451 4.0 13 -0.020643316209316254
1.260332703590393 -2.1226418018341064 -0.12937450408935547 11.0 6 -0.020641012117266655
1.2675225734710693 -2.134751081466675 0.573175311088562 6.0 14 -0.020638708025217056
1.256395936012268 -2.1168529987335205 -0.04296782612800598 8.0 7 -0.020636403933167458
1.25777006149292 -2.120012044906616 0.6605061888694763 7.0 15 -0.02063409984111786
0.720055878162384 -1.217063069343567 -0.3789111077785492 8.0 0 -0.02061336487531662
1.253069281578064 -2.118824005126953 0.04296782612800598 7.0 8 -0.02061106078326702
0.8498839735984802 -1.4376481771469116 -0.3855661451816559 6.0 1 -0.020608756691217422
1.256900429725647 -2.1269965171813965 0.12947916984558105 6.0 9 -0.020606452599167824
1.0796899795532227 -1.827111005783081 -0.4125290811061859 6.0 2 -0.020604148507118225
1.2615716457366943 -2.1357529163360596 0.2170177847146988 6.0 10 -0.020601844415068626
1.2966305017471313 -2.1959800720214844 -0.40391382575035095 104.0 3 -0.020599540323019028
1.2511636018753052 -2.119821548461914 0.30223599076271057 4.0 11 -0.02059723623096943
1.2931591272354126 -2.191847801208496 -0.31247302889823914 95.0 4 -0.02059493213891983
1.2533347606658936 -2.125194787979126 0.39077335596084595 6.0 12 -0.02059262804687023
1.2562419176101685 -2.130974292755127 0.48083871603012085 5.0 13 -0.020588019862771034
1.2482167482376099 -2.118206024169922 -0.12885113060474396 11.0 6 -0.020585715770721436
1.2561068534851074 -2.132446050643921 0.5713757276535034 6.0 14 -0.020583413541316986
1.2429113388061523 -2.110886812210083 -0.04275839403271675 8.0 7 -0.020581109449267387
1.2484022378921509 -2.1210594177246094 0.6594709753990173 7.0 15 -0.02057880535721779
0.7079800367355347 -1.2062404155731201 -0.37476998567581177 8.0 0 -0.0205580685287714
1.245665431022644 -2.123185396194458 0.04296782612800598 7.0 8 -0.020555764436721802
0.8547190427780151 -1.4574158191680908 -0.39006516337394714 6.0 1 -0.020553460344672203
1.2494680881500244 -2.131370782852173 0.12947916984558105 6.0 9 -0.020551156252622604
1.071319580078125 -1.8274810314178467 -0.41176581382751465 6.0 2 -0.020548852160573006
1.2440359592437744 -2.1229536533355713 0.21527467668056488 6.0 10 -0.020546548068523407
1.2889572381973267 -2.2004926204681396 -0.40391382575035095 111.0 3 -0.02054424397647381
1.249774694442749 -2.1344544887542725 0.30369842052459717 5.0 11 -0.02054193988442421
1.285500168800354 -2.1963484287261963 -0.31247302889823914 103.0 4 -0.02053963579237461
1.232940912246704 -2.107391834259033 0.38670605421066284 6.0 12 -0.020537331700325012
1.2487958669662476 -2.1353464126586914 0.48083871603012085 5.0 13 -0.020532725378870964
1.244847059249878 -2.1294472217559814 -0.1292698234319687 11.0 6 -0.020530421286821365
1.2447227239608765 -2.1300876140594482 0.5695760846138 6.0 14 -0.020528117194771767
1.2355353832244873 -2.1152126789093018 -0.04275839403271675 8.0 7 -0.020525813102722168
1.2361207008361816 -2.11706280708313 0.6568827629089355 7.0 15 -0.02052350901067257
0.7037652730941772 -1.2087042331695557 -0.37476998567581177 8.0 0 -0.02050277218222618
1.2322111129760742 -2.1171507835388184 0.04275839403271675 7.0 8 -0.020500468090176582
0.855506181716919 -1.4704970121383667 -0.3927645683288574 6.0 1 -0.020498163998126984
1.2440286874771118 -2.139172315597534 0.12968851625919342 6.0 9 -0.020495859906077385
1.0669080018997192 -1.8346041440963745 -0.4125290811061859 6.0 2 -0.020493555814027786
1.2386205196380615 -2.1307284832000732 0.21562331914901733 6.0 10 -0.020491251721978188
1.2733286619186401 -2.191314935684204 -0.40141090750694275 111.0 3 -0.020488949492573738
1.236333966255188 -2.128504514694214 0.30223599076271057 5.0 11 -0.02048664540052414
1.2778258323669434 -2.200822353363037 -0.31247302889823914 103.0 4 -0.02048434130847454
1.2315268516540527 -2.1219334602355957 0.3885832726955414 6.0 12 -0.020482037216424942
1.2295122146606445 -2.119314193725586 0.4762592613697052 5.0 13 -0.020477429032325745
1.2374062538146973 -2.133779525756836 -0.1292698234319687 11.0 6 -0.020475124940276146
1.2402117252349854 -2.139477491378784 0.5709258317947388 6.0 14 -0.020472820848226547
1.2261391878128052 -2.1160523891448975 -0.04268858581781387 8.0 7 -0.02047051675617695
1.2258182764053345 -2.116349697113037 0.6553298234939575 7.0 15 -0.02046821266412735
0.7012621164321899 -1.2146217823028564 -0.3758052587509155 8.0 0 -0.02044747583568096
1.2248133420944214 -2.121439218521118 0.04275839403271675 7.0 8 -0.020445171743631363
0.8386790156364441 -1.4532204866409302 -0.38736575841903687 6.0 1 -0.020442869514226913
1.232561707496643 -2.1365816593170166 0.1292698234319687 6.0 9 -0.020440565422177315
1.0621379613876343 -1.841903567314148 -0.4132923185825348 6.0 2 -0.020438261330127716
1.2347824573516846 -2.142158269882202 0.21632054448127747 6.0 10 -0.020435957238078117
1.2623298168182373 -2.1908323764801025 -0.4004722833633423 107.0 3 -0.02043365314602852
1.226914405822754 -2.1293673515319824 0.30174851417541504 5.0 11 -0.02043134905397892
1.2701356410980225 -2.2052693367004395 -0.31247302889823914 107.0 4 -0.02042904496192932
1.2300258874893188 -2.136491060256958 0.39046046137809753 6.0 12 -0.020426740869879723
1.2217360734939575 -2.1238064765930176 0.4762592613697052 5.0 13 -0.020422132685780525
1.2196214199066162 -2.120986223220825 -0.12822310626506805 11.0 6 -0.020419828593730927
1.232361912727356 -2.1440086364746094 0.5709258317947388 6.0 14 -0.020417524501681328
1.2207385301589966 -2.123786687850952 -0.04275839403271675 8.0 7 -0.02041522040963173
1.2136112451553345 -2.1122405529022217 0.6527416706085205 7.0 15 -0.02041291631758213
0.700858473777771 -1.2237677574157715 -0.37787580490112305 8.0 0 -0.02039218135178089
1.213055968284607 -2.1189723014831543 0.042618777602910995 8.0 8 -0.020389877259731293
0.8352829813957214 -1.4596672058105469 -0.38826555013656616 6.0 1 -0.020387573167681694
1.2207558155059814 -2.134150266647339 0.12885113060474396 6.0 9 -0.020385269075632095
1.0459541082382202 -1.8285584449768066 -0.4094761312007904 6.0 2 -0.020382964983582497
1.223341703414917 -2.1395370960235596 0.21562331914901733 6.0 10 -0.020380660891532898
1.256635069847107 -2.198655366897583 -0.40109801292419434 114.0 3 -0.0203783567994833
1.2112237215042114 -2.120060920715332 0.2997986078262329 5.0 11 -0.0203760527074337
1.2551532983779907 -2.197843074798584 -0.3107668459415436 106.0 4 -0.020373748615384102
1.2182698249816895 -2.134122848510742 0.38920900225639343 6.0 12 -0.020371444523334503
1.2123693227767944 -2.124647617340088 0.4754960536956787 5.0 13 -0.020366836339235306
1.2122102975845337 -2.125230550765991 -0.12822310626506805 11.0 6 -0.020364532247185707
1.2190790176391602 -2.1381397247314453 0.5682263970375061 7.0 14 -0.02036222815513611
1.21393620967865 -2.1299843788146973 -0.04279330000281334 9.0 7 -0.02035992406308651
1.2096867561340332 -2.1233887672424316 0.654812216758728 7.0 15 -0.02035761997103691
0.694674015045166 -1.2228472232818604 -0.3768405616283417 8.0 0 -0.020336885005235672
1.209601640701294 -2.1301493644714355 0.04275839403271675 7.0 8 -0.020334580913186073
0.828258752822876 -1.4591846466064453 -0.38736575841903687 6.0 1 -0.020332276821136475
1.2132987976074219 -2.1383986473083496 0.12885113060474396 6.0 9 -0.020329972729086876
1.0415024757385254 -1.8356133699417114 -0.4102393686771393 6.0 2 -0.020327668637037277
1.2158660888671875 -2.143794298171997 0.21562331914901733 6.0 10 -0.02032536454498768
1.2499271631240845 -2.204746961593628 -0.40141090750694275 104.0 3 -0.02032306045293808
1.2116457223892212 -2.138092517852783 0.30174851417541504 5.0 11 -0.02032075636088848
1.2445385456085205 -2.1970295906066895 -0.3100356459617615 103.0 4 -0.020318452268838882
1.2030261754989624 -2.1246109008789062 0.38670605421066284 6.0 12 -0.020316148176789284
1.2068796157836914 -2.132283926010132 0.4762592613697052 6.0 13 -0.020311539992690086
1.2067514657974243 -2.1329259872436523 -0.12843245267868042 12.0 6 -0.020309235900640488
1.207770824432373 -2.1355972290039062 0.5664268136024475 6.0 14 -0.02030693180859089
1.2005892992019653 -2.1237635612487793 -0.04258387163281441 9.0 7 -0.02030462771654129
1.2013168334960938 -2.1259167194366455 0.6542945504188538 7.0 15 -0.02030232548713684
0.6904011964797974 -1.2252646684646606 -0.3768405616283417 8.0 0 -0.020281588658690453
1.204121470451355 -2.137843608856201 0.042828209698200226 7.0 8 -0.020279284566640854
0.8269843459129333 -1.468859314918518 -0.38916537165641785 7.0 1 -0.020276980474591255
1.200321912765503 -2.131967782974243 0.12822310626506805 6.0 9 -0.020274676382541656
1.0312373638153076 -1.832394003868103 -0.40871289372444153 6.0 2 -0.020272372290492058
1.203490972518921 -2.139343023300171 0.21475175023078918 6.0 10 -0.02027006819844246
1.2431915998458862 -2.210818290710449 -0.4017237424850464 118.0 3 -0.02026776410639286
1.2061201333999634 -2.1457695960998535 0.30223599076271057 5.0 11 -0.02026546001434326
1.2372459173202515 -2.2011444568634033 -0.3100356459617615 103.0 4 -0.020263155922293663
1.195974349975586 -2.1285884380340576 0.38670605421066284 6.0 12 -0.020260851830244064
1.1975069046020508 -2.1330597400665283 0.4754960536956787 5.0 13 -0.020256245508790016
1.200276255607605 -2.138866662979126 -0.128537118434906 12.0 6 -0.020253941416740417
1.196867823600769 -2.1327929496765137 0.5646272301673889 6.0 14 -0.02025163732469082
1.189626932144165 -2.1207573413848877 -0.04244425520300865 9.0 7 -0.02024933323264122
1.1885913610458374 -2.1197783946990967 0.6511887311935425 7.0 15 -0.02024702914059162
0.6844488382339478 -1.224174976348877 -0.3758052587509155 8.0 0 -0.020226292312145233
1.1872694492340088 -2.124368667602539 0.04247915744781494 7.0 8 -0.020223988220095634
0.820207953453064 -1.468191146850586 -0.38826555013656616 6.0 1 -0.020221684128046036
1.1971416473388672 -2.142911195755005 0.12864179909229279 6.0 9 -0.020219380035996437
1.0251551866531372 -1.835803747177124 -0.40871289372444153 6.0 2 -0.02021707594394684
1.1876500844955444 -2.127664804458618 0.2131829410791397 6.0 10 -0.02021477185189724
1.2300784587860107 -2.2045786380767822 -0.39984655380249023 114.0 3 -0.02021246775984764
1.195130467414856 -2.142822742462158 0.3012610375881195 5.0 11 -0.02021016553044319
1.2280062437057495 -2.201767683029175 -0.30954816937446594 103.0 4 -0.020207861438393593
1.1850614547729492 -2.125641345977783 0.38545459508895874 6.0 12 -0.020205557346343994
1.1904269456863403 -2.137019157409668 0.4754960536956787 5.0 13 -0.020200949162244797
1.1922051906585693 -2.1410906314849854 -0.12843245267868042 12.0 6 -0.020198645070195198
1.2002166509628296 -2.1554784774780273 0.5695760846138 6.0 14 -0.0201963409781456
1.1806427240371704 -2.1211960315704346 -0.042374443262815475 9.0 7 -0.020194036886096
1.1777983903884888 -2.116955518722534 0.649118185043335 7.0 15 -0.020191732794046402
0.6785111427307129 -1.2230592966079712 -0.37476998567581177 8.0 0 -0.020170995965600014
1.1782790422439575 -2.1247966289520264 0.042409345507621765 7.0 8 -0.020168691873550415
0.8125004172325134 -1.4657896757125854 -0.38691583275794983 7.0 1 -0.020166387781500816
1.1877185106277466 -2.143582582473755 0.12843245267868042 6.0 9 -0.020164083689451218
1.0209649801254272 -1.8426276445388794 -0.4094761312007904 6.0 2 -0.020161781460046768
1.1844491958618164 -2.1385631561279297 0.21388019621372223 6.0 10 -0.02015947736799717
1.2179769277572632 -2.2000045776367188 -0.39828217029571533 111.0 3 -0.02015717327594757
1.1860955953598022 -2.1433005332946777 0.300773561000824 5.0 11 -0.020154869183897972
1.2241564989089966 -2.212989091873169 -0.310523122549057 107.0 4 -0.020152565091848373
1.1776342391967773 -2.129765033721924 0.38545459508895874 6.0 12 -0.020150260999798775
1.1738368272781372 -2.123772621154785 0.4716798663139343 5.0 13 -0.020145652815699577
1.1822010278701782 -2.139787435531616 -0.12811844050884247 11.0 6 -0.02014334872364998
1.1860909461975098 -2.1477136611938477 0.5664268136024475 6.0 14 -0.02014104463160038
1.1761302947998047 -2.130556106567383 -0.04247915744781494 8.0 7 -0.02013874053955078
1.1704018115997314 -2.12105393409729 0.649118185043335 7.0 15 -0.020136436447501183
0.6779627799987793 -1.2321906089782715 -0.3768405616283417 8.0 0 -0.020115701481699944
1.1689274311065674 -2.125392198562622 0.04233953729271889 7.0 8 -0.020113397389650345
0.8026849627494812 -1.4600783586502075 -0.3846663236618042 6.0 1 -0.020111093297600746
1.1802287101745605 -2.1477155685424805 0.12843245267868042 6.0 9 -0.020108789205551147
1.0164176225662231 -1.8496211767196655 -0.4102393686771393 6.0 2 -0.02010648511350155
1.1788955926895142 -2.146177053451538 0.2142288237810135 6.0 10 -0.02010418102145195
1.2093392610549927 -2.2025113105773926 -0.3979693353176117 107.0 3 -0.02010187692940235
1.1690559387207031 -2.1300253868103027 0.2983361780643463 6.0 11 -0.020099572837352753
1.2068761587142944 -2.1998448371887207 -0.30808573961257935 103.0 4 -0.020097268745303154
1.1720924377441406 -2.137326955795288 0.3860803246498108 6.0 12 -0.020094964653253555
1.1701909303665161 -2.1347432136535645 0.4732063114643097 5.0 13 -0.020090356469154358
1.1747245788574219 -2.1439011096954346 -0.12811844050884247 11.0 6 -0.02008805237710476
1.1673531532287598 -2.131330966949463 0.561028003692627 6.0 14 -0.02008574828505516
1.1715668439865112 -2.1399104595184326 -0.04258387163281441 9.0 7 -0.020083444193005562
1.1620633602142334 -2.12343168258667 0.6486005187034607 7.0 15 -0.020081140100955963
0.6755082011222839 -1.2379412651062012 -0.37787580490112305 8.0 0 -0.020060405135154724
1.167246699333191 -2.1399929523468018 0.04254896938800812 7.0 8 -0.020058101043105125
0.8003819584846497 -1.4680043458938599 -0.38601604104042053 7.0 1 -0.020055796951055527
1.1669899225234985 -2.1412999629974365 0.12780441343784332 6.0 9 -0.020053492859005928
1.002439022064209 -1.8393669128417969 -0.4071864187717438 6.0 2 -0.02005118876695633
1.1713968515396118 -2.1502790451049805 0.2142288237810135 6.0 10 -0.02004888467490673
1.201643943786621 -2.206719160079956 -0.3979693353176117 107.0 3 -0.020046580582857132
1.1616135835647583 -2.1340932846069336 0.2983361780643463 5.0 11 -0.020044276490807533
1.1991900205612183 -2.2040441036224365 -0.30808573961257935 103.0 4 -0.020041972398757935
1.1551867723464966 -2.124051809310913 0.38295161724090576 6.0 12 -0.020039668306708336
1.160857081413269 -2.1353650093078613 0.4724431037902832 5.0 13 -0.02003506012260914
1.1605583429336548 -2.135704278945923 -0.1273857206106186 12.0 6 -0.02003275603055954
1.161766529083252 -2.138817548751831 0.5619277954101562 6.0 14 -0.02003045193850994
1.1516858339309692 -2.1211414337158203 -0.042130108922719955 9.0 7 -0.020028147846460342
1.1601731777191162 -2.137662649154663 0.6517063975334167 7.0 15 -0.020025843754410744
0.6617750525474548 -1.2234169244766235 -0.37269943952560425 8.0 0 -0.020005108788609505
1.1559637784957886 -2.137018918991089 0.042409345507621765 7.0 8 -0.020002804696559906
0.7961795926094055 -1.472503423690796 -0.3864659368991852 7.0 1 -0.020000500604510307
1.159508228302002 -2.1453604698181152 0.12780441343784332 6.0 9 -0.01999819651246071
0.9900917410850525 -1.832665205001831 -0.40489673614501953 6.0 2 -0.01999589242041111
1.1578274965286255 -2.1440396308898926 0.2131829410791397 6.0 10 -0.01999358832836151
1.192609429359436 -2.2093701362609863 -0.3976564407348633 111.0 3 -0.019991284236311913
1.1560429334640503 -2.1416287422180176 0.29882365465164185 5.0 11 -0.019988980144262314
1.186776041984558 -2.199481725692749 -0.3068670332431793 106.0 4 -0.019986676052212715
1.144014596939087 -2.1211166381835938 0.3817001283168793 6.0 12 -0.019984371960163116
1.1530224084854126 -2.139605760574341 0.4724431037902832 5.0 13 -0.01997976377606392
1.1565117835998535 -2.146977186203003 -0.12780441343784332 13.0 6 -0.01997746154665947
1.14837646484375 -2.1327662467956543 0.5592283606529236 6.0 14 -0.01997515745460987
1.1433268785476685 -2.1233880519866943 -0.042095206677913666 9.0 7 -0.019972853362560272
1.147210717201233 -2.131492853164673 0.6486005187034607 7.0 15 -0.019970549270510674
0.6538477540016174 -1.2189098596572876 -0.37062889337539673 8.0 0 -0.019949812442064285
1.140563726425171 -2.1271426677703857 0.042130108922719955 7.0 8 -0.019947508350014687
0.7953803539276123 -1.483999490737915 -0.3887154459953308 7.0 1 -0.019945204257965088
1.149750828742981 -2.1460747718811035 0.12759508192539215 6.0 9 -0.01994290016591549
0.983688473701477 -1.8361101150512695 -0.40489673614501953 7.0 2 -0.01994059607386589
1.1531580686569214 -2.153337240219116 0.2137058824300766 6.0 10 -0.019938291981816292
1.18022882938385 -2.2048120498657227 -0.39609211683273315 107.0 3 -0.019935987889766693
1.150058627128601 -2.1493520736694336 0.2993111312389374 5.0 11 -0.019933683797717094
1.1833876371383667 -2.212568759918213 -0.30808573961257935 103.0 4 -0.019931379705667496
1.1380953788757324 -2.128779649734497 0.3823258578777313 6.0 12 -0.019929077476263046
1.1436964273452759 -2.1401546001434326 0.4716798663139343 5.0 13 -0.01992446929216385
1.1499512195587158 -2.1527626514434814 -0.1279090791940689 12.0 6 -0.01992216520011425
1.1482677459716797 -2.1505141258239746 0.5628275871276855 6.0 14 -0.01991986110806465
1.1327115297317505 -2.122271776199341 -0.0419904924929142 9.0 7 -0.019917557016015053
1.1339350938796997 -2.1254565715789795 0.6454947590827942 7.0 15 -0.019915252923965454
0.6530036926269531 -1.2281211614608765 -0.37269943952560425 8.0 0 -0.019894516095519066
1.1331318616867065 -2.131110906600952 0.042130108922719955 8.0 8 -0.019892212003469467
0.7847078442573547 -1.4764420986175537 -0.38601604104042053 7.0 1 -0.01988990791141987
1.1422525644302368 -2.1500751972198486 0.12759508192539215 6.0 9 -0.01988760381937027
0.9787937998771667 -1.8431711196899414 -0.405659943819046 6.0 2 -0.01988530158996582
1.1415215730667114 -2.150509834289551 0.21300862729549408 6.0 10 -0.019882995635271072
1.1675103902816772 -2.2003979682922363 -0.39452776312828064 111.0 3 -0.019880693405866623
1.1388273239135742 -2.146339178085327 0.2983361780643463 6.0 11 -0.019878389313817024
1.175657033920288 -2.216686248779297 -0.30808573961257935 103.0 4 -0.019876085221767426
1.134358525276184 -2.1397206783294678 0.3835773468017578 6.0 12 -0.019873781129717827
1.1303306818008423 -2.1339223384857178 0.4693901240825653 5.0 13 -0.01986917294561863
1.1308382749557495 -2.135781764984131 -0.1266530305147171 11.0 6 -0.01986686885356903
1.1349085569381714 -2.144373893737793 0.5601281523704529 6.0 14 -0.019864564761519432
1.1299738883972168 -2.135049819946289 -0.042165014892816544 9.0 7 -0.019862260669469833
1.1265088319778442 -2.129401683807373 0.6454947590827942 7.0 15 -0.019859956577420235
0.6527484655380249 -1.237000823020935 -0.37476998567581177 8.0 0 -0.019840240478515625
1.126058578491211 -2.134856700897217 0.042130108922719955 8.0 8 -0.019837936386466026
0.7761719226837158 -1.4721410274505615 -0.38421642780303955 7.0 1 -0.019835632294416428
1.136047601699829 -2.1556177139282227 0.12769974768161774 7.0 9 -0.01983332820236683
0.9839824438095093 -1.867078423500061 -0.4102393686771393 6.0 2 -0.01983102411031723
1.1301167011260986 -2.1452715396881104 0.21213705837726593 6.0 10 -0.01982872001826763
1.1596717834472656 -2.2023072242736816 -0.394214928150177 107.0 3 -0.019826415926218033
1.126156210899353 -2.139564275741577 0.2968737483024597 6.0 11 -0.019824111834168434
1.1636782884597778 -2.2117888927459717 -0.3068670332431793 106.0 4 -0.019821807742118835
1.127256989479065 -2.143470287322998 0.3835773468017578 7.0 12 -0.019819503650069237
1.1217942237854004 -2.1339876651763916 0.4686269164085388 5.0 13 -0.01981489732861519
1.1250519752502441 -2.14109206199646 -0.1267576962709427 13.0 6 -0.01981259323656559
1.1263538599014282 -2.1444783210754395 0.5592283606529236 6.0 14 -0.01981028914451599
1.1210283041000366 -2.135244369506836 -0.042095206677913666 9.0 7 -0.019807985052466393
1.1194411516189575 -2.1331257820129395 0.6454947590827942 7.0 15 -0.019805680960416794
0.6430529952049255 -1.229001522064209 -0.3716641664505005 8.0 0 -0.019784944131970406
1.1223067045211792 -2.145862579345703 0.04226972907781601 8.0 8 -0.019782640039920807
0.7692227959632874 -1.471387505531311 -0.38331663608551025 7.0 1 -0.019780335947871208
1.1229661703109741 -2.14894962310791 0.12707172334194183 7.0 9 -0.01977803185582161
0.9683665633201599 -1.8531019687652588 -0.4064231812953949 6.0 2 -0.01977572776377201
1.1235438585281372 -2.1509695053100586 0.21231138706207275 6.0 10 -0.019773423671722412
1.1510628461837769 -2.2045907974243164 -0.3939020335674286 104.0 3 -0.019771119579672813
1.1186808347702026 -2.143482208251953 0.2968737483024597 6.0 11 -0.019768817350268364
1.1531963348388672 -2.210557222366333 -0.30613580346107483 103.0 4 -0.019766513258218765
1.110634446144104 -2.1298768520355225 0.38044866919517517 6.0 12 -0.019764209166169167
1.1134312152862549 -2.1361496448516846 0.46824532747268677 6.0 13 -0.01975960098206997
1.1184940338134766 -2.146777391433716 -0.12686236202716827 13.0 6 -0.01975729689002037
1.1170612573623657 -2.144940137863159 0.5583285689353943 7.0 14 -0.019754992797970772
1.1089513301849365 -2.1302757263183594 -0.041920680552721024 9.0 7 -0.019752688705921173
1.1119883060455322 -2.1370203495025635 0.6454947590827942 7.0 15 -0.019750384613871574
0.642317533493042 -1.2380980253219604 -0.3737347424030304 8.0 0 -0.019729647785425186
1.1129683256149292 -2.146216869354248 0.04219992086291313 8.0 8 -0.019727343693375587
0.7667725086212158 -1.479253888130188 -0.3846663236618042 7.0 1 -0.01972503960132599
1.1145395040512085 -2.151082992553711 0.12696704268455505 7.0 9 -0.01972273737192154
0.9510540962219238 -1.8355529308319092 -0.401843786239624 6.0 2 -0.01972043327987194
1.1196937561035156 -2.1619551181793213 0.21300862729549408 6.0 10 -0.019718129187822342
1.1469929218292236 -2.2156124114990234 -0.3951534926891327 111.0 3 -0.019715825095772743
1.1093671321868896 -2.143848180770874 0.2963862717151642 6.0 11 -0.019713521003723145
1.1454728841781616 -2.214569091796875 -0.30613580346107483 99.0 4 -0.019711216911673546
1.1013784408569336 -2.1302311420440674 0.3798229396343231 6.0 12 -0.019708912819623947
1.1131784915924072 -2.15397572517395 0.4712982177734375 6.0 13 -0.01970430463552475
1.113743782043457 -2.155992031097412 -0.12717638909816742 13.0 6 -0.01970200054347515
1.1077790260314941 -2.1453635692596436 0.557428777217865 7.0 14 -0.019699696451425552
1.1024256944656372 -2.1359105110168457 -0.04195558279752731 9.0 7 -0.019697392359375954
1.1027501821517944 -2.1374547481536865 0.6444594264030457 7.0 15 -0.019695088267326355
0.630708634853363 -1.2266994714736938 -0.36959362030029297 8.0 0 -0.019674353301525116
1.0963261127471924 -2.1323041915893555 0.04185086861252785 8.0 8 -0.019672049209475517
0.7642765641212463 -1.4871211051940918 -0.38601604104042053 7.0 1 -0.01966974511742592
1.1115870475769043 -2.1638429164886475 0.12749040126800537 7.0 9 -0.01966744102537632
0.9532877206802368 -1.8564910888671875 -0.405659943819046 6.0 2 -0.01966513693332672
1.1044843196868896 -2.1518640518188477 0.21161414682865143 6.0 10 -0.019662832841277122
1.134355902671814 -2.2110135555267334 -0.3935891389846802 107.0 3 -0.019660528749227524
1.109126091003418 -2.161837100982666 0.2983361780643463 6.0 11 -0.019658224657177925
1.1395472288131714 -2.2220866680145264 -0.30662328004837036 103.0 4 -0.019655920565128326
1.0975401401519775 -2.141094207763672 0.3810743987560272 6.0 12 -0.019653616473078728
1.0972217321395874 -2.142314910888672 0.46786367893218994 5.0 13 -0.01964900828897953
1.1058342456817627 -2.1600594520568848 -0.12717638909816742 13.0 6 -0.01964670419692993
1.0990206003189087 -2.147674322128296 0.5569788217544556 6.0 14 -0.019644400104880333
1.0931414365768433 -2.13618540763855 -0.041885774582624435 9.0 7 -0.019642096012830734
1.0917637348175049 -2.134411573410034 0.6423888802528381 7.0 15 -0.019639791920781136
0.631686806678772 -1.239220380783081 -0.37269943952560425 8.0 0 -0.019619056954979897
1.0885034799575806 -2.136308193206787 0.04185086861252785 8.0 8 -0.019616752862930298
0.754398763179779 -1.4812299013137817 -0.3837665319442749 7.0 1 -0.0196144487708807
1.1040269136428833 -2.167710065841675 0.12749040126800537 7.0 9 -0.0196121446788311
0.9468017220497131 -1.8598072528839111 -0.405659943819046 6.0 2 -0.019609840586781502
1.096062421798706 -2.1539306640625 0.2114398330450058 7.0 10 -0.019607536494731903
1.1221535205841064 -2.206156015396118 -0.39202481508255005 111.0 3 -0.019605232402682304
1.088599681854248 -2.1411144733428955 0.2949238419532776 6.0 11 -0.019602928310632706
1.1286975145339966 -2.2209396362304688 -0.30589208006858826 106.0 4 -0.019600624218583107
1.091849684715271 -2.1484341621398926 0.3817001283168793 7.0 12 -0.01959832012653351
1.087070345878601 -2.1408801078796387 0.4667188227176666 6.0 13 -0.01959371194243431
1.0910557508468628 -2.149658679962158 -0.12633900344371796 13.0 6 -0.019591407850384712
1.098570466041565 -2.165400743484497 0.5605780482292175 7.0 14 -0.019589103758335114
1.0883922576904297 -2.145338296890259 -0.0419904924929142 9.0 7 -0.019586799666285515
1.0860539674758911 -2.141655445098877 0.6434241533279419 7.0 15 -0.019584495574235916
0.6308425664901733 -1.248314619064331 -0.37476998567581177 8.0 0 -0.019563760608434677
1.077805519104004 -2.1327672004699707 0.04171125218272209 8.0 8 -0.01956145651638508
0.7468467354774475 -1.4785051345825195 -0.38241681456565857 7.0 1 -0.01955915242433548
1.0892518758773804 -2.15728759765625 0.1266530305147171 7.0 9 -0.01955684833228588
0.9438421130180359 -1.8701114654541016 -0.4071864187717438 6.0 2 -0.019554544240236282
1.0912293195724487 -2.1630802154541016 0.2119627594947815 6.0 10 -0.019552240148186684
1.1166110038757324 -2.213392734527588 -0.3926505744457245 111.0 3 -0.019549936056137085
1.085068941116333 -2.1518025398254395 0.29589879512786865 6.0 11 -0.019547631964087486
1.1150718927383423 -2.21226167678833 -0.3041858971118927 100.0 4 -0.019545327872037888
1.0861212015151978 -2.1557607650756836 0.3823258578777313 6.0 12 -0.01954302377998829
1.079081654548645 -2.1427197456359863 0.4663371741771698 5.0 13 -0.01953841559588909
1.080329179763794 -2.1461291313171387 -0.12592032551765442 13.0 6 -0.019536113366484642
1.076493501663208 -2.1394381523132324 0.5529297590255737 6.0 14 -0.019533809274435043
1.0826939344406128 -2.1526973247528076 -0.04206030070781708 9.0 7 -0.019531505182385445
1.076836109161377 -2.141981601715088 0.6423888802528381 7.0 15 -0.019529201090335846
0.6232371926307678 -1.2434914112091064 -0.37269943952560425 9.0 0 -0.019508464261889458
1.0775196552276611 -2.1508195400238037 0.0419904924929142 8.0 8 -0.01950616016983986
0.7381910681724548 -1.4741331338882446 -0.3806172013282776 7.0 1 -0.01950385607779026
1.0817147493362427 -2.161076545715332 0.1266530305147171 7.0 9 -0.01950155198574066
0.9323629140853882 -1.862697720527649 -0.40489673614501953 6.0 2 -0.019499247893691063
1.0787012577056885 -2.155996084213257 0.2109168916940689 7.0 10 -0.019496943801641464
1.1088778972625732 -2.2172770500183105 -0.3926505744457245 111.0 3 -0.019494639709591866
1.0793262720108032 -2.159128189086914 0.2963862717151642 6.0 11 -0.019492335617542267
1.1055681705474854 -2.2125890254974365 -0.30369842052459717 100.0 4 -0.019490033388137817
1.06976318359375 -2.141866683959961 0.3791971802711487 6.0 12 -0.01948772929608822
1.0733498334884644 -2.149986505508423 0.46710047125816345 6.0 13 -0.01948312111198902
1.0755066871643066 -2.1552481651306152 -0.12623433768749237 12.0 6 -0.019480817019939423
1.0707584619522095 -2.1466705799102783 0.553829550743103 6.0 14 -0.019478512927889824
1.0680348873138428 -2.142146587371826 -0.04178106039762497 9.0 7 -0.019476208835840225
1.0710759162902832 -2.1491854190826416 0.6434241533279419 7.0 15 -0.019473904743790627
0.6154544353485107 -1.2387388944625854 -0.37062889337539673 9.0 0 -0.01945316791534424
1.06822669506073 -2.1509857177734375 0.041920680552721024 8.0 8 -0.01945086382329464
0.7365067601203918 -1.4836829900741577 -0.38241681456565857 7.0 1 -0.01944855973124504
1.0706138610839844 -2.1576828956604004 0.12623433768749237 7.0 9 -0.019446255639195442
0.9136385917663574 -1.8413195610046387 -0.399554044008255 6.0 2 -0.019443951547145844
1.0755950212478638 -2.168672800064087 0.21178844571113586 7.0 10 -0.019441649317741394
1.1020088195800781 -2.2229037284851074 -0.3929634094238281 107.0 3 -0.019439345225691795
1.0717828273773193 -2.1628828048706055 0.2963862717151642 6.0 11 -0.019437041133642197
1.097838044166565 -2.216434955596924 -0.30369842052459717 100.0 4 -0.019434737041592598
1.0622800588607788 -2.145587921142578 0.3791971802711487 7.0 12 -0.019432432949543
1.066709041595459 -2.155479669570923 0.4674820601940155 6.0 13 -0.019427824765443802
1.0697479248046875 -2.162569761276245 -0.12644368410110474 13.0 6 -0.019425520673394203
1.064985990524292 -2.1538889408111572 0.5547293424606323 7.0 14 -0.019423216581344604
1.057007074356079 -2.138690948486328 -0.041641443967819214 9.0 7 -0.019420912489295006
1.0635675191879272 -2.1529109477996826 0.6434241533279419 7.0 15 -0.019418608397245407
0.6094196438789368 -1.2374136447906494 -0.36959362030029297 8.0 0 -0.01939787156879902
1.053646206855774 -2.1403486728668213 0.041641443967819214 8.0 8 -0.01939556933939457
0.7261609435081482 -1.4757537841796875 -0.3797174096107483 7.0 1 -0.01939326524734497
1.0648385286331177 -2.1649911403656006 0.12644368410110474 7.0 9 -0.019390961155295372
0.912404477596283 -1.8550677299499512 -0.401843786239624 6.0 2 -0.019388657063245773
1.0601073503494263 -2.1563220024108887 0.21021965146064758 6.0 10 -0.019386352971196175
1.0890153646469116 -2.216099500656128 -0.3910861909389496 100.0 3 -0.019384048879146576
1.0572248697280884 -2.1523566246032715 0.29443636536598206 7.0 11 -0.019381744787096977
1.0918442010879517 -2.2238173484802246 -0.3041858971118927 100.0 4 -0.01937944069504738
1.0547842979431152 -2.149282693862915 0.3791971802711487 6.0 12 -0.01937713660299778
1.0565844774246216 -2.153902053833008 0.4663371741771698 5.0 13 -0.019372528418898582
1.0621925592422485 -2.166290521621704 -0.12644368410110474 12.0 6 -0.019370224326848984
1.0557457208633423 -2.1540935039520264 0.553829550743103 6.0 14 -0.019367920234799385
1.0512945652008057 -2.14595890045166 -0.04171125218272209 9.0 7 -0.019365616142749786
1.0458508729934692 -2.1357903480529785 0.6372125148773193 7.0 15 -0.019363312050700188
0.6050965189933777 -1.2395334243774414 -0.36959362030029297 8.0 0 -0.01934257708489895
1.0435377359390259 -2.1386220455169678 0.04153672605752945 9.0 8 -0.01934027299284935
0.7244222164154053 -1.485285758972168 -0.3815170228481293 7.0 1 -0.01933796890079975
1.0572748184204102 -2.1686949729919434 0.12644368410110474 7.0 9 -0.019335664808750153
0.9042027592658997 -1.854711651802063 -0.40108051896095276 6.0 2 -0.019333360716700554
1.053446650505066 -2.1618003845214844 0.21039395034313202 7.0 10 -0.019331056624650955
1.0786781311035156 -2.21455979347229 -0.3901476263999939 100.0 3 -0.019328752532601357
1.0505743026733398 -2.1578187942504883 0.294680118560791 7.0 11 -0.019326448440551758
1.0858124494552612 -2.231184959411621 -0.30467337369918823 100.0 4 -0.01932414434850216
1.047275424003601 -2.152951717376709 0.3791971802711487 7.0 12 -0.01932184025645256
1.0249197483062744 -2.1069936752319336 -0.20499029755592346 1.0 5 -0.01931953616440296
1.0456256866455078 -2.150514841079712 0.46481072902679443 5.0 13 -0.019317232072353363
1.046766996383667 -2.153817892074585 -0.1255016326904297 12.0 6 -0.019314927980303764
1.0482203960418701 -2.1577653884887695 0.553829550743103 6.0 14 -0.019312623888254166
1.0420504808425903 -2.1460180282592773 -0.041641443967819214 10.0 7 -0.019310319796204567
1.0451374053955078 -2.153331756591797 0.6413536071777344 7.0 15 -0.019308015704154968
0.6024487614631653 -1.245115876197815 -0.37062889337539673 8.0 0 -0.01928728073835373
1.0360664129257202 -2.142251491546631 0.04153672605752945 9.0 8 -0.01928497664630413
0.717536985874176 -1.4842963218688965 -0.3806172013282776 7.0 1 -0.019282672554254532
1.0483388900756836 -2.168592691421509 0.12623433768749237 7.0 9 -0.019280368462204933
0.8994314074516296 -1.8613923788070679 -0.401843786239624 6.0 2 -0.019278064370155334
1.0441609621047974 -2.1618762016296387 0.21004533767700195 7.0 10 -0.019275760278105736
1.0709415674209595 -2.2183115482330322 -0.3901476263999939 100.0 3 -0.019273456186056137
1.0361340045928955 -2.147170066833496 0.2927301824092865 7.0 11 -0.01927115209400654
1.0711182355880737 -2.2206578254699707 -0.3027234971523285 100.0 4 -0.01926884800195694
1.041846513748169 -2.159971237182617 0.3798229396343231 6.0 12 -0.01926654390990734
1.0192891359329224 -2.1141481399536133 -0.20533892512321472 1.0 5 -0.019264239817857742
1.0389652252197266 -2.1559202671051025 0.46519237756729126 6.0 13 -0.019261935725808144
1.040109395980835 -2.1592581272125244 -0.12560631334781647 12.0 6 -0.019259631633758545
1.03899085521698 -2.157899856567383 0.5529297590255737 6.0 14 -0.019257329404354095
1.0375306606292725 -2.154867172241211 -0.04174615815281868 10.0 7 -0.019255025312304497
1.0329644680023193 -2.14634108543396 0.6382477879524231 7.0 15 -0.019252721220254898
0.6014403104782104 -1.2541790008544922 -0.37269943952560425 9.0 0 -0.01923198439180851
1.0280919075012207 -2.1438722610473633 0.04150182008743286 8.0 8 -0.01922968029975891
0.711768627166748 -1.484910249710083 -0.38016730546951294 7.0 1 -0.019227376207709312
1.0355844497680664 -2.1614317893981934 0.12560631334781647 7.0 9 -0.019225072115659714
0.8869926929473877 -1.8521255254745483 -0.39917242527008057 7.0 2 -0.019222768023610115
1.0400493144989014 -2.172696590423584 0.21074259281158447 7.0 10 -0.019220463931560516
1.066137671470642 -2.227195978164673 -0.3910861909389496 100.0 3 -0.019218159839510918
1.0332919359207153 -2.159547805786133 0.2939488887786865 6.0 11 -0.01921585574746132
1.0620355606079102 -2.2206156253814697 -0.30223599076271057 99.0 4 -0.01921355165541172
1.0300405025482178 -2.1546835899353027 0.3782585859298706 7.0 12 -0.01921124756336212
1.0144803524017334 -2.123086452484131 -0.2058618664741516 3.0 5 -0.019208945333957672
1.0284242630004883 -2.1522679328918457 0.4636658728122711 6.0 13 -0.019206641241908073
1.032082438468933 -2.160893201828003 -0.1255016326904297 13.0 6 -0.019204337149858475
1.0251128673553467 -2.1472644805908203 0.5493305325508118 6.0 14 -0.019202033057808876
1.0248353481292725 -2.1476471424102783 -0.04153672605752945 10.0 7 -0.019199728965759277
1.0287927389144897 -2.1569085121154785 0.6403183937072754 7.0 15 -0.01919742487370968
0.5906414985656738 -1.2422090768814087 -0.3685583174228668 8.0 0 -0.01917668804526329
1.0240356922149658 -2.154672622680664 0.041641443967819214 8.0 8 -0.01917438395321369
0.705744743347168 -1.4856256246566772 -0.3797174096107483 7.0 1 -0.019172079861164093
1.0280336141586304 -2.1650335788726807 0.12560631334781647 8.0 9 -0.019169775769114494
0.8850563764572144 -1.8639241456985474 -0.40108051896095276 6.0 2 -0.019167471677064896
1.0260041952133179 -2.161734104156494 0.20934809744358063 7.0 10 -0.019165167585015297
1.0566637516021729 -2.227334499359131 -0.39046046137809753 100.0 3 -0.019162865355610847
1.024046540260315 -2.1595542430877686 0.293461412191391 6.0 11 -0.01916056126356125
1.0525768995285034 -2.220721960067749 -0.30174851417541504 100.0 4 -0.01915825717151165
1.0199756622314453 -2.1529107093811035 0.37731999158859253 7.0 12 -0.01915595307946205
0.9989038109779358 -2.108433485031128 -0.2041187435388565 5.0 5 -0.019153648987412453
1.0225858688354492 -2.159393310546875 0.46442911028862 6.0 13 -0.019151344895362854
1.0262422561645508 -2.168093204498291 -0.12571097910404205 13.0 6 -0.019149040803313255
1.012610673904419 -2.1402604579925537 0.5466310977935791 7.0 14 -0.019146736711263657
1.013058066368103 -2.1421725749969482 -0.041362203657627106 9.0 7 -0.019144432619214058
1.01795494556427 -2.1535003185272217 0.6382477879524231 7.0 15 -0.01914212852716446
0.5863019227981567 -1.2442631721496582 -0.3685583174228668 8.0 0 -0.01912139169871807
1.00798761844635 -2.1401431560516357 0.04129239544272423 9.0 8 -0.019119087606668472
0.7088549733161926 -1.505711317062378 -0.38421642780303955 7.0 1 -0.019116785377264023
1.022170901298523 -2.1722230911254883 0.12581564486026764 8.0 9 -0.019114481285214424
0.8735294342041016 -1.8563438653945923 -0.3987908363342285 7.0 2 -0.019112177193164825
1.016756296157837 -2.161696195602417 0.20899945497512817 7.0 10 -0.019109873101115227
1.0472015142440796 -2.227433919906616 -0.3898347318172455 100.0 3 -0.019107569009065628
1.0122803449630737 -2.154132604598999 0.29224270582199097 7.0 11 -0.01910526491701603
1.0473508834838867 -2.2297728061676025 -0.30247974395751953 100.0 4 -0.01910296082496643
1.0124545097351074 -2.1564576625823975 0.37731999158859253 6.0 12 -0.019100656732916832
0.9957718253135681 -2.120924711227417 -0.20499029755592346 7.0 5 -0.019098352640867233
1.0133734941482544 -2.159395217895508 0.4636658728122711 6.0 13 -0.019096048548817635
1.0178197622299194 -2.169853925704956 -0.12560631334781647 12.0 6 -0.019093744456768036
1.0117520093917847 -2.157897472381592 0.5502303242683411 6.0 14 -0.019091440364718437
1.006422758102417 -2.1475067138671875 -0.041397109627723694 10.0 7 -0.01908913627266884
1.0087926387786865 -2.1535415649414062 0.6372125148773193 8.0 15 -0.01908683218061924
0.581954836845398 -1.2463022470474243 -0.3685583174228668 8.0 0 -0.019066097214818
0.9988196492195129 -2.140024423599243 0.04122258722782135 8.0 8 -0.019063793122768402
0.6953558921813965 -1.4905164241790771 -0.3797174096107483 7.0 1 -0.019061489030718803
1.0145819187164307 -2.1757779121398926 0.12581564486026764 7.0 9 -0.019059184938669205
0.8720221519470215 -1.8700575828552246 -0.40108051896095276 6.0 2 -0.019056880846619606
1.0075209140777588 -2.161620616912842 0.2086508423089981 7.0 10 -0.019054576754570007
1.035248875617981 -2.222123146057129 -0.38827037811279297 100.0 3 -0.01905227266252041
1.008945107460022 -2.1666507720947266 0.293461412191391 6.0 11 -0.01904996857047081
1.0395610332489014 -2.233415126800537 -0.30247974395751953 100.0 4 -0.01904766447842121
1.0032544136047363 -2.1563968658447266 0.3766942620277405 6.0 12 -0.019045360386371613
0.9892027378082275 -2.1261942386627197 -0.2051646113395691 8.0 5 -0.019043056294322014
1.000862956047058 -2.152238607406616 0.4613761901855469 6.0 13 -0.019040752202272415
1.0051881074905396 -2.1625263690948486 -0.12497827410697937 12.0 6 -0.019038448110222816
1.0050342082977295 -2.1631834506988525 0.5506802201271057 7.0 14 -0.019036144018173218
0.9989205598831177 -2.1510066986083984 -0.041397109627723694 10.0 7 -0.01903383992612362
0.9996424913406372 -2.153545618057251 0.6361772418022156 7.0 15 -0.01903153583407402
0.5792235732078552 -1.2518327236175537 -0.36959362030029297 8.0 0 -0.01901080086827278
0.9938612580299377 -2.1489429473876953 0.04132729768753052 9.0 8 -0.019008496776223183
0.6901489496231079 -1.4929345846176147 -0.3797174096107483 7.0 1 -0.019006192684173584
1.0002789497375488 -2.164801597595215 0.12497827410697937 7.0 9 -0.019003888592123985
0.8687833547592163 -1.8802189826965332 -0.4026069939136505 6.0 2 -0.019001584500074387
1.0033109188079834 -2.1723594665527344 0.20934809744358063 7.0 10 -0.018999280408024788
1.0291416645050049 -2.2293100357055664 -0.388896107673645 100.0 3 -0.01899697631597519
0.988068699836731 -2.141319990158081 0.28956159949302673 6.0 11 -0.01899467222392559
1.025938868522644 -2.224412202835083 -0.300773561000824 100.0 4 -0.018992368131875992
0.997374951839447 -2.16347336769104 0.37731999158859253 7.0 12 -0.018990064039826393
0.9809406995773315 -2.1278247833251953 -0.20499029755592346 9.0 5 -0.018987759947776794
0.9949869513511658 -2.159285306930542 0.46213942766189575 6.0 13 -0.018985455855727196
0.9951268434524536 -2.1605801582336426 -0.12466426193714142 13.0 6 -0.018983151763677597
0.9917727112770081 -2.154287338256836 0.5475308895111084 6.0 14 -0.018980847671628
0.9947494268417358 -2.1617469787597656 -0.04153672605752945 11.0 7 -0.0189785435795784
0.992119312286377 -2.1570217609405518 0.6361772418022156 7.0 15 -0.01897624135017395
0.578070878982544 -1.260871171951294 -0.3716641664505005 9.0 0 -0.018955504521727562
0.9880204796791077 -2.1560351848602295 0.041397109627723694 9.0 8 -0.018953200429677963
0.68412184715271 -1.4935628175735474 -0.37926751375198364 6.0 1 -0.018950896337628365
0.9952102899551392 -2.1737282276153564 0.12529228627681732 8.0 9 -0.018948592245578766
0.8589454293251038 -1.8760998249053955 -0.40108051896095276 6.0 2 -0.018946288153529167
0.9973801374435425 -2.179471731185913 0.2096967101097107 7.0 10 -0.01894398406147957
1.021353840827942 -2.23288893699646 -0.388896107673645 100.0 3 -0.01894167996942997
0.9863656759262085 -2.157393455505371 0.2912677526473999 7.0 11 -0.01893937587738037
