# .PCD v0.7 - Point Cloud Data file format
VERSION 0.7
FIELDS x y z intensity ring time
SIZE 4 4 4 4 4 4
TYPE F F F F F F
COUNT 1 1 1 1 1 1
WIDTH 542
HEIGHT 1
VIEWPOINT 0 0 0 1 0 0 0
POINTS 542
DATA ascii
-3.0678141117095947 0.12911495566368103 0.596850574016571 7.0 13 -0.04030723124742508
-1.7739797830581665 0.07497198134660721 -0.09305334091186523 41.0 6 -0.04030492529273033
-3.054824113845825 0.12963715195655823 0.7058964967727661 8.0 14 -0.04030262306332588
-1.7481471300125122 0.0744919404387474 -0.030541712418198586 45.0 7 -0.040300317108631134
-3.0398850440979004 0.1300661712884903 0.815280020236969 9.0 15 -0.040298014879226685
-1.887523889541626 0.08307086676359177 -0.5062500834465027 10.0 0 -0.04027727618813515
-1.73604154586792 0.07670803368091583 0.030332282185554504 51.0 8 -0.0402749739587307
-1.8650590181350708 0.08273443579673767 -0.4310062527656555 34.0 1 -0.04027267172932625
-1.735894799232483 0.07730865478515625 0.09106457233428955 48.0 9 -0.0402703657746315
-1.851477026939392 0.08245614171028137 -0.360247403383255 30.0 2 -0.04026806354522705
-1.7276681661605835 0.07724438607692719 0.15130236744880676 45.0 10 -0.0402657575905323
-1.845119595527649 0.08281788975000381 -0.2925325036048889 31.0 3 -0.04026345536112785
-1.7034659385681152 0.07675808668136597 0.20937155187129974 47.0 11 -0.040261149406433105
-1.8105380535125732 0.08189936727285385 -0.2225334346294403 33.0 4 -0.040258847177028656
-3.076442003250122 0.13969959318637848 0.4877626895904541 8.0 12 -0.04025654122233391
-1.7972757816314697 0.08161333203315735 -0.15740327537059784 34.0 5 -0.04025423899292946
-3.0673446655273438 0.13982366025447845 0.596850574016571 6.0 13 -0.04025193303823471
-1.783683180809021 0.08162041008472443 -0.09357669949531555 42.0 6 -0.04024963080883026
-3.0407259464263916 0.13967309892177582 0.702747106552124 7.0 14 -0.04024732485413551
-1.747876524925232 0.0805932879447937 -0.030541712418198586 45.0 7 -0.040245022624731064
-3.0548510551452637 0.14139118790626526 0.819421112537384 9.0 15 -0.040242716670036316
-1.881433367729187 0.0893845185637474 -0.5046971440315247 2.0 0 -0.04022198170423508
-1.7457503080368042 0.08324333280324936 0.030506806448101997 46.0 8 -0.04021967947483063
-1.8803309202194214 0.08998950570821762 -0.4346054494380951 34.0 1 -0.04021737352013588
-1.7376092672348022 0.08346345275640488 0.09116924554109573 47.0 9 -0.04021507129073143
-1.8550997972488403 0.08910693228244781 -0.3610106408596039 30.0 2 -0.04021276533603668
-1.7273880243301392 0.0832742378115654 0.15130236744880676 45.0 10 -0.04021046310663223
-1.8606038093566895 0.09002181142568588 -0.2950354218482971 33.0 3 -0.040208157151937485
-1.7190495729446411 0.08347410708665848 0.21132145822048187 46.0 11 -0.040205854922533035
-1.8261029720306396 0.0889914408326149 -0.22448335587978363 34.0 4 -0.04020354896783829
-3.0680434703826904 0.15005236864089966 0.48651123046875 8.0 12 -0.04020124673843384
-1.7969799041748047 0.0878869816660881 -0.15740327537059784 32.0 5 -0.04019894078373909
-3.0825247764587402 0.1512998789548874 0.5999035239219666 6.0 13 -0.04019663855433464
-1.791366696357727 0.08823923021554947 -0.09399539232254028 42.0 6 -0.04019433259963989
-3.0596835613250732 0.15124931931495667 0.7072461247444153 7.0 14 -0.04019203037023544
-1.7495818138122559 0.08679316192865372 -0.030576616525650024 47.0 7 -0.040189724415540695
-3.036973714828491 0.15118935704231262 0.8147624135017395 8.0 15 -0.040187422186136246
-1.7434519529342651 0.08923446387052536 0.03047190047800541 50.0 8 -0.04016438126564026
-1.8916823863983154 0.09715275466442108 -0.43730488419532776 36.0 1 -0.04016207903623581
-1.753264307975769 0.09035027027130127 0.0920066237449646 47.0 9 -0.04015977308154106
-1.8665413856506348 0.09618773311376572 -0.3633003234863281 35.0 2 -0.04015747085213661
-1.7270867824554443 0.08930349349975586 0.15130236744880676 47.0 10 -0.040155164897441864
-1.8622510433197021 0.09661883115768433 -0.29534831643104553 34.0 3 -0.040152862668037415
-1.7306421995162964 0.09009303152561188 0.21278388798236847 46.0 11 -0.04015055671334267
-1.833710789680481 0.0957794263958931 -0.2254583090543747 36.0 4 -0.04014825448393822
-3.0753917694091797 0.16117453575134277 0.4877626895904541 8.0 12 -0.04014594852924347
-1.8026310205459595 0.09447193890810013 -0.15792620182037354 38.0 5 -0.04014364629983902
-3.066293716430664 0.16123434901237488 0.596850574016571 6.0 13 -0.04014134034514427
-1.8089982271194458 0.09543836861848831 -0.09493743628263474 44.0 6 -0.04013903811573982
-3.0630290508270264 0.1621347963809967 0.7081459760665894 7.0 14 -0.040136732161045074
-1.7712337970733643 0.09406640380620956 -0.03096056915819645 46.0 7 -0.040134429931640625
-3.0364274978637695 0.16178953647613525 0.8147624135017395 8.0 15 -0.040132127702236176
-1.743129849433899 0.09531975537538528 0.03047190047800541 48.0 8 -0.04010908678174019
-1.8932775259017944 0.10386171191930771 -0.4377547800540924 50.0 1 -0.04010678082704544
-1.7609151601791382 0.09690879285335541 0.09242530167102814 47.0 9 -0.04010447859764099
-1.8799163103103638 0.10345781594514847 -0.3659716844558716 51.0 2 -0.04010217264294624
-1.7387006282806396 0.0959906280040741 0.15234823524951935 45.0 10 -0.040099870413541794
-1.875708818435669 0.10388296842575073 -0.2975383996963501 36.0 3 -0.040097564458847046
-1.734281301498413 0.09635384380817413 0.2132713794708252 46.0 11 -0.040095262229442596
-1.857149362564087 0.10350574553012848 -0.2283831685781479 31.0 4 -0.04009295627474785
-3.086644411087036 0.1725703924894333 0.48963993787765503 8.0 12 -0.0400906540453434
-1.8142260313034058 0.10143108665943146 -0.15897206962108612 38.0 5 -0.04008834809064865
-3.0637524127960205 0.17182615399360657 0.5964689254760742 8.0 13 -0.0400860458612442
-1.8026716709136963 0.10141628235578537 -0.09462341666221619 47.0 6 -0.04008374363183975
-3.044933557510376 0.17183764278888702 0.7040968537330627 8.0 14 -0.040081437677145004
-1.7888633012771606 0.10126540064811707 -0.031274713575839996 45.0 7 -0.040079135447740555
-3.045488119125366 0.1729353666305542 0.8173506259918213 9.0 15 -0.04007682949304581
-1.754764437675476 0.10210081934928894 0.03068133257329464 50.0 8 -0.04005378857254982
-1.892903447151184 0.11046989262104034 -0.4377547800540924 38.0 1 -0.04005148634314537
-1.7605661153793335 0.10305500030517578 0.09242530167102814 46.0 9 -0.04004918038845062
-1.8913031816482544 0.11070770770311356 -0.3682613670825958 39.0 2 -0.04004687815904617
-1.7502888441085815 0.10276034474372864 0.15339410305023193 45.0 10 -0.040044572204351425
-1.8792787790298462 0.1106620728969574 -0.29816412925720215 52.0 3 -0.040042269974946976
-1.7378976345062256 0.10264114290475845 0.21375884115695953 45.0 11 -0.040039967745542526
-1.866684913635254 0.11057474464178085 -0.22960186004638672 37.0 4 -0.04003766179084778
-3.0919389724731445 0.18369454145431519 0.4905785322189331 10.0 12 -0.04003535956144333
-1.829752802848816 0.10902753472328186 -0.16036656498908997 38.0 5 -0.04003305360674858
-3.063133716583252 0.18251968920230865 0.5964689254760742 7.0 13 -0.04003075137734413
-1.8043004274368286 0.10782736539840698 -0.09472808986902237 44.0 6 -0.040028445422649384
-3.0131912231445312 0.18059930205345154 0.6968984007835388 8.0 14 -0.040026143193244934
-1.796483039855957 0.10798950493335724 -0.03141433000564575 44.0 7 -0.040023837238550186
-3.0217254161834717 0.1821700632572174 0.811138927936554 13.0 15 -0.04002153500914574
-1.7623810768127441 0.10871800780296326 0.030820949003100395 51.0 8 -0.03999849408864975
-1.915846586227417 0.11852065473794937 -0.44315361976623535 5.0 1 -0.0399961918592453
-1.7641825675964355 0.10944770276546478 0.0926346555352211 46.0 9 -0.03999388590455055
-1.9966957569122314 0.12422187626361847 -0.3888687491416931 18.0 2 -0.0399915836751461
-1.7538774013519287 0.10942251980304718 0.1537427306175232 47.0 10 -0.039989277720451355
-1.8847750425338745 0.11791974306106567 -0.2991027235984802 33.0 3 -0.039986975491046906
-1.7553596496582031 0.10982295870780945 0.21595250070095062 48.0 11 -0.03998466953635216
-1.8702499866485596 0.11733823269605637 -0.23008935153484344 52.0 4 -0.03998236730694771
-3.051849126815796 0.1920056939125061 0.4843211770057678 15.0 12 -0.03998006135225296
-1.8393034934997559 0.1160416528582573 -0.16123811900615692 34.0 5 -0.03997775912284851
-3.0232574939727783 0.19126631319522858 0.5888366103172302 15.0 13 -0.03997545316815376
-1.8178458213806152 0.11532449722290039 -0.09546079486608505 43.0 6 -0.03997315093874931
-3.0066747665405273 0.1912716031074524 0.6955487132072449 46.0 14 -0.039970844984054565
-1.7881126403808594 0.11375197023153305 -0.031274713575839996 45.0 7 -0.039968542754650116
-2.9805846214294434 0.1901334524154663 0.8002685308456421 53.0 15 -0.03996623679995537
-1.7739434242248535 0.11595896631479263 0.031030379235744476 50.0 8 -0.03994319960474968
-2.9888007640838623 0.1958962082862854 -0.6914995908737183 3.0 1 -0.03994089365005493
-1.7777202129364014 0.11682944744825363 0.09336735308170319 45.0 9 -0.03993859142065048
-2.956173896789551 0.1942758858203888 -0.5758615732192993 6.0 2 -0.039936285465955734
-1.7654134035110474 0.11632967740297318 0.15478859841823578 45.0 10 -0.039933983236551285
-1.7648491859436035 0.1169116199016571 0.21717119216918945 47.0 11 -0.03992937505245209
-1.8816916942596436 0.124982088804245 -0.23155176639556885 11.0 4 -0.03992706909775734
-2.995936870574951 0.19951479136943817 0.47556084394454956 57.0 12 -0.03992476686835289
-1.8527815341949463 0.1237110048532486 -0.16245830059051514 49.0 5 -0.03992246091365814
-2.9990644454956055 0.20024879276752472 0.5842571258544922 65.0 13 -0.03992015868425369
-1.8393529653549194 0.12313725054264069 -0.09661218523979187 45.0 6 -0.039917852729558945
-3.004044532775879 0.20163455605506897 0.6950988173484802 75.0 14 -0.039915550500154495
-1.7856885194778442 0.12017029523849487 -0.031239807605743408 46.0 7 -0.03991324454545975
-2.9721574783325195 0.20053710043430328 0.7981979846954346 47.0 15 -0.0399109423160553
-2.9448928833007812 0.20282821357250214 -0.7909510731697083 11.0 0 -0.03989020735025406
-1.777517557144165 0.12242574244737625 0.031100187450647354 50.0 8 -0.03988790139555931
-3.0055956840515137 0.20753614604473114 -0.6955487132072449 101.0 1 -0.03988559916615486
-1.7852716445922852 0.12358548492193222 0.09378603845834732 44.0 9 -0.039883293211460114
-2.969151735305786 0.20606102049350739 -0.578532874584198 100.0 2 -0.039880990982055664
-1.7609999179840088 0.12252333015203476 0.15443997085094452 45.0 10 -0.039878685027360916
-1.7723515033721924 0.12362393736839294 0.21814614534378052 46.0 11 -0.03987407684326172
-3.004049777984619 0.2100633978843689 -0.36975163221359253 123.0 4 -0.03987177461385727
-3.0188684463500977 0.21162909269332886 0.47931525111198425 100.0 12 -0.03986946865916252
-1.860288381576538 0.13073641061782837 -0.16315554082393646 34.0 5 -0.03986716642975807
-3.012019634246826 0.21220548450946808 0.5869284868240356 90.0 13 -0.039864860475063324
-1.8608046770095825 0.13142544031143188 -0.09776357561349869 56.0 6 -0.039862558245658875
-3.0071728229522705 0.21291960775852203 0.6959986090660095 60.0 14 -0.03986025229096413
-1.799221158027649 0.12739188969135284 -0.03148414194583893 44.0 7 -0.03985795006155968
-2.9365334510803223 0.21152310073375702 -0.788880467414856 11.0 0 -0.03980731964111328
-1.7771018743515015 0.12831918895244598 0.031100187450647354 47.0 8 -0.03980501741170883
-3.0010037422180176 0.21722064912319183 -0.6946488618850708 100.0 1 -0.039802711457014084
-1.7968040704727173 0.13037271797657013 0.09441407769918442 45.0 9 -0.039800409227609634
-3.0017776489257812 0.21780331432819366 -0.5850204229354858 100.0 2 -0.039798103272914886
-1.768554925918579 0.12863285839557648 0.15513722598552704 45.0 10 -0.03979580104351044
-3.0320565700531006 0.22106420993804932 -0.4815053343772888 1.0 3 -0.03979349508881569
-1.7758913040161133 0.1297900378704071 0.21863360702991486 52.0 11 -0.03979119285941124
-2.979579210281372 0.21828369796276093 -0.36682677268981934 61.0 4 -0.03978888690471649
-3.012239933013916 0.2212049514055252 0.4783766567707062 85.0 12 -0.03978658467531204
-2.987842321395874 0.21993756294250488 0.5823490619659424 75.0 13 -0.039781976491212845
-1.8384722471237183 0.13565406203269958 -0.09661218523979187 45.0 6 -0.0397796705365181
-3.0162062644958496 0.2230839878320694 0.6982480883598328 81.0 14 -0.03977736830711365
-1.8147425651550293 0.13454003632068634 -0.03176337853074074 45.0 7 -0.0397750623524189
-2.976503610610962 0.2211921513080597 0.7997508645057678 36.0 15 -0.03977276012301445
-2.897250175476074 0.2188619077205658 -0.7785277366638184 9.0 0 -0.03975202515721321
-1.7925950288772583 0.13572995364665985 0.03137942776083946 47.0 8 -0.03974971920251846
-2.9943978786468506 0.22725245356559753 -0.6932992339134216 36.0 1 -0.039747416973114014
-1.7923551797866821 0.13634055852890015 0.09420473128557205 48.0 9 -0.039745111018419266
-2.977508068084717 0.22649258375167847 -0.5804409980773926 29.0 2 -0.039742808789014816
-1.7820014953613281 0.1358662098646164 0.15635739266872406 49.0 10 -0.03974050283432007
-2.9485421180725098 0.2253250926733017 -0.4683648645877838 5.0 3 -0.03973820060491562
-1.7793861627578735 0.13629110157489777 0.21912109851837158 51.0 11 -0.03973589465022087
-2.953068494796753 0.22670778632164001 -0.3636581599712372 25.0 4 -0.03973359242081642
-3.0173580646514893 0.23217301070690155 0.47931525111198425 91.0 12 -0.039731286466121674
-2.9579246044158936 0.2275998592376709 -0.2595497965812683 21.0 5 -0.039728984236717224
-3.000758647918701 0.2314218431711197 0.5850204229354858 77.0 13 -0.039726678282022476
-2.293999671936035 0.17731909453868866 -0.12058205902576447 51.0 6 -0.03972437605261803
-3.003751754760742 0.23270809650421143 0.6955487132072449 86.0 14 -0.03972207009792328
-1.8302115201950073 0.1421123594045639 -0.032042618840932846 44.0 7 -0.03971976786851883
-2.9718613624572754 0.23128104209899902 0.7987156510353088 76.0 15 -0.03971746191382408
-2.850248098373413 0.22532011568546295 -0.7661044001579285 20.0 0 -0.03969672694802284
-1.8000842332839966 0.14261825382709503 0.031519047915935516 50.0 8 -0.03969442471861839
-2.9741599559783936 0.2361603081226349 -0.6888001561164856 20.0 1 -0.039692118763923645
-1.7998319864273071 0.14323045313358307 0.09462341666221619 45.0 9 -0.039689816534519196
-2.9375576972961426 0.23377054929733276 -0.5728086233139038 15.0 2 -0.03968751057982445
-1.809321641921997 0.14430341124534607 0.15879777073860168 62.0 10 -0.03968520835042
-2.935922861099243 0.23467104136943817 -0.4664876163005829 13.0 3 -0.03968290239572525
-1.8046233654022217 0.14456261694431305 0.22228971123695374 13.0 11 -0.0396806001663208
-2.9087271690368652 0.2335197627544403 -0.35829588770866394 15.0 4 -0.03967829421162605
-3.0125913619995117 0.24238665401935577 0.4786895215511322 87.0 12 -0.0396759919822216
-2.9054768085479736 0.23376844823360443 -0.2550176978111267 13.0 5 -0.039673686027526855
-3.0038461685180664 0.24221141636371613 0.5857836604118347 77.0 13 -0.039671383798122406
-2.4108221530914307 0.19481714069843292 -0.1267576962709427 43.0 6 -0.03966907784342766
-2.9932093620300293 0.24240459501743317 0.6932992339134216 83.0 14 -0.03966677561402321
-2.9864399433135986 0.2429063469171524 0.8028567433357239 76.0 15 -0.03966216742992401
-2.837892532348633 0.2343149334192276 -0.7629985809326172 40.0 0 -0.03964143246412277
-1.8314615488052368 0.15153878927230835 0.032077521085739136 10.0 8 -0.039639126509428024
-2.934475898742676 0.24332007765769958 -0.6798021197319031 13.0 1 -0.039636824280023575
-2.895637273788452 0.24060916900634766 -0.564794659614563 13.0 2 -0.03963221609592438
-1.8147633075714111 0.1511138528585434 0.15932069718837738 20.0 10 -0.03962991014122963
-2.8957152366638184 0.24163271486759186 -0.4602302610874176 13.0 3 -0.03962760791182518
-2.870309352874756 0.2405215948820114 -0.3536648750305176 12.0 4 -0.03962299972772598
-2.9999160766601562 0.25191012024879456 0.47681230306625366 63.0 12 -0.03962069749832153
-2.8569934368133545 0.23990856111049652 -0.25083422660827637 12.0 5 -0.039618391543626785
-3.010807514190674 0.25335386395454407 0.5873100757598877 38.0 13 -0.039616089314222336
-2.4300293922424316 0.20490899682044983 -0.12780441343784332 43.0 6 -0.03961378335952759
-3.0175883769989014 0.2549852430820465 0.6991478800773621 28.0 14 -0.03961148113012314
-2.5166096687316895 0.213095024228096 -0.04408477619290352 15.0 7 -0.03960917517542839
-3.0048232078552246 0.2549622058868408 0.8080331087112427 36.0 15 -0.03960687294602394
-2.8486056327819824 0.2452131062746048 -0.7661044001579285 14.0 0 -0.039586134254932404
-2.6298327445983887 0.22684311866760254 0.04607435315847397 106.0 8 -0.039583832025527954
-2.873422145843506 0.24836045503616333 -0.6658551692962646 12.0 1 -0.039581526070833206
-2.9707863330841064 0.2572976350784302 0.1562751829624176 2.0 9 -0.03957922384142876
-2.8517489433288574 0.24698789417743683 -0.5563990473747253 13.0 2 -0.03957691788673401
-2.839751720428467 0.24694816768169403 -0.45146992802619934 13.0 3 -0.03957231342792511
-3.045502185821533 0.2653752863407135 0.37535759806632996 32.0 11 -0.03957000747323036
-2.8239681720733643 0.24656811356544495 -0.34805887937545776 12.0 4 -0.03956770524382591
-3.0403435230255127 0.2659958004951477 0.48338255286216736 31.0 12 -0.039565399289131165
-2.794609546661377 0.24449685215950012 -0.2454305738210678 12.0 5 -0.039563097059726715
-3.035329818725586 0.2660902440547943 0.5922711491584778 27.0 13 -0.03956079110503197
-2.4392471313476562 0.21426400542259216 -0.12832777202129364 34.0 6 -0.03955848887562752
-3.0399749279022217 0.2675674259662628 0.7045467495918274 27.0 14 -0.03955618292093277
-2.497922897338867 0.2202967405319214 -0.04377063736319542 18.0 7 -0.03955388069152832
-3.007763385772705 0.26579031348228455 0.8090683817863464 28.0 15 -0.03955157473683357
-2.7977049350738525 0.25067275762557983 -0.7526458501815796 6.0 0 -0.03953083977103233
-2.5871994495391846 0.23226673901081085 0.04534135013818741 57.0 8 -0.039528533816337585
-2.818192481994629 0.2535000145435333 -0.6532579064369202 11.0 1 -0.039526231586933136
-3.0295462608337402 0.2730445861816406 0.1594153493642807 2.0 9 -0.039523929357528687
-2.8019862174987793 0.25253525376319885 -0.5468586087226868 12.0 2 -0.03952162340283394
-2.9387707710266113 0.26538029313087463 0.25815531611442566 1.0 10 -0.03951932117342949
-2.7700154781341553 0.2506285309791565 -0.4405195116996765 13.0 3 -0.03951701521873474
-3.0524652004241943 0.27672141790390015 0.376332551240921 27.0 11 -0.03951471298933029
-2.777620315551758 0.25229474902153015 -0.34245288372039795 12.0 4 -0.039512407034635544
-3.0590689182281494 0.2783966362476349 0.48651123046875 28.0 12 -0.039510104805231094
-2.750086784362793 0.2502771019935608 -0.24159571528434753 11.0 5 -0.039507798850536346
-3.028517007827759 0.2761491537094116 0.5911262631416321 25.0 13 -0.0395054966211319
-2.4444515705108643 0.22332307696342468 -0.12864179909229279 47.0 6 -0.03950319066643715
-3.0487253665924072 0.2790648341178894 0.7067962884902954 22.0 14 -0.0395008884370327
-2.4632859230041504 0.22591018676757812 -0.04317725449800491 13.0 7 -0.03949858248233795
-3.010664701461792 0.2766413390636444 0.8101036548614502 13.0 15 -0.0394962802529335
-2.750648021697998 0.25613826513290405 -0.7402225136756897 9.0 0 -0.03947554528713226
-2.5843820571899414 0.2411106526851654 0.04530644789338112 56.0 8 -0.039473239332437515
-2.7590818405151367 0.2578950524330139 -0.6397608518600464 9.0 1 -0.039470937103033066
-3.0126662254333496 0.28212830424308777 0.15857796370983124 2.0 9 -0.03946863114833832
-2.734628200531006 0.25609076023101807 -0.5338835716247559 11.0 2 -0.03946632891893387
-2.7235891819000244 0.2555364966392517 0.23932965099811554 1.0 10 -0.03946402296423912
-2.7297894954681396 0.2565988302230835 -0.43426209688186646 12.0 3 -0.03946172073483467
-3.051480531692505 0.28737491369247437 0.376332551240921 16.0 11 -0.03945941478013992
-2.715456962585449 0.25620782375335693 -0.334896981716156 12.0 4 -0.039457112550735474
-3.0521786212921143 0.28851547837257385 0.4855726361274719 8.0 12 -0.039454806596040726
-2.6976239681243896 0.2550002336502075 -0.23706360161304474 12.0 5 -0.039452504366636276
-3.039261817932129 0.2878296673297882 0.5934159755706787 5.0 13 -0.03945019841194153
-2.4297385215759277 0.23053331673145294 -0.1279090791940689 46.0 6 -0.03944789618253708
-3.117572546005249 0.29634395241737366 0.7229927778244019 1.0 14 -0.03944559022784233
-2.472435712814331 0.23545581102371216 -0.043351780623197556 14.0 7 -0.03944328799843788
-3.073143720626831 0.29320311546325684 0.8271856904029846 1.0 15 -0.039440982043743134
-2.7112793922424316 0.26202109456062317 -0.7298697233200073 9.0 0 -0.039420247077941895
-2.617361068725586 0.2534064054489136 0.045899830758571625 80.0 8 -0.039417944848537445
-2.7077341079711914 0.2626331150531769 -0.6280633807182312 10.0 1 -0.0394156388938427
-3.01365065574646 0.2928359806537628 0.15868262946605682 2.0 9 -0.03941333666443825
-2.679003953933716 0.260318398475647 -0.5231983065605164 10.0 2 -0.0394110307097435
-2.6354281902313232 0.2565484642982483 0.23165996372699738 1.0 10 -0.03940872848033905
-2.6757936477661133 0.2609492838382721 -0.4258146584033966 12.0 3 -0.0394064225256443
-3.1571459770202637 0.30844804644584656 0.3894944489002228 1.0 11 -0.03940412029623985
-2.6651546955108643 0.2608508765697479 -0.32880350947380066 12.0 4 -0.039401814341545105
-2.6709401607513428 0.2618877589702606 -0.23479758203029633 13.0 5 -0.03939720615744591
-2.452770948410034 0.24136047065258026 -0.1291651576757431 27.0 6 -0.03939259797334671
-2.509408950805664 0.2478182315826416 -0.04401496797800064 22.0 7 -0.03938799351453781
-9.650782585144043 0.9547697901725769 2.598543405532837 0.0 15 -0.03938568755984306
-2.6565256118774414 0.2660931646823883 -0.7153759002685547 9.0 0 -0.039364952594041824
-2.652509927749634 0.26662543416023254 -0.6154661178588867 10.0 1 -0.03936034440994263
-3.0106232166290283 0.30315378308296204 0.15857796370983124 2.0 9 -0.03935803845524788
-2.627291202545166 0.26455429196357727 -0.513276219367981 11.0 2 -0.03935573622584343
-2.6146931648254395 0.2637466788291931 0.22991684079170227 1.0 10 -0.03935343027114868
-2.627697706222534 0.2655211091041565 -0.41830578446388245 11.0 3 -0.03935112804174423
-2.622753620147705 0.26594701409339905 -0.3236849904060364 12.0 4 -0.039346519857645035
-27.68467903137207 2.812105417251587 4.407385349273682 2.0 12 -0.03934421390295029
-2.6125264167785645 0.26537060737609863 -0.22974254190921783 12.0 5 -0.03934191167354584
-2.4876790046691895 0.25356635451316833 -0.131049245595932 32.0 6 -0.03933730348944664
-2.556272268295288 0.2614595592021942 -0.04485268518328667 22.0 7 -0.03933269530534744
-9.635860443115234 0.9872702956199646 2.595437526702881 0.0 15 -0.03933039307594299
-2.6094634532928467 0.2705825865268707 -0.7029525637626648 9.0 0 -0.039309654384851456
-2.8959765434265137 0.3008021116256714 0.05082140862941742 5.0 8 -0.039307352155447006
-2.612797498703003 0.2718501389026642 -0.6064680814743042 10.0 1 -0.03930504620075226
-3.023452043533325 0.31511029601097107 0.15931066870689392 2.0 9 -0.03930274397134781
-2.581439971923828 0.2690429389476776 -0.5044990181922913 12.0 2 -0.03930043801665306
-2.5661978721618652 0.2679064869880676 0.22573336958885193 1.0 10 -0.03929813578724861
-2.5796031951904297 0.26976168155670166 -0.41079697012901306 12.0 3 -0.039295829832553864
-2.582324266433716 0.2709568738937378 -0.31881022453308105 12.0 4 -0.039291225373744965
-2.5660102367401123 0.26969844102859497 -0.22573336958885193 13.0 5 -0.03928661718964577
-2.484792470932007 0.2620384693145752 -0.13094457983970642 34.0 6 -0.03928200900554657
-2.559321165084839 0.27080193161964417 -0.044922493398189545 17.0 7 -0.03927740082144737
-9.651565551757812 1.0229383707046509 2.600613832473755 0.0 15 -0.039275094866752625
-2.56624436378479 0.2751580774784088 -0.6915645003318787 10.0 0 -0.039254359900951385
-2.7159652709960938 0.2916908860206604 0.047679975628852844 3.0 8 -0.03925205394625664
-2.5614562034606934 0.27554962038993835 -0.594770610332489 10.0 1 -0.03924975171685219
-3.016376495361328 0.3250196874141693 0.15899664163589478 2.0 9 -0.03924744576215744
-2.531686544418335 0.2727935016155243 -0.4949585497379303 11.0 2 -0.03924514353275299
-2.553361654281616 0.27557986974716187 0.22468750178813934 1.0 10 -0.03924284130334854
-2.5354390144348145 0.27409374713897705 -0.40391382575035095 11.0 3 -0.03924053534865379
-2.545839548110962 0.27611714601516724 -0.31442293524742126 11.0 4 -0.039235927164554596
-2.5254385471343994 0.2743504047393799 -0.2222471386194229 13.0 5 -0.0392313189804554
-2.4739348888397217 0.2696290910243988 -0.1304212212562561 32.0 6 -0.0392267107963562
-9.746211051940918 1.0639406442642212 2.2634575366973877 1.0 14 -0.03922440856695175
-2.516615629196167 0.2751690447330475 -0.04418949410319328 18.0 7 -0.039222102612257004
-9.63641357421875 1.0553584098815918 2.597507953643799 0.0 15 -0.039219800382852554
-2.5230259895324707 0.27943581342697144 -0.6801764369010925 9.0 0 -0.039199065417051315
-2.61555552482605 0.2901465594768524 0.04593473672866821 3.0 8 -0.03919675946235657
-2.517868757247925 0.27975428104400635 -0.5848727822303772 11.0 1 -0.03919445723295212
-3.025148391723633 0.33665138483047485 0.1595200151205063 2.0 9 -0.03919215127825737
-2.5034019947052 0.2785892188549042 -0.48961591720581055 11.0 2 -0.03918984904885292
-2.4494175910949707 0.27301499247550964 0.21562331914901733 1.0 10 -0.03918754309415817
-2.5010926723480225 0.27921608090400696 -0.39859506487846375 12.0 3 -0.03918524086475372
-25.421478271484375 2.8424859046936035 3.1408169269561768 2.0 11 -0.039182934910058975
-2.4837045669555664 0.2781532406806946 -0.3068670332431793 13.0 4 -0.039180632680654526
-2.48486590385437 0.2787218689918518 -0.2187609225511551 12.0 5 -0.03917602449655533
-2.4471771717071533 0.2753599286079407 -0.12906047701835632 24.0 6 -0.03917141631245613
-9.742438316345215 1.0979527235031128 2.2634575366973877 1.0 14 -0.03916911035776138
-2.4818592071533203 0.280139684677124 -0.04359611123800278 17.0 7 -0.039166808128356934
-9.640350341796875 1.0898576974868774 2.599578619003296 0.0 15 -0.039164502173662186
-2.491325616836548 0.2847314178943634 -0.6718943119049072 9.0 0 -0.03914376720786095
-2.5708186626434326 0.2942711412906647 0.045166827738285065 4.0 8 -0.0391414649784565
-2.4742836952209473 0.2836586534976959 -0.5749749541282654 11.0 1 -0.03913915902376175
-2.5278992652893066 0.2902528643608093 0.13335202634334564 1.0 9 -0.0391368567943573
-2.465355634689331 0.2830716371536255 -0.4823651611804962 12.0 2 -0.03913455083966255
-2.408862590789795 0.2770105004310608 0.21213705837726593 1.0 10 -0.0391322486102581
-2.458892345428467 0.2831985354423523 -0.39202481508255005 13.0 3 -0.039129942655563354
-2.455110549926758 0.2836313247680664 -0.3034546673297882 12.0 4 -0.03912533447146416
-2.4442942142486572 0.28281402587890625 -0.21527467668056488 13.0 5 -0.03912072628736496
-2.434297561645508 0.28251907229423523 -0.12843245267868042 20.0 6 -0.03911611810326576
-9.738546371459961 1.1319538354873657 2.2634575366973877 1.0 14 -0.03911381587386131
-2.427236557006836 0.28255826234817505 -0.042653679847717285 16.0 7 -0.039111509919166565
-9.663351058959961 1.1266344785690308 2.606825590133667 0.0 15 -0.039109207689762115
-2.455781936645508 0.2893570065498352 -0.6625767946243286 9.0 0 -0.039088472723960876
-2.5002689361572266 0.29504117369651794 0.04394515976309776 1.0 8 -0.03908616676926613
-2.4307022094726562 0.2872621715068817 -0.5650770664215088 11.0 1 -0.03908386453986168
-2.3840646743774414 0.28217241168022156 0.12581564486026764 2.0 9 -0.03908155858516693
-2.4175610542297363 0.2861369550228119 -0.4732063114643097 13.0 2 -0.03907925635576248
-2.3564393520355225 0.27931973338127136 0.20760498940944672 1.0 10 -0.039076950401067734
-2.440234661102295 0.2896842658519745 -0.38920900225639343 12.0 3 -0.039074648171663284
-2.422567367553711 0.288444459438324 -0.29955488443374634 12.0 4 -0.03907003998756409
-2.405702829360962 0.28686290979385376 -0.2119627594947815 11.0 5 -0.03906543180346489
-2.4134652614593506 0.28864234685897827 -0.1273857206106186 20.0 6 -0.03906082361936569
-9.734535217285156 1.1659433841705322 2.2634575366973877 1.0 14 -0.03905852138996124
-2.388511896133423 0.28650423884391785 -0.0419904924929142 15.0 7 -0.039056215435266495
-9.644014358520508 1.1585136651992798 2.602684497833252 0.0 15 -0.039053913205862045
-2.40105938911438 0.2914104163646698 -0.6480829119682312 17.0 0 -0.03903317451477051
-2.3424019813537598 0.284706175327301 0.04118768125772476 21.0 8 -0.03903087228536606
-2.4084055423736572 0.29315507411956787 -0.5601281523704529 22.0 1 -0.03902856633067131
-2.373152494430542 0.289284348487854 0.12529228627681732 63.0 9 -0.03902626410126686
-2.387315034866333 0.2910107374191284 -0.4674820601940155 26.0 2 -0.03902395814657211
-2.343583583831787 0.2860950231552124 0.20655910670757294 30.0 10 -0.039021655917167664
-2.3921496868133545 0.2924474775791168 -0.3817001283168793 27.0 3 -0.039019349962472916
-2.3722870349884033 0.2908596694469452 -0.293461412191391 33.0 4 -0.03901474177837372
-2.3770012855529785 0.29185932874679565 -0.20952239632606506 48.0 5 -0.03901013731956482
-2.3846912384033203 0.2936478853225708 -0.12592032551765442 75.0 6 -0.03900552913546562
-2.3577280044555664 0.2911631464958191 -0.04146691784262657 66.0 7 -0.039000920951366425
-9.701264381408691 1.1997605562210083 2.619248867034912 0.0 15 -0.03899861499667168
-2.4076950550079346 0.30074775218963623 -0.6501534581184387 34.0 0 -0.03897788003087044
-2.347346782684326 0.2936250567436218 0.04129239544272423 78.0 8 -0.03897557407617569
-2.409301280975342 0.30180251598358154 -0.5605780482292175 41.0 1 -0.03897327184677124
-2.376091480255127 0.2980636656284332 0.1255016326904297 78.0 9 -0.03897096589207649
-2.396024465560913 0.30056411027908325 -0.4693901240825653 51.0 2 -0.03896866366267204
-2.350477933883667 0.2952667474746704 0.20725634694099426 95.0 10 -0.03896636143326759
-2.395034074783325 0.30128902196884155 -0.3823258578777313 60.0 3 -0.038964055478572845
-24.985408782958984 3.147528648376465 3.092069387435913 2.0 11 -0.038961753249168396
-2.3771655559539795 0.2998846769332886 -0.2941926121711731 50.0 4 -0.03895944729447365
-2.3700380325317383 0.29940518736839294 -0.20899945497512817 67.0 5 -0.03895483911037445
-2.3856327533721924 0.3022218644618988 -0.1260250061750412 92.0 6 -0.03895023092627525
-9.72615909576416 1.2338725328445435 2.2634575366973877 1.0 14 -0.038947928696870804
-2.376534938812256 0.3019115924835205 -0.04181596636772156 96.0 7 -0.038945622742176056
-9.704682350158691 1.234592318534851 2.62131929397583 0.0 15 -0.038943320512771606
-2.421959638595581 0.3111189901828766 -0.6542945504188538 46.0 0 -0.03892258182168007
-2.34829044342041 0.30207276344299316 0.04132729768753052 70.0 8 -0.03892027959227562
-2.433359146118164 0.3134472966194153 -0.5664268136024475 50.0 1 -0.03891797736287117
-2.365185499191284 0.3046657145023346 0.12497827410697937 46.0 9 -0.03891567140817642
-2.430009126663208 0.3134463429450989 -0.4762592613697052 58.0 2 -0.03891336917877197
-2.355360746383667 0.30423593521118164 0.20777928829193115 60.0 10 -0.038911063224077225
-2.427271842956543 0.3139552175998688 -0.3876446485519409 65.0 3 -0.038908760994672775
-2.4154765605926514 0.31328681111335754 -0.2990674078464508 57.0 4 -0.03890415281057358
-2.392688035964966 0.31075575947761536 -0.21109120547771454 48.0 5 -0.03889954462647438
-2.376641273498535 0.30951520800590515 -0.12560631334781647 34.0 6 -0.03889493644237518
-9.721792221069336 1.2678159475326538 2.2634575366973877 1.0 14 -0.038892630487680435
-2.5738112926483154 0.33564990758895874 -0.04530644789338112 53.0 7 -0.038890328258275986
-9.70053482055664 1.2667678594589233 2.62131929397583 0.0 15 -0.03888802230358124
-2.574077844619751 0.33979740738868713 -0.6957056522369385 70.0 0 -0.03886728733778
-3.037184953689575 0.4009309709072113 0.053474172949790955 54.0 8 -0.03886498510837555
-2.552086353302002 0.3373481333255768 -0.5943207144737244 74.0 1 -0.0388626791536808
-3.037304162979126 0.402025431394577 0.16056673228740692 32.0 9 -0.03886037692427635
-2.5534589290618896 0.338436484336853 -0.5006828308105469 89.0 2 -0.038858070969581604
-2.561333656311035 0.3399350643157959 -0.40923261642456055 86.0 3 -0.03885346278548241
-2.5403599739074707 0.33805379271507263 -0.31466665863990784 47.0 4 -0.03884885460138321
-2.7549679279327393 0.36759108304977417 -0.243164524435997 11.0 5 -0.03884424641728401
-2.4092562198638916 0.32189124822616577 -0.1273857206106186 8.0 6 -0.038839638233184814
-9.717535018920898 1.3000478744506836 2.2634575366973877 1.0 14 -0.038837336003780365
-2.99082350730896 0.4006548225879669 -0.05267136171460152 76.0 7 -0.03883503004908562
-9.657759666442871 1.2954823970794678 2.610966682434082 0.0 15 -0.03883272781968117
-2.576765537261963 0.348849892616272 -0.6967409253120422 73.0 0 -0.03881199285387993
-3.04963755607605 0.4134114384651184 0.053718507289886475 54.0 8 -0.03880968689918518
-2.568272352218628 0.34861302375793457 -0.598369836807251 77.0 1 -0.03880738466978073
-3.0418918132781982 0.4129013419151306 0.16088074445724487 33.0 9 -0.03880507871508598
-2.5601046085357666 0.34795933961868286 -0.5022093057632446 86.0 2 -0.038802776485681534
-2.5562171936035156 0.3483397364616394 -0.4086068868637085 79.0 3 -0.038798168301582336
-2.5411312580108643 0.3471880555152893 -0.3149104118347168 63.0 4 -0.03879356011748314
-2.7793960571289062 0.3802356719970703 -0.2454305738210678 10.0 5 -0.03878895193338394
-2.4100964069366455 0.33057060837745667 -0.12749040126800537 7.0 6 -0.038784343749284744
-9.712937355041504 1.3339608907699585 2.2634575366973877 1.0 14 -0.038782037794589996
-2.9855165481567383 0.41002655029296875 -0.05260155349969864 76.0 7 -0.03877973556518555
-9.653410911560059 1.3275021314620972 2.610966682434082 0.0 15 -0.0387774333357811
-2.565964698791504 0.3565131723880768 -0.6941527128219604 72.0 0 -0.03875669464468956
-3.040327548980713 0.42242076992988586 0.05357888713479042 51.0 8 -0.03875439241528511
-2.572892904281616 0.3579334318637848 -0.5997195243835449 68.0 1 -0.03875208646059036
-3.048344850540161 0.42461931705474854 0.1612994372844696 31.0 9 -0.03874978423118591
-2.5588741302490234 0.3568943440914154 -0.5022093057632446 86.0 2 -0.038747478276491165
-2.547222137451172 0.3557223975658417 -0.407355397939682 81.0 3 -0.03874287009239197
-2.539965867996216 0.35561293363571167 -0.3149104118347168 63.0 4 -0.03873826190829277
-2.762267589569092 0.38771918416023254 -0.24403607845306396 10.0 5 -0.03873365372419357
-2.424809694290161 0.34078481793403625 -0.12832777202129364 8.0 6 -0.038729049265384674
-2.999908447265625 0.42267677187919617 -0.05288079380989075 76.0 7 -0.03872444108128548
-9.686976432800293 1.3665881156921387 2.62131929397583 0.0 15 -0.03872213512659073
-2.5762438774108887 0.36665353178977966 -0.6972585916519165 72.0 0 -0.03870140016078949
-3.0309154987335205 0.43190252780914307 0.053439266979694366 51.0 8 -0.03869909420609474
-3.056729793548584 0.4366697371006012 0.16182279586791992 29.0 9 -0.038694486021995544
-2.563506841659546 0.36621031165122986 -0.5033541321754456 82.0 2 -0.038692183792591095
-3.0787856578826904 0.440369576215744 0.2721002399921417 1.0 10 -0.03868987783789635
-2.5440096855163574 0.36433112621307373 -0.407042533159256 83.0 3 -0.0386875756084919
-2.5465688705444336 0.3656053841114044 -0.31588536500930786 66.0 4 -0.0386829674243927
-9.793993949890137 1.4078447818756104 1.567160725593567 0.0 12 -0.03868066519498825
-2.7687854766845703 0.3984949290752411 -0.2447333186864853 9.0 5 -0.0386783592402935
-9.82303524017334 1.4137715101242065 1.9290790557861328 1.0 13 -0.03867605701088905
-2.401860237121582 0.3461134135723114 -0.12717638909816742 6.0 6 -0.038673751056194305
-9.703632354736328 1.4000415802001953 2.2634575366973877 1.0 14 -0.038671448826789856
-3.0023727416992188 0.43371841311454773 -0.052950602024793625 76.0 7 -0.03866914287209511
-9.708913803100586 1.4042655229568481 2.628566265106201 0.0 15 -0.03866684064269066
-2.574882745742798 0.3760935664176941 -0.6972585916519165 72.0 0 -0.03864610195159912
-3.037304401397705 0.4436359703540802 0.05357888713479042 51.0 8 -0.03864379972219467
-3.0433297157287598 0.44560176134109497 0.16119475662708282 29.0 9 -0.038639191538095474
-2.566032648086548 0.37617313861846924 -0.5041174292564392 82.0 2 -0.038636889308691025
-2.5485198497772217 0.374515175819397 -0.40798112750053406 79.0 3 -0.03863228112459183
-2.553133010864258 0.3756476640701294 -0.3168603181838989 71.0 4 -0.03862767294049263
-9.789020538330078 1.4420238733291626 1.567160725593567 0.0 12 -0.03862536698579788
-2.7673773765563965 0.40815743803977966 -0.2447333186864853 9.0 5 -0.03862306475639343
-9.817788124084473 1.4497630596160889 1.9290790557861328 1.0 13 -0.038620758801698685
-2.3906965255737305 0.35345327854156494 -0.1266530305147171 7.0 6 -0.038618456572294235
-3.012709379196167 0.44595298171043396 -0.05316003039479256 76.0 7 -0.03861384838819504
-9.734529495239258 1.4426769018173218 2.6368486881256104 0.0 15 -0.03861154243350029
-2.586928129196167 0.38708046078681946 -0.7008820176124573 67.0 0 -0.03859080746769905
-3.035658121109009 0.45476457476615906 0.05357888713479042 51.0 8 -0.0385885052382946
-3.0416760444641113 0.4567524194717407 0.16119475662708282 28.0 9 -0.038583897054195404
-2.5549967288970947 0.3836703598499298 -0.5022093057632446 64.0 2 -0.038581591099500656
-3.0755555629730225 0.46238958835601807 0.2721002399921417 1.0 10 -0.03857928887009621
-2.5550107955932617 0.3845844566822052 -0.40923261642456055 77.0 3 -0.03857698291540146
-2.5478134155273438 0.38441118597984314 -0.3163728415966034 71.0 4 -0.03857237473130226
-2.7776830196380615 0.4200846552848816 -0.24577918648719788 9.0 5 -0.038567766547203064
-9.812667846679688 1.484025001525879 1.9290790557861328 1.0 13 -0.038565464317798615
-2.393397569656372 0.3623948395252228 -0.12686236202716827 7.0 6 -0.03856315836310387
-2.999192237854004 0.45519107580184937 -0.052950602024793625 76.0 7 -0.03855855017900467
-9.72917652130127 1.4783483743667603 2.6368486881256104 0.0 15 -0.03855624794960022
-2.583582639694214 0.3962666094303131 -0.700364351272583 18.0 0 -0.03853551298379898
-3.0478880405426025 0.46748119592666626 0.05382322147488594 50.0 8 -0.03853320702910423
-3.0558557510375977 0.4697950780391693 0.1620321422815323 28.0 9 -0.038528598845005035
-3.073840379714966 0.4736582636833191 0.2721002399921417 1.0 10 -0.03852399066090584
-2.5613932609558105 0.3951512277126312 -0.41048407554626465 75.0 3 -0.03852168843150139
-2.548417806625366 0.3936048448085785 -0.31661656498908997 67.0 4 -0.03851708024740219
-2.7565104961395264 0.4267306923866272 -0.24403607845306396 9.0 5 -0.038512472063302994
-2.3979742527008057 0.3720828592777252 -0.12717638909816742 8.0 6 -0.038507863879203796
-2.993633270263672 0.4650443494319916 -0.05288079380989075 69.0 7 -0.0385032556951046
-9.723957061767578 1.5122984647750854 2.6368486881256104 0.0 15 -0.03850094974040985
-2.5899596214294434 0.40557625889778137 -0.7024349570274353 1.0 0 -0.03845643997192383
-3.0344676971435547 0.4757268726825714 0.05361378937959671 47.0 8 -0.03845413774251938
-3.054280996322632 0.4799261689186096 0.1620321422815323 27.0 9 -0.03844952955842018
-2.4572925567626953 0.3861199915409088 -0.48351001739501953 1.0 2 -0.03844722360372543
-3.0723371505737305 0.48331281542778015 0.2721002399921417 1.0 10 -0.038444921374320984
-2.556236505508423 0.4025815725326538 -0.4098583459854126 66.0 3 -0.038442615419626236
-2.558863639831543 0.40391072630882263 -0.31807902455329895 67.0 4 -0.03843800723552704
-2.7511441707611084 0.4352460503578186 -0.2436874657869339 9.0 5 -0.03843339905142784
-2.40468430519104 0.38086435198783875 -0.12759508192539215 9.0 6 -0.038428790867328644
-2.997999668121338 0.47590893507003784 -0.05298550799489021 67.0 7 -0.038424182683229446
-9.718888282775879 1.5445363521575928 2.6368486881256104 0.0 15 -0.038421880453825
-2.4129669666290283 0.3869267702102661 -0.654812216758728 1.0 0 -0.03840114548802376
-3.0387117862701416 0.4872668981552124 0.053718507289886475 40.0 8 -0.03839883953332901
-2.460930585861206 0.39505842328071594 -0.57542484998703 1.0 1 -0.03839653730392456
-3.0663909912109375 0.4928024709224701 0.16276483237743378 25.0 9 -0.03839423134922981
-2.5613574981689453 0.4134731590747833 -0.3185664713382721 67.0 4 -0.03838271275162697
-2.7555084228515625 0.445801317691803 -0.2442103773355484 9.0 5 -0.03837810456752777
-2.39735746383667 0.3887164294719696 -0.127281054854393 10.0 6 -0.038373496383428574
-3.0042154788970947 0.4876527190208435 -0.05312512442469597 67.0 7 -0.038368888199329376
-2.491670608520508 0.4084734320640564 -0.6765530109405518 1.0 0 -0.03834584727883339
-3.0309858322143555 0.4974288046360016 0.05361378937959671 38.0 8 -0.03834354504942894
-2.4325449466705322 0.39965254068374634 -0.5691262483596802 1.0 1 -0.03834123909473419
-3.062680959701538 0.5031800866127014 0.1626601666212082 23.0 9 -0.03833893686532974
-2.4738388061523438 0.40688028931617737 -0.4873262047767639 1.0 2 -0.038336630910634995
-2.4655818939208984 0.4064061939716339 -0.39577925205230713 1.0 3 -0.0383320227265358
-2.555907726287842 0.42221057415008545 -0.31807902455329895 67.0 4 -0.0383274145424366
-2.750004291534424 0.454767107963562 -0.24386176466941833 9.0 5 -0.0383228063583374
-2.395986318588257 0.3970819115638733 -0.127281054854393 11.0 6 -0.038318198174238205
-3.010385751724243 0.49944567680358887 -0.05326474457979202 65.0 7 -0.038313593715429306
-2.433070659637451 0.4075925946235657 -0.6610238552093506 1.0 0 -0.03829055279493332
-3.0431251525878906 0.5097901225090027 0.05385812744498253 31.0 8 -0.03828824684023857
-3.060905694961548 0.5138679146766663 0.1626601666212082 23.0 9 -0.038283638656139374
-2.453042507171631 0.4122588038444519 -0.48351001739501953 1.0 2 -0.038281336426734924
-2.491492509841919 0.4191684424877167 -0.40015941858291626 1.0 3 -0.03827672824263573
-2.546663999557495 0.4293639659881592 -0.3171040713787079 67.0 4 -0.03827212005853653
-2.7484002113342285 0.4643637239933014 -0.24386176466941833 9.0 5 -0.03826751187443733
-2.3926868438720703 0.4046921133995056 -0.12717638909816742 12.0 6 -0.038262903690338135
-3.0007376670837402 0.508614182472229 -0.05312512442469597 67.0 7 -0.03825829550623894
-2.424088478088379 0.4143567681312561 -0.6589533090591431 1.0 0 -0.03823525458574295
-3.049211263656616 0.5217586159706116 0.053997743874788284 29.0 8 -0.0382329523563385
-2.4566588401794434 0.4208073019981384 -0.57542484998703 1.0 1 -0.03823064640164375
-3.06303071975708 0.5252237915992737 0.16286951303482056 22.0 9 -0.038228344172239304
-2.5094826221466064 0.43120816349983215 -0.4032880961894989 1.0 3 -0.03822143375873566
-2.5607998371124268 0.44094574451446533 -0.3190539479255676 66.0 4 -0.03821682557463646
-2.74676251411438 0.4739540219306946 -0.24386176466941833 8.0 5 -0.03821221739053726
-2.4070045948028564 0.41576194763183594 -0.1280137598514557 13.0 6 -0.038207609206438065
-3.002884864807129 0.5197671055793762 -0.053194932639598846 65.0 7 -0.03820300102233887
-2.4301657676696777 0.42456868290901184 -0.6610238552093506 1.0 0 -0.03817996010184288
-3.0355522632598877 0.5303343534469604 0.05378831923007965 24.0 8 -0.03817765414714813
-2.366873025894165 0.41393667459487915 -0.5547293424606323 2.0 1 -0.03817535191774368
-3.0670807361602783 0.5369459390640259 0.1631835252046585 20.0 9 -0.03817304968833923
-2.419163942337036 0.42395254969596863 -0.4774041175842285 1.0 2 -0.038170743733644485
-2.480647087097168 0.43561920523643494 -0.39890795946121216 1.0 3 -0.03816613554954529
-2.5709755420684814 0.4519447088241577 -0.3205164074897766 64.0 4 -0.03816152736544609
-2.7333180904388428 0.48146533966064453 -0.24281588196754456 8.0 5 -0.03815691918134689
-2.4172658920288086 0.42666372656822205 -0.12864179909229279 13.0 6 -0.038152310997247696
-3.003021478652954 0.530593991279602 -0.05322984233498573 57.0 7 -0.0381477028131485
-3.0217766761779785 0.5393485426902771 0.05357888713479042 24.0 8 -0.03812235966324806
-2.392197370529175 0.427407443523407 -0.561028003692627 1.0 1 -0.03812005743384361
-3.0729565620422363 0.5495902895927429 0.16360221803188324 19.0 9 -0.038117751479148865
-2.573209524154663 0.4620658755302429 -0.32100388407707214 61.0 4 -0.03810623288154602
-2.727698802947998 0.4902992844581604 -0.2424672693014145 8.0 5 -0.03810162469744682
-2.409864664077759 0.43403691053390503 -0.12832777202129364 15.0 6 -0.038097016513347626
-3.0030243396759033 0.5419521927833557 -0.05326474457979202 60.0 7 -0.03809240832924843
-3.6044492721557617 0.6511402130126953 0.9814419150352478 1.0 15 -0.03809010237455368
-2.389129161834717 0.434609055519104 -0.650671124458313 1.0 0 -0.03806936740875244
-3.031679630279541 0.5520427227020264 0.05378831923007965 23.0 8 -0.03806706517934799
-2.4520394802093506 0.4469373822212219 -0.57542484998703 1.0 1 -0.038064759224653244
-3.074949026107788 0.5610306262969971 0.1638115644454956 19.0 9 -0.038062456995248795
-2.396831512451172 0.4373067319393158 -0.4735879600048065 1.0 2 -0.03806015104055405
-2.567675828933716 0.47032997012138367 -0.3205164074897766 60.0 4 -0.03805093467235565
-3.5265204906463623 0.6466009616851807 0.5678571462631226 1.0 12 -0.0380486324429512
-2.7416489124298096 0.5026917457580566 -0.24386176466941833 8.0 5 -0.038046326488256454
-3.585869073867798 0.6581296324729919 0.7086646556854248 1.0 13 -0.038044024258852005
-2.4161925315856934 0.44388988614082336 -0.12874646484851837 17.0 6 -0.03804171830415726
-3.5667970180511475 0.6559162735939026 0.8372678756713867 1.0 14 -0.03803941607475281
-3.0011143684387207 0.5524315237998962 -0.05326474457979202 25.0 7 -0.03803711384534836
-3.541358232498169 0.6525170207023621 0.9648774266242981 3.0 15 -0.03803480789065361
-3.035632610321045 0.5637165307998657 0.05389302968978882 22.0 8 -0.03801176697015762
-2.4504644870758057 0.4554939270019531 -0.57542484998703 1.0 1 -0.038009464740753174
-3.061190366744995 0.5695688128471375 0.1631835252046585 16.0 9 -0.038007158786058426
-2.418452024459839 0.44998013973236084 -0.4781673550605774 1.0 2 -0.038004856556653976
-3.284755229949951 0.6117586493492126 0.2923203408718109 1.0 10 -0.03800255060195923
-3.463750123977661 0.6463459730148315 0.43263620138168335 2.0 11 -0.03799794241786003
-2.5465049743652344 0.4756452739238739 -0.31807902455329895 53.0 4 -0.03799564018845558
-3.528125286102295 0.6596330404281616 0.5684828758239746 2.0 12 -0.037993334233760834
-2.7359602451324463 0.5115265846252441 -0.24351313710212708 8.0 5 -0.037991032004356384
-3.5102193355560303 0.6569193005561829 0.6941632032394409 2.0 13 -0.037988729774951935
-2.4048125743865967 0.45048320293426514 -0.12822310626506805 12.0 6 -0.03798642382025719
-3.537670850753784 0.663334846496582 0.8309692740440369 1.0 14 -0.03798412159085274
-3.2542636394500732 0.6113709807395935 0.887231707572937 4.0 15 -0.03797951340675354
-2.3860368728637695 0.45127713680267334 -0.650671124458313 1.0 0 -0.037958774715662
-3.0395405292510986 0.5754261612892151 0.053997743874788284 20.0 8 -0.03795647248625755
-2.448859691619873 0.4640449583530426 -0.57542484998703 1.0 1 -0.037954166531562805
-3.0748817920684814 0.5832277536392212 0.16402089595794678 19.0 9 -0.037951864302158356
-2.4245822429656982 0.4598822593688965 -0.47969385981559753 1.0 2 -0.03794955834746361
-3.4842147827148438 0.6614987254142761 0.3102744519710541 2.0 10 -0.03794725611805916
-3.504375457763672 0.6665928959846497 0.4379984438419342 2.0 11 -0.03794264793395996
