# .PCD v0.7 - Point Cloud Data file format
VERSION 0.7
FIELDS x y z intensity ring time
SIZE 4 4 4 4 4 4
TYPE F F F F F F
COUNT 1 1 1 1 1 1
WIDTH 537
HEIGHT 1
VIEWPOINT 0 0 0 1 0 0 0
POINTS 537
DATA ascii
0.32615411281585693 -2.2357046604156494 0.19766922295093536 60.0 10 -0.061327263712882996
0.33608388900756836 -2.306588649749756 -0.3691853880882263 100.0 3 -0.061324961483478546
0.32218068838119507 -2.213878870010376 0.2746935188770294 32.0 11 -0.0613226555287838
0.33464351296424866 -2.302335262298584 -0.2856617569923401 100.0 4 -0.06132035329937935
0.32664617896080017 -2.250072479248047 0.36011216044425964 22.0 12 -0.0613180473446846
0.3182961344718933 -2.192553997039795 -0.19383437931537628 100.0 5 -0.06131574511528015
0.32425105571746826 -2.236320972442627 0.43924233317375183 15.0 13 -0.0613134391605854
0.3203105628490448 -2.211860418319702 -0.11712788045406342 100.0 6 -0.061311136931180954
0.32498475909233093 -2.246901750564575 0.5241360068321228 13.0 14 -0.061308830976486206
0.3202139735221863 -2.216649293899536 -0.039093390107154846 100.0 7 -0.06130652874708176
0.3230457603931427 -2.239013671875 0.606154203414917 12.0 15 -0.06130422279238701
0.18162751197814941 -1.26982581615448 -0.3437117040157318 9.0 0 -0.06128348782658577
0.3158835172653198 -2.2112109661102295 0.03898867964744568 100.0 8 -0.06128118559718132
0.2119450569152832 -1.485486388206482 -0.3464246392250061 7.0 1 -0.06127887964248657
0.31641802191734314 -2.2204904556274414 0.11754656583070755 100.0 9 -0.06127657741308212
0.2556379735469818 -1.7939612865447998 -0.3522334098815918 5.0 2 -0.061274271458387375
0.3183480501174927 -2.2368295192718506 0.19766922295093536 60.0 10 -0.061271969228982925
0.32830825448036194 -2.3097033500671387 -0.36949828267097473 100.0 3 -0.06126966327428818
0.31584614515304565 -2.2248170375823975 0.27591222524642944 33.0 11 -0.06126736104488373
0.3254900872707367 -2.2956275939941406 -0.2846868336200714 100.0 4 -0.06126505509018898
0.31934380531311035 -2.255110740661621 0.3607378900051117 26.0 12 -0.06126275286078453
0.31147870421409607 -2.1995697021484375 -0.19435729086399078 100.0 5 -0.06126044690608978
0.3186424970626831 -2.252990484237671 0.44229528307914734 18.0 13 -0.06125814467668533
0.31510159373283386 -2.2307636737823486 -0.11806992441415787 100.0 6 -0.061255838721990585
0.31605038046836853 -2.2403039932250977 0.5223363637924194 13.0 14 -0.061253536492586136
0.3102427124977112 -2.2019126415252686 -0.038814153522253036 100.0 7 -0.06125123053789139
0.31388214230537415 -2.230562686920166 0.6035659909248352 12.0 15 -0.06124892830848694
0.175592839717865 -1.25897216796875 -0.34060588479042053 9.0 0 -0.0612281933426857
0.30871444940567017 -2.216261386871338 0.039058487862348557 100.0 8 -0.06122588738799095
0.20729544758796692 -1.490077257156372 -0.3473244309425354 7.0 1 -0.0612235851585865
0.3097647726535797 -2.229494571685791 0.11796525865793228 100.0 9 -0.061221279203891754
0.24721303582191467 -1.7792860269546509 -0.3491804599761963 6.0 2 -0.061218976974487305
0.3099903166294098 -2.233980178833008 0.1973206102848053 60.0 10 -0.06121667101979256
0.31943032145500183 -2.3049652576446533 -0.36855965852737427 100.0 3 -0.06121436879038811
0.3086226284503937 -2.2298386096954346 0.276399701833725 36.0 11 -0.06121206283569336
0.31964924931526184 -2.312480926513672 -0.28663671016693115 100.0 4 -0.06120976060628891
0.3093089163303375 -2.2405571937561035 0.3582349717617035 24.0 12 -0.06120745465159416
0.3027089834213257 -2.1927490234375 -0.19366006553173065 100.0 5 -0.06120515242218971
0.3099713921546936 -2.2482542991638184 0.44115039706230164 16.0 13 -0.061202846467494965
0.3037712872028351 -2.2061281204223633 -0.11670918762683868 100.0 6 -0.061200544238090515
0.30875954031944275 -2.2452547550201416 0.5232362151145935 13.0 14 -0.06119823828339577
0.30228230357170105 -2.2010014057159424 -0.03877924755215645 100.0 7 -0.06119593605399132
0.3053067624568939 -2.225903272628784 0.6020131707191467 12.0 15 -0.06119363009929657
0.17037488520145416 -1.251890778541565 -0.338535338640213 9.0 0 -0.061118125915527344
0.29974788427352905 -2.205383777618408 0.038849055767059326 100.0 8 -0.061115823686122894
0.20287738740444183 -1.4946186542510986 -0.3482242524623871 7.0 1 -0.061113517731428146
0.3026379942893982 -2.2324886322021484 0.11806992441415787 100.0 9 -0.0611112155020237
0.24315738677978516 -1.7937142848968506 -0.35185182094573975 6.0 2 -0.06110890954732895
0.3007093071937561 -2.221175193786621 0.1961004137992859 62.0 10 -0.0611066073179245
0.3104618489742279 -2.2962238788604736 -0.36699530482292175 87.0 3 -0.06110430136322975
0.3014920651912689 -2.2328169345855713 0.27664345502853394 37.0 11 -0.0611019991338253
0.3119789659976959 -2.313528299331665 -0.28663671016693115 100.0 4 -0.061099693179130554
0.3034590780735016 -2.253316879272461 0.36011216044425964 22.0 12 -0.061097390949726105
0.2942564785480499 -2.187868356704712 -0.19313712418079376 100.0 5 -0.06109508499503136
0.30225297808647156 -2.247324228286743 0.4407688081264496 18.0 13 -0.06109278276562691
0.29911255836486816 -2.2269182205200195 -0.11775590479373932 100.0 6 -0.06109047681093216
0.3023485541343689 -2.2539918422698975 0.5250357985496521 12.0 14 -0.06108817458152771
0.2955130338668823 -2.2059552669525146 -0.038849055767059326 100.0 7 -0.06108586862683296
0.2984359860420227 -2.2307329177856445 0.6030483841896057 12.0 15 -0.06108356639742851
0.16629227995872498 -1.25633704662323 -0.3395705819129944 9.0 0 -0.061062831431627274
0.291522741317749 -2.2024521827697754 0.03877924755215645 100.0 8 -0.061060525476932526
0.19612666964530945 -1.483726143836975 -0.3455248177051544 7.0 1 -0.061058223247528076
0.29484325647354126 -2.2335314750671387 0.11806992441415787 100.0 9 -0.06105591729283333
0.2373512089252472 -1.8004326820373535 -0.35299667716026306 5.0 2 -0.06105361506342888
0.2936067581176758 -2.230163812637329 0.1967976689338684 62.0 10 -0.06105130910873413
0.3015286326408386 -2.293429374694824 -0.3663695454597473 90.0 3 -0.06104900687932968
0.2926611304283142 -2.225982904434204 0.2756684720516205 37.0 11 -0.061046700924634933
0.3039015531539917 -2.314603090286255 -0.28663671016693115 100.0 4 -0.061044398695230484
0.2953347861766815 -2.252403736114502 0.359799325466156 23.0 12 -0.061042092740535736
0.28687599301338196 -2.1908578872680664 -0.1933114379644394 100.0 5 -0.06103979051113129
0.2927412688732147 -2.2386837005615234 0.4388607144355774 16.0 13 -0.06103748455643654
0.2901725769042969 -2.2220585346221924 -0.11744190007448196 100.0 6 -0.06103518232703209
0.2950931787490845 -2.262814521789551 0.5268353819847107 12.0 14 -0.06103287637233734
0.28806957602500916 -2.208956480026245 -0.038883961737155914 100.0 7 -0.06103057414293289
0.29064738750457764 -2.2317609786987305 0.6030483841896057 12.0 15 -0.061028268188238144
0.16239957511425018 -1.260741949081421 -0.34060588479042053 10.0 0 -0.061007533222436905
0.2839585840702057 -2.207472562789917 0.038849055767059326 100.0 8 -0.061005230993032455
0.18969406187534332 -1.4767036437988281 -0.3437252342700958 7.0 1 -0.06100292503833771
0.28602707386016846 -2.226623296737671 0.11765124648809433 100.0 9 -0.06100062280893326
0.22856725752353668 -1.781777262687683 -0.3491804599761963 5.0 2 -0.06099831685423851
0.28632646799087524 -2.2351274490356445 0.19714628159999847 66.0 10 -0.06099601462483406
0.2937718629837036 -2.2964274883270264 -0.3666824400424957 81.0 3 -0.06099370867013931
0.28450021147727966 -2.2270407676696777 0.2756684720516205 34.0 11 -0.06099140644073486
0.29441121220588684 -2.3078248500823975 -0.2856617569923401 100.0 4 -0.060989100486040115
0.28822073340415955 -2.2592992782592773 0.3607378900051117 25.0 12 -0.060986798256635666
0.2809893786907196 -2.2056806087493896 -0.1945316195487976 100.0 5 -0.06098449230194092
0.2854202091693878 -2.243587017059326 0.43962395191192627 16.0 13 -0.06098219007253647
0.28165945410728455 -2.217113494873047 -0.11712788045406342 100.0 6 -0.06097988411784172
0.2852308452129364 -2.2483649253845215 0.5232362151145935 12.0 14 -0.06097758188843727
0.28086063265800476 -2.213916063308716 -0.03895376995205879 100.0 7 -0.06097527965903282
0.28382641077041626 -2.2404282093048096 0.6051189303398132 12.0 15 -0.060972973704338074
0.1589580625295639 -1.2689685821533203 -0.34267643094062805 9.0 0 -0.060952238738536835
0.2771338224411011 -2.2123703956604004 0.038918863981962204 100.0 8 -0.06094993278384209
0.1852799504995346 -1.481191873550415 -0.3446250259876251 7.0 1 -0.06094763055443764
0.27775803208351135 -2.223644495010376 0.11744190007448196 100.0 9 -0.06094532459974289
0.22186003625392914 -1.77866792678833 -0.3484172523021698 5.0 2 -0.06094302237033844
0.2790151834487915 -2.240067720413208 0.19749490916728973 64.0 10 -0.06094071641564369
0.28713154792785645 -2.305229902267456 -0.36793389916419983 77.0 3 -0.06093841418623924
0.2778490483760834 -2.233881711959839 0.276399701833725 34.0 11 -0.060936108231544495
0.28626713156700134 -2.3048486709594727 -0.28517428040504456 100.0 4 -0.060933806002140045
0.27935996651649475 -2.2524502277374268 0.3594864308834076 24.0 12 -0.060931503772735596
0.2735332250595093 -2.208625316619873 -0.19470593333244324 100.0 5 -0.06092919781804085
0.27918532490730286 -2.254262924194336 0.44153204560279846 15.0 13 -0.0609268955886364
0.27504104375839233 -2.223982095718384 -0.11744190007448196 100.0 6 -0.06092458963394165
0.2765791416168213 -2.239628314971924 0.5209866762161255 12.0 14 -0.0609222874045372
0.2721516489982605 -2.206944465637207 -0.038814153522253036 100.0 7 -0.06091998144984245
0.27671265602111816 -2.247157096862793 0.6066718697547913 12.0 15 -0.060917679220438004
0.15287916362285614 -1.2541475296020508 -0.338535338640213 8.0 0 -0.060896940529346466
0.2689264416694641 -2.2093541622161865 0.038849055767059326 100.0 8 -0.06089463829994202
0.18057870864868164 -1.4856985807418823 -0.3455248177051544 7.0 1 -0.06089233234524727
0.2699940502643585 -2.2246005535125732 0.11744190007448196 100.0 9 -0.06089003011584282
0.21501430869102478 -1.7715981006622314 -0.34689077734947205 5.0 2 -0.06088772416114807
0.2711060643196106 -2.2370245456695557 0.19714628159999847 64.0 10 -0.06088542193174362
0.2793205678462982 -2.3081791400909424 -0.36824676394462585 69.0 3 -0.06088311970233917
0.27052557468414307 -2.2387795448303223 0.2768871784210205 33.0 11 -0.060880813747644424
0.27822017669677734 -2.3058340549468994 -0.28517428040504456 100.0 4 -0.060878511518239975
0.2700779438018799 -2.2416443824768066 0.35760921239852905 22.0 12 -0.06087620556354523
0.2648700177669525 -2.2016541957855225 -0.19400867819786072 100.0 5 -0.06087390333414078
0.271783709526062 -2.259122133255005 0.44229528307914734 15.0 13 -0.06087159737944603
0.26799076795578003 -2.23087739944458 -0.11775590479373932 100.0 6 -0.06086929515004158
0.26992008090019226 -2.2502543926239014 0.5232362151145935 12.0 14 -0.06086698919534683
0.2637330889701843 -2.2019243240356445 -0.03870943933725357 181.0 7 -0.06086468696594238
0.26863744854927063 -2.2461910247802734 0.606154203414917 12.0 15 -0.060862381011247635
0.14828158915042877 -1.254699468612671 -0.338535338640213 9.0 0 -0.060841646045446396
0.26074355840682983 -2.206307888031006 0.03877924755215645 100.0 8 -0.06083934009075165
0.17447802424430847 -1.4785785675048828 -0.3437252342700958 7.0 1 -0.0608370378613472
0.26316213607788086 -2.2334632873535156 0.1178605854511261 100.0 9 -0.06083473563194275
0.2103547602891922 -1.7879726886749268 -0.34994372725486755 5.0 2 -0.060832429677248
0.2619752883911133 -2.230088233947754 0.19644904136657715 62.0 10 -0.06083012744784355
0.2703985273838043 -2.3052637577056885 -0.3676210343837738 64.0 3 -0.060827821493148804
0.2629406154155731 -2.2416818141937256 0.27713093161582947 30.0 11 -0.060825519263744354
0.27155473828315735 -2.3186206817626953 -0.28663671016693115 100.0 4 -0.060823213309049606
0.26385754346847534 -2.25630784034729 0.359799325466156 22.0 12 -0.06082091107964516
0.25672125816345215 -2.1986074447631836 -0.19366006553173065 100.0 5 -0.06081860512495041
0.2625923454761505 -2.252302885055542 0.4407688081264496 15.0 13 -0.06081630289554596
0.2598123252391815 -2.231844663619995 -0.11775590479373932 100.0 6 -0.06081399694085121
0.26212090253829956 -2.2550997734069824 0.5241360068321228 11.0 14 -0.06081169471144676
0.25673815608024597 -2.2087905406951904 -0.038814153522253036 199.0 7 -0.060809388756752014
0.25945883989334106 -2.2356014251708984 0.6030483841896057 12.0 15 -0.060807086527347565
0.1430206447839737 -1.2475322484970093 -0.3364647626876831 9.0 0 -0.060786351561546326
0.2522001564502716 -2.203275203704834 0.03870943933725357 100.0 8 -0.06078404560685158
0.16817262768745422 -1.4714635610580444 -0.34192562103271484 7.0 1 -0.06078174337744713
0.25542715191841125 -2.2383816242218018 0.11806992441415787 100.0 9 -0.06077943742275238
0.2027769386768341 -1.7769925594329834 -0.3476540148258209 5.0 2 -0.06077713519334793
0.25464025139808655 -2.2349483966827393 0.1967976689338684 56.0 10 -0.06077482923865318
0.26123353838920593 -2.296379804611206 -0.3660567104816437 55.0 3 -0.060772527009248734
0.25405052304267883 -2.236713171005249 0.276399701833725 29.0 11 -0.060770221054553986
0.2630549967288971 -2.3196003437042236 -0.28663671016693115 100.0 4 -0.060767918825149536
0.2555859684944153 -2.2572598457336426 0.359799325466156 21.0 12 -0.06076561287045479
0.24882064759731293 -2.1975104808807373 -0.19348573684692383 100.0 5 -0.06076331064105034
0.2534056603908539 -2.2415008544921875 0.43847909569740295 12.0 13 -0.06076100468635559
0.24933215975761414 -2.2089221477508545 -0.11649984866380692 100.0 6 -0.06075870245695114
0.2551201581954956 -2.263746976852417 0.5259355902671814 11.0 14 -0.06075639650225639
0.24841691553592682 -2.2077295780181885 -0.03877924755215645 193.0 7 -0.060754094272851944
0.2519102096557617 -2.2422969341278076 0.6046013236045837 11.0 15 -0.060751788318157196
0.13951851427555084 -1.2557040452957153 -0.338535338640213 8.0 0 -0.06073105335235596
0.24538986384868622 -2.2120919227600098 0.038849055767059326 100.0 8 -0.06072875112295151
0.16303500533103943 -1.4720417261123657 -0.34192562103271484 7.0 1 -0.06072644516825676
0.24717338383197784 -2.2352893352508545 0.1178605854511261 100.0 9 -0.06072414293885231
0.1970045417547226 -1.7815922498703003 -0.3484172523021698 5.0 2 -0.06072183698415756
0.24771174788475037 -2.2437450885772705 0.19749490916728973 53.0 10 -0.06071953475475311
0.25364887714385986 -2.3012046813964844 -0.3666824400424957 55.0 3 -0.060717228800058365
0.24602417647838593 -2.2356131076812744 0.276155948638916 26.0 11 -0.060714926570653915
0.25408920645713806 -2.3126115798950195 -0.2856617569923401 100.0 4 -0.06071262061595917
0.2479206770658493 -2.260101556777954 0.36011216044425964 20.0 12 -0.06071031838655472
0.24201758205890656 -2.2062876224517822 -0.19418299198150635 100.0 5 -0.06070801243185997
0.24686217308044434 -2.2540812492370605 0.4407688081264496 12.0 13 -0.06070571020245552
0.24140295386314392 -2.207793712615967 -0.11639518290758133 100.0 6 -0.06070340424776077
0.24637094140052795 -2.2568747997283936 0.5241360068321228 10.0 14 -0.06070110201835632
0.2417922168970108 -2.218522787094116 -0.03895376995205879 100.0 7 -0.060698799788951874
0.2449173927307129 -2.2508444786071777 0.6066718697547913 10.0 15 -0.060696493834257126
0.1351342648267746 -1.256183385848999 -0.338535338640213 9.0 0 -0.06067575886845589
0.23809374868869781 -2.216911792755127 0.038918863981962204 100.0 8 -0.06067345291376114
0.15914230048656464 -1.4842276573181152 -0.3446250259876251 7.0 1 -0.06067115068435669
0.23912063241004944 -2.2301390171051025 0.11754656583070755 100.0 9 -0.06066884472966194
0.1903662532567978 -1.778364896774292 -0.3476540148258209 5.0 2 -0.06066654250025749
0.24072493612766266 -2.2525205612182617 0.19819216430187225 52.0 10 -0.060664236545562744
0.24624353647232056 -2.307968854904175 -0.3676210343837738 48.0 3 -0.060661934316158295
0.23821885883808136 -2.2364583015441895 0.276155948638916 27.0 11 -0.06065962836146355
0.24559526145458221 -2.3095366954803467 -0.28517428040504456 100.0 4 -0.0606573261320591
0.23958894610404968 -2.25305438041687 0.35886070132255554 20.0 12 -0.06065502017736435
0.2343149483203888 -2.2071189880371094 -0.19418299198150635 93.0 5 -0.0606527179479599
0.23919928073883057 -2.2568814754486084 0.44115039706230164 12.0 13 -0.06065041571855545
0.23369477689266205 -2.208622932434082 -0.11639518290758133 100.0 6 -0.0606481097638607
0.23808173835277557 -2.25384521484375 0.5232362151145935 11.0 14 -0.06064580753445625
0.2335936576128006 -2.211357831954956 -0.038814153522253036 100.0 7 -0.060643501579761505
0.237857386469841 -2.2554867267608643 0.607707142829895 11.0 15 -0.060641199350357056
0.12954911589622498 -1.245118498802185 -0.33542948961257935 10.0 0 -0.06062046065926552
0.23115471005439758 -2.2216670513153076 0.03898867964744568 100.0 8 -0.06061815842986107
0.15421949326992035 -1.4847471714019775 -0.3446250259876251 8.0 1 -0.06061585247516632
0.23133420944213867 -2.2309601306915283 0.11754656583070755 100.0 9 -0.06061355024576187
0.1825404167175293 -1.7633960247039795 -0.3446010649204254 5.0 2 -0.06061124429106712
0.2316320687532425 -2.2414557933807373 0.19714628159999847 52.0 10 -0.060608942061662674
0.23716722428798676 -2.295018434524536 -0.3654309809207916 40.0 3 -0.060606636106967926
0.23161594569683075 -2.2451345920562744 0.27713093161582947 25.0 11 -0.06060433387756348
0.23874884843826294 -2.318236827850342 -0.2861492335796356 100.0 4 -0.06060203164815903
0.23152102530002594 -2.2519116401672363 0.3585478365421295 19.0 12 -0.06059972569346428
0.22559180855751038 -2.1980137825012207 -0.1933114379644394 91.0 5 -0.06059742346405983
0.2335178107023239 -2.2752392292022705 0.44458499550819397 12.0 13 -0.06059511750936508
0.22718362510204315 -2.2173333168029785 -0.11681386828422546 100.0 6 -0.06059281527996063
0.23100341856479645 -2.2584996223449707 0.5241360068321228 11.0 14 -0.060590509325265884
0.22546710073947906 -2.208181142807007 -0.03874434158205986 100.0 7 -0.060588207095861435
0.22880738973617554 -2.24477219581604 0.6046013236045837 11.0 15 -0.06058590114116669
0.12541939318180084 -1.2455413341522217 -0.33542948961257935 10.0 0 -0.06056516617536545
0.22259840369224548 -2.2145016193389893 0.038849055767059326 100.0 8 -0.0605628602206707
0.14864666759967804 -1.4813984632492065 -0.3437252342700958 8.0 1 -0.06056055799126625
0.2245408296585083 -2.2416906356811523 0.11806992441415787 100.0 9 -0.0605582520365715
0.17747439444065094 -1.7718056440353394 -0.34612753987312317 5.0 2 -0.06055594980716705
0.223008394241333 -2.230316638946533 0.1961004137992859 49.0 10 -0.060553647577762604
0.22954697906970978 -2.2997632026672363 -0.3660567104816437 35.0 3 -0.060551341623067856
0.2249586433172226 -2.2577810287475586 0.2785933315753937 26.0 11 -0.060549039393663406
0.23065516352653503 -2.3190560340881348 -0.2861492335796356 100.0 4 -0.06054673343896866
0.2234634906053543 -2.2507405281066895 0.3582349717617035 19.0 12 -0.06054443120956421
0.21791814267635345 -2.1987876892089844 -0.1933114379644394 94.0 5 -0.06054212525486946
0.22267015278339386 -2.2467353343963623 0.4388607144355774 12.0 13 -0.06053982302546501
0.21983548998832703 -2.222087860107422 -0.11702320724725723 100.0 6 -0.060537517070770264
0.22311805188655853 -2.2592921257019043 0.5241360068321228 11.0 14 -0.060535214841365814
0.2185426652431488 -2.2169148921966553 -0.038883961737155914 100.0 7 -0.060532908886671066
0.22021344304084778 -2.2378666400909424 0.6025307774543762 11.0 15 -0.06053060665726662
0.12085339426994324 -1.2459925413131714 -0.33542948961257935 9.0 0 -0.06050987169146538
0.21467363834381104 -2.2132747173309326 0.038814153522253036 100.0 8 -0.06050756573677063
0.14197231829166412 -1.4663909673690796 -0.34012600779533386 8.0 1 -0.06050526350736618
0.21729107201099396 -2.248424768447876 0.11838394403457642 100.0 9 -0.06050295755267143
0.170225128531456 -1.764627456665039 -0.3446010649204254 5.0 2 -0.06050065532326698
0.2157871425151825 -2.241034984588623 0.19697196781635284 48.0 10 -0.060498349368572235
0.21941572427749634 -2.2828922271728516 -0.3632408678531647 33.0 3 -0.060496047139167786
0.21631668508052826 -2.2506487369537354 0.2776183784008026 25.0 11 -0.06049374118447304
0.2233169823884964 -2.327751398086548 -0.2871242165565491 100.0 4 -0.06049143895506859
0.21654729545116425 -2.261338710784912 0.359799325466156 19.0 12 -0.06048913300037384
0.2106204479932785 -2.2035017013549805 -0.19366006553173065 98.0 5 -0.06048683077096939
0.2144339233636856 -2.2475364208221436 0.4388607144355774 12.0 13 -0.06048452481627464
0.21093249320983887 -2.214925765991211 -0.1166045218706131 100.0 6 -0.060482222586870193
0.21520459651947021 -2.263974666595459 0.5250357985496521 10.0 14 -0.060479916632175446
0.2109917551279068 -2.2196550369262695 -0.038918863981962204 100.0 7 -0.060477614402770996
0.21349528431892395 -2.2501609325408936 0.6056365966796875 11.0 15 -0.06047530844807625
0.11722259223461151 -1.2541006803512573 -0.33750003576278687 9.0 0 -0.06045457348227501
0.20693188905715942 -2.218029022216797 0.038883961737155914 100.0 8 -0.06045227125287056
0.13731949031352997 -1.4746628999710083 -0.34192562103271484 8.0 1 -0.06044996529817581
0.20756998658180237 -2.2332963943481445 0.11754656583070755 99.0 9 -0.06044766306877136
0.16406455636024475 -1.765210747718811 -0.3446010649204254 5.0 2 -0.060445357114076614
0.20833146572113037 -2.2457423210144043 0.1973206102848053 49.0 10 -0.060443054884672165
0.21162740886211395 -2.285611629486084 -0.3635537326335907 31.0 3 -0.06044074892997742
0.2066044807434082 -2.2356128692626953 0.2756684720516205 25.0 11 -0.06043844670057297
0.21332544088363647 -2.3127405643463135 -0.28517428040504456 100.0 4 -0.06043614074587822
0.2084386646747589 -2.2640843391418457 0.36011216044425964 19.0 12 -0.06043383851647377
0.2038409560918808 -2.2141432762145996 -0.1945316195487976 98.0 5 -0.06043153256177902
0.20730574429035187 -2.256091356277466 0.44038718938827515 12.0 13 -0.06042923033237457
0.202834814786911 -2.2116706371307373 -0.11639518290758133 100.0 6 -0.060426924377679825
0.20730075240135193 -2.26471209526062 0.5250357985496521 10.0 14 -0.060424622148275375
0.20340090990066528 -2.2263877391815186 -0.03902358189225197 100.0 7 -0.06042231619358063
0.20664994418621063 -2.2663192749023438 0.6097776889801025 10.0 15 -0.06042001396417618
0.11319037526845932 -1.2583504915237427 -0.338535338640213 8.0 0 -0.06039927899837494
0.19954578578472137 -2.2227208614349365 0.03895376995205879 100.0 8 -0.06039697304368019
0.13217124342918396 -1.4751331806182861 -0.34192562103271484 8.0 1 -0.06039467081427574
0.1995951384305954 -2.232018232345581 0.11744190007448196 94.0 9 -0.060392364859580994
0.15825149416923523 -1.7696834802627563 -0.3453643023967743 5.0 2 -0.060390062630176544
0.20155341923236847 -2.2583630084991455 0.1983664631843567 49.0 10 -0.060387756675481796
0.20399855077266693 -2.290271282196045 -0.36417946219444275 27.0 3 -0.06038545444607735
0.1998540610074997 -2.2481844425201416 0.27713093161582947 24.0 11 -0.0603831484913826
0.20560169219970703 -2.3174257278442383 -0.2856617569923401 100.0 4 -0.06038084626197815
0.20018601417541504 -2.2608625888824463 0.3594864308834076 19.0 12 -0.0603785403072834
0.19646255671977997 -2.218810558319092 -0.19488023221492767 90.0 5 -0.06037623807787895
0.19960199296474457 -2.258756637573242 0.4407688081264496 12.0 13 -0.060373932123184204
0.19581519067287445 -2.220323324203491 -0.11681386828422546 100.0 6 -0.060371629893779755
0.19888152182102203 -2.2595982551574707 0.5236860513687134 10.0 14 -0.060369327664375305
0.19387827813625336 -2.2071638107299805 -0.03867453336715698 100.0 7 -0.06036702170968056
0.19840052723884583 -2.2631778717041016 0.6087424159049988 10.0 15 -0.06036471948027611
0.10779903829097748 -1.2471898794174194 -0.33542948961257935 9.0 0 -0.06034398078918457
0.1924731731414795 -2.2313730716705322 0.039093390107154846 100.0 8 -0.06034167855978012
0.1266869455575943 -1.4717024564743042 -0.34102579951286316 8.0 1 -0.06033937260508537
0.19248643517494202 -2.240661144256592 0.1178605854511261 92.0 9 -0.06033707037568092
0.15207313001155853 -1.770225167274475 -0.3453643023967743 5.0 2 -0.060334764420986176
0.19247794151306152 -2.24515700340271 0.19714628159999847 46.0 10 -0.060332462191581726
0.19583405554294586 -2.289001226425171 -0.3638666272163391 26.0 3 -0.06033015623688698
0.1928497850894928 -2.2587578296661377 0.2783496081829071 23.0 11 -0.06032785400748253
0.19751133024692535 -2.318129301071167 -0.2856617569923401 100.0 4 -0.06032554805278778
0.19195787608623505 -2.2576112747192383 0.35886070132255554 17.0 12 -0.06032324582338333
0.18787196278572083 -2.209556818008423 -0.19400867819786072 98.0 5 -0.06032094359397888
0.19271211326122284 -2.271177053451538 0.44305849075317383 12.0 13 -0.060318637639284134
0.18755826354026794 -2.2150228023529053 -0.11649984866380692 100.0 6 -0.060316335409879684
0.19181318581104279 -2.2699878215789795 0.5259355902671814 10.0 14 -0.060314029455184937
0.185668483376503 -2.2018492221832275 -0.038569819182157516 100.0 7 -0.06031172722578049
0.1901756078004837 -2.2600064277648926 0.607707142829895 10.0 15 -0.06030942127108574
0.1028064489364624 -1.23985755443573 -0.3333589434623718 9.0 0 -0.0602886863052845
0.18451836705207825 -2.2300384044647217 0.039058487862348557 100.0 8 -0.06028638035058975
0.12186964601278305 -1.4760199785232544 -0.34192562103271484 8.0 1 -0.0602840781211853
0.18499183654785156 -2.24530029296875 0.11806992441415787 86.0 9 -0.060281772166490555
0.1458929181098938 -1.7707452774047852 -0.3453643023967743 5.0 2 -0.060279469937086105
0.18431343138217926 -2.2418439388275146 0.1967976689338684 46.0 10 -0.060277167707681656
0.1878429651260376 -2.289670944213867 -0.3638666272163391 25.0 3 -0.06027486175298691
0.18480204045772552 -2.2574386596679688 0.27810585498809814 24.0 11 -0.06027255952358246
0.18974122405052185 -2.3227615356445312 -0.2861492335796356 100.0 4 -0.06027025356888771
0.18439733982086182 -2.262204885482788 0.3594864308834076 18.0 12 -0.06026795133948326
0.17967262864112854 -2.2042417526245117 -0.19348573684692383 95.0 5 -0.06026564538478851
0.1844649463891983 -2.2679224014282227 0.44229528307914734 12.0 13 -0.060263343155384064
0.18192531168460846 -2.2415432929992676 -0.1178605854511261 100.0 6 -0.060261037200689316
0.1838884949684143 -2.270643472671509 0.5259355902671814 10.0 14 -0.060258734971284866
0.1783038079738617 -2.206470251083374 -0.038639627397060394 100.0 7 -0.06025642901659012
0.181508868932724 -2.251028537750244 0.6051189303398132 10.0 15 -0.06025412678718567
0.09908954054117203 -1.2479119300842285 -0.33542948961257935 9.0 0 -0.06023338809609413
0.17578499019145966 -2.2187082767486572 0.038849055767059326 100.0 8 -0.06023108586668968
0.1157953217625618 -1.4647802114486694 -0.3392261862754822 8.0 1 -0.06022878363728523
0.17746718227863312 -2.2499144077301025 0.11827926337718964 84.0 9 -0.060226477682590485
0.13909342885017395 -1.763414978981018 -0.34383782744407654 5.0 2 -0.060224175453186035
0.1769554316997528 -2.248432159423828 0.1973206102848053 44.0 10 -0.06022186949849129
0.1790763884782791 -2.280466318130493 -0.3623022735118866 23.0 3 -0.06021956726908684
0.17614562809467316 -2.2481749057769775 0.2768871784210205 23.0 11 -0.06021726131439209
0.1822512000799179 -2.3313260078430176 -0.2871242165565491 100.0 4 -0.06021495908498764
0.1766532063484192 -2.2648043632507324 0.359799325466156 16.0 12 -0.06021265313029289
0.17290683090686798 -2.216773509979248 -0.1945316195487976 84.0 5 -0.06021035090088844
0.1757856011390686 -2.258765935897827 0.44038718938827515 12.0 13 -0.060208044946193695
0.1727084070444107 -2.224243402481079 -0.11691854149103165 100.0 6 -0.060205742716789246
0.17611181735992432 -2.27321457862854 0.526385486125946 9.0 14 -0.0602034367620945
0.1709086149930954 -2.211066722869873 -0.03870943933725357 100.0 7 -0.06020113453269005
0.1739474982023239 -2.255500555038452 0.606154203414917 10.0 15 -0.0601988285779953
0.0947328731417656 -1.2482502460479736 -0.33542948961257935 9.0 0 -0.06017809361219406
0.16834135353565216 -2.2232964038848877 0.038918863981962204 100.0 8 -0.06017579138278961
0.11009420454502106 -1.4574028253555298 -0.3374266028404236 8.0 1 -0.060173485428094864
0.16901224851608276 -2.242553949356079 0.1178605854511261 84.0 9 -0.060171183198690414
0.13249464333057404 -1.7580167055130005 -0.3426929712295532 4.0 2 -0.060168877243995667
0.1697036176919937 -2.256983518600464 0.19801783561706543 43.0 10 -0.06016657501459122
0.17052356898784637 -2.273197889328003 -0.3610507845878601 21.0 3 -0.06016426905989647
0.16800059378147125 -2.244817018508911 0.276399701833725 21.0 11 -0.06016196683049202
0.17322561144828796 -2.320070505142212 -0.2856617569923401 100.0 4 -0.06015966087579727
0.16903987526893616 -2.2693471908569336 0.36042505502700806 16.0 12 -0.06015735864639282
0.16501972079277039 -2.215376853942871 -0.19435729086399078 94.0 5 -0.060155052691698074
0.16804538667201996 -2.2613234519958496 0.4407688081264496 12.0 13 -0.060152750462293625
0.1646481454372406 -2.220848798751831 -0.11670918762683868 100.0 6 -0.06015044450759888
0.16860689222812653 -2.2796456813812256 0.5277352333068848 10.0 14 -0.06014814227819443
0.16348402202129364 -2.2156383991241455 -0.03877924755215645 100.0 7 -0.06014583632349968
0.16621476411819458 -2.2580208778381348 0.6066718697547913 10.0 15 -0.06014353409409523
0.09065398573875427 -1.2524269819259644 -0.3364647626876831 9.0 0 -0.06012279912829399
0.1611558347940445 -2.2318484783172607 0.039058487862348557 100.0 8 -0.06012049317359924
0.10556640475988388 -1.4655529260635376 -0.3392261862754822 8.0 1 -0.060118190944194794
0.16075372695922852 -2.2371537685394287 0.11754656583070755 81.0 9 -0.060115884989500046
0.12677927315235138 -1.7643431425094604 -0.34383782744407654 5.0 2 -0.060113582760095596
0.16196635365486145 -2.259549617767334 0.19819216430187225 39.0 10 -0.06011127680540085
0.16301044821739197 -2.2796902656555176 -0.36198940873146057 21.0 3 -0.0601089745759964
0.15988144278526306 -2.2414298057556152 0.27591222524642944 22.0 11 -0.06010666862130165
0.16456210613250732 -2.3127408027648926 -0.2846868336200714 100.0 4 -0.0601043663918972
0.16027840971946716 -2.258100748062134 0.3585478365421295 15.0 12 -0.060102060437202454
0.15799112617969513 -2.2258760929107666 -0.19522884488105774 90.0 5 -0.060099758207798004
0.16070573031902313 -2.2697296142578125 0.44229528307914734 12.0 13 -0.060097452253103256
0.15717604756355286 -2.2253947257995605 -0.11691854149103165 100.0 6 -0.06009515002369881
0.15941575169563293 -2.2627248764038086 0.5236860513687134 10.0 14 -0.06009284406900406
0.15490779280662537 -2.2042267322540283 -0.038569819182157516 100.0 7 -0.06009054183959961
0.15927766263484955 -2.2720770835876465 0.610295295715332 10.0 15 -0.06008823961019516
0.08575080335140228 -1.245026707649231 -0.3343942165374756 9.0 0 -0.06006750091910362
0.15391214191913605 -2.240377426147461 0.03919810429215431 100.0 8 -0.06006519868969917
0.10044998675584793 -1.4659124612808228 -0.3392261862754822 8.0 1 -0.060062892735004425
0.15335215628147125 -2.2436790466308594 0.1178605854511261 79.0 9 -0.060060590505599976
0.11981652677059174 -1.7530227899551392 -0.3415481150150299 5.0 2 -0.06005828455090523
0.15380726754665375 -2.2561256885528564 0.197843536734581 38.0 10 -0.06005598232150078
0.15545383095741272 -2.2861580848693848 -0.36292800307273865 20.0 3 -0.06005367636680603
0.15339961647987366 -2.261779546737671 0.2783496081829071 23.0 11 -0.06005137413740158
0.15702424943447113 -2.321223258972168 -0.2856617569923401 100.0 4 -0.06004906818270683
0.1521291881799698 -2.254704713821411 0.35792210698127747 16.0 12 -0.06004676595330238
0.15129336714744568 -2.242316961288452 -0.19662334024906158 100.0 5 -0.060044459998607635
0.1529134064912796 -2.272235870361328 0.4426769018173218 11.0 13 -0.060042157769203186
0.1506110280752182 -2.2438647747039795 -0.1178605854511261 100.0 6 -0.06003985553979874
0.15151633322238922 -2.2632675170898438 0.5236860513687134 9.0 14 -0.06003754958510399
0.1482784003019333 -2.2207162380218506 -0.038849055767059326 100.0 7 -0.06003524735569954
0.150960773229599 -2.266836404800415 0.6087424159049988 10.0 15 -0.06003294140100479
0.08115226775407791 -1.2414629459381104 -0.3333589434623718 9.0 0 -0.06001220643520355
0.14505033195018768 -2.2249374389648438 0.038918863981962204 100.0 8 -0.060009900480508804
0.09533233940601349 -1.4662542343139648 -0.3392261862754822 8.0 1 -0.060007598251104355
0.14591091871261597 -2.244175434112549 0.1178605854511261 70.0 9 -0.06000529229640961
0.11356950551271439 -1.7514712810516357 -0.34116649627685547 5.0 2 -0.06000299006700516
0.14541687071323395 -2.2486956119537354 0.19714628159999847 39.0 10 -0.06000068411231041
0.14683698117733002 -2.2768301963806152 -0.3613636791706085 20.0 3 -0.05999838188290596
0.14524869620800018 -2.2583394050598145 0.2778621315956116 21.0 11 -0.05999607965350151
0.14942891895771027 -2.329681158065796 -0.28663671016693115 100.0 4 -0.05999377369880676
0.1449042707681656 -2.2591392993927 0.3585478365421295 16.0 12 -0.05999147146940231
0.14346522092819214 -2.2428314685821533 -0.19662334024906158 100.0 5 -0.059989165514707565
0.14473111927509308 -2.2688369750976562 0.4419136643409729 11.0 13 -0.059986863285303116
0.14265041053295135 -2.2423834800720215 -0.11775590479373932 100.0 6 -0.05998455733060837
0.1443556398153305 -2.275451898574829 0.526385486125946 9.0 14 -0.05998225510120392
0.14053378999233246 -2.2152087688446045 -0.03874434158205986 100.0 7 -0.05997994914650917
0.14283286035060883 -2.2576844692230225 0.606154203414917 10.0 15 -0.05997764691710472
0.07705678790807724 -1.2455949783325195 -0.3343942165374756 9.0 0 -0.059956908226013184
0.1375478059053421 -2.2234103679656982 0.038883961737155914 100.0 8 -0.059954605996608734
0.09046948701143265 -1.4665623903274536 -0.3392261862754822 8.0 1 -0.059952303767204285
0.13856709003448486 -2.2526450157165527 0.11827926337718964 70.0 9 -0.05994999781250954
0.10745520144701004 -1.751857042312622 -0.34116649627685547 4.0 2 -0.05994769558310509
0.1380527913570404 -2.2571444511413574 0.197843536734581 39.0 10 -0.05994538962841034
0.13856227695941925 -2.265474557876587 -0.3594864308834076 19.0 3 -0.05994308739900589
0.1372757852077484 -2.250882863998413 0.2768871784210205 20.0 11 -0.05994078144431114
0.1419437825679779 -2.334127187728882 -0.2871242165565491 100.0 4 -0.05993847921490669
0.138093501329422 -2.277377128601074 0.3613636791706085 14.0 12 -0.059936173260211945
0.13587583601474762 -2.247296094894409 -0.19697196781635284 100.0 5 -0.059933871030807495
0.1373249888420105 -2.27126407623291 0.44229528307914734 12.0 13 -0.05993156507611275
0.13437248766422272 -2.228888988494873 -0.11702320724725723 100.0 6 -0.0599292628467083
0.1368090808391571 -2.2759180068969727 0.526385486125946 9.0 14 -0.05992695689201355
0.13339854776859283 -2.2256662845611572 -0.038918863981962204 100.0 7 -0.0599246546626091
0.135527104139328 -2.2678115367889404 0.6087424159049988 10.0 15 -0.05992234870791435
0.07315155118703842 -1.2497007846832275 -0.33542948961257935 9.0 0 -0.05990161374211311
0.12978576123714447 -2.223876953125 0.038883961737155914 100.0 8 -0.059899311512708664
0.08467064052820206 -1.455196499824524 -0.3365267813205719 8.0 1 -0.059897005558013916
0.13051612675189972 -2.2431223392486572 0.11775590479373932 61.0 9 -0.05989470332860947
0.10175887495279312 -1.7541637420654297 -0.3415481150150299 5.0 2 -0.05989239737391472
0.13114243745803833 -2.2675349712371826 0.19871510565280914 34.0 10 -0.05989009514451027
0.13110850751399994 -2.2738325595855713 -0.3607378900051117 17.0 3 -0.05988778918981552
0.12941783666610718 -2.2513482570648193 0.2768871784210205 20.0 11 -0.05988548696041107
0.13311347365379333 -2.3227169513702393 -0.2856617569923401 100.0 4 -0.059883181005716324
0.13054059445858002 -2.277822494506836 0.3613636791706085 14.0 12 -0.059880878776311874
0.12876392900943756 -2.25370192527771 -0.19749490916728973 100.0 5 -0.059878572821617126
0.12906095385551453 -2.2658493518829346 0.44115039706230164 12.0 13 -0.05987627059221268
0.12636487185955048 -2.225356340408325 -0.11681386828422546 100.0 6 -0.05987396463751793
0.12886402010917664 -2.276381731033325 0.526385486125946 10.0 14 -0.05987166240811348
0.12567836046218872 -2.220106840133667 -0.038814153522253036 100.0 7 -0.05986935645341873
0.12789736688137054 -2.266319751739502 0.6082248091697693 9.0 15 -0.05986705422401428
0.06836418062448502 -1.2422326803207397 -0.3333589434623718 10.0 0 -0.05984631925821304
0.12284985184669495 -2.2322816848754883 0.03902358189225197 100.0 8 -0.059844013303518295
0.08005800098180771 -1.459360957145691 -0.3374266028404236 8.0 1 -0.059841711074113846
0.12268558144569397 -2.2435643672943115 0.11775590479373932 59.0 9 -0.0598394051194191
0.09552817791700363 -1.7525478601455688 -0.34116649627685547 5.0 2 -0.05983710289001465
0.12333448231220245 -2.269968271255493 0.19888940453529358 32.0 10 -0.0598347969353199
0.12303153425455093 -2.264392614364624 -0.35917356610298157 18.0 3 -0.05983249470591545
0.12238071858882904 -2.2596938610076904 0.2778621315956116 19.0 11 -0.0598301887512207
0.1254105269908905 -2.323145627975464 -0.2856617569923401 100.0 4 -0.059827886521816254
0.12237664312124252 -2.2743194103240967 0.3607378900051117 15.0 12 -0.059825580567121506
0.12121602892875671 -2.260106325149536 -0.19801783561706543 100.0 5 -0.059823278337717056
0.12196692079305649 -2.274106740951538 0.4426769018173218 11.0 13 -0.05982097238302231
0.11898481100797653 -2.2257630825042725 -0.11681386828422546 100.0 6 -0.05981867015361786
0.12069233506917953 -2.265120506286621 0.5236860513687134 9.0 14 -0.05981636419892311
0.11771554499864578 -2.216538190841675 -0.03874434158205986 100.0 7 -0.05981406196951866
0.12018981575965881 -2.2706105709075928 0.6092600226402283 10.0 15 -0.059811756014823914
0.0642443597316742 -1.242452621459961 -0.3333589434623718 9.0 0 -0.059804439544677734
0.11546885222196579 -2.240685224533081 0.03916320204734802 100.0 8 -0.059802137315273285
0.07476362586021423 -1.455739140510559 -0.3365267813205719 8.0 1 -0.05979983136057854
0.11526136845350266 -2.251957654953003 0.11817460507154465 58.0 9 -0.05979752913117409
0.08900997042655945 -1.745027780532837 -0.3396400213241577 5.0 2 -0.05979522317647934
0.11550174653530121 -2.2643954753875732 0.1983664631843567 33.0 10 -0.05979292094707489
0.11562822014093399 -2.274672508239746 -0.3607378900051117 16.0 3 -0.05979061499238014
0.11469297111034393 -2.2640724182128906 0.2783496081829071 20.0 11 -0.05978831276297569
0.11750057339668274 -2.3275344371795654 -0.2861492335796356 100.0 4 -0.059786006808280945
0.11423876136541367 -2.270787000656128 0.36011216044425964 15.0 12 -0.059783704578876495
0.1140245571732521 -2.274444580078125 -0.19923801720142365 100.0 5 -0.05978139862418175
0.11441498249769211 -2.290225028991699 0.4457298517227173 11.0 13 -0.0597790963947773
0.11231546849012375 -2.256105899810791 -0.11838394403457642 100.0 6 -0.05977679044008255
0.11355967819690704 -2.2810988426208496 0.5272852778434753 9.0 14 -0.0597744882106781
0.11037418246269226 -2.2249248027801514 -0.038883961737155914 100.0 7 -0.05977218225598335
0.11130958050489426 -2.2517216205596924 0.6040836572647095 9.0 15 -0.0597698800265789
0.05950486660003662 -1.2388205528259277 -0.33232367038726807 9.0 0 -0.059749145060777664
0.1066819429397583 -2.2291088104248047 0.03895376995205879 100.0 8 -0.059746839106082916
0.06961318105459213 -1.459896445274353 -0.3374266028404236 8.0 1 -0.05974453687667847
0.10748089104890823 -2.2623400688171387 0.11869796365499496 53.0 9 -0.05974223092198372
0.08233502507209778 -1.7394591569900513 -0.3384951651096344 5.0 2 -0.05973992869257927
0.10691891610622406 -2.258833408355713 0.197843536734581 29.0 10 -0.05973762273788452
0.10701116174459457 -2.2691614627838135 -0.359799325466156 14.0 3 -0.05973532050848007
0.10658024996519089 -2.2684433460235596 0.27883708477020264 19.0 11 -0.059733014553785324
0.10896889865398407 -2.3279495239257812 -0.2861492335796356 100.0 4 -0.059730712324380875
0.10600684583187103 -2.2731635570526123 0.36042505502700806 16.0 12 -0.05972840636968613
0.10596489906311035 -2.280818223953247 -0.19976095855236053 100.0 5 -0.05972610414028168
0.10565698146820068 -2.2827842235565186 0.44420334696769714 11.0 13 -0.05972379818558693
0.10358592867851257 -2.2465269565582275 -0.1178605854511261 100.0 6 -0.05972149595618248
0.10537801682949066 -2.285392999649048 0.5281850695610046 9.0 14 -0.05971919000148773
0.10240215808153152 -2.229309558868408 -0.03895376995205879 100.0 7 -0.05971688777208328
0.103409044444561 -2.259833335876465 0.606154203414917 10.0 15 -0.059714581817388535
0.05479271709918976 -1.2351703643798828 -0.3312883973121643 9.0 0 -0.059693846851587296
0.09824628382921219 -2.2234914302825928 0.038849055767059326 100.0 8 -0.059691544622182846
0.0640905350446701 -1.4562480449676514 -0.3365267813205719 8.0 1 -0.0596892386674881
0.09975876659154892 -2.2666921615600586 0.11890730261802673 52.0 9 -0.05968693643808365
0.07609087228775024 -1.7358132600784302 -0.3377319574356079 5.0 2 -0.0596846304833889
0.09898673743009567 -2.267171859741211 0.19854077696800232 29.0 10 -0.05968232825398445
0.09809275716543198 -2.255723714828491 -0.35760921239852905 14.0 3 -0.0596800222992897
0.09817960113286972 -2.2668352127075195 0.2785933315753937 19.0 11 -0.059677720069885254
0.10094907134771347 -2.3402328491210938 -0.2876116633415222 100.0 4 -0.059675414115190506
0.09832670539617538 -2.279440402984619 0.3613636791706085 14.0 12 -0.059673111885786057
0.09851575642824173 -2.2931175231933594 -0.20080682635307312 100.0 5 -0.05967080593109131
0.09701674431562424 -2.2674474716186523 0.44115039706230164 11.0 13 -0.05966850370168686
0.0954032763838768 -2.2388930320739746 -0.11744190007448196 100.0 6 -0.05966619774699211
0.09716613590717316 -2.2896575927734375 0.5290848612785339 9.0 14 -0.05966389551758766
0.0947045236825943 -2.2316513061523438 -0.03898867964744568 100.0 7 -0.05966159328818321
0.09568294882774353 -2.2640411853790283 0.6071895360946655 9.0 15 -0.059659287333488464
0.05048094689846039 -1.2353540658950806 -0.3312883973121643 9.0 0 -0.059638552367687225
0.09119915217161179 -2.231797456741333 0.03898867964744568 100.0 8 -0.05963624641299248
0.059102583676576614 -1.4525582790374756 -0.3356269896030426 7.0 1 -0.05963394418358803
0.09160330146551132 -2.2610394954681396 0.11859328299760818 50.0 9 -0.05963163822889328
0.06971492618322372 -1.7282215356826782 -0.33620548248291016 5.0 2 -0.05962933599948883
0.09123234450817108 -2.271484851837158 0.19888940453529358 31.0 10 -0.05962703004479408
0.09061187505722046 -2.2560367584228516 -0.35760921239852905 13.0 3 -0.05962472781538963
0.09042392671108246 -2.261198043823242 0.2778621315956116 18.0 11 -0.059622421860694885
0.0927140936255455 -2.328653573989868 -0.2861492335796356 100.0 4 -0.059620119631290436
0.09052607417106628 -2.283717393875122 0.36198940873146057 14.0 12 -0.059617817401885986
0.090825155377388 -2.301410675048828 -0.20150406658649445 100.0 5 -0.05961551144719124
0.08965184539556503 -2.2716803550720215 0.4419136643409729 10.0 13 -0.05961320921778679
0.08789981156587601 -2.23720121383667 -0.11733722686767578 100.0 6 -0.05961090326309204
0.08911600708961487 -2.2782840728759766 0.526385486125946 9.0 14 -0.05960860103368759
0.08691423386335373 -2.231968402862549 -0.03898867964744568 100.0 7 -0.059606295078992844
0.08830341696739197 -2.277874231338501 0.6108129620552063 10.0 15 -0.059603992849588394
0.04638403654098511 -1.235514760017395 -0.3312883973121643 9.0 0 -0.05958325415849686
0.08370652049779892 -2.240095376968384 0.039128296077251434 97.0 8 -0.05958095192909241
0.05403197929263115 -1.4527558088302612 -0.3356269896030426 8.0 1 -0.05957864597439766
0.08326688408851624 -2.2493703365325928 0.11796525865793228 50.0 9 -0.05957634374499321
0.06412853300571442 -1.7323671579360962 -0.33696869015693665 5.0 2 -0.05957403779029846
0.08406603336334229 -2.2817304134368896 0.19976095855236053 28.0 10 -0.05957173556089401
0.08251908421516418 -2.2504172325134277 -0.35667064785957336 12.0 3 -0.05956943333148956
0.0827474296092987 -2.267451047897339 0.2785933315753937 17.0 11 -0.059567127376794815
0.08458522707223892 -2.328963041305542 -0.2861492335796356 100.0 4 -0.059564825147390366
0.08248244225978851 -2.282045364379883 0.36167651414871216 15.0 12 -0.05956251919269562
0.08376854658126831 -2.3176281452178955 -0.2028985619544983 100.0 5 -0.05956021696329117
0.0820038765668869 -2.279827356338501 0.44344013929367065 10.0 13 -0.05955791100859642
0.08037596940994263 -2.2454781532287598 -0.11775590479373932 100.0 6 -0.05955560877919197
0.0811627060174942 -2.278581142425537 0.526385486125946 9.0 14 -0.05955330282449722
0.07954735308885574 -2.244248628616333 -0.03919810429215431 100.0 7 -0.05955100059509277
0.08069229871034622 -2.2878217697143555 0.6134011745452881 10.0 15 -0.059548694640398026
0.04193950071930885 -1.2318075895309448 -0.33025309443473816 9.0 0 -0.059527959674596786
0.07602221518754959 -2.244370698928833 0.03919810429215431 92.0 8 -0.05952565371990204
0.049091629683971405 -1.4568308591842651 -0.3365267813205719 8.0 1 -0.05952335149049759
0.07574913650751114 -2.2596280574798584 0.1184886172413826 47.0 9 -0.05952104926109314
0.057883672416210175 -1.7266939878463745 -0.3358238637447357 5.0 2 -0.05951874330639839
0.07590177655220032 -2.276035785675049 0.19923801720142365 26.0 10 -0.05951644107699394
0.07479407638311386 -2.2546401023864746 -0.3572963774204254 12.0 3 -0.059514135122299194
0.07496293634176254 -2.2716944217681885 0.2790808379650116 17.0 11 -0.059511832892894745
0.0765855684876442 -2.333211898803711 -0.28663671016693115 100.0 4 -0.0595095269382
0.0742582157254219 -2.2744221687316895 0.36042505502700806 15.0 12 -0.05950722470879555
0.07580796629190445 -2.3218889236450195 -0.20324717462062836 100.0 5 -0.0595049187541008
0.07417266815900803 -2.2840240001678467 0.44420334696769714 10.0 13 -0.05950261652469635
0.07266592979431152 -2.2497377395629883 -0.11796525865793228 100.0 6 -0.0595003105700016
0.07295812666416168 -2.271059513092041 0.5245858430862427 9.0 14 -0.05949800834059715
0.07171318680047989 -2.2445125579833984 -0.03919810429215431 100.0 7 -0.059495702385902405
0.07209192961454391 -2.2687807083129883 0.6082248091697693 9.0 15 -0.059493400156497955
0.0374034121632576 -1.2242226600646973 -0.32818254828453064 9.0 0 -0.059472665190696716
0.06782332807779312 -2.2326300144195557 0.03898867964744568 79.0 8 -0.05947035923600197
0.04400617629289627 -1.4569933414459229 -0.3365267813205719 8.0 1 -0.05946805700659752
0.06804114580154419 -2.2658677101135254 0.11880263686180115 45.0 9 -0.05946575105190277
0.05191511660814285 -1.728847861289978 -0.33620548248291016 5.0 2 -0.05946344882249832
0.06748051196336746 -2.260355234146118 0.197843536734581 26.0 10 -0.059461142867803574
0.06639624387025833 -2.237116813659668 -0.3544805347919464 12.0 3 -0.059458840638399124
0.06720861047506332 -2.2778944969177246 0.2798120379447937 18.0 11 -0.059456534683704376
0.06855673342943192 -2.3374338150024414 -0.2871242165565491 100.0 4 -0.05945423245429993
0.06666389852762222 -2.2865149974823 0.3623022735118866 15.0 12 -0.05945192649960518
0.06723983585834503 -2.320159673690796 -0.20307287573814392 100.0 5 -0.05944962427020073
0.06608595699071884 -2.280344247817993 0.44344013929367065 10.0 13 -0.05944731831550598
0.06510019302368164 -2.2599599361419678 -0.1184886172413826 100.0 6 -0.05944501608610153
0.06525322794914246 -2.279092311859131 0.526385486125946 9.0 14 -0.059442710131406784
