# .PCD v0.7 - Point Cloud Data file format
VERSION 0.7
FIELDS x y z intensity ring time
SIZE 4 4 4 4 4 4
TYPE F F F F F F
COUNT 1 1 1 1 1 1
WIDTH 548
HEIGHT 1
VIEWPOINT 0 0 0 1 0 0 0
POINTS 548
DATA ascii
-2.467374324798584 6.471580982208252 0.8504043221473694 86.0 11 -0.0832507461309433
-0.8475286960601807 2.224116325378418 -0.29224270582199097 3.0 4 -0.08324843645095825
-2.463596820831299 6.468454360961914 1.0962928533554077 67.0 12 -0.0832461342215538
-0.8672739267349243 2.2771267890930176 -0.2131829410791397 1.0 5 -0.08324383199214935
-2.4592297077178955 6.460378170013428 1.343677043914795 100.0 13 -0.0832415297627449
-0.8444493412971497 2.219527244567871 -0.12445490807294846 1.0 6 -0.08323922753334045
-2.4568190574645996 6.460827350616455 1.595802903175354 100.0 14 -0.08323691785335541
-2.415469169616699 6.355424880981445 -0.11867636442184448 1.0 7 -0.08323461562395096
-2.4449539184570312 6.4363861083984375 1.8448622226715088 47.0 15 -0.08323231339454651
-1.200765609741211 3.172708034515381 -0.9089725017547607 4.0 0 -0.08321157842874527
-0.798054575920105 2.109761953353882 0.039372626692056656 8.0 8 -0.08320926874876022
-0.7864629626274109 2.081313133239746 0.1166045218706131 2.0 9 -0.08320466428995132
-0.8272018432617188 2.1891252994537354 -0.4548886716365814 12.0 2 -0.08320236206054688
-0.7820713520050049 2.0707836151123047 0.19366006553173065 1.0 10 -0.08320005238056183
-0.88386070728302 2.3415400981903076 -0.3964049816131592 1.0 3 -0.08319775015115738
-2.440566301345825 6.469010353088379 0.8489419221878052 82.0 11 -0.08319544792175293
-0.8488653898239136 2.2512078285217285 -0.29541128873825073 3.0 4 -0.08319314569234848
-2.4417004585266113 6.478862762451172 1.096605658531189 69.0 12 -0.08319084346294403
-0.8621310591697693 2.28759765625 -0.21388019621372223 1.0 5 -0.08318853378295898
-2.4325129985809326 6.457899570465088 1.3413872718811035 95.0 13 -0.08318623155355453
-0.8366970419883728 2.222460985183716 -0.12445490807294846 1.0 6 -0.08318392932415009
-2.4356257915496826 6.473011493682861 1.5967026948928833 100.0 14 -0.08318162709474564
-0.8235668540000916 2.189901828765869 -0.040838632732629776 1.0 7 -0.08317931741476059
-2.421113967895508 6.441265106201172 1.8438270092010498 47.0 15 -0.08317701518535614
-1.1862951517105103 3.167834520339966 -0.906384289264679 5.0 0 -0.0831562802195549
-0.7892827987670898 2.1087894439697266 0.03930281847715378 8.0 8 -0.08315397799015045
-1.34576416015625 3.59749174118042 -0.8867571353912354 3.0 1 -0.0831516683101654
-0.772559404373169 2.0652029514312744 0.11555780470371246 2.0 9 -0.08314936608076096
-0.8181796669960022 2.188321828842163 -0.45412543416023254 14.0 2 -0.0831470638513565
-0.7748376131057739 2.0735013484954834 0.19366006553173065 1.0 10 -0.08314476162195206
-0.8660063147544861 2.3187034130096436 -0.39202481508255005 2.0 3 -0.08314245939254761
-2.4138035774230957 6.466331958770752 0.847479522228241 86.0 11 -0.08314014971256256
-0.8347563147544861 2.2374184131622314 -0.29321765899658203 3.0 4 -0.08313784748315811
-2.4188196659088135 6.483222961425781 1.0959800481796265 65.0 12 -0.08313554525375366
-0.8499642014503479 2.2793917655944824 -0.21283432841300964 1.0 5 -0.08313324302434921
-2.409954071044922 6.466351509094238 1.3413872718811035 95.0 13 -0.08313093334436417
-0.8331165909767151 2.236598253250122 -0.12508295476436615 1.0 6 -0.08312863111495972
-2.4068949222564697 6.465037822723389 1.5926536321640015 100.0 14 -0.08312632888555527
-0.8679289817810059 2.3312997817993164 -0.04342158883810043 1.0 7 -0.08312402665615082
-2.3997390270233154 6.449258804321289 1.8438270092010498 47.0 15 -0.08312171697616577
-1.1806001663208008 3.186447858810425 -0.9105254411697388 5.0 0 -0.08310098201036453
-0.7857595682144165 2.1207704544067383 0.03947734460234642 9.0 8 -0.08309867978096008
-1.3351794481277466 3.6055898666381836 -0.8876569271087646 3.0 1 -0.08309637755155563
-0.7632654309272766 2.062268018722534 0.11524379253387451 9.0 9 -0.08309407532215118
-0.8105364441871643 2.191164255142212 -0.45412543416023254 13.0 2 -0.08309176564216614
-0.7731226682662964 2.0911431312561035 0.1950545459985733 1.0 10 -0.08308946341276169
-0.8548868298530579 2.3122987747192383 -0.39046046137809753 2.0 3 -0.08308716118335724
-2.390972137451172 6.47057580947876 0.846992015838623 84.0 11 -0.08308485895395279
-0.8321467638015747 2.253209352493286 -0.2949238419532776 3.0 4 -0.08308254927396774
-2.3907032012939453 6.476800918579102 1.0934770107269287 78.0 12 -0.0830802470445633
-0.8364850878715515 2.2673912048339844 -0.2114398330450058 1.0 5 -0.08307794481515884
-2.3871400356292725 6.470623970031738 1.3406240940093994 97.0 13 -0.0830756425857544
-0.8312233090400696 2.2543399333953857 -0.12592032551765442 1.0 6 -0.08307333290576935
-2.3814010620117188 6.46201229095459 1.589954137802124 100.0 14 -0.0830710306763649
-0.8252290487289429 2.240492105484009 -0.041676346212625504 1.0 7 -0.08306872844696045
-2.3738763332366943 6.448530673980713 1.8412387371063232 45.0 15 -0.083066426217556
-1.1214691400527954 3.057943820953369 -0.8727378845214844 6.0 0 -0.08304569125175476
-0.7797287702560425 2.127255439758301 0.0395471528172493 9.0 8 -0.08304338157176971
-1.1141096353530884 3.0411553382873535 -0.7477373480796814 7.0 1 -0.08304107934236526
-0.7533146739006042 2.057417631149292 0.11482509225606918 11.0 9 -0.08303877711296082
-0.8012402057647705 2.188309669494629 -0.45298057794570923 11.0 2 -0.08303647488355637
-0.7634454965591431 2.0862109661102295 0.19435729086399078 1.0 10 -0.08303416520357132
-0.8603813052177429 2.352372169494629 -0.3967178463935852 2.0 3 -0.08303186297416687
-2.369732618331909 6.4826130867004395 0.847479522228241 88.0 11 -0.08302956074476242
-0.8181459903717041 2.239319086074829 -0.2927301824092865 3.0 4 -0.08302725851535797
-2.36401629447937 6.473972797393799 1.0915998220443726 78.0 12 -0.08302494883537292
-0.8627182841300964 2.3638792037963867 -0.22015538811683655 1.0 5 -0.08302264660596848
-2.3658833503723145 6.482605934143066 1.3413872718811035 97.0 13 -0.08302034437656403
-0.8301937580108643 2.2759907245635986 -0.12696704268455505 1.0 6 -0.08301804214715958
-2.358828067779541 6.4702863693237305 1.589954137802124 100.0 14 -0.08301573246717453
-2.3506927490234375 6.454962253570557 1.8407211303710938 46.0 15 -0.08301112800836563
-1.0970841646194458 3.0257105827331543 -0.862385094165802 36.0 0 -0.08299039304256439
-0.7695714831352234 2.1224448680877686 0.03940753638744354 9.0 8 -0.08298809081315994
-1.104150414466858 3.046858310699463 -0.748187243938446 67.0 1 -0.0829857811331749
-0.7515700459480286 2.0750577449798584 0.11566247045993805 9.0 9 -0.08298347890377045
-0.7952194809913635 2.1967694759368896 -0.45412543416023254 9.0 2 -0.082981176674366
-0.7530822157859802 2.0815012454986572 0.19366006553173065 1.0 10 -0.08297887444496155
-0.8389902114868164 2.3202147483825684 -0.39077335596084595 1.0 3 -0.0829765647649765
-2.345740795135498 6.487110614776611 0.846992015838623 88.0 11 -0.08297426253557205
-0.8157214522361755 2.257097005844116 -0.294680118560791 3.0 4 -0.0829719603061676
-2.340730905532837 6.480328559875488 1.0912868976593018 78.0 12 -0.08296965807676315
-2.33811092376709 6.480152606964111 1.3390976190567017 100.0 13 -0.08296504616737366
-0.802874743938446 2.2264115810394287 -0.12403623014688492 1.0 6 -0.08296274393796921
-2.3344383239746094 6.477054595947266 1.5895042419433594 100.0 14 -0.08296044170856476
-0.7756659388542175 2.15213680267334 -0.03993110731244087 1.0 7 -0.08295813947916031
-2.322906970977783 6.448588848114014 1.8365800380706787 46.0 15 -0.08295582979917526
-1.0878206491470337 3.03315806388855 -0.8634203672409058 24.0 0 -0.08293509483337402
-0.7611128091812134 2.123368263244629 0.039372626692056656 7.0 8 -0.08293279260396957
-1.0890328884124756 3.039876937866211 -0.7454878091812134 58.0 1 -0.08293049037456512
-0.7443225979804993 2.0776681900024414 0.11566247045993805 9.0 9 -0.08292818069458008
-0.7875469326972961 2.1995317935943604 -0.45412543416023254 10.0 2 -0.08292587846517563
-0.7484973669052124 2.091620683670044 0.19435729086399078 1.0 10 -0.08292357623577118
-0.8335474133491516 2.330568790435791 -0.39202481508255005 2.0 3 -0.08292127400636673
-2.3179378509521484 6.484449863433838 0.8455295562744141 86.0 11 -0.08291896432638168
-0.8101152181625366 2.2675487995147705 -0.2956550419330597 3.0 4 -0.08291666209697723
-2.3174331188201904 6.486598968505859 1.0909740924835205 76.0 12 -0.08291435986757278
-0.8220758438110352 2.302295446395874 -0.21388019621372223 1.0 5 -0.08291205763816833
-2.3101961612701416 6.473483085632324 1.3360446691513062 92.0 13 -0.08290975540876389
-0.80851811170578 2.2668237686157227 -0.12612967193126678 1.0 6 -0.08290744572877884
-2.3118162155151367 6.48516321182251 1.5895042419433594 100.0 14 -0.08290514349937439
-0.8017221689224243 2.2490108013153076 -0.041676346212625504 1.0 7 -0.08290284126996994
-2.3003814220428467 6.456658363342285 1.8365800380706787 46.0 15 -0.08290053904056549
-1.0772254467010498 3.0369372367858887 -0.8634203672409058 15.0 0 -0.08287979662418365
-0.7547352313995361 2.127765655517578 0.03940753638744354 4.0 8 -0.0828774943947792
-1.0756897926330566 3.034288167953491 -0.7432383298873901 58.0 1 -0.08287519216537476
-0.7383992075920105 2.084019184112549 0.11587180942296982 3.0 9 -0.0828728899359703
-0.7798638343811035 2.202267646789551 -0.45412543416023254 9.0 2 -0.08287058770656586
-0.7465091347694397 2.1092467308044434 0.19575178623199463 1.0 10 -0.08286827802658081
-0.840972363948822 2.3761508464813232 -0.3992207944393158 2.0 3 -0.08286597579717636
-2.2911274433135986 6.477128982543945 0.8435796499252319 86.0 11 -0.08286367356777191
-0.7946507930755615 2.2477641105651855 -0.2927301824092865 3.0 4 -0.08286137133836746
-2.2954325675964355 6.496511936187744 1.0912868976593018 78.0 12 -0.08285906165838242
-0.8113799691200256 2.2976362705230713 -0.2131829410791397 1.0 5 -0.08285675942897797
-2.290025234222412 6.4848103523254395 1.3368079662322998 95.0 13 -0.08285445719957352
-0.7877014875411987 2.2318248748779297 -0.12403623014688492 1.0 6 -0.08285215497016907
-2.2864065170288086 6.481767654418945 1.5868048667907715 100.0 14 -0.08284984529018402
-2.2752628326416016 6.45736026763916 1.8345094919204712 46.0 15 -0.08284524083137512
-1.066509485244751 3.0386695861816406 -0.8629027009010315 6.0 0 -0.08282450586557388
-0.7446560859680176 2.1228389739990234 0.03926791250705719 4.0 8 -0.08282220363616943
-1.0612238645553589 3.0269904136657715 -0.7405388951301575 60.0 1 -0.08281989395618439
-0.731781005859375 2.0884687900543213 0.1159764900803566 2.0 9 -0.08281759172677994
-0.7732061743736267 2.2066943645477295 -0.45450708270072937 9.0 2 -0.08281528949737549
-0.7368768453598022 2.1041886806488037 0.1950545459985733 1.0 10 -0.08281298726797104
-0.8300632238388062 2.3716139793395996 -0.3979693353176117 2.0 3 -0.08281067758798599
-2.2698161602020264 6.488833904266357 0.8440670967102051 86.0 11 -0.08280837535858154
-0.790730893611908 2.2617673873901367 -0.2941926121711731 3.0 4 -0.0828060731291771
-2.268181800842285 6.491430759429932 1.0890969038009644 76.0 12 -0.08280377089977264
-0.830044686794281 2.37554931640625 -0.22015538811683655 1.0 5 -0.0828014612197876
-2.26737642288208 6.492763996124268 1.3368079662322998 92.0 13 -0.08279915899038315
-0.7799065709114075 2.23456072807312 -0.12403623014688492 1.0 6 -0.0827968567609787
-2.258633613586426 6.4749884605407715 1.5832055807113647 100.0 14 -0.08279455453157425
-2.253981351852417 6.468911647796631 1.8355448246002197 46.0 15 -0.08278994262218475
-1.0546284914016724 3.038724184036255 -0.8618674278259277 4.0 0 -0.08276920765638351
-0.7411727905273438 2.13676118850708 0.03947734460234642 3.0 8 -0.08276690542697906
-1.0525667667388916 3.0361998081207275 -0.7418886423110962 63.0 1 -0.08276460319757462
-0.7225242257118225 2.0853490829467773 0.11566247045993805 2.0 9 -0.08276229351758957
-0.7616416811943054 2.1982498168945312 -0.45221734046936035 9.0 2 -0.08275999128818512
-0.7321346402168274 2.114279270172119 0.19575178623199463 1.0 10 -0.08275768905878067
-0.817257821559906 2.3614296913146973 -0.39577925205230713 1.0 3 -0.08275538682937622
-2.247150421142578 6.496717929840088 0.8440670967102051 86.0 11 -0.08275307714939117
-0.7834790945053101 2.266390323638916 -0.29443636536598206 3.0 4 -0.08275077491998672
-2.2416396141052246 6.488105297088623 1.0872197151184082 76.0 12 -0.08274847269058228
-0.7957227230072021 2.303105592727661 -0.2131829410791397 1.0 5 -0.08274617046117783
-2.243415594100952 6.496928691864014 1.3360446691513062 97.0 13 -0.08274386078119278
-0.7786167860031128 2.2561495304107666 -0.12508295476436615 1.0 6 -0.08274155855178833
-2.237922430038452 6.48836088180542 1.5845552682876587 100.0 14 -0.08273925632238388
-2.226351022720337 6.462128162384033 1.8314036130905151 46.0 15 -0.08273464441299438
-1.0352369546890259 3.0168049335479736 -0.8546205163002014 1.0 0 -0.08271390944719315
-0.7311151623725891 2.1317691802978516 0.039337724447250366 5.0 8 -0.0827116072177887
-1.0394338369369507 3.032482147216797 -0.7400889992713928 61.0 1 -0.08270930498838425
-0.7210665941238403 2.1048636436462402 0.1166045218706131 1.0 9 -0.0827070027589798
-0.7596904635429382 2.2176103591918945 -0.4556518793106079 7.0 2 -0.08270469307899475
-0.7260411381721497 2.120591878890991 0.1961004137992859 1.0 10 -0.0827023908495903
-0.7987766861915588 2.334364175796509 -0.39077335596084595 1.0 3 -0.08270008862018585
-2.2231757640838623 6.500765800476074 0.8435796499252319 84.0 11 -0.0826977863907814
-0.7736375331878662 2.2634756565093994 -0.29370513558387756 2.0 4 -0.08269547671079636
-2.2183380126953125 6.494022369384766 1.0869067907333374 78.0 12 -0.0826931744813919
-0.7966946959495544 2.3322653770446777 -0.21562331914901733 1.0 5 -0.08269087225198746
-2.2181873321533203 6.497287750244141 1.3345181941986084 97.0 13 -0.08268857002258301
-0.7655773162841797 2.2437314987182617 -0.12424556910991669 1.0 6 -0.08268626034259796
-2.214632511138916 6.494287967681885 1.584105372428894 100.0 14 -0.08268395811319351
-0.7612114548683167 2.2334866523742676 -0.04118768125772476 1.0 7 -0.08268165588378906
-2.2012901306152344 6.462545394897461 1.8293330669403076 46.0 15 -0.08267935365438461
-1.0222182273864746 3.013082504272461 -0.8525499701499939 2.0 0 -0.08265861868858337
-0.7255962491035461 2.139989137649536 0.03944243863224983 7.0 8 -0.08265630900859833
-1.0250886678695679 3.0250182151794434 -0.7373896241188049 63.0 1 -0.08265400677919388
-0.7252475023269653 2.14141845703125 0.1184886172413826 1.0 9 -0.08265170454978943
-0.7487965226173401 2.2109508514404297 -0.4537437856197357 6.0 2 -0.08264940232038498
-0.7224676012992859 2.1344363689422607 0.19714628159999847 1.0 10 -0.08264709264039993
-0.7842927575111389 2.3184266090393066 -0.3876446485519409 1.0 3 -0.08264479041099548
-2.1966569423675537 6.497202396392822 0.8421172499656677 84.0 11 -0.08264248818159103
-0.765731155872345 2.266162633895874 -0.29370513558387756 3.0 4 -0.08264018595218658
-2.196286201477051 6.503597736358643 1.0872197151184082 81.0 12 -0.08263787627220154
-0.7885480523109436 2.3350322246551514 -0.21562331914901733 1.0 5 -0.08263557404279709
-2.1904726028442383 6.490108489990234 1.331465244293213 97.0 13 -0.08263327181339264
-0.7743374705314636 2.295595169067383 -0.12696704268455505 1.0 6 -0.08263096958398819
-2.1913256645202637 6.500133514404297 1.583655595779419 100.0 14 -0.08262866735458374
-2.1799495220184326 6.473852157592773 1.8303683996200562 46.0 15 -0.08262405544519424
-1.0153791904449463 3.0276222229003906 -0.8556557893753052 4.0 0 -0.082603320479393
-0.72066330909729 2.1500935554504395 0.039582058787345886 7.0 8 -0.08260101824998856
-1.0120478868484497 3.021186590194702 -0.7355900406837463 64.0 1 -0.08259870857000351
-0.7443984746932983 2.223482370376587 0.1228848323225975 1.0 9 -0.08259640634059906
-0.7485530972480774 2.2358920574188232 -0.45832324028015137 6.0 2 -0.08259410411119461
-2.181703567504883 6.52042293548584 0.6015489101409912 16.0 10 -0.08259180188179016
-0.7837132811546326 2.343630790710449 -0.391399085521698 1.0 3 -0.08258949220180511
-2.171445369720459 6.497300624847412 0.8411422967910767 82.0 11 -0.08258718997240067
-0.7641055583953857 2.2876498699188232 -0.2961425185203552 2.0 4 -0.08258488774299622
-2.173572540283203 6.511224269866943 1.0872197151184082 81.0 12 -0.08258258551359177
-0.7740842700004578 2.3188717365264893 -0.21388019621372223 1.0 5 -0.08258028328418732
-2.1653177738189697 6.490267276763916 1.3299387693405151 100.0 13 -0.08257797360420227
-0.7701107263565063 2.309652328491211 -0.12759508192539215 1.0 6 -0.08257567137479782
-2.1636950969696045 6.4929518699646 1.5800563097000122 100.0 14 -0.08257336914539337
-0.7632923722267151 2.2918689250946045 -0.042165014892816544 1.0 7 -0.08257106691598892
-2.1555092334747314 6.475922107696533 1.8288154602050781 46.0 15 -0.08256875723600388
-1.0096681118011475 3.0458176136016846 -0.859796941280365 25.0 0 -0.08254802227020264
-0.7175562977790833 2.1658835411071777 0.03982638940215111 3.0 8 -0.08254572004079819
-1.0021088123321533 3.026550531387329 -0.7360398769378662 67.0 1 -0.08254341781139374
-0.7345765233039856 2.2198524475097656 -0.45450708270072937 6.0 2 -0.08253880590200424
-2.160182237625122 6.5317816734313965 0.6018975377082825 76.0 10 -0.08253650367259979
-0.7780079245567322 2.3538544178009033 -0.3926505744457245 2.0 3 -0.08253420144319534
-2.147505283355713 6.501070976257324 0.8406547904014587 84.0 11 -0.0825318992137909
-0.7536267042160034 2.2827630043029785 -0.29516759514808655 3.0 4 -0.08252958953380585
-2.147737503051758 6.509392261505127 1.0856553316116333 83.0 12 -0.0825272873044014
-0.7572457194328308 2.2950706481933594 -0.2114398330450058 1.0 5 -0.08252498507499695
-2.146336555480957 6.508973121643066 1.332228422164917 100.0 13 -0.0825226828455925
-0.7470398545265198 2.266800880432129 -0.12508295476436615 1.0 6 -0.08252037316560745
-2.136141777038574 6.485657691955566 1.576457142829895 100.0 14 -0.082518070936203
-0.7377803921699524 2.24133563041687 -0.04118768125772476 1.0 7 -0.08251576870679855
-2.134096622467041 6.4870781898498535 1.829850673675537 46.0 15 -0.0825134664773941
-0.9984278678894043 3.047487735748291 -0.8592792749404907 38.0 0 -0.08249273151159286
-0.7043908834457397 2.1512715816497803 0.03951225057244301 2.0 8 -0.08249042183160782
-0.7288575768470764 2.2286250591278076 0.1228848323225975 1.0 9 -0.08248581737279892
-0.7274329662322998 2.224269390106201 -0.4548886716365814 5.0 2 -0.08248351514339447
-2.1367483139038086 6.537389278411865 0.6017232537269592 88.0 10 -0.08248120546340942
-0.7722395658493042 2.3640668392181396 -0.3939020335674286 1.0 3 -0.08247890323400497
-2.126032590866089 6.512301921844482 0.8411422967910767 86.0 11 -0.08247660100460052
-0.7481160759925842 2.292928695678711 -0.2961425185203552 2.0 4 -0.08247429877519608
-2.121326446533203 6.505581378936768 1.0837781429290771 83.0 12 -0.08247198909521103
-0.7801125049591064 2.392411470413208 -0.22015538811683655 1.0 5 -0.08246968686580658
-2.122387409210205 6.512691974639893 1.331465244293213 100.0 13 -0.08246738463640213
-0.7341750264167786 2.254201889038086 -0.12424556910991669 1.0 6 -0.08246508240699768
-2.114090919494629 6.494927406311035 1.5769069194793701 100.0 14 -0.08246277272701263
-2.1066625118255615 6.479789733886719 1.825709581375122 46.0 15 -0.08245816826820374
-0.9889746904373169 3.0546300411224365 -0.8603145480155945 58.0 0 -0.0824374333024025
-0.6993401050567627 2.161327362060547 0.039651867002248764 1.0 8 -0.08243513107299805
-0.9833536148071289 3.0408897399902344 -0.7378395199775696 2.0 1 -0.082432821393013
-1.3131656646728516 4.063211917877197 0.2237885594367981 1.0 9 -0.08243051916360855
-0.721476137638092 2.2323992252349854 -0.45603352785110474 4.0 2 -0.0824282169342041
-2.1102426052093506 6.5334320068359375 0.6006773710250854 88.0 10 -0.08242591470479965
-0.7518457770347595 2.329151153564453 -0.3876446485519409 1.0 3 -0.0824236050248146
-2.102069854736328 6.515904426574707 0.8406547904014587 86.0 11 -0.08242130279541016
-0.7376716732978821 2.287968635559082 -0.29516759514808655 2.0 4 -0.0824190005660057
-2.097391366958618 6.509186744689941 1.083152413368225 83.0 12 -0.08241669833660126
-0.7717560529708862 2.395120143890381 -0.22015538811683655 1.0 5 -0.08241438865661621
-2.096031904220581 6.508848190307617 1.329175591468811 100.0 13 -0.08241208642721176
-0.7311974763870239 2.271960735321045 -0.12508295476436615 1.0 6 -0.08240978419780731
-2.0925981998443604 6.505978584289551 1.577806830406189 100.0 14 -0.08240748196840286
-2.0822596549987793 6.481585502624512 1.8241567611694336 46.0 15 -0.08240287005901337
-0.9841915965080261 3.0764636993408203 -0.8654909133911133 28.0 0 -0.08170318603515625
-0.6930097341537476 2.1675643920898438 0.03972167521715164 1.0 8 -0.0817008838057518
-1.2936043739318848 4.048519611358643 0.22274184226989746 1.0 9 -0.0816962718963623
-0.7136785984039307 2.2349042892456055 -0.45603352785110474 4.0 2 -0.08169396966695786
-2.0850024223327637 6.533165454864502 0.5999801158905029 90.0 10 -0.0816916674375534
-0.7437114119529724 2.331761121749878 -0.3876446485519409 1.0 3 -0.08168936520814896
-2.075693368911743 6.511854648590088 0.8391923308372498 84.0 11 -0.08168705552816391
-0.7373142838478088 2.313098669052124 -0.29809242486953735 3.0 4 -0.08168475329875946
-2.0769951343536377 6.519870281219482 1.0837781429290771 83.0 12 -0.08168245106935501
-2.0685348510742188 6.501158714294434 1.326122522354126 100.0 13 -0.08167783915996552
-0.728103756904602 2.2897260189056396 -0.12592032551765442 1.0 6 -0.08167553693056107
-2.0727851390838623 6.518453121185303 1.579156517982483 100.0 14 -0.08167323470115662
-0.7231409549713135 2.275494337081909 -0.041676346212625504 1.0 7 -0.08167093247175217
-2.0595831871032715 6.484773635864258 1.823121428489685 46.0 15 -0.08166862279176712
-0.9809752702713013 3.101813554763794 -0.8717026114463806 16.0 0 -0.08164788782596588
-0.6930493116378784 2.1927318572998047 0.040140535682439804 1.0 8 -0.08164558559656143
-0.7384092211723328 2.337665319442749 -0.5659768581390381 1.0 1 -0.08164328336715698
-1.2741568088531494 4.033741474151611 0.22169512510299683 1.0 9 -0.08164098113775253
-0.7086279392242432 2.2447471618652344 -0.4575599730014801 1.0 2 -0.08163867145776749
-2.063323974609375 6.54004430770874 0.5999801158905029 90.0 10 -0.08163636922836304
-0.7419154644012451 2.3530538082122803 -0.39077335596084595 1.0 3 -0.08163406699895859
-2.05289626121521 6.5149149894714355 0.8387048840522766 82.0 11 -0.08163176476955414
-0.7218844294548035 2.2909176349639893 -0.2949238419532776 3.0 4 -0.08162945508956909
-2.055957555770874 6.5286054611206055 1.0840909481048584 85.0 12 -0.08162715286016464
-0.7554361820220947 2.400317668914795 -0.22015538811683655 1.0 5 -0.08162485063076019
-2.0481443405151367 6.511727809906006 1.3268858194351196 100.0 13 -0.08162254840135574
-0.715715765953064 2.2768850326538086 -0.12508295476436615 1.0 6 -0.0816202387213707
-2.0453152656555176 6.506700038909912 1.5746575593948364 100.0 14 -0.08161793649196625
-0.7155916094779968 2.2778797149658203 -0.041676346212625504 1.0 7 -0.0816156342625618
-2.0403835773468018 6.4989399909973145 1.8251919746398926 46.0 15 -0.08161333203315735
-0.9954688549041748 3.184335708618164 -0.8939610123634338 1.0 0 -0.08159259706735611
-0.7190375924110413 2.3028974533081055 -0.5569788217544556 1.0 1 -0.08158798515796661
-1.262447476387024 4.0457916259765625 0.22211383283138275 1.0 9 -0.08158568292856216
-0.6902679204940796 2.213470697402954 -0.450690895318985 1.0 2 -0.08158338069915771
-2.0416266918182373 6.546850204467773 0.5999801158905029 90.0 10 -0.08158107101917267
-0.7317578196525574 2.3479573726654053 -0.38952183723449707 1.0 3 -0.08157876878976822
-2.0289175510406494 6.514106273651123 0.8377299904823303 84.0 11 -0.08157646656036377
-0.7239135503768921 2.3256452083587646 -0.2990674078464508 1.0 4 -0.08157416433095932
-2.0284602642059326 6.52065372467041 1.0815880298614502 85.0 12 -0.08157185465097427
-2.025400161743164 6.518838405609131 1.3268858194351196 100.0 13 -0.08156725019216537
-0.701840341091156 2.2602956295013428 -0.12403623014688492 1.0 6 -0.08156494796276093
-2.0202770233154297 6.5063557624816895 1.5728578567504883 100.0 14 -0.08156264573335648
-0.6993381977081299 2.2536261081695557 -0.04118768125772476 1.0 7 -0.08156033605337143
-2.0165395736694336 6.50233268737793 1.8241567611694336 46.0 15 -0.08155803382396698
-0.5508549809455872 1.7850373983383179 -0.5005560517311096 0.0 0 -0.08153729885816574
-1.2382041215896606 4.019850730895996 0.22043907642364502 1.0 9 -0.0815303847193718
-0.6879259943962097 2.2347495555877686 -0.45450708270072937 1.0 2 -0.08152808248996735
-2.014098882675171 6.5428643226623535 0.5989342331886292 93.0 10 -0.0815257802605629
-0.7150148153305054 2.324191093444824 -0.3851417005062103 1.0 3 -0.08152347058057785
-2.0073633193969727 6.529088020324707 0.8387048840522766 86.0 11 -0.0815211683511734
-0.7013912200927734 2.2827417850494385 -0.29321765899658203 1.0 4 -0.08151886612176895
-2.0022289752960205 6.5204901695251465 1.080336570739746 85.0 12 -0.0815165638923645
-2.001495122909546 6.526217460632324 1.3268858194351196 100.0 13 -0.081511951982975
-0.6900400519371033 2.2513949871063232 -0.12340819090604782 1.0 6 -0.08150964975357056
-1.9964178800582886 6.513716220855713 1.5728578567504883 100.0 14 -0.08150734752416611
-0.6852174401283264 2.237053871154785 -0.040838632732629776 1.0 7 -0.08150504529476166
-1.9904332160949707 6.50229024887085 1.822086215019226 46.0 15 -0.08150273561477661
-0.5426204800605774 1.781500220298767 -0.499003142118454 30.0 0 -0.08148200064897537
-0.5484375357627869 1.802858829498291 -0.43505537509918213 9.0 1 -0.08147739619016647
-1.2334641218185425 4.054721832275391 0.22211383283138275 1.0 9 -0.08147508651018143
-0.5487789511680603 1.805112600326538 -0.36673489212989807 0.0 2 -0.08147278428077698
-1.9877890348434448 6.542577266693115 0.5982369780540466 93.0 10 -0.08147048205137253
-0.6686124205589294 2.202045440673828 -0.36449235677719116 1.0 3 -0.08146817982196808
-1.9811122417449951 6.528803825378418 0.8377299904823303 84.0 11 -0.08146587759256363
-0.6861075162887573 2.2625012397766113 -0.29029279947280884 1.0 4 -0.08146356791257858
-1.9783111810684204 6.523658752441406 1.079710841178894 85.0 12 -0.08146126568317413
-0.6720520853996277 2.2175495624542236 -0.20272426307201385 1.0 5 -0.08145896345376968
-1.974147915840149 6.51813268661499 1.3238328695297241 100.0 13 -0.08145666122436523
-0.6821774244308472 2.2537899017333984 -0.12340819090604782 1.0 6 -0.08145435154438019
-1.9725286960601807 6.520990371704102 1.5728578567504883 100.0 14 -0.08145204931497574
-0.6716141700744629 2.22029185295105 -0.04048958420753479 1.0 7 -0.08144974708557129
-1.962132215499878 6.490707874298096 1.8169097900390625 47.0 15 -0.08144744485616684
-0.5402930974960327 1.7963335514068604 -0.5026265978813171 50.0 0 -0.081426702439785
-0.5390905141830444 1.793469786643982 -0.43235594034194946 45.0 1 -0.0814220979809761
-1.211259365081787 4.032223224639893 0.2206484079360962 1.0 9 -0.08141979575157166
-0.5340076088905334 1.7788118124008179 -0.3610106408596039 30.0 2 -0.0814174935221672
-1.964365005493164 6.547568321228027 0.5980626940727234 87.0 10 -0.08141518384218216
-0.5330190658569336 1.7766447067260742 -0.293783962726593 7.0 3 -0.08141288161277771
-1.9560319185256958 6.523928642272949 0.8362675309181213 86.0 11 -0.08141057938337326
-0.556668758392334 1.8578290939331055 -0.23813271522521973 0.0 4 -0.08140827715396881
-1.9566584825515747 6.534309387207031 1.080336570739746 85.0 12 -0.08140596747398376
-1.9502719640731812 6.517119407653809 1.3223063945770264 100.0 13 -0.08140136301517487
-0.6552423238754272 2.1909801959991455 -0.11984935402870178 1.0 6 -0.08139906078577042
-1.9514527320861816 6.529362201690674 1.573307752609253 100.0 14 -0.08139675110578537
-0.6455468535423279 2.161308765411377 -0.039372626692056656 1.0 7 -0.08139444887638092
-1.941674828529358 6.504920959472656 1.81898033618927 46.0 15 -0.08139214664697647
-0.5337833762168884 1.796263337135315 -0.5021089315414429 60.0 0 -0.08137141168117523
-0.5322719216346741 1.7934726476669312 -0.4319060444831848 54.0 1 -0.08136679977178574
-1.1869550943374634 4.001959323883057 0.2187643200159073 1.0 9 -0.08136449754238129
-0.5303393006324768 1.7881015539169312 -0.36253711581230164 63.0 2 -0.08136219531297684
-1.942076563835144 6.552134990692139 0.5978883504867554 90.0 10 -0.08135989308357239
-0.5256916284561157 1.774706482887268 -0.29315823316574097 52.0 3 -0.08135758340358734
-1.9321215152740479 6.526909351348877 0.8357800245285034 86.0 11 -0.08135528117418289
-0.5321605205535889 1.7988474369049072 -0.23033307492733002 38.0 4 -0.08135297894477844
-1.9338359832763672 6.541100025177002 1.080336570739746 88.0 12 -0.08135067671537399
-0.5258926153182983 1.7788044214248657 -0.1622839868068695 2.0 5 -0.08134836703538895
-1.926399827003479 6.5201215744018555 1.3215430974960327 100.0 13 -0.0813460648059845
-0.5322121381759644 1.8024907112121582 -0.09849628061056137 0.0 6 -0.08134376257658005
-1.9253382682800293 6.52492094039917 1.570608377456665 100.0 14 -0.0813414603471756
-0.6323429942131042 2.1443684101104736 -0.03902358189225197 1.0 7 -0.08133915066719055
-1.9200471639633179 6.515366077423096 1.8200156688690186 46.0 15 -0.0813368484377861
-0.528053343296051 1.7999695539474487 -0.5026265978813171 73.0 0 -0.08131611347198486
-0.5238170027732849 1.7878390550613403 -0.43010643124580383 73.0 1 -0.08131150901317596
-0.5224389433860779 1.7842895984649658 -0.3613922595977783 65.0 2 -0.08130689710378647
-1.91863214969635 6.556962490081787 0.5977140665054321 85.0 10 -0.08130459487438202
-0.5233748555183411 1.7898024320602417 -0.29534831643104553 80.0 3 -0.08130229264497757
-1.91155207157135 6.54123592376709 0.8367549777030945 84.0 11 -0.08129998296499252
-0.5230951905250549 1.7911666631698608 -0.2291143834590912 100.0 4 -0.08129768073558807
-1.906565546989441 6.532639980316162 1.077833652496338 85.0 12 -0.08129537850618362
-0.5258207321166992 1.8016678094863892 -0.16420140862464905 67.0 5 -0.08129307627677917
-1.9036269187927246 6.526806831359863 1.3215430974960327 100.0 13 -0.08129076659679413
-0.5236809849739075 1.7966679334640503 -0.09807758778333664 30.0 6 -0.08128846436738968
-1.8981919288635254 6.5166335105896 1.5670092105865479 100.0 14 -0.08128616213798523
-0.5169851183891296 1.7760024070739746 -0.032286953181028366 5.0 7 -0.08128385990858078
-1.8962147235870361 6.518317699432373 1.81898033618927 46.0 15 -0.08128155767917633
-0.519080638885498 1.7925236225128174 -0.5000383853912354 76.0 0 -0.0812608152627945
-0.5230890512466431 1.8075463771820068 0.032845430076122284 3.0 8 -0.08125851303339005
-0.5186562538146973 1.7934006452560425 -0.4310062527656555 84.0 1 -0.0812562108039856
-0.5293500423431396 1.8303773403167725 0.09985701739788055 0.0 9 -0.08125390857458115
-0.5145725607872009 1.7804441452026367 -0.360247403383255 83.0 2 -0.0812515988945961
-1.8957339525222778 6.563619136810303 0.5977140665054321 96.0 10 -0.08124929666519165
-0.5193156599998474 1.7992099523544312 -0.29659977555274963 85.0 3 -0.0812469944357872
-1.8865081071853638 6.540239334106445 0.8357800245285034 86.0 11 -0.08124469220638275
-0.5162902474403381 1.7910741567611694 -0.22887064516544342 92.0 4 -0.0812423825263977
-1.8848931789398193 6.538926124572754 1.077833652496338 88.0 12 -0.08124008029699326
-0.5151167511940002 1.7881759405136108 -0.1628069132566452 93.0 5 -0.0812377780675888
-1.8830065727233887 6.540958404541016 1.32306969165802 100.0 13 -0.08123547583818436
-0.5140935182571411 1.7869683504104614 -0.09744956344366074 78.0 6 -0.08123317360877991
-1.875972867012024 6.525092124938965 1.5674591064453125 100.0 14 -0.08123086392879486
-0.5083304643630981 1.7680975198745728 -0.032112427055835724 53.0 7 -0.08122856169939041
-1.8713860511779785 6.513429641723633 1.815874457359314 46.0 15 -0.08122625946998596
-0.5106973648071289 1.786894679069519 -0.4979678690433502 81.0 0 -0.08120552450418472
-0.5077507495880127 1.7765847444534302 0.03225204721093178 60.0 8 -0.08120321482419968
-0.5137761235237122 1.798858404159546 -0.4319060444831848 84.0 1 -0.08120091259479523
-0.5119936466217041 1.7938028573989868 0.09776357561349869 45.0 9 -0.08119861036539078
-0.5088924169540405 1.784117579460144 -0.36062902212142944 87.0 2 -0.08119630813598633
-1.8678936958312988 6.552952766418457 0.5961452722549438 90.0 10 -0.08119399845600128
-0.5100969076156616 1.7895240783691406 -0.2947225570678711 100.0 3 -0.08119169622659683
-1.8658952713012695 6.5502777099609375 0.8362675309181213 86.0 11 -0.08118939399719238
-0.5108909606933594 1.7946858406066895 -0.2291143834590912 84.0 4 -0.08118709176778793
-1.8598930835723877 6.537866592407227 1.0765821933746338 88.0 12 -0.08118478953838348
-0.5072367787361145 1.784213900566101 -0.1622839868068695 91.0 5 -0.08118247985839844
-1.8559350967407227 6.528282642364502 1.3192534446716309 100.0 13 -0.08118017762899399
-0.5141684412956238 1.809796929359436 -0.09860094636678696 100.0 6 -0.08117787539958954
-1.8559194803237915 6.536901950836182 1.5688087940216064 100.0 14 -0.08117557317018509
-0.5065216422080994 1.785251498222351 -0.03239166736602783 93.0 7 -0.08117326349020004
-1.8454781770706177 6.508770942687988 1.812768578529358 47.0 15 -0.0811709612607956
-0.5058178901672363 1.7922970056533813 -0.499003142118454 78.0 0 -0.08115022629499435
-0.49937450885772705 1.7706478834152222 0.032112427055835724 100.0 8 -0.0811479240655899
-0.5069655179977417 1.7987650632858276 -0.43145614862442017 88.0 1 -0.08114561438560486
-0.5062708854675293 1.7975016832351685 0.09786824882030487 100.0 9 -0.08114331215620041
-0.5029736757278442 1.7857952117919922 -0.36062902212142944 87.0 2 -0.08114100992679596
-1.8450748920440674 6.555274963378906 0.5957966446876526 90.0 10 -0.08113870769739151
-0.501173198223114 1.7817856073379517 -0.29315823316574097 100.0 3 -0.08113640546798706
-1.8387231826782227 6.541462421417236 0.8343175649642944 86.0 11 -0.08113409578800201
-0.5040868520736694 1.7945470809936523 -0.22887064516544342 85.0 4 -0.08113179355859756
-1.8381294012069702 6.548122406005859 1.0772078037261963 88.0 12 -0.08112949132919312
-0.4997023046016693 1.7801313400268555 -0.1617610603570938 84.0 5 -0.08112718909978867
-1.8310158252716064 6.527159214019775 1.317726969718933 100.0 13 -0.08112487941980362
-0.49976155161857605 1.782733678817749 -0.097030870616436 90.0 6 -0.08112257719039917
-1.8330914974212646 6.543339729309082 1.5688087940216064 100.0 14 -0.08112027496099472
-0.5024436712265015 1.7947113513946533 -0.032531287521123886 100.0 7 -0.08111797273159027
-1.8227484226226807 6.515172958374023 1.812768578529358 47.0 15 -0.08111566305160522
-0.4995589256286621 1.7940515279769897 -0.499003142118454 78.0 0 -0.08109492808580399
-0.4921182096004486 1.7685275077819824 0.032042618840932846 100.0 8 -0.08109262585639954
-0.495463103055954 1.7817487716674805 -0.4269571304321289 87.0 1 -0.08109032362699509
-0.4967842996120453 1.7877118587493896 0.09724021703004837 100.0 9 -0.08108802139759064
-0.4988391399383545 1.7951064109802246 -0.3621554970741272 87.0 2 -0.08108571171760559
-1.8243122100830078 6.569355010986328 0.5964938998222351 90.0 10 -0.08108340948820114
-0.49600744247436523 1.7873311042785645 -0.293783962726593 100.0 3 -0.08108110725879669
-1.8137543201446533 6.540189743041992 0.8333426117897034 86.0 11 -0.08107880502939224
-0.4951682984828949 1.7867308855056763 -0.2276519387960434 89.0 4 -0.0810764953494072
-1.8152623176574707 6.554498672485352 1.0772078037261963 88.0 12 -0.08107419312000275
-0.49720820784568787 1.7953054904937744 -0.16298124194145203 88.0 5 -0.0810718908905983
-1.809790015220642 6.539187908172607 1.3188718557357788 100.0 13 -0.08106958866119385
-0.494067519903183 1.7863924503326416 -0.09713554382324219 100.0 6 -0.0810672789812088
-1.8066072463989258 6.536550045013428 1.565659523010254 100.0 14 -0.08106497675180435
-0.49883729219436646 1.8060919046401978 -0.03270580992102623 100.0 7 -0.0810626745223999
-1.7999931573867798 6.521496295928955 1.812768578529358 46.0 15 -0.08106037229299545
-0.4953398108482361 1.8032358884811401 -0.5010737180709839 78.0 0 -0.08103963732719421
-0.4870009124279022 1.7740910053253174 0.032112427055835724 100.0 8 -0.08103732764720917
-0.4892401099205017 1.783467411994934 -0.4269571304321289 87.0 1 -0.08103502541780472
-0.49054139852523804 1.7894350290298462 0.09724021703004837 100.0 9 -0.08103272318840027
-0.4884180724620819 1.7816894054412842 -0.3591025471687317 87.0 2 -0.08103042095899582
-1.8013710975646973 6.575682163238525 0.5964938998222351 93.0 10 -0.08102811127901077
-0.49028652906417847 1.790956974029541 -0.29409682750701904 100.0 3 -0.08102580904960632
-1.790391206741333 6.5445661544799805 0.8330988883972168 88.0 11 -0.08102350682020187
-0.48892882466316223 1.7884483337402344 -0.2276519387960434 86.0 4 -0.08102120459079742
-1.789246678352356 6.549362659454346 1.0753307342529297 88.0 12 -0.08101889491081238
-0.4893626868724823 1.791264295578003 -0.16245830059051514 93.0 5 -0.08101659268140793
-1.7843692302703857 6.535995960235596 1.316963791847229 100.0 13 -0.08101429045200348
-0.4862522482872009 1.7823256254196167 -0.09682153165340424 78.0 6 -0.08101198822259903
-1.7807022333145142 6.53153657913208 1.5629600286483765 100.0 14 -0.08100967854261398
-0.48149168491363525 1.7673053741455078 -0.03197281062602997 100.0 7 -0.08100737631320953
-1.777219533920288 6.52773904800415 1.812768578529358 47.0 15 -0.08100507408380508
-0.4860115051269531 1.7937661409378052 -0.4979678690433502 81.0 0 -0.08098433911800385
-0.4808056056499481 1.7757800817489624 0.032112427055835724 100.0 8 -0.0809820368885994
-0.4850470721721649 1.7926889657974243 -0.4287567436695099 87.0 1 -0.08097972720861435
-0.4842924475669861 1.791136384010315 0.09724021703004837 100.0 9 -0.0809774249792099
-0.4811713695526123 1.7795931100845337 -0.3583393096923828 90.0 2 -0.08097512274980545
-1.773730754852295 6.564619064331055 0.5949251055717468 87.0 10 -0.080972820520401
-0.48557624220848083 1.798378825187683 -0.2950354218482971 100.0 3 -0.08097051084041595
-1.7706398963928223 6.562274932861328 0.8345613479614258 88.0 11 -0.0809682086110115
-0.4806162118911743 1.7824774980545044 -0.22667700052261353 89.0 4 -0.08096590638160706
-1.7632887363433838 6.544124126434326 1.073453426361084 88.0 12 -0.0809636041522026
-0.4810331463813782 1.785266637802124 -0.1617610603570938 89.0 5 -0.08096129447221756
-1.7615448236465454 6.542184352874756 1.316963791847229 100.0 13 -0.08095899224281311
-0.4836607873439789 1.7975126504898071 -0.09755422919988632 41.0 6 -0.08095669001340866
-1.7583962678909302 6.5395941734313965 1.5634099245071411 100.0 14 -0.08095438778400421
-0.47324442863464355 1.761250376701355 -0.031833190470933914 100.0 7 -0.08095208555459976
-1.750412940979004 6.518977642059326 1.8086276054382324 62.0 15 -0.08094977587461472
-0.47874924540519714 1.7917191982269287 -0.49693259596824646 81.0 0 -0.08092904090881348
-0.47202417254447937 1.7677876949310303 0.03193790465593338 100.0 8 -0.08092673867940903
-0.4797916114330292 1.7981367111206055 -0.4296565353870392 87.0 1 -0.08092443645000458
-0.47752219438552856 1.7908860445022583 0.09713554382324219 100.0 9 -0.08092212677001953
-0.4759675860404968 1.7850557565689087 -0.3591025471687317 90.0 2 -0.08091982454061508
-1.7477256059646606 6.559219837188721 0.593879222869873 85.0 10 -0.08091752231121063
-0.4787878692150116 1.7981537580490112 -0.2947225570678711 100.0 3 -0.08091522008180618
-1.7466996908187866 6.564579010009766 0.8340738415718079 88.0 11 -0.08091291040182114
-0.4774513840675354 1.7956551313400269 -0.22813943028450012 86.0 4 -0.08091060817241669
-1.74043607711792 6.550239086151123 1.073453426361084 85.0 12 -0.08090830594301224
-0.4737755358219147 1.7830836772918701 -0.16141243278980255 89.0 5 -0.08090600371360779
-1.7376883029937744 6.544498443603516 1.3162004947662354 100.0 13 -0.08090370148420334
-0.47943174839019775 1.8069120645523071 -0.09797292202711105 31.0 6 -0.08090139180421829
-1.7375571727752686 6.553226470947266 1.5652095079421997 100.0 14 -0.08089908957481384
-1.7246814966201782 6.513842582702637 1.8055217266082764 63.0 15 -0.08089448511600494
-0.4734767973423004 1.797115445137024 -0.4979678690433502 81.0 0 -0.08087374269962311
-0.46954581141471863 1.7847235202789307 -0.4260573089122772 85.0 1 -0.08086913824081421
-0.47533103823661804 1.807995080947876 0.09797292202711105 40.0 9 -0.08086683601140976
-0.4707324802875519 1.790503740310669 -0.35986578464508057 90.0 2 -0.08086453378200531
-1.7263391017913818 6.571061134338379 0.5944021344184875 90.0 10 -0.08086222410202026
-0.46949902176856995 1.7883503437042236 -0.29284536838531494 100.0 3 -0.08085992187261581
-1.7197461128234863 6.5552754402160645 0.8321239948272705 92.0 11 -0.08085761964321136
-0.47269102931022644 1.8030712604522705 -0.22887064516544342 85.0 4 -0.08085531741380692
-1.7190642356872559 6.562006950378418 1.0743920803070068 89.0 12 -0.08085300773382187
-0.4665391147136688 1.7808717489242554 -0.1610638052225113 91.0 5 -0.08085070550441742
-1.7118480205535889 6.539129257202148 1.313910722732544 100.0 13 -0.08084840327501297
-0.4711000323295593 1.8008453845977783 -0.09755422919988632 30.0 6 -0.08084610104560852
-1.7127015590667725 6.55171012878418 1.5634099245071411 100.0 14 -0.08084379136562347
-0.4680120050907135 1.7915983200073242 -0.032321859151124954 11.0 7 -0.08084148913621902
-1.703883409500122 6.5273003578186035 1.8075922727584839 63.0 15 -0.08083918690681458
-0.46817249059677124 1.8024967908859253 -0.499003142118454 81.0 0 -0.08081845194101334
-0.46419259905815125 1.7884600162506104 0.03225204721093178 12.0 8 -0.08081614971160889
-0.46429112553596497 1.790124535560608 -0.4269571304321289 87.0 1 -0.08081384003162384
-0.4663238227367401 1.7979618310928345 0.09734489023685455 30.0 9 -0.08081153780221939
-0.46447908878326416 1.7921361923217773 -0.35986578464508057 87.0 2 -0.08080923557281494
-1.7043886184692383 6.580905437469482 0.5947507619857788 90.0 10 -0.08080693334341049
-0.4632532000541687 1.7899785041809082 -0.29284536838531494 100.0 3 -0.08080462366342545
-1.6938693523406982 6.549707412719727 0.8306615352630615 90.0 11 -0.080802321434021
-0.4609301686286926 1.7835688591003418 -0.226189523935318 82.0 4 -0.08080001920461655
-1.693338394165039 6.552371501922607 1.071889042854309 87.0 12 -0.0807977169752121
-0.46131575107574463 1.78634774684906 -0.16141243278980255 93.0 5 -0.08079540729522705
-1.690975546836853 6.552668571472168 1.3154373168945312 100.0 13 -0.0807931050658226
-0.4658079743385315 1.8063470125198364 -0.09776357561349869 38.0 6 -0.08079080283641815
-1.6878745555877686 6.550100803375244 1.5616103410720825 100.0 14 -0.0807885006070137
-0.46306660771369934 1.797013282775879 -0.03239166736602783 11.0 7 -0.08078619092702866
-1.683193564414978 6.536655902862549 1.8086276054382324 62.0 15 -0.0807838886976242
-0.4618772864341736 1.8041200637817383 -0.499003142118454 78.0 0 -0.08076315373182297
-0.4567718207836151 1.7841778993606567 0.03214733302593231 12.0 8 -0.08076085150241852
-0.4583526849746704 1.7916542291641235 -0.4269571304321289 89.0 1 -0.08075854927301407
-0.4560878872871399 1.7840981483459473 0.09650751203298569 29.0 9 -0.08075623959302902
-0.4562772512435913 1.7861379384994507 -0.3583393096923828 90.0 2 -0.08075393736362457
-1.680422306060791 6.582953453063965 0.5944021344184875 93.0 10 -0.08075163513422012
-0.4582923352718353 1.7953325510025024 -0.293471097946167 100.0 3 -0.08074933290481567
-1.6721417903900146 6.555288314819336 0.8306615352630615 88.0 11 -0.08074702322483063
-0.454032838344574 1.7812402248382568 -0.22570204734802246 82.0 4 -0.08074472099542618
-1.6675318479537964 6.546755790710449 1.070011854171753 86.0 12 -0.08074241876602173
-0.45409491658210754 1.7840853929519653 -0.1610638052225113 96.0 5 -0.08074011653661728
-1.670690894126892 6.563947677612305 1.3165820837020874 100.0 13 -0.08073780685663223
-0.4588311016559601 1.8040103912353516 -0.09755422919988632 36.0 6 -0.08073550462722778
-1.6642255783081055 6.548106670379639 1.559810757637024 100.0 14 -0.08073320239782333
-0.45383715629577637 1.7869898080825806 -0.0321822389960289 13.0 7 -0.08073090016841888
-1.6594170331954956 6.538746356964111 1.8075922727584839 63.0 15 -0.08072859048843384
-0.45399990677833557 1.7981497049331665 -0.49693259596824646 81.0 0 -0.0807078555226326
-0.45200812816619873 1.7915782928466797 0.03225204721093178 11.0 8 -0.08070555329322815
-0.45209622383117676 1.793243169784546 -0.4269571304321289 87.0 1 -0.0807032510638237
-0.45261073112487793 1.7952839136123657 0.097030870616436 32.0 9 -0.08070094883441925
-0.45035120844841003 1.787641167640686 -0.3583393096923828 90.0 2 -0.0806986391544342
-1.657122254371643 6.582693576812744 0.593879222869873 85.0 10 -0.08069633692502975
-0.4539506435394287 1.8045841455459595 -0.2947225570678711 100.0 3 -0.0806940346956253
-1.650699496269226 6.566861152648926 0.831392765045166 88.0 11 -0.08069173246622086
-0.44926267862319946 1.7885903120040894 -0.22643324732780457 85.0 4 -0.08068942278623581
-1.6453298330307007 6.550334930419922 1.0696990489959717 87.0 12 -0.08068712055683136
-0.4472064673900604 1.7817165851593018 -0.16071519255638123 96.0 5 -0.08068481832742691
-1.6453784704208374 6.560218334197998 1.3146740198135376 100.0 13 -0.08068251609802246
-0.4539873003959656 1.8114131689071655 -0.09786824882030487 30.0 6 -0.08068020641803741
-1.6408863067626953 6.551985263824463 1.5593607425689697 100.0 14 -0.08067790418863297
-0.44839581847190857 1.7904244661331177 -0.03221714124083519 12.0 7 -0.08067560195922852
-1.6358468532562256 6.536717414855957 1.8055217266082764 63.0 15 -0.08067329972982407
-0.4467880427837372 1.7959740161895752 -0.4958973228931427 78.0 0 -0.08065256476402283
-0.44365113973617554 1.7833645343780518 0.032077521085739136 12.0 8 -0.08065025508403778
-0.4470868706703186 1.79851496219635 -0.4278569221496582 85.0 1 -0.08064795285463333
-0.44634076952934265 1.796852946281433 0.097030870616436 32.0 9 -0.08064565062522888
-0.4441088140010834 1.7892022132873535 -0.3583393096923828 90.0 2 -0.08064334839582443
-1.6312578916549683 6.576834678649902 0.5928333401679993 85.0 10 -0.08064103871583939
-0.44606125354766846 1.798410415649414 -0.293471097946167 100.0 3 -0.08063873648643494
-1.631302833557129 6.581932544708252 0.8326114416122437 94.0 11 -0.08063643425703049
-0.44571545720100403 1.7997045516967773 -0.2276519387960434 86.0 4 -0.08063413202762604
-1.6200804710388184 6.546450614929199 1.0681346654891968 85.0 12 -0.08063182234764099
-0.44002729654312134 1.7793984413146973 -0.16036656498908997 91.0 5 -0.08062952011823654
-1.6240874528884888 6.567543983459473 1.3150556087493896 100.0 13 -0.08062721788883209
-0.4470200538635254 1.8090306520462036 -0.0976589024066925 22.0 6 -0.08062491565942764
-1.6186779737472534 6.555500030517578 1.558910846710205 100.0 14 -0.0806226134300232
-0.4426218569278717 1.7939202785491943 -0.03225204721093178 14.0 7 -0.08062030375003815
-1.6111711263656616 6.534884452819824 1.8034511804580688 63.0 15 -0.0806180015206337
-0.4417497217655182 1.8011982440948486 -0.49693259596824646 81.0 0 -0.08059726655483246
-0.4350438416004181 1.7751911878585815 0.03190299868583679 13.0 8 -0.08059496432542801
-0.4389524757862091 1.792493224143982 -0.4260573089122772 87.0 1 -0.08059265464544296
-0.4400654137134552 1.7984001636505127 0.097030870616436 38.0 9 -0.08059035241603851
-0.44003918766975403 1.798293113708496 -0.35986578464508057 90.0 2 -0.08058805018663406
